# .PCD v0.7 - Point Cloud Data file format
VERSION 0.7
FIELDS x y z
SIZE 4 4 4
TYPE F F F
COUNT 1 1 1
WIDTH 1697
HEIGHT 1
VIEWPOINT 0 0 0 1 0 0 0
POINTS 1697
DATA ascii
-1.8899891 3.6893488e+19 2.2711053
3.6893488e+19 3.0624342 -1.0842022e-19
1.8694388 1.0842022e-19 2.2699277
-2 3.0539389 2
-1.8900373 -3.6893488e+19 2.2540417
-2 3.0729501 0
1.8763331 -0 2.2607987
-1.0842022e-19 3.0531268 -0
-1.8896631 2 2.2225609
0 3.0805101 -0
1.8792903 3.6893488e+19 2.2465858
-2 3.0554097 -3.6893488e+19
-1.8907149 1.0842022e-19 2.1917372
2 3.0763922 -2
1.8776795 1.0842022e-19 2.2036819
2 3.0581784 -1.0842022e-19
-1.8919905 -1.0842022e-19 2.1610978
0 3.077703 0
1.8781923 -2 2.1686912
-1.0842022e-19 3.0564811 -3.6893488e+19
-1.8912085 -1.0842022e-19 2.124414
-3.6893488e+19 3.0701811 -1.0842022e-19
1.8752499 3.6893488e+19 2.1231465
-0 3.0526168 3.6893488e+19
-1.8894281 -2 2.0857501
-2 3.0749807 -0
1.8771274 -0 2.0923038
3.6893488e+19 3.0624201 -2
2.0251441 -3.6893488e+19 2.0619535
0 3.0651031 -2
2.0275068 -1.0842022e-19 2.029315
2 3.0649052 0
2.0273328 -0 1.9938648
-2 3.0637155 3.6893488e+19
1.3909361 1.0842022e-19 1.975045
-2 3.0679653 0
2.0300279 0 1.9606409
2 3.0636187 1.0842022e-19
1.3908926 2 1.9399318
0 3.2362578 -0
2.1782405 1.0842022e-19 2.0177379
-3.6893488e+19 3.0725331 -0
1.3948975 1.0842022e-19 1.9093169
-0 3.236799 1.0842022e-19
2.1787174 3.6893488e+19 1.9636
1.0842022e-19 3.0571306 2
1.3879778 -2 1.8598456
-2 3.0702608 2
2.0320494 1.0842022e-19 1.8344668
3.6893488e+19 3.0519249 -2
1.3856392 -3.6893488e+19 1.7884915
-3.6893488e+19 3.0494533 -0
1.3845289 -0 1.6906674
-2 3.0459023 -3.6893488e+19
-1.8863344 0 1.6199008
2 3.0590937 -2
1.8668252 3.6893488e+19 1.4856038
-3.6893488e+19 3.0449088 2
-1.8858768 1.0842022e-19 -1.1536541
-3.6893488e+19 3.0788989 0
1.8786602 -2 -1.5431865
3.6893488e+19 3.0427141 -0
-1.8848655 -0 -1.6401702
-0 3.0796003 -0
1.8789345 1.0842022e-19 -1.731391
-3.6893488e+19 3.0444095 -1.0842022e-19
-1.8856467 2 -1.7612083
-3.6893488e+19 3.0789735 -3.6893488e+19
1.8786893 1.0842022e-19 -1.8138916
-3.6893488e+19 3.0456843 -2
-1.886234 3.6893488e+19 -1.8278003
0 3.0784562 3.6893488e+19
1.8784869 -3.6893488e+19 -1.8809638
-2 3.0170002 1.0842022e-19
-1.8710363 -1.0842022e-19 -1.8677555
3.6893488e+19 3.0301487 -1.0842022e-19
1.8441796 -1.0842022e-19 -1.8929812
3.6893488e+19 3.0132573 -2
-1.8675871 0 -1.8990843
2 3.0199029 3.6893488e+19
1.8361636 1.0842022e-19 -1.917906
3.6893488e+19 2.8638837 1.0842022e-19
1.7673457 -0 -1.8835195
-0 2.8279164 -3.6893488e+19
1.8943957 1.0842022e-19 -1.8796493
0 2.8018909 0
1.2606239 1.0842022e-19 -1.8776184
-1.0842022e-19 2.7757695 -0
1.8678665 -1.0842022e-19 -1.8739519
2 2.7536085 -0
1.2278663 3.6893488e+19 -1.8677956
-2 2.7047739 -3.6893488e+19
1.8252566 -2 -1.8557684
-2 2.6648238 -3.6893488e+19
1.1863588 3.6893488e+19 -1.8467935
2 2.6384509 -3.6893488e+19
1.7960516 1.0842022e-19 -1.8439049
-3.6893488e+19 2.6142576 -3.6893488e+19
1.163642 1.0842022e-19 -1.8401742
-0 2.5832486 -0
1.7717438 -3.6893488e+19 -1.8315129
-0 2.566093 0
1.1420043 0 -1.8294543
1.0842022e-19 2.5499787 -1.0842022e-19
1.7570935 1.0842022e-19 -1.8277584
2 2.5321622 3.6893488e+19
1.1267608 0 -1.8233567
2 2.5162358 -3.6893488e+19
1.7344702 -1.0842022e-19 -1.8199377
2 2.5031123 -3.6893488e+19
1.1024204 -0 -1.8171673
-0 2.479454 -3.6893488e+19
1.7111243 3.6893488e+19 -1.8140395
-0 2.4578762 -1.0842022e-19
1.0807 2 -1.8117064
0 3.1644845 0
1.8947506 3.6893488e+19 2.6313918
-3.6893488e+19 3.1647727 0
1.8948513 -0 2.6194973
3.6893488e+19 3.1628411 -1.0842022e-19
1.8941766 3.6893488e+19 2.6057084
-3.6893488e+19 3.1018977 -2
-1.9269029 -2 2.5481443
3.6893488e+19 3.1619215 -2
1.8938555 2 2.592911
0 3.11061 0
-1.9312826 -2 2.5450287
-1.0842022e-19 3.1649287 -1.0842022e-19
1.8949057 -2 2.583359
-3.6893488e+19 3.1115439 1.0842022e-19
-1.9317522 -3.6893488e+19 2.5353007
-3.6893488e+19 3.1615119 1.0842022e-19
1.8937125 3.6893488e+19 2.5686891
-0 3.061646 -3.6893488e+19
-1.9066678 0 2.473809
0 3.1576653 -0
1.892369 -2 2.5539305
2 3.0562439 -3.6893488e+19
-1.9039521 1.0842022e-19 2.447917
0 3.1483538 -2
2.0840728 1.0842022e-19 2.5300939
2 3.1411688 -3.6893488e+19
2.0780473 3.6893488e+19 2.5137954
2 3.1651821 2
-1.3090559 3.6893488e+19 2.5236571
-2 3.1417415 -2
2.0785277 -3.6893488e+19 2.5029471
3.6893488e+19 3.0635965 2
-1.2640216 2 2.3954573
-2 3.1443005 -2
2.0806737 1.0842022e-19 2.48663
-2 3.0648913 -3.6893488e+19
-1.2645956 0 2.3791106
2 3.1479564 -3.6893488e+19
2.0837395 -1.0842022e-19 2.4684165
-2 3.116564 -0
-1.2875029 -0 2.420435
1.0842022e-19 3.1488566 -0
2.0844946 2 2.4240561
3.6893488e+19 3.0588713 2
-1.2619269 0 2.3191726
-0 3.1479774 -3.6893488e+19
2.0837572 -1.0842022e-19 2.4005229
-1.0842022e-19 3.0589557 3.6893488e+19
-1.2619643 2 2.3017595
2 3.1404157 1.0842022e-19
-1.9462663 -1.0842022e-19 2.3704615
2 3.1369188 -2
1.8851237 3.6893488e+19 2.3561077
-3.6893488e+19 3.0545554 1.0842022e-19
-1.9031035 -2 2.27177
-0 3.1364119 0
1.8849468 2 2.3338206
-2 3.1331944 3.6893488e+19
-1.9426361 -1.0842022e-19 2.3203113
-0 3.1379678 1.0842022e-19
1.8854902 0 2.3132849
-0 3.2276592 3.6893488e+19
-1.9901246 0 2.3723538
-0 3.1554639 0
1.8916004 -1.0842022e-19 2.3045828
3.6893488e+19 3.2309895 0
-1.9917988 -1.0842022e-19 2.347873
-0 3.1376667 0
1.885385 2 2.2694101
-3.6893488e+19 3.161588 1.0842022e-19
-1.9569099 0 2.2745428
-2 3.0544014 3.6893488e+19
-1.903026 -0 2.1219027
1.0842022e-19 3.1295295 2
1.8825432 -3.6893488e+19 2.1922853
2 3.0555532 1.0842022e-19
-1.903605 2 2.0890348
2 3.0742524 -2
1.8514775 1.0842022e-19 2.0915158
0 3.2362943 0
2.1578228 -2 2.2354996
0 3.2237437 0
-1.3350171 -1.0842022e-19 2.195807
3.6893488e+19 3.2366805 -3.6893488e+19
2.1581466 0 2.181345
-0 3.2238951 3.6893488e+19
-1.3350842 0 2.1429255
-3.6893488e+19 3.237355 -2
2.1587124 -3.6893488e+19 2.127358
0 3.2257719 -0
-1.3359162 -3.6893488e+19 2.091296
-2 3.0682595 -1.0842022e-19
2.0169032 0 1.9608061
-1.0842022e-19 3.0636814 1.0842022e-19
-1.2640593 -0 1.9399695
1.0842022e-19 3.2230086 0
2.1466811 -0 2.010406
2 3.257549 -0
-1.35335 -1.0842022e-19 2.0044348
-0 3.2497201 -1.0842022e-19
2.1690822 3.6893488e+19 1.9692388
-3.6893488e+19 3.2522089 2
-1.3486155 0 1.9428501
-1.0842022e-19 3.1480579 -0
2.0838249 -1.0842022e-19 1.8801566
-3.6893488e+19 3.2533853 -0
-1.3496585 0 1.8872074
3.6893488e+19 3.0875685 -2
2.0330963 -0 1.7703201
0 3.2527218 0
-1.3490701 -1.0842022e-19 1.7859123
-3.6893488e+19 3.0464098 -3.6893488e+19
-1.8990085 -3.6893488e+19 1.6203402
3.6893488e+19 3.0587063 -2
1.8406192 -1.0842022e-19 1.4852942
3.6893488e+19 3.0452604 1.0842022e-19
-1.8984307 -0 -1.1538494
-0 3.0577679 -1.0842022e-19
1.8399638 3.6893488e+19 -1.5323714
-2 3.0439403 -0
-1.8977671 -0 -1.6407685
-2 3.0801826 2
1.8556197 -0 -1.7317857
0 3.0462916 2
-1.898949 -0 -1.7620897
0 3.0795248 1.0842022e-19
1.8551601 -3.6893488e+19 -1.8141965
-1.0842022e-19 3.0476596 0
-1.8996369 0 -1.8291712
-1.0842022e-19 3.0776327 -3.6893488e+19
1.8538386 -0 -1.8806276
-0 3.0526972 3.6893488e+19
-1.9021692 0 -1.8876164
1.0842022e-19 3.0768185 -2
1.8532698 -1.0842022e-19 -1.9167901
2 3.0546901 -0
-1.9031711 -3.6893488e+19 -1.9225615
-0 3.0190139 -1.0842022e-19
1.8128957 -2 -1.9173428
-1.0842022e-19 2.8656535 1.0842022e-19
1.7526973 -2 -1.8841608
-1.0842022e-19 2.8280249 1.0842022e-19
1.8875464 -3.6893488e+19 -1.8796738
-1.0842022e-19 2.8021407 0
-1.1339432 3.6893488e+19 -1.8777239
1.0842022e-19 2.7757461 0
1.85625 -2 -1.8738956
1.0842022e-19 2.7462373 -3.6893488e+19
-1.0949887 1.0842022e-19 -1.8625395
-3.6893488e+19 2.7052116 1.0842022e-19
1.815878 3.6893488e+19 -1.8559581
-1.0842022e-19 2.6646996 1.0842022e-19
-1.0588421 -3.6893488e+19 -1.8467268
-0 2.6366377 -3.6893488e+19
1.7871237 -2 -1.8428524
2 2.6128869 -1.0842022e-19
-1.0358727 1.0842022e-19 -1.8393642
-1.0842022e-19 2.5850379 -1.0842022e-19
1.7654871 1.0842022e-19 -1.8325926
-2 2.566467 -1.0842022e-19
-1.0152942 1.0842022e-19 -1.8296961
-1.0842022e-19 2.5511403 1.0842022e-19
1.7512733 -0 -1.8285149
-1.0842022e-19 2.5311663 2
-0.99964494 -1.0842022e-19 -1.8226564
-2 2.5160246 3.6893488e+19
1.7230973 -2 -1.8197557
-3.6893488e+19 2.5042324 -3.6893488e+19
-0.98770475 1.0842022e-19 -1.8180176
-0 2.4790246 -1.0842022e-19
1.7008631 1.0842022e-19 -1.8138436
-0 2.4558871 -0
-0.9760505 3.6893488e+19 -1.8108951
-1.0842022e-19 2.399282 0
-1.5757235 -2 -1.8047954
1.0842022e-19 2.3465588 -0
-1.5492189 -3.6893488e+19 -1.8006678
1.0842022e-19 2.3028595 -2
-1.5272508 1.0842022e-19 -1.7957181
3.6893488e+19 2.2686536 0
-1.5100552 3.6893488e+19 -1.791755
1.0842022e-19 2.2339311 -0
1.5779204 1.0842022e-19 -1.7891901
-1.0842022e-19 2.1973825 -2
1.562595 -3.6893488e+19 -1.7896715
-3.6893488e+19 2.1599486 0
1.5468985 0 -1.7877578
3.6893488e+19 2.1260543 -2
1.5326859 -1.0842022e-19 -1.7852449
0 3.1644845 0
1.8947506 3.6893488e+19 2.6313918
-3.6893488e+19 3.1647727 0
1.8948513 -0 2.6194973
-0 3.1205399 0
1.8794038 0 2.5692613
-3.6893488e+19 3.1018977 -2
-1.9269029 -2 2.5481443
-3.6893488e+19 3.1233811 -3.6893488e+19
1.880396 -0 2.5608275
0 3.11061 0
-1.9312826 -2 2.5450287
-1.0842022e-19 3.1649287 -1.0842022e-19
1.8949057 -2 2.583359
-3.6893488e+19 3.1115439 1.0842022e-19
-1.9317522 -3.6893488e+19 2.5353007
-0 3.1232011 3.6893488e+19
1.8803332 -0 2.5390198
-0 3.061646 -3.6893488e+19
-1.9066678 0 2.473809
0 3.1576653 -0
1.892369 -2 2.5539305
2 3.0562439 -3.6893488e+19
-1.9039521 1.0842022e-19 2.447917
0 3.1483538 -2
2.0840728 1.0842022e-19 2.5300939
2 3.1411688 -3.6893488e+19
2.0780473 3.6893488e+19 2.5137954
-3.6893488e+19 3.06124 3.6893488e+19
-1.262977 2 2.4102926
-2 3.1417415 -2
2.0785277 -3.6893488e+19 2.5029471
3.6893488e+19 3.0635965 2
-1.2640216 2 2.3954573
-2 3.1443005 -2
2.0806737 1.0842022e-19 2.48663
-2 3.0648913 -3.6893488e+19
-1.2645956 0 2.3791106
2 3.1479564 -3.6893488e+19
2.0837395 -1.0842022e-19 2.4684165
-2 3.116564 -0
-1.2875029 -0 2.420435
1.0842022e-19 3.1488566 -0
2.0844946 2 2.4240561
3.6893488e+19 3.0588713 2
-1.2619269 0 2.3191726
-0 3.1479774 -3.6893488e+19
2.0837572 -1.0842022e-19 2.4005229
-1.0842022e-19 3.0589557 3.6893488e+19
-1.2619643 2 2.3017595
2 3.1404157 1.0842022e-19
-1.9462663 -1.0842022e-19 2.3704615
2 3.0607207 1.0842022e-19
1.8420262 -0 2.2859774
-3.6893488e+19 3.0545554 1.0842022e-19
-1.9031035 -2 2.27177
3.6893488e+19 3.0606515 2
1.841978 2 2.2683713
0 3.0521133 -1.0842022e-19
-1.9018756 -2 2.2525356
2 3.0615928 0
1.8426354 -1.0842022e-19 2.2516117
-3.6893488e+19 3.0528231 -1.0842022e-19
-1.9022325 -1.0842022e-19 2.2221246
0 3.0824587 -0
1.8572093 2 2.2494833
1.0842022e-19 3.0547013 -1.0842022e-19
-1.9031767 0 2.1907473
-3.6893488e+19 3.0767231 0
1.8532034 -2 2.2041144
-3.6893488e+19 3.161588 1.0842022e-19
-1.9569099 0 2.2745428
-2 3.0544014 3.6893488e+19
-1.903026 -0 2.1219027
-1.0842022e-19 3.0716028 3.6893488e+19
1.849627 1.0842022e-19 2.1247807
2 3.0555532 1.0842022e-19
-1.903605 2 2.0890348
2 3.0742524 -2
1.8514775 1.0842022e-19 2.0915158
-3.6893488e+19 3.0629001 2
2.0124087 -3.6893488e+19 2.0623889
0 3.2237437 0
-1.3350171 -1.0842022e-19 2.195807
-2 3.06549 1.0842022e-19
2.0145807 -3.6893488e+19 2.0296187
1.0842022e-19 3.0599589 -2
-1.262409 -1.0842022e-19 2.0069993
-1.0842022e-19 3.0655105 1.0842022e-19
2.0145979 0 1.9942993
-1.0842022e-19 3.0645587 0
-1.2644483 2 1.9756496
-2 3.0682595 -1.0842022e-19
2.0169032 0 1.9608061
-1.0842022e-19 3.0636814 1.0842022e-19
-1.2640593 -0 1.9399695
1.0842022e-19 3.2230086 0
2.1466811 -0 2.010406
2 3.257549 -0
-1.35335 -1.0842022e-19 2.0044348
-0 3.2497201 -1.0842022e-19
2.1690822 3.6893488e+19 1.9692388
-1.0842022e-19 3.0571308 1.0842022e-19
-1.2611554 -2 1.8598456
3.6893488e+19 3.072022 -3.6893488e+19
2.0200584 -3.6893488e+19 1.8355889
-3.6893488e+19 3.050113 3.6893488e+19
-1.2580442 0 1.7875103
3.6893488e+19 3.0875685 -2
2.0330963 -0 1.7703201
-1.0842022e-19 3.0491099 1.0842022e-19
-1.2575996 -1.0842022e-19 1.6904485
-3.6893488e+19 3.0464098 -3.6893488e+19
-1.8990085 -3.6893488e+19 1.6203402
3.6893488e+19 3.0587063 -2
1.8406192 -1.0842022e-19 1.4852942
3.6893488e+19 3.0452604 1.0842022e-19
-1.8984307 -0 -1.1538494
-0 3.0577679 -1.0842022e-19
1.8399638 3.6893488e+19 -1.5323714
-2 3.0439403 -0
-1.8977671 -0 -1.6407685
0 3.0566273 1.0842022e-19
1.8391671 -0 -1.7152499
0 3.0462916 2
-1.898949 -0 -1.7620897
0 3.0795248 1.0842022e-19
1.8551601 -3.6893488e+19 -1.8141965
-1.0842022e-19 3.0476596 0
-1.8996369 0 -1.8291712
-1.0842022e-19 3.0776327 -3.6893488e+19
1.8538386 -0 -1.8806276
-3.6893488e+19 3.0152931 2
-1.8833659 -3.6893488e+19 -1.8662225
-3.6893488e+19 3.0286355 3.6893488e+19
1.8196161 1.0842022e-19 -1.8922004
-3.6893488e+19 3.0117381 3.6893488e+19
-1.8815787 -1.0842022e-19 -1.8982357
-0 3.0190139 -1.0842022e-19
1.8128957 -2 -1.9173428
-1.0842022e-19 2.8656535 1.0842022e-19
1.7526973 -2 -1.8841608
-1.0842022e-19 2.8280249 1.0842022e-19
1.8875464 -3.6893488e+19 -1.8796738
-1.0842022e-19 2.8021407 0
-1.1339432 3.6893488e+19 -1.8777239
1.0842022e-19 2.7757461 0
1.85625 -2 -1.8738956
1.0842022e-19 2.7462373 -3.6893488e+19
-1.0949887 1.0842022e-19 -1.8625395
-3.6893488e+19 2.7052116 1.0842022e-19
1.815878 3.6893488e+19 -1.8559581
-1.0842022e-19 2.6646996 1.0842022e-19
-1.0588421 -3.6893488e+19 -1.8467268
-0 2.6366377 -3.6893488e+19
1.7871237 -2 -1.8428524
2 2.6128869 -1.0842022e-19
-1.0358727 1.0842022e-19 -1.8393642
-1.0842022e-19 2.5850379 -1.0842022e-19
1.7654871 1.0842022e-19 -1.8325926
-2 2.566467 -1.0842022e-19
-1.0152942 1.0842022e-19 -1.8296961
-1.0842022e-19 2.5511403 1.0842022e-19
1.7512733 -0 -1.8285149
-1.0842022e-19 2.5311663 2
-0.99964494 -1.0842022e-19 -1.8226564
-2 2.5160246 3.6893488e+19
1.7230973 -2 -1.8197557
-3.6893488e+19 2.5042324 -3.6893488e+19
-0.98770475 1.0842022e-19 -1.8180176
-0 2.4790246 -1.0842022e-19
1.7008631 1.0842022e-19 -1.8138436
-0 2.4558871 -0
-0.9760505 3.6893488e+19 -1.8108951
-1.0842022e-19 2.399282 0
-1.5757235 -2 -1.8047954
1.0842022e-19 2.3465588 -0
-1.5492189 -3.6893488e+19 -1.8006678
1.0842022e-19 2.3028595 -2
-1.5272508 1.0842022e-19 -1.7957181
3.6893488e+19 2.2686536 0
-1.5100552 3.6893488e+19 -1.791755
1.0842022e-19 2.2339311 -0
1.5779204 1.0842022e-19 -1.7891901
-1.0842022e-19 2.1973825 -2
1.562595 -3.6893488e+19 -1.7896715
-3.6893488e+19 2.1599486 0
1.5468985 0 -1.7877578
3.6893488e+19 2.1260543 -2
1.5326859 -1.0842022e-19 -1.7852449
-0 3.1613095 -3.6893488e+19
1.8763876 -2 2.6284499
-3.6893488e+19 3.1624467 -0
1.8767371 -1.0842022e-19 2.6174054
-3.6893488e+19 3.1027737 -3.6893488e+19
-1.9421514 3.6893488e+19 2.5592103
-2 3.1048925 0
-1.9433056 0 2.5507076
2 3.1609342 3.6893488e+19
1.8762723 -3.6893488e+19 2.5920706
-1.0842022e-19 3.1094468 2
-1.9457862 3.6893488e+19 2.5441024
0 3.1653187 0
1.8776196 -0 2.5836544
1.0842022e-19 3.1117582 1.0842022e-19
-1.9470452 3.6893488e+19 2.5354943
2 3.1603072 0
1.8760797 1.0842022e-19 2.567739
3.6893488e+19 3.0630307 0
-1.920504 2 2.475955
2 3.1399028 0
1.8646196 -3.6893488e+19 2.5406723
1.0842022e-19 3.0633454 -3.6893488e+19
-1.9206753 2 2.458343
-2 3.1509278 3.6893488e+19
2.0693762 2 2.5318661
2 3.1409442 -0
2.0614233 0 2.5136087
3.6893488e+19 3.1648097 -3.6893488e+19
-1.5601223 -0 2.5234132
1.0842022e-19 3.1417017 1.0842022e-19
2.0620267 -1.0842022e-19 2.5028875
3.6893488e+19 3.0623291 2
-1.514387 1.0842022e-19 2.3938613
3.6893488e+19 3.1441991 -1.0842022e-19
2.0640161 -3.6893488e+19 2.4864395
1.0842022e-19 3.0630665 -1.0842022e-19
-1.514716 2 2.3769155
-0 3.1475773 -1.0842022e-19
2.0667071 -1.0842022e-19 2.4679077
-0 3.1434619 -2
2.0634289 3.6893488e+19 2.4406404
2 3.0616589 1.0842022e-19
-1.5140879 -0 2.3220549
0 3.1438811 -1.0842022e-19
2.0637627 -0 2.3963473
-3.6893488e+19 3.143482 -3.6893488e+19
-1.5506041 -2 2.3843191
1.0842022e-19 3.0592477 -2
-1.9184433 0 2.2934673
1.0842022e-19 3.1362257 2
1.8623598 -1.0842022e-19 2.3554506
-1.0842022e-19 3.0603027 -1.0842022e-19
-1.919018 1.0842022e-19 2.2769225
3.6893488e+19 3.1356561 1.0842022e-19
1.8620098 3.6893488e+19 2.3331497
1.0842022e-19 3.1310494 -2
-1.9575528 2 2.3185456
-1.0842022e-19 3.0572574 -2
1.8138288 -1.0842022e-19 2.2461953
0 3.0539474 -1.0842022e-19
-1.9155563 -0 2.223918
0 3.1565435 -2
1.8748462 -3.6893488e+19 2.3053772
-1.0842022e-19 3.0550795 -2
-1.916173 -1.0842022e-19 2.1913321
-2 3.1370649 -0
1.8628756 -1.0842022e-19 2.2689774
1.0842022e-19 3.150286 -2
-1.9680307 -0 2.2670267
-2 3.0803254 -2
1.8280056 2 2.1719937
-2 3.1259069 -2
-1.9547518 2 2.2093041
1.0842022e-19 3.1306717 -1.0842022e-19
1.8589464 -3.6893488e+19 2.1935925
-2 3.127718 -1.0842022e-19
-1.9557383 3.6893488e+19 2.1691432
-0 3.0719938 -1.0842022e-19
1.8228853 -1.0842022e-19 2.0891187
2 3.2343345 -0
2.1358173 1.0842022e-19 2.2334785
-1.0842022e-19 3.2239592 -0
-1.5865197 -0 2.1960125
-0 3.2334423 -3.6893488e+19
2.1351066 -2 2.1784174
-0 3.2229249 3.6893488e+19
-1.5860581 -0 2.1421232
2 3.2357993 -2
2.1369841 -3.6893488e+19 2.1261029
0 3.0589066 1.0842022e-19
-1.5128596 -0 1.9715961
1.0842022e-19 3.2339554 -2
2.1355152 -3.6893488e+19 2.0705152
-0 3.0647414 2
-1.5154636 -0 1.9406126
-1.0842022e-19 3.2352059 2
2.1365116 -0 2.0170853
-2 3.2583127 2
-1.605561 -0 2.0051908
-1.0842022e-19 3.236496 -1.0842022e-19
2.1375391 1.0842022e-19 1.9634085
-3.6893488e+19 3.2520514 2
-1.5999724 2 1.9427307
-3.6893488e+19 3.0719402 -3.6893488e+19
2.0064552 2 1.8355074
-1.0842022e-19 3.2526965 -0
-1.6005481 -1.0842022e-19 1.8868351
3.6893488e+19 3.1327724 3.6893488e+19
2.0549138 -1.0842022e-19 1.7897578
-2 3.252064 -1.0842022e-19
-1.5999836 -1.0842022e-19 1.7854944
1.0842022e-19 3.0475402 -3.6893488e+19
-1.9120663 -3.6893488e+19 1.6212968
1.0842022e-19 3.0567858 0
1.813539 -1.0842022e-19 1.4838178
-0 3.043205 2
-1.9097052 3.6893488e+19 -1.1527915
-1.0842022e-19 3.0575345 1.0842022e-19
1.8139992 2 -1.5322436
2 3.0431969 -3.6893488e+19
-1.9097006 -1.0842022e-19 -1.6404245
1.0842022e-19 3.0542068 -0
1.811954 0 -1.7135394
3.6893488e+19 3.0447047 2
-1.910522 -1.0842022e-19 -1.7613672
1.0842022e-19 3.0792613 2
1.8273516 -3.6893488e+19 -1.8140351
3.6893488e+19 3.04498 -0
-1.9106719 1.0842022e-19 -1.8273505
-3.6893488e+19 3.0541072 -0
-1.9156435 2 -1.8882693
-1.0842022e-19 3.0772731 2
1.8261298 2 -1.9170133
-1.0842022e-19 3.0550072 -1.0842022e-19
-1.9161336 1.0842022e-19 -1.9227561
3.6893488e+19 3.0183728 -1.0842022e-19
1.7899318 -2 -1.916935
2 2.8659854 0
1.7249209 3.6893488e+19 -1.8842753
-0 2.8305004 -0
1.8816371 1.0842022e-19 -1.880635
-3.6893488e+19 2.8031375 -0
-1.385285 -1.0842022e-19 -1.8781461
-3.6893488e+19 2.7749727 -0
1.8440413 -3.6893488e+19 -1.8731644
-1.0842022e-19 2.7524219 -3.6893488e+19
-1.3503029 -1.0842022e-19 -1.8666607
-1.0842022e-19 2.7052727 -3.6893488e+19
1.8063334 3.6893488e+19 -1.8559581
2 2.6651962 -1.0842022e-19
-1.3102947 -0 -1.8469936
0 2.6368141 -3.6893488e+19
1.7790666 2 -1.8429226
-1.0842022e-19 2.6127601 3.6893488e+19
-1.2868935 2 -1.8392905
-2 2.5850828 2
1.7584623 1.0842022e-19 -1.8325926
-3.6893488e+19 2.566839 3.6893488e+19
-1.2663997 1.0842022e-19 -1.8299378
-2 2.5513051 3.6893488e+19
1.7400175 -2 -1.828599
-1.0842022e-19 2.5310402 -1.0842022e-19
-1.2504233 3.6893488e+19 -1.8225689
0 2.5165577 -2
1.7123379 3.6893488e+19 -1.8201197
3.6893488e+19 2.5049777 1.0842022e-19
-1.2275842 3.6893488e+19 -1.8185844
3.6893488e+19 2.4788404 -3.6893488e+19
1.6907203 -0 -1.8137456
1.0842022e-19 2.4553871 -3.6893488e+19
-1.2032312 -3.6893488e+19 -1.8106922
-0 3.1613095 -3.6893488e+19
1.8763876 -2 2.6284499
-3.6893488e+19 3.1624467 -0
1.8767371 -1.0842022e-19 2.6174054
-3.6893488e+19 3.1027737 -3.6893488e+19
-1.9421514 3.6893488e+19 2.5592103
-2 3.1048925 0
-1.9433056 0 2.5507076
1.0842022e-19 3.1224837 0
1.8539145 -0 2.5600636
-1.0842022e-19 3.1094468 2
-1.9457862 3.6893488e+19 2.5441024
0 3.1653187 0
1.8776196 -0 2.5836544
1.0842022e-19 3.1117582 1.0842022e-19
-1.9470452 3.6893488e+19 2.5354943
2 3.1603072 0
1.8760797 1.0842022e-19 2.567739
3.6893488e+19 3.0630307 0
-1.920504 2 2.475955
2 3.1399028 0
1.8646196 -3.6893488e+19 2.5406723
1.0842022e-19 3.0633454 -3.6893488e+19
-1.9206753 2 2.458343
-2 3.1509278 3.6893488e+19
2.0693762 2 2.5318661
2 3.1409442 -0
2.0614233 0 2.5136087
-0 3.0611458 -0
-1.5138589 -2 2.4101706
1.0842022e-19 3.1417017 1.0842022e-19
2.0620267 -1.0842022e-19 2.5028875
3.6893488e+19 3.0623291 2
-1.514387 1.0842022e-19 2.3938613
3.6893488e+19 3.1441991 -1.0842022e-19
2.0640161 -3.6893488e+19 2.4864395
1.0842022e-19 3.0630665 -1.0842022e-19
-1.514716 2 2.3769155
3.6893488e+19 3.0873926 2
2.0187645 -3.6893488e+19 2.3970764
-1.0842022e-19 3.0877299 -1.0842022e-19
2.0190332 -1.0842022e-19 2.3782258
2 3.0616589 1.0842022e-19
-1.5140879 -0 2.3220549
0 3.1438811 -1.0842022e-19
2.0637627 -0 2.3963473
-0 3.0601637 0
-1.5134207 2 2.3029411
1.0842022e-19 3.0592477 -2
-1.9184433 0 2.2934673
-1.0842022e-19 3.0604579 -1.0842022e-19
1.8157958 1.0842022e-19 2.2857203
-1.0842022e-19 3.0603027 -1.0842022e-19
-1.919018 1.0842022e-19 2.2769225
3.6893488e+19 3.0593636 -1.0842022e-19
1.8151232 0 2.2672443
0 3.0532367 2
-1.9151692 -1.0842022e-19 2.2534964
-1.0842022e-19 3.0572574 -2
1.8138288 -1.0842022e-19 2.2461953
0 3.0539474 -1.0842022e-19
-1.9155563 -0 2.223918
0 3.1565435 -2
1.8748462 -3.6893488e+19 2.3053772
-1.0842022e-19 3.0550795 -2
-1.916173 -1.0842022e-19 2.1913321
3.6893488e+19 3.0714803 -3.6893488e+19
1.8225696 3.6893488e+19 2.1968033
2 3.0533035 -0
-1.9152056 -0 2.1546614
-2 3.0803254 -2
1.8280056 2 2.1719937
2 3.0529118 -2
-1.9149922 -0 2.1201143
1.0842022e-19 3.077167 -1.0842022e-19
1.8260645 -0 2.1312442
0 3.0554647 3.6893488e+19
-1.9163828 2 2.0889657
-0 3.0719938 -1.0842022e-19
1.8228853 -1.0842022e-19 2.0891187
2 3.0652473 3.6893488e+19
2.0011237 3.6893488e+19 2.0646901
-1.0842022e-19 3.2239592 -0
-1.5865197 -0 2.1960125
-3.6893488e+19 3.0664983 -1.0842022e-19
2.0021203 -1.0842022e-19 2.0304749
1.0842022e-19 3.0583968 -3.6893488e+19
-1.512632 1.0842022e-19 2.0057056
2 3.0657711 -1.0842022e-19
2.0015409 1.0842022e-19 1.9944682
0 3.0589066 1.0842022e-19
-1.5128596 -0 1.9715961
2 3.067086 -2
2.0025883 2 1.9600006
-0 3.0647414 2
-1.5154636 -0 1.9406126
-1.0842022e-19 3.2352059 2
2.1365116 -0 2.0170853
-2 3.2583127 2
-1.605561 -0 2.0051908
-3.6893488e+19 3.0712314 -1.0842022e-19
2.0058906 -0 1.8909128
3.6893488e+19 3.052568 -2
-1.5100307 0 1.8563581
-3.6893488e+19 3.0719402 -3.6893488e+19
2.0064552 2 1.8355074
3.6893488e+19 3.049299 -2
-1.5085719 -3.6893488e+19 1.7870703
3.6893488e+19 3.1327724 3.6893488e+19
2.0549138 -1.0842022e-19 1.7897578
0 3.0488272 0
-1.5083613 -0 1.6902695
1.0842022e-19 3.0475402 -3.6893488e+19
-1.9120663 -3.6893488e+19 1.6212968
1.0842022e-19 3.0567858 0
1.813539 -1.0842022e-19 1.4838178
-0 3.043205 2
-1.9097052 3.6893488e+19 -1.1527915
-1.0842022e-19 3.0575345 1.0842022e-19
1.8139992 2 -1.5322436
2 3.0431969 -3.6893488e+19
-1.9097006 -1.0842022e-19 -1.6404245
1.0842022e-19 3.0542068 -0
1.811954 0 -1.7135394
3.6893488e+19 3.0447047 2
-1.910522 -1.0842022e-19 -1.7613672
1.0842022e-19 3.0792613 2
1.8273516 -3.6893488e+19 -1.8140351
3.6893488e+19 3.04498 -0
-1.9106719 1.0842022e-19 -1.8273505
-3.6893488e+19 3.0144899 2
-1.8940644 0 -1.8655128
-0 3.0274639 -1.0842022e-19
1.7955189 1.0842022e-19 -1.8915948
-3.6893488e+19 3.0123711 0
-1.8929104 -3.6893488e+19 -1.8986069
3.6893488e+19 3.0183728 -1.0842022e-19
1.7899318 -2 -1.916935
2 2.8659854 0
1.7249209 3.6893488e+19 -1.8842753
-0 2.8305004 -0
1.8816371 1.0842022e-19 -1.880635
-3.6893488e+19 2.8031375 -0
-1.385285 -1.0842022e-19 -1.8781461
-3.6893488e+19 2.7749727 -0
1.8440413 -3.6893488e+19 -1.8731644
-1.0842022e-19 2.7524219 -3.6893488e+19
-1.3503029 -1.0842022e-19 -1.8666607
-1.0842022e-19 2.7052727 -3.6893488e+19
1.8063334 3.6893488e+19 -1.8559581
2 2.6651962 -1.0842022e-19
-1.3102947 -0 -1.8469936
0 2.6368141 -3.6893488e+19
1.7790666 2 -1.8429226
-1.0842022e-19 2.6127601 3.6893488e+19
-1.2868935 2 -1.8392905
-2 2.5850828 2
1.7584623 1.0842022e-19 -1.8325926
-3.6893488e+19 2.566839 3.6893488e+19
-1.2663997 1.0842022e-19 -1.8299378
-2 2.5513051 3.6893488e+19
1.7400175 -2 -1.828599
-1.0842022e-19 2.5310402 -1.0842022e-19
-1.2504233 3.6893488e+19 -1.8225689
0 2.5165577 -2
1.7123379 3.6893488e+19 -1.8201197
3.6893488e+19 2.5049777 1.0842022e-19
-1.2275842 3.6893488e+19 -1.8185844
3.6893488e+19 2.4788404 -3.6893488e+19
1.6907203 -0 -1.8137456
1.0842022e-19 2.4553871 -3.6893488e+19
-1.2032312 -3.6893488e+19 -1.8106922
-2 3.1412389 0
1.8326198 0 2.5984974
-0 3.102314 -1.0842022e-19
-1.9566926 1.0842022e-19 2.558836
-2 3.1046457 2
-1.9580606 -3.6893488e+19 2.5505261
-1.0842022e-19 3.121614 3.6893488e+19
1.8222053 2 2.5593252
-2 3.1088321 0
-1.9605167 2 2.5436268
3.6893488e+19 3.1653688 1.0842022e-19
1.8454248 -2 2.583679
-0 3.110162 -1.0842022e-19
-1.9612968 -0 2.534261
-2 3.1600809 0
1.8426187 1.0842022e-19 2.567549
-0 3.1522086 3.6893488e+19
2.0534916 2 2.5327306
-1.0842022e-19 3.1421328 -3.6893488e+19
2.0458887 -1.0842022e-19 2.5143764
-2 3.1647427 -0
-1.662111 -3.6893488e+19 2.5233724
2 3.1415665 -0
2.0454614 0 2.5027683
-1.0842022e-19 3.0617077 0
-1.6186754 -2 2.3930826
3.6893488e+19 3.144712 -0
2.0478349 -2 2.4870105
2 3.0630934 3.6893488e+19
-1.6197585 3.6893488e+19 2.3769526
1.0842022e-19 3.1444468 2
2.0476348 1.0842022e-19 2.4641645
-3.6893488e+19 3.1427081 -2
2.0463228 2 2.4397404
-2 3.1447213 2
2.047842 -2 2.4195499
3.6893488e+19 3.0568202 1.0842022e-19
-1.6148545 3.6893488e+19 2.3170588
-2 3.1439929 0
2.0472925 -3.6893488e+19 2.3964095
1.0842022e-19 3.1437874 3.6893488e+19
-1.6539202 -1.0842022e-19 2.3846221
-1.0842022e-19 3.1185136 -3.6893488e+19
-1.9661964 -3.6893488e+19 2.3497412
1.0842022e-19 3.1360886 1.0842022e-19
1.8298866 -0 2.3553078
-1.0842022e-19 3.1193368 3.6893488e+19
-1.9666795 2 2.3296366
0 3.1347113 -1.0842022e-19
1.8291556 3.6893488e+19 2.3323178
-0 3.1198945 -2
-1.9670066 1.0842022e-19 2.3092492
-1.0842022e-19 3.1606388 3.6893488e+19
1.8429147 -1.0842022e-19 2.3315582
3.6893488e+19 3.1187251 2
-1.9663205 -1.0842022e-19 2.2874866
-2 3.1593933 0
1.8422538 -0 2.3075037
0 3.1208327 2
-1.967557 -1.0842022e-19 2.2682505
-3.6893488e+19 3.0701256 -2
1.7948818 -0 2.1948998
-3.6893488e+19 3.1199989 0
-1.967068 1.0842022e-19 2.2436912
-0 3.1287739 3.6893488e+19
1.8260049 -0 2.2338643
0 3.1204231 -0
-1.9673166 3.6893488e+19 2.2026453
0 3.1314375 2
1.8274183 2 2.1944642
-1.0842022e-19 3.1191156 -0
-1.9665496 3.6893488e+19 2.1596353
-3.6893488e+19 3.2389445 2
2.1189394 3.6893488e+19 2.2380185
-1.0842022e-19 3.222955 -2
-1.6848645 2 2.1950731
3.6893488e+19 3.239862 -0
2.1196315 -2 2.1840513
-1.0842022e-19 3.2258525 2
-1.6859971 -0 2.1445556
-0 3.2384176 3.6893488e+19
2.1185417 -2 2.128082
-2 3.0579035 2
-1.6157014 0 1.9708796
2 3.2370422 1.0842022e-19
2.1175039 -1.0842022e-19 2.0725186
-1.0842022e-19 3.0649559 -3.6893488e+19
-1.6212145 0 1.940745
-1.0842022e-19 3.1503496 1.0842022e-19
2.052089 -2 1.9703475
2 3.2521095 3.6893488e+19
-1.6970848 1.0842022e-19 1.9990658
-1.0842022e-19 3.2368698 -3.6893488e+19
2.1173737 2 1.9635453
-1.0842022e-19 3.0517831 -3.6893488e+19
-1.6109167 2 1.8557608
3.6893488e+19 3.238605 3.6893488e+19
2.1186831 -0 1.909722
-2 3.0493577 -1.0842022e-19
-1.6090207 -1.0842022e-19 1.7871041
-2 3.1338198 -1.0842022e-19
2.0396161 -1.0842022e-19 1.7901877
-2 3.0491045 2
-1.6088228 -1.0842022e-19 1.6904485
-2 3.0468566 -1.0842022e-19
-1.9241574 -1.0842022e-19 1.6207539
-2 3.055769 -1.0842022e-19
1.7872632 -2 1.483032
-1.0842022e-19 3.042928 0
-1.9218526 1.0842022e-19 -1.1526613
-3.6893488e+19 3.097543 1.0842022e-19
1.8094316 3.6893488e+19 -1.5526918
-3.6893488e+19 3.0436068 -3.6893488e+19
-1.9222507 2 -1.6406339
0 3.054846 3.6893488e+19
1.7867733 -0 -1.7139779
0 3.0455205 2
-1.9233735 -1.0842022e-19 -1.7617574
-1.0842022e-19 3.0780895 -0
1.799108 -2 -1.8133535
2 3.0473568 -1.0842022e-19
-1.9244508 3.6893488e+19 -1.8289998
0 3.0686073 2
1.7940761 1.0842022e-19 -1.8770164
-2 3.0554214 -0
-1.9291821 -0 -1.8888797
2 3.0692313 -3.6893488e+19
1.7944071 -1.0842022e-19 -1.9129016
0 3.0553536 3.6893488e+19
-1.9291422 -1.0842022e-19 -1.9229681
1.0842022e-19 3.0191035 0
1.7678058 -0 -1.9173816
2 2.8734312 -1.0842022e-19
1.6981696 2 -1.8870007
-0 2.828547 -3.6893488e+19
1.8729093 -3.6893488e+19 -1.8798463
3.6893488e+19 2.8043821 1.0842022e-19
-1.4879485 1.0842022e-19 -1.8786738
2 2.7755687 2
1.8329339 3.6893488e+19 -1.8736707
2 2.7554758 1.0842022e-19
-1.4497163 -1.0842022e-19 -1.8695874
-3.6893488e+19 2.7050812 -0
1.7966937 -3.6893488e+19 -1.8558316
3.6893488e+19 2.6651909 -3.6893488e+19
-1.4122862 -0 -1.8469936
2 2.6396034 -0
1.7719901 -1.0842022e-19 -1.8444661
-2 2.6125062 -3.6893488e+19
-1.3916932 -3.6893488e+19 -1.8391432
3.6893488e+19 2.5851254 2
1.7514366 1.0842022e-19 -1.8325926
-0 2.5667105 3.6893488e+19
-1.3725861 0 -1.8298572
2 2.5472376 -1.0842022e-19
1.7242844 2 -1.825825
3.6893488e+19 2.5309122 -0
-1.344601 0 -1.8224814
-1.0842022e-19 2.5169644 -3.6893488e+19
1.7014414 -1.0842022e-19 -1.8203927
1.0842022e-19 2.5046012 0
-1.3240327 -2 -1.818301
-0 2.4776585 2
1.6802117 2 -1.8132559
-3.6893488e+19 2.458117 1.0842022e-19
-1.3040649 0 -1.8118079
-2 2.4024382 0
-1.6110991 2 -1.806249
1.0842022e-19 2.3467448 1.0842022e-19
-1.5784253 -3.6893488e+19 -1.8007934
-3.6893488e+19 2.3025579 -2
-1.5525022 1.0842022e-19 -1.7955786
2 2.2671244 0
-1.5317143 1.0842022e-19 -1.7908354
0 2.2379968 2
1.5591121 2 -1.7905263
-1.0842022e-19 2.1994641 -2
1.5445744 1.0842022e-19 -1.7903947
3.6893488e+19 2.163975 -0
1.531185 -0 -1.7893133
1.0842022e-19 2.1241984 -2
1.516178 -1.0842022e-19 -1.7844125
-2 3.1412389 0
1.8326198 0 2.5984974
-0 3.102314 -1.0842022e-19
-1.9566926 1.0842022e-19 2.558836
-2 3.1046457 2
-1.9580606 -3.6893488e+19 2.5505261
-1.0842022e-19 3.121614 3.6893488e+19
1.8222053 2 2.5593252
-2 3.1088321 0
-1.9605167 2 2.5436268
3.6893488e+19 3.1653688 1.0842022e-19
1.8454248 -2 2.583679
-0 3.110162 -1.0842022e-19
-1.9612968 -0 2.534261
-2 3.1600809 0
1.8426187 1.0842022e-19 2.567549
-0 3.1522086 3.6893488e+19
2.0534916 2 2.5327306
-1.0842022e-19 3.1421328 -3.6893488e+19
2.0458887 -1.0842022e-19 2.5143764
-3.6893488e+19 3.0618818 -2
-1.6188114 -0 2.4111462
2 3.1415665 -0
2.0454614 0 2.5027683
-1.0842022e-19 3.0617077 0
-1.6186754 -2 2.3930826
3.6893488e+19 3.144712 -0
2.0478349 -2 2.4870105
2 3.0630934 3.6893488e+19
-1.6197585 3.6893488e+19 2.3769526
-2 3.0874662 -2
2.0046394 1.0842022e-19 2.3971128
1.0842022e-19 3.0858872 -2
2.0034478 -3.6893488e+19 2.3761141
0 3.085866 -1.0842022e-19
2.0034318 2 2.3569925
3.6893488e+19 3.0568202 1.0842022e-19
-1.6148545 3.6893488e+19 2.3170588
3.6893488e+19 3.0864782 -0
2.0038939 -3.6893488e+19 2.338542
-0 3.0542972 -0
-1.6128821 0 2.297215
1.0842022e-19 3.0584748 -3.6893488e+19
-1.9309733 2 2.2927608
3.6893488e+19 3.0604415 -0
1.7897427 2 2.2856917
-3.6893488e+19 3.0581634 3.6893488e+19
-1.9307908 -0 2.2750387
0 3.0615528 0
1.7903324 -1.0842022e-19 2.2691226
-0 3.0540471 1.0842022e-19
-1.9283758 -0 2.2541976
2 3.0599144 -2
1.7894629 2 2.2502313
2 3.0540435 2
-1.9283737 -1.0842022e-19 2.2241118
-3.6893488e+19 3.0603735 -1.0842022e-19
1.7897067 0 2.2162561
0 3.0553935 3.6893488e+19
-1.9291656 -0 2.1918271
-3.6893488e+19 3.0701256 -2
1.7948818 -0 2.1948998
2 3.0557339 2
-1.9293654 -2 2.1579418
-0 3.1287739 3.6893488e+19
1.8260049 -0 2.2338643
3.6893488e+19 3.0563712 -1.0842022e-19
-1.9297392 1.0842022e-19 2.1243761
-2 3.0766213 0
1.798329 1.0842022e-19 2.1305907
1.0842022e-19 3.055156 -3.6893488e+19
-1.9290262 0 2.0886545
1.0842022e-19 3.0658793 3.6893488e+19
1.9883507 -0 2.0652809
-1.0842022e-19 3.222955 -2
-1.6848645 2 2.1950731
3.6893488e+19 3.0661023 -3.6893488e+19
1.988519 -3.6893488e+19 2.0300882
-3.6893488e+19 3.0595162 -3.6893488e+19
-1.6169621 2 2.0066371
-2 3.0663412 3.6893488e+19
1.9886993 1.0842022e-19 1.9948785
-2 3.0579035 2
-1.6157014 0 1.9708796
2 3.2370422 1.0842022e-19
2.1175039 -1.0842022e-19 2.0725186
-1.0842022e-19 3.0649559 -3.6893488e+19
-1.6212145 0 1.940745
-1.0842022e-19 3.1503496 1.0842022e-19
2.052089 -2 1.9703475
2 3.2521095 3.6893488e+19
-1.6970848 1.0842022e-19 1.9990658
-1.0842022e-19 3.2368698 -3.6893488e+19
2.1173737 2 1.9635453
-1.0842022e-19 3.0517831 -3.6893488e+19
-1.6109167 2 1.8557608
3.6893488e+19 3.0707328 0
1.9920131 -3.6893488e+19 1.8346912
-2 3.0493577 -1.0842022e-19
-1.6090207 -1.0842022e-19 1.7871041
-2 3.1338198 -1.0842022e-19
2.0396161 -1.0842022e-19 1.7901877
-2 3.0491045 2
-1.6088228 -1.0842022e-19 1.6904485
-2 3.0468566 -1.0842022e-19
-1.9241574 -1.0842022e-19 1.6207539
-2 3.055769 -1.0842022e-19
1.7872632 -2 1.483032
-1.0842022e-19 3.042928 0
-1.9218526 1.0842022e-19 -1.1526613
2 3.0564866 -2
1.7876439 -3.6893488e+19 -1.5317004
-3.6893488e+19 3.0436068 -3.6893488e+19
-1.9222507 2 -1.6406339
0 3.054846 3.6893488e+19
1.7867733 -0 -1.7139779
0 3.0455205 2
-1.9233735 -1.0842022e-19 -1.7617574
-1.0842022e-19 3.0780895 -0
1.799108 -2 -1.8133535
2 3.0473568 -1.0842022e-19
-1.9244508 3.6893488e+19 -1.8289998
0 3.0686073 2
1.7940761 1.0842022e-19 -1.8770164
0 3.0149651 -3.6893488e+19
-1.9054474 -0 -1.865967
-3.6893488e+19 3.027914 -2
1.7724813 -1.0842022e-19 -1.8918178
-2 3.0120971 -0
-1.903765 -1.0842022e-19 -1.8984655
1.0842022e-19 3.0191035 0
1.7678058 -0 -1.9173816
2 2.8734312 -1.0842022e-19
1.6981696 2 -1.8870007
-0 2.828547 -3.6893488e+19
1.8729093 -3.6893488e+19 -1.8798463
3.6893488e+19 2.8043821 1.0842022e-19
-1.4879485 1.0842022e-19 -1.8786738
2 2.7755687 2
1.8329339 3.6893488e+19 -1.8736707
2 2.7554758 1.0842022e-19
-1.4497163 -1.0842022e-19 -1.8695874
-3.6893488e+19 2.7050812 -0
1.7966937 -3.6893488e+19 -1.8558316
3.6893488e+19 2.6651909 -3.6893488e+19
-1.4122862 -0 -1.8469936
2 2.6396034 -0
1.7719901 -1.0842022e-19 -1.8444661
-2 2.6125062 -3.6893488e+19
-1.3916932 -3.6893488e+19 -1.8391432
3.6893488e+19 2.5851254 2
1.7514366 1.0842022e-19 -1.8325926
-0 2.5667105 3.6893488e+19
-1.3725861 0 -1.8298572
2 2.5472376 -1.0842022e-19
1.7242844 2 -1.825825
3.6893488e+19 2.5309122 -0
-1.344601 0 -1.8224814
-1.0842022e-19 2.5169644 -3.6893488e+19
1.7014414 -1.0842022e-19 -1.8203927
1.0842022e-19 2.5046012 0
-1.3240327 -2 -1.818301
-0 2.4776585 2
1.6802117 2 -1.8132559
-3.6893488e+19 2.458117 1.0842022e-19
-1.3040649 0 -1.8118079
-2 2.4024382 0
-1.6110991 2 -1.806249
1.0842022e-19 2.3467448 1.0842022e-19
-1.5784253 -3.6893488e+19 -1.8007934
-3.6893488e+19 2.3025579 -2
-1.5525022 1.0842022e-19 -1.7955786
2 2.2671244 0
-1.5317143 1.0842022e-19 -1.7908354
0 2.2379968 2
1.5591121 2 -1.7905263
-1.0842022e-19 2.1994641 -2
1.5445744 1.0842022e-19 -1.7903947
3.6893488e+19 2.163975 -0
1.531185 -0 -1.7893133
1.0842022e-19 2.1241984 -2
1.516178 -1.0842022e-19 -1.7844125
-0 3.0970945 -1.0842022e-19
-1.9682057 1.0842022e-19 2.5746555
3.6893488e+19 3.0960982 0
-1.9675794 0 2.5635555
0 3.1018825 -1.0842022e-19
-1.9712156 -3.6893488e+19 2.5584881
-0 3.1886249 -1.0842022e-19
1.820973 -3.6893488e+19 2.6150892
3.6893488e+19 3.10537 2
-1.9734082 0 2.5408227
-1.0842022e-19 3.188607 -1.0842022e-19
1.8209651 0 2.6023331
2 3.1084106 -3.6893488e+19
-1.9753196 -1.0842022e-19 2.5329068
2 3.1912658 -1.0842022e-19
1.822153 3.6893488e+19 2.5916834
0 3.1525338 2
2.0368226 0 2.5329251
-1.0842022e-19 3.1422722 -3.6893488e+19
2.0295107 -2 2.5144386
1.0842022e-19 3.1662765 -3.6893488e+19
-1.7325348 1.0842022e-19 2.5243888
3.6893488e+19 3.1415827 0
2.0290196 -1.0842022e-19 2.5027483
1.0842022e-19 3.0617635 2
-1.6741532 2 2.3931606
-3.6893488e+19 3.1448827 -2
2.0313709 3.6893488e+19 2.4871628
0 3.062284 0
-1.674444 2 2.3759854
-3.6893488e+19 3.0887423 3.6893488e+19
1.9913685 -0 2.3985665
1.0842022e-19 3.14291 -0
2.0299652 1.0842022e-19 2.4399135
-0 3.0557563 3.6893488e+19
-1.6707976 0 2.3333201
-3.6893488e+19 3.1453876 -2
2.0317307 -3.6893488e+19 2.4202077
-2 3.0559154 -3.6893488e+19
-1.6708864 -3.6893488e+19 2.3161299
0 3.1425536 2
2.0297112 1.0842022e-19 2.3949139
0 3.1431284 -0
-1.7196041 0 2.383986
1.0842022e-19 3.1201825 2
-1.9827203 -0 2.3513601
-3.6893488e+19 3.1379664 -3.6893488e+19
1.7983394 3.6893488e+19 2.3570218
2 3.1190829 -0
-1.982029 0 2.3294427
-2 3.1401942 3.6893488e+19
1.7993348 3.6893488e+19 2.3370407
-3.6893488e+19 3.1198266 0
-1.9824966 2 2.3092232
0 3.1606243 -0
1.8084626 2 2.3315332
2 3.1195586 0
-1.9823281 -2 2.2881651
1.0842022e-19 3.1589432 0
1.8077116 3.6893488e+19 2.3071532
-0 3.1201115 0
-1.9826757 -1.0842022e-19 2.2677555
0 3.1601348 0
1.808244 -1.0842022e-19 2.2849841
1.0842022e-19 3.1196511 -1.0842022e-19
-1.9823861 3.6893488e+19 2.2432759
1.0842022e-19 3.1282597 0
1.7940025 -1.0842022e-19 2.2331879
2 3.1200125 -2
-1.9826133 2 2.2021887
1.0842022e-19 3.1313281 2
1.7953734 1.0842022e-19 2.194319
2 3.11992 0
-1.9825553 -3.6893488e+19 2.1605687
1.0842022e-19 3.0724273 2
1.7690572 1.0842022e-19 2.0895457
-2 3.2373519 1.0842022e-19
2.0972593 -2 2.2363703
3.6893488e+19 3.2228835 3.6893488e+19
-1.7570779 0 2.1950145
-0 3.2373648 3.6893488e+19
2.0972683 3.6893488e+19 2.1817868
0 3.213423 -1.0842022e-19
-1.7544355 0 2.1342571
-3.6893488e+19 3.2369795 1.0842022e-19
2.0969939 -1.0842022e-19 2.1269236
3.6893488e+19 3.0618622 1.0842022e-19
-1.6742084 2 1.9737236
1.0842022e-19 3.2388475 -0
2.0983248 -1.0842022e-19 2.0736752
2 3.0611091 -2
-1.6737876 -2 1.9384187
2 3.2347956 -3.6893488e+19
2.0954375 2 2.0167935
-2 3.2528229 0
-1.7662287 -1.0842022e-19 1.9997754
-1.0842022e-19 3.2384887 -0
2.0980692 -1.0842022e-19 1.9642296
0 3.0518711 -2
-1.6686271 2 1.8558325
3.6893488e+19 3.2501373 3.6893488e+19
2.1064672 2 1.9135171
-2 3.0483208 1.0842022e-19
-1.6666441 0 1.7865459
-2 3.1336474 -2
2.0233653 -3.6893488e+19 1.7900937
-1.0842022e-19 3.0492861 -1.0842022e-19
-1.6671833 0 1.690568
-3.6893488e+19 3.0468583 -1.0842022e-19
-1.9366241 -1.0842022e-19 1.6207798
2 3.0553126 -1.0842022e-19
1.7614105 -0 1.4826748
-0 3.0438356 -3.6893488e+19
-1.9347237 0 -1.1531496
-2 3.0978069 3.6893488e+19
1.7803966 -0 -1.5528196
-3.6893488e+19 3.0441084 -2
-1.9348953 3.6893488e+19 -1.6408882
2 3.0549207 -1.0842022e-19
1.7612354 3.6893488e+19 -1.7140218
1.0842022e-19 3.0443983 -2
-1.9350774 0 -1.7612517
3.6893488e+19 3.0487945 -2
-1.9378412 3.6893488e+19 -1.8300065
-1.0842022e-19 3.0973582 -1.0842022e-19
1.7801961 2 -1.8884728
-2 3.0567019 -2
-1.9428123 -0 -1.8894758
-2 3.069119 -1.0842022e-19
1.7675791 0 -1.912838
1.0842022e-19 3.0123832 -1.0842022e-19
-1.9149507 -0 -1.8986423
-3.6893488e+19 3.0170534 3.6893488e+19
1.7386335 -1.0842022e-19 -1.9160999
-1.0842022e-19 2.9130604 -1.0842022e-19
-1.879838 -3.6893488e+19 -1.8900874
-1.0842022e-19 2.864831 3.6893488e+19
1.6630027 1.0842022e-19 -1.8838402
-0 2.8265285 3.6893488e+19
1.8576657 0 -1.8790332
1.0842022e-19 2.8045011 -2
-1.5450963 -2 -1.8787265
0 2.7750409 3.6893488e+19
1.8209784 -3.6893488e+19 -1.8731644
3.6893488e+19 2.7532248 2
-1.5164531 1.0842022e-19 -1.8674372
-3.6893488e+19 2.7035158 -3.6893488e+19
1.7865747 1.0842022e-19 -1.85501
-3.6893488e+19 2.6656816 2
-1.4822026 1.0842022e-19 -1.8472604
-0 2.6403975 0
1.7640876 -3.6893488e+19 -1.844887
-2 2.6128731 0
-1.4527035 1.0842022e-19 -1.8393642
-3.6893488e+19 2.5849166 3.6893488e+19
1.7386426 3.6893488e+19 -1.8324383
1.0842022e-19 2.5654585 -3.6893488e+19
-1.4262172 -2 -1.8290513
-0 2.5451579 -0
1.7103127 -0 -1.8243959
-1.0842022e-19 2.5304086 -2
-1.4066381 -2 -1.8221312
-2 2.5168722 0
1.690158 2 -1.8203018
-1.0842022e-19 2.5043473 3.6893488e+19
-1.3920802 -2 -1.818112
-3.6893488e+19 2.4754789 2
1.6693996 -0 -1.8123744
3.6893488e+19 2.4578595 -3.6893488e+19
-1.3778816 2 -1.8117064
-0 3.0970945 -1.0842022e-19
-1.9682057 1.0842022e-19 2.5746555
3.6893488e+19 3.0960982 0
-1.9675794 0 2.5635555
0 3.1018825 -1.0842022e-19
-1.9712156 -3.6893488e+19 2.5584881
-3.6893488e+19 3.1217206 -0
1.791081 -2 2.5594015
3.6893488e+19 3.10537 2
-1.9734082 0 2.5408227
-0 3.1594727 0
1.8079482 2 2.5789294
2 3.1084106 -3.6893488e+19
-1.9753196 -1.0842022e-19 2.5329068
3.6893488e+19 3.1591771 -3.6893488e+19
1.807816 0 2.5668364
0 3.1525338 2
2.0368226 0 2.5329251
-1.0842022e-19 3.1422722 -3.6893488e+19
2.0295107 -2 2.5144386
2 3.0603342 -2
-1.6733547 1.0842022e-19 2.4091139
3.6893488e+19 3.1415827 0
2.0290196 -1.0842022e-19 2.5027483
1.0842022e-19 3.0617635 2
-1.6741532 2 2.3931606
-3.6893488e+19 3.1448827 -2
2.0313709 3.6893488e+19 2.4871628
0 3.062284 0
-1.674444 2 2.3759854
-3.6893488e+19 3.0887423 3.6893488e+19
1.9913685 -0 2.3985665
2 3.084969 0
1.9886799 -2 2.375041
-0 3.0557563 3.6893488e+19
-1.6707976 0 2.3333201
1.0842022e-19 3.0851636 -2
1.9888184 -0 2.3562031
-2 3.0559154 -3.6893488e+19
-1.6708864 -3.6893488e+19 2.3161299
-2 3.0858061 2
1.9892764 -2 2.3378253
3.6893488e+19 3.0545084 -2
-1.6701005 -0 2.2974269
-1.0842022e-19 3.0591571 -1.0842022e-19
-1.9443558 -0 2.2934377
-3.6893488e+19 3.0608263 2
1.7638741 1.0842022e-19 2.2860346
-2 3.065798 3.6893488e+19
-1.9485308 1.0842022e-19 2.2818809
-0 3.0600429 -1.0842022e-19
1.7635239 -1.0842022e-19 2.2678077
-3.6893488e+19 3.1198266 0
-1.9824966 2 2.3092232
-2 3.056911 -2
1.7621247 -3.6893488e+19 2.2455928
0 3.0525837 0
-1.9402233 2 2.2218823
-1.0842022e-19 3.0599816 0
1.7634966 0 2.2156487
1.0842022e-19 3.055052 2
-1.9417751 2 2.1913772
-1.0842022e-19 3.0703564 1.0842022e-19
1.768132 -1.0842022e-19 2.1952026
-0 3.0556412 -2
-1.9421455 -0 2.1578588
1.0842022e-19 3.1282597 0
1.7940025 -1.0842022e-19 2.2331879
0 3.0560606 -2
-1.942409 -3.6893488e+19 2.1240335
-0 3.0783796 -2
1.7717166 1.0842022e-19 2.1326241
-3.6893488e+19 3.0532875 -3.6893488e+19
-1.9406658 1.0842022e-19 2.0866146
1.0842022e-19 3.0724273 2
1.7690572 1.0842022e-19 2.0895457
-2 3.0628636 0
1.9729289 -2 2.0622334
3.6893488e+19 3.0599525 1.0842022e-19
-1.6731416 -2 2.0416856
0 3.0669508 2
1.975841 -1.0842022e-19 2.0308063
3.6893488e+19 3.0601656 -3.6893488e+19
-1.6732606 3.6893488e+19 2.0071805
-2 3.0651007 -1.0842022e-19
1.9745228 0 1.993889
3.6893488e+19 3.0618622 1.0842022e-19
-1.6742084 2 1.9737236
-0 3.0674763 -2
1.9762155 -2 1.9602071
2 3.0611091 -2
-1.6737876 -2 1.9384187
-3.6893488e+19 3.1502728 -3.6893488e+19
2.0352116 -2 1.9702789
-2 3.2528229 0
-1.7662287 -1.0842022e-19 1.9997754
-1.0842022e-19 3.1494229 -0
2.034606 -2 1.9251692
0 3.0518711 -2
-1.6686271 2 1.8558325
-3.6893488e+19 3.149739 -0
2.0348313 1.0842022e-19 1.8806566
-2 3.0483208 1.0842022e-19
-1.6666441 0 1.7865459
-2 3.1336474 -2
2.0233653 -3.6893488e+19 1.7900937
-1.0842022e-19 3.0492861 -1.0842022e-19
-1.6671833 0 1.690568
-3.6893488e+19 3.0468583 -1.0842022e-19
-1.9366241 -1.0842022e-19 1.6207798
2 3.0553126 -1.0842022e-19
1.7614105 -0 1.4826748
-0 3.0438356 -3.6893488e+19
-1.9347237 0 -1.1531496
-2 3.0554676 0
1.7614799 -1.0842022e-19 -1.5311732
-3.6893488e+19 3.0441084 -2
-1.9348953 3.6893488e+19 -1.6408882
2 3.0549207 -1.0842022e-19
1.7612354 3.6893488e+19 -1.7140218
1.0842022e-19 3.0443983 -2
-1.9350774 0 -1.7612517
3.6893488e+19 3.0487945 -2
-1.9378412 3.6893488e+19 -1.8300065
2 3.0666521 2
1.7664769 1.0842022e-19 -1.8762319
0 3.0150323 -0
-1.9166161 -3.6893488e+19 -1.8660522
-3.6893488e+19 3.0268633 -2
1.7473994 -0 -1.891276
1.0842022e-19 3.0123832 -1.0842022e-19
-1.9149507 -0 -1.8986423
-3.6893488e+19 3.0170534 3.6893488e+19
1.7386335 -1.0842022e-19 -1.9160999
-1.0842022e-19 2.9130604 -1.0842022e-19
-1.879838 -3.6893488e+19 -1.8900874
-1.0842022e-19 2.864831 3.6893488e+19
1.6630027 1.0842022e-19 -1.8838402
-0 2.8265285 3.6893488e+19
1.8576657 0 -1.8790332
1.0842022e-19 2.8045011 -2
-1.5450963 -2 -1.8787265
0 2.7750409 3.6893488e+19
1.8209784 -3.6893488e+19 -1.8731644
3.6893488e+19 2.7532248 2
-1.5164531 1.0842022e-19 -1.8674372
-3.6893488e+19 2.7035158 -3.6893488e+19
1.7865747 1.0842022e-19 -1.85501
-3.6893488e+19 2.6656816 2
-1.4822026 1.0842022e-19 -1.8472604
-0 2.6403975 0
1.7640876 -3.6893488e+19 -1.844887
-2 2.6128731 0
-1.4527035 1.0842022e-19 -1.8393642
-3.6893488e+19 2.5849166 3.6893488e+19
1.7386426 3.6893488e+19 -1.8324383
1.0842022e-19 2.5654585 -3.6893488e+19
-1.4262172 -2 -1.8290513
-0 2.5451579 -0
1.7103127 -0 -1.8243959
-1.0842022e-19 2.5304086 -2
-1.4066381 -2 -1.8221312
-2 2.5168722 0
1.690158 2 -1.8203018
-1.0842022e-19 2.5043473 3.6893488e+19
-1.3920802 -2 -1.818112
-3.6893488e+19 2.4754789 2
1.6693996 -0 -1.8123744
3.6893488e+19 2.4578595 -3.6893488e+19
-1.3778816 2 -1.8117064
2 3.0958111 -2
-1.9819231 1.0842022e-19 2.5734894
-3.6893488e+19 3.0985279 0
-1.9837453 1.0842022e-19 2.5657904
-0 3.1057794 1.0842022e-19
-1.9886086 -3.6893488e+19 2.5619378
-1.0842022e-19 3.1853659 -1.0842022e-19
1.783 3.6893488e+19 2.6123648
-3.6893488e+19 3.107657 -0
-1.9898678 -2 2.5427253
0 3.1887136 -0
1.7842149 -1.0842022e-19 2.6024067
3.6893488e+19 3.1049416 3.6893488e+19
-1.9880466 -3.6893488e+19 2.5301983
-1.0842022e-19 3.1875989 -1.0842022e-19
1.7838104 3.6893488e+19 2.5888329
1.0842022e-19 3.1509495 2
2.0188498 -2 2.5317795
-3.6893488e+19 3.1418548 -2
2.0127516 1.0842022e-19 2.5141275
-3.6893488e+19 3.0570269 -2
-1.723009 0 2.4047647
1.0842022e-19 3.1893437 0
2.0445945 -0 2.5335436
3.6893488e+19 3.2085581 3.6893488e+19
-1.7915368 -1.0842022e-19 2.5391481
-3.6893488e+19 3.144588 -1.0842022e-19
2.0145843 1.0842022e-19 2.4867442
0 3.0622449 2
-1.726799 1.0842022e-19 2.3759482
-1.0842022e-19 3.0938468 0
1.9805608 1.0842022e-19 2.4045267
3.6893488e+19 3.1519265 3.6893488e+19
-1.7709696 3.6893488e+19 2.4610238
-0 3.1432946 -2
2.0137169 3.6893488e+19 2.4402943
-1.0842022e-19 3.0558102 3.6893488e+19
-1.7221253 2 2.3333876
0 3.1457112 0
2.0153375 3.6893488e+19 2.4205039
-3.6893488e+19 3.086092 -2
1.9753609 3.6893488e+19 2.3380747
-3.6893488e+19 3.0580053 -1.0842022e-19
-1.7237197 0 2.3008506
-1.0842022e-19 3.1192439 2
-1.9976387 -0 2.3505065
-0 3.1385071 -1.0842022e-19
1.7659943 3.6893488e+19 2.3575075
1.0842022e-19 3.1181128 3.6893488e+19
-1.9968801 -0 2.3286116
1.0842022e-19 3.1414499 2
1.7670623 -0 2.338114
-2 3.1189177 -1.0842022e-19
-1.99742 -0 2.308496
-3.6893488e+19 3.1616948 -2
1.7744094 -3.6893488e+19 2.3323865
0 3.1198611 2
-1.9980526 -2 2.2884316
2 3.1608856 0
1.7741158 -2 2.3086019
1.0842022e-19 3.0543044 0
-1.9540861 3.6893488e+19 2.1903422
2 3.1609266 -2
1.7741306 -3.6893488e+19 2.2855248
0 3.0573201 3.6893488e+19
-1.9561086 -2 2.1601427
1.0842022e-19 3.1279607 -0
1.7621669 -2 2.23279
-3.6893488e+19 3.0569618 3.6893488e+19
-1.9558684 -1.0842022e-19 2.125175
-1.0842022e-19 3.1290655 2
1.7625679 -1.0842022e-19 2.191668
-2 3.0548127 -1.0842022e-19
-1.954427 -3.6893488e+19 2.0883431
1.0842022e-19 3.1606789 -0
1.7740407 3.6893488e+19 2.1824684
-0 3.2241812 -1.0842022e-19
-1.7972107 -1.0842022e-19 2.1962473
-2 3.06814 -1.0842022e-19
1.9633235 -0 2.0318282
-1.0842022e-19 3.2134731 1.0842022e-19
-1.7933218 0 2.1343088
-0 3.0708444 -0
-1.7330453 2 1.9801733
2 3.0659213 0
1.9618357 0 1.9591539
0 3.0611322 -1.0842022e-19
-1.7259908 -0 1.9384377
-0 3.0674088 2
1.9628332 0 1.9246572
3.6893488e+19 3.0568027 -1.0842022e-19
-1.7228462 2 1.9015563
1.0842022e-19 3.2516534 3.6893488e+19
2.0874839 -3.6893488e+19 1.9707031
-2 3.0507071 0
-1.7184187 0 1.8549486
-0 3.2494574 1.0842022e-19
2.0849028 0 1.9132315
1.0842022e-19 3.0485005 3.6893488e+19
-1.7168158 -1.0842022e-19 1.7866473
3.6893488e+19 3.1362197 3.6893488e+19
2.0089731 2 1.7911818
1.0842022e-19 3.0483723 -3.6893488e+19
-1.7167226 -3.6893488e+19 1.6899909
1.0842022e-19 3.0470142 2
-1.9491968 -2 1.6209348
1.0842022e-19 3.0536354 2
1.7203865 -0 1.4813889
0 3.0433049 -1.0842022e-19
-1.946709 -0 -1.1528891
0 3.0568216 0
1.7226992 0 -1.5318602
0 3.0438588 -0
-1.9470805 0 -1.6407835
3.6893488e+19 3.054837 0
1.7212588 3.6893488e+19 -1.713956
0 3.0431807 -2
-1.9466257 -1.0842022e-19 -1.7607025
0 3.0514321 -0
1.7187873 -0 -1.7980371
3.6893488e+19 3.0477951 3.6893488e+19
-1.9497205 -0 -1.8293425
0 3.056479 -3.6893488e+19
1.7224504 -0 -1.8693447
1.0842022e-19 3.0504274 -2
-1.9514859 0 -1.886637
-1.0842022e-19 3.0657566 0
1.7291845 1.0842022e-19 -1.9111168
0 3.0116377 -2
-1.9254709 -1.0842022e-19 -1.8982357
-0 3.0166252 -3.6893488e+19
1.6935235 0 -1.9158281
3.6893488e+19 2.907963 -3.6893488e+19
-1.886803 3.6893488e+19 -1.8883734
1.0842022e-19 2.8644686 0
1.6322705 3.6893488e+19 -1.8837028
2 2.8289356 3.6893488e+19
1.8455622 -0 -1.8799696
-2 2.8031199 2
-1.5951712 -1.0842022e-19 -1.8781461
-0 2.7743237 -0
1.8089432 -2 -1.8724895
3.6893488e+19 2.7535925 0
-1.5591969 3.6893488e+19 -1.8677956
0 2.703692 2
1.7771077 2 -1.8550732
-0 2.6647978 2
-1.5256442 3.6893488e+19 -1.8467935
-0 2.6405663 -3.6893488e+19
1.7559438 -0 -1.8449572
-1.0842022e-19 2.6099966 -1.0842022e-19
-1.5057417 2 -1.8376704
2 2.5850792 0
1.7246817 3.6893488e+19 -1.8325155
