# .PCD v0.7 - Point Cloud Data file format
VERSION 0.7
FIELDS x y z
SIZE 4 4 4
TYPE F F F
COUNT 1 1 1
WIDTH 1701
HEIGHT 1
VIEWPOINT 0 0 0 1 0 0 0
POINTS 1701
DATA ascii
1.0842022e-19 3.290823 2
2.8782079 1.0842022e-19 2.6417496
-1.0842022e-19 3.331368 -0
2.8541753 0 2.679584
-1.0842022e-19 3.290597 1.0842022e-19
2.8779142 3.6893488e+19 2.6239846
0 3.3284223 3.6893488e+19
2.8510268 -3.6893488e+19 2.6563609
-2 3.2882531 3.6893488e+19
2.874866 -2 2.6036885
3.6893488e+19 3.327486 -0
2.8500261 0 2.6358943
-3.6893488e+19 3.2861106 3.6893488e+19
2.8720798 0 2.5839403
1.0842022e-19 3.2863953 2
2.8724499 1.0842022e-19 2.5671721
3.6893488e+19 3.2906713 -1.0842022e-19
2.8106775 -1.0842022e-19 2.5583413
1.0842022e-19 3.2865775 -2
2.8726866 -3.6893488e+19 2.5502906
-2 3.2863712 -1.0842022e-19
2.8341022 -0 2.5219519
-3.6893488e+19 3.2907047 -1.0842022e-19
2.7729576 3.6893488e+19 2.5137978
1.0842022e-19 3.2864428 0
2.8341856 -0 2.5051782
-3.6893488e+19 3.2951581 3.6893488e+19
2.7771392 3.6893488e+19 2.500736
-2 3.2874999 -1.0842022e-19
2.8354189 2 2.4784768
1.0842022e-19 3.2971959 -3.6893488e+19
2.7790523 2 2.4705482
3.6893488e+19 3.289351 3.6893488e+19
2.8375785 -1.0842022e-19 2.4476302
0 3.2946763 -3.6893488e+19
2.7766864 0 2.4325037
0 3.2896807 3.6893488e+19
2.8379631 -1.0842022e-19 2.4142118
-0 3.2908046 -2
2.7730513 2 2.3932619
2 3.2854505 3.6893488e+19
2.8330278 -1.0842022e-19 2.3747766
3.6893488e+19 3.2922537 -1.0842022e-19
2.7744119 -1.0842022e-19 2.361527
-0 3.2803488 1.0842022e-19
2.827076 -0 2.3353183
-3.6893488e+19 3.2587845 1.0842022e-19
2.7359724 1.0842022e-19 2.2903261
-1.0842022e-19 3.2819641 -1.0842022e-19
2.8289604 -1.0842022e-19 2.3043344
3.6893488e+19 3.2738206 -3.6893488e+19
2.8560967 2 2.2822218
-0 3.2925289 0
2.8126631 -2 2.2798457
1.0842022e-19 3.2804446 -1.0842022e-19
2.864711 1.0842022e-19 2.2560506
-1.0842022e-19 3.291343 -3.6893488e+19
2.8113954 3.6893488e+19 2.2399464
3.6893488e+19 3.2890785 1.0842022e-19
2.8759394 1.0842022e-19 2.2098765
1.0842022e-19 3.2885134 -0
2.8083711 1.0842022e-19 2.168427
-2 3.2959371 2
2.8848588 -2 2.1512296
0 3.3366408 0
2.8598111 -3.6893488e+19 2.1603603
1.0842022e-19 3.2949884 -3.6893488e+19
2.8836248 -0 2.0806611
-3.6893488e+19 3.3364019 -3.6893488e+19
2.8595557 0 2.082315
2 3.3354678 -1.0842022e-19
2.8585572 -3.6893488e+19 2.0038702
2 3.2742529 3.6893488e+19
2.8566589 -1.0842022e-19 1.9286646
-1.0842022e-19 3.2650113 3.6893488e+19
2.7832515 1.0842022e-19 1.8893428
2 3.2740009 -3.6893488e+19
2.8563311 1.0842022e-19 1.8534114
0 3.3393309 -1.0842022e-19
2.8626862 -3.6893488e+19 1.8250958
-0 3.2575121 0
2.7335827 -3.6893488e+19 1.6833731
-2 3.337604 -2
2.8938742 -3.6893488e+19 1.5487005
-2 3.2998035 -2
2.7815008 -1.0842022e-19 -1.4953055
2 3.2607565 2
2.8042181 -3.6893488e+19 -1.6752647
0 3.2697971 3.6893488e+19
2.7533262 1.0842022e-19 -1.7762275
3.6893488e+19 3.2653756 -0
2.809607 -3.6893488e+19 -1.8375368
-1.0842022e-19 3.2514923 1.0842022e-19
2.7222781 3.6893488e+19 -1.8781244
0 3.3056748 -1.0842022e-19
2.8566229 -3.6893488e+19 -1.9434459
-3.6893488e+19 3.2603402 -0
2.7388937 1.0842022e-19 -1.942302
-0 3.2612867 1.0842022e-19
2.8048368 -0 -1.9761071
1.0842022e-19 3.2559295 -3.6893488e+19
2.7306104 -1.0842022e-19 -1.9977325
0 3.2622976 2
2.806016 -1.0842022e-19 -2.0379789
2 3.2158635 3.6893488e+19
2.687423 -1.0842022e-19 -2.0289083
0 3.0882804 -2
2.6446631 2 -1.9750599
-1.0842022e-19 3.0223036 1.0842022e-19
2.5056798 0 -1.9442703
3.6893488e+19 2.9046149 -1.0842022e-19
2.472054 -2 -1.9081434
-0 2.8299351 1.0842022e-19
2.4290724 1.0842022e-19 -1.8898749
-3.6893488e+19 2.8077407 -3.6893488e+19
2.3289218 -1.0842022e-19 -1.8873315
2 2.7693439 -1.0842022e-19
2.3502748 -0 -1.8800267
-3.6893488e+19 2.7566292 -2
2.2742925 1.0842022e-19 -1.879387
-1.0842022e-19 2.6997242 1.0842022e-19
2.2924275 -2 -1.8685793
2 2.6845922 2
2.2145042 -3.6893488e+19 -1.8693006
3.6893488e+19 2.6446121 1.0842022e-19
2.2565916 3.6893488e+19 -1.8619748
2 2.621032 -0
2.1465693 -3.6893488e+19 -1.8551003
2 2.5908389 -2
2.1932523 0 -1.8497844
-0 2.5802679 -2
2.1029994 3.6893488e+19 -1.8490002
1.0842022e-19 2.5474124 -3.6893488e+19
2.1367772 3.6893488e+19 -1.8387007
3.6893488e+19 2.534482 -3.6893488e+19
2.0540621 -3.6893488e+19 -1.8344897
-3.6893488e+19 2.5132556 -1.0842022e-19
2.0923574 3.6893488e+19 -1.8297195
-0 2.5054481 3.6893488e+19
2.02303 -2 -1.8279799
3.6893488e+19 2.4696162 2
2.055362 -1.0842022e-19 -1.8214952
-0 2.4593678 -3.6893488e+19
1.9954925 1.0842022e-19 -1.8208988
2 3.3143816 -0
2.7951889 1.0842022e-19 2.7909157
2 3.3061728 3.6893488e+19
2.7874813 -1.0842022e-19 2.7741187
3.6893488e+19 3.3113043 -0
2.7922995 -3.6893488e+19 2.769388
-3.6893488e+19 3.2791541 2
2.7621121 -3.6893488e+19 2.6998281
-2 3.3143561 3.6893488e+19
2.7951651 0 2.7378759
-3.6893488e+19 3.3186536 1.0842022e-19
2.7992003 -3.6893488e+19 2.7256668
-0 3.2931316 2
2.8812103 1.0842022e-19 2.680202
1.0842022e-19 3.3342135 3.6893488e+19
2.8572166 -3.6893488e+19 2.7228925
-1.0842022e-19 3.2918835 3.6893488e+19
2.8795872 1.0842022e-19 2.6607521
0 3.3329649 -3.6893488e+19
2.8558819 3.6893488e+19 2.7013655
-2 3.2729077 -3.6893488e+19
2.8549097 -3.6893488e+19 2.6176171
-1.0842022e-19 3.331368 -0
2.8541753 0 2.679584
-1.0842022e-19 3.290597 1.0842022e-19
2.8779142 3.6893488e+19 2.6239846
0 3.3284223 3.6893488e+19
2.8510268 -3.6893488e+19 2.6563609
-3.6893488e+19 3.2688735 -1.0842022e-19
2.8496633 -3.6893488e+19 2.5799096
3.6893488e+19 3.327486 -0
2.8500261 0 2.6358943
-3.6893488e+19 3.2861106 3.6893488e+19
2.8720798 0 2.5839403
1.0842022e-19 3.2863953 2
2.8724499 1.0842022e-19 2.5671721
3.6893488e+19 3.2906713 -1.0842022e-19
2.8106775 -1.0842022e-19 2.5583413
2 3.2743535 2
2.8567898 3.6893488e+19 2.5374818
-2 3.2863712 -1.0842022e-19
2.8341022 -0 2.5219519
-3.6893488e+19 3.2907047 -1.0842022e-19
2.7729576 3.6893488e+19 2.5137978
1.0842022e-19 3.2864428 0
2.8341856 -0 2.5051782
2 3.2833259 -0
2.7660291 0 2.481369
-2 3.2874999 -1.0842022e-19
2.8354189 2 2.4784768
0 3.2772698 -3.6893488e+19
2.7603426 -1.0842022e-19 2.4389992
-3.6893488e+19 3.2642288 -0
2.8082693 -1.0842022e-19 2.408766
-2 3.256798 2
2.7322419 3.6893488e+19 2.376909
2 3.2641096 3.6893488e+19
2.80813 -3.6893488e+19 2.3776479
-3.6893488e+19 3.2571032 2
2.732815 -0 2.3476868
-2 3.263618 2
2.8075566 -1.0842022e-19 2.3461123
0 3.2578211 -3.6893488e+19
2.7341626 -2 2.3189325
-0 3.2803488 1.0842022e-19
2.827076 -0 2.3353183
-3.6893488e+19 3.2587845 1.0842022e-19
2.7359724 1.0842022e-19 2.2903261
-2 3.2649896 1.0842022e-19
2.8091569 1.0842022e-19 2.2860134
-1.0842022e-19 3.2612286 -0
2.8397212 0 2.2692435
-0 3.2925289 0
2.8126631 -2 2.2798457
-2 3.2617788 2
2.8404369 3.6893488e+19 2.2280171
0 3.267508 -0
2.7859199 -3.6893488e+19 2.1998632
0 3.2642317 -1.0842022e-19
2.8436265 -0 2.1703491
-3.6893488e+19 3.2676563 1.0842022e-19
2.7860787 -1.0842022e-19 2.1381783
-0 3.2648022 3.6893488e+19
2.8443687 -2 2.1090171
2 3.2639 1.0842022e-19
2.7820637 1.0842022e-19 2.0716906
0 3.2649446 -3.6893488e+19
2.8445535 -1.0842022e-19 2.046984
-2 3.261034 2
2.7790005 -1.0842022e-19 2.0078626
-1.0842022e-19 3.2611725 1.0842022e-19
2.7791486 3.6893488e+19 1.9476464
2 3.2742529 3.6893488e+19
2.8566589 -1.0842022e-19 1.9286646
-1.0842022e-19 3.2650113 3.6893488e+19
2.7832515 1.0842022e-19 1.8893428
2 3.2740009 -3.6893488e+19
2.8563311 1.0842022e-19 1.8534114
0 3.3393309 -1.0842022e-19
2.8626862 -3.6893488e+19 1.8250958
-0 3.2575121 0
2.7335827 -3.6893488e+19 1.6833731
-3.6893488e+19 3.2608042 3.6893488e+19
2.8042738 3.6893488e+19 1.5091863
2 3.2561922 3.6893488e+19
2.7311039 -0 -1.4596218
2 3.2607565 2
2.8042181 -3.6893488e+19 -1.6752647
1.0842022e-19 3.2507529 -2
2.7208893 3.6893488e+19 -1.7655528
3.6893488e+19 3.2653756 -0
2.809607 -3.6893488e+19 -1.8375368
-1.0842022e-19 3.2514923 1.0842022e-19
2.7222781 3.6893488e+19 -1.8781244
3.6893488e+19 3.2645371 3.6893488e+19
2.8086288 -2 -1.917412
-3.6893488e+19 3.2603402 -0
2.7388937 1.0842022e-19 -1.942302
-0 3.2612867 1.0842022e-19
2.8048368 -0 -1.9761071
1.0842022e-19 3.2559295 -3.6893488e+19
2.7306104 -1.0842022e-19 -1.9977325
2 3.2288101 1.0842022e-19
2.7793078 1.0842022e-19 -2.012845
0 3.0216498 0
2.5050659 0 -1.9126344
0 3.0882804 -2
2.6446631 2 -1.9750599
-1.0842022e-19 3.0223036 1.0842022e-19
2.5056798 0 -1.9442703
3.6893488e+19 2.9046149 -1.0842022e-19
2.472054 -2 -1.9081434
-0 2.8299351 1.0842022e-19
2.4290724 1.0842022e-19 -1.8898749
-3.6893488e+19 2.8077407 -3.6893488e+19
2.3289218 -1.0842022e-19 -1.8873315
2 2.7693439 -1.0842022e-19
2.3502748 -0 -1.8800267
-3.6893488e+19 2.7566292 -2
2.2742925 1.0842022e-19 -1.879387
-1.0842022e-19 2.6997242 1.0842022e-19
2.2924275 -2 -1.8685793
2 2.6845922 2
2.2145042 -3.6893488e+19 -1.8693006
3.6893488e+19 2.6446121 1.0842022e-19
2.2565916 3.6893488e+19 -1.8619748
2 2.621032 -0
2.1465693 -3.6893488e+19 -1.8551003
2 2.5908389 -2
2.1932523 0 -1.8497844
-0 2.5802679 -2
2.1029994 3.6893488e+19 -1.8490002
1.0842022e-19 2.5474124 -3.6893488e+19
2.1367772 3.6893488e+19 -1.8387007
3.6893488e+19 2.534482 -3.6893488e+19
2.0540621 -3.6893488e+19 -1.8344897
-3.6893488e+19 2.5132556 -1.0842022e-19
2.0923574 3.6893488e+19 -1.8297195
-0 2.5054481 3.6893488e+19
2.02303 -2 -1.8279799
3.6893488e+19 2.4696162 2
2.055362 -1.0842022e-19 -1.8214952
-0 2.4593678 -3.6893488e+19
1.9954925 1.0842022e-19 -1.8208988
-1.0842022e-19 3.3133857 -0
2.7907934 3.6893488e+19 2.7898171
3.6893488e+19 3.3034897 -0
2.7816107 -3.6893488e+19 2.7715504
3.6893488e+19 3.3128283 -2
2.7902761 -1.0842022e-19 2.735208
0 3.3376327 -2
2.8570855 -0 2.7273982
3.6893488e+19 3.2910016 0
2.8750737 3.6893488e+19 2.659164
-1.0842022e-19 3.3360438 -0
2.8554053 3.6893488e+19 2.7052226
-2 3.2916567 -0
2.8759181 0 2.6425402
1.0842022e-19 3.3319719 -3.6893488e+19
2.8510985 3.6893488e+19 2.6800673
3.6893488e+19 3.2921224 2
2.8765182 2 2.6256292
-1.0842022e-19 3.2905872 2
2.8745396 2 2.6062505
2 3.2863533 3.6893488e+19
2.8690825 0 2.5839403
3.6893488e+19 3.2874932 -3.6893488e+19
2.8705516 2 2.5681183
-2 3.2907987 -2
2.8075533 -1.0842022e-19 2.5582619
1.0842022e-19 3.2752798 -1.0842022e-19
2.8548095 3.6893488e+19 2.538208
-2 3.2865889 -1.0842022e-19
2.8311021 -0 2.5219519
0 3.2991278 1.0842022e-19
2.7775633 3.6893488e+19 2.5212753
-3.6893488e+19 3.2866006 3.6893488e+19
2.8311157 -0 2.505125
3.6893488e+19 3.2986846 -0
2.7771521 -3.6893488e+19 2.5035765
3.6893488e+19 3.2875392 3.6893488e+19
2.8322001 -3.6893488e+19 2.4781785
-3.6893488e+19 3.3009226 2
2.7792289 3.6893488e+19 2.4761579
-3.6893488e+19 3.2913644 -3.6893488e+19
2.8366194 1.0842022e-19 2.450403
-2 3.2711906 2
2.7516403 -3.6893488e+19 2.3977902
-1.0842022e-19 3.2902298 3.6893488e+19
2.8353086 -0 2.4146819
-0 3.2578824 1.0842022e-19
2.7285829 0 2.3485274
-1.0842022e-19 3.2810133 2
2.8246605 -2 2.3686707
-1.0842022e-19 3.2583427 -3.6893488e+19
2.7294371 -0 2.3193829
-3.6893488e+19 3.2805917 -3.6893488e+19
2.8241735 -1.0842022e-19 2.3353541
-3.6893488e+19 3.258563 0
2.7298462 -3.6893488e+19 2.2899003
-0 3.2825379 2
2.826422 -3.6893488e+19 2.3047221
1.0842022e-19 3.2735481 3.6893488e+19
2.8525777 2 2.281702
0 3.2929287 -1.0842022e-19
2.8098059 -3.6893488e+19 2.2800331
3.6893488e+19 3.2620454 2
2.8377519 0 2.2280984
-2 3.2862353 0
2.8027272 3.6893488e+19 2.2310221
-1.0842022e-19 3.2961867 -0
2.8817568 -1.0842022e-19 2.2207854
2 3.2869787 1.0842022e-19
2.8035133 -0 2.1659117
0 3.303098 -1.0842022e-19
2.8906646 1.0842022e-19 2.1605902
-2 3.3363013 -3.6893488e+19
2.8556776 0 2.1596618
3.6893488e+19 3.294733 -2
2.8798831 -0 2.0800951
2 3.3351414 0
2.8544509 -2 2.0808392
3.6893488e+19 3.3064053 -2
2.8949275 -2 2.0212843
3.6893488e+19 3.3243899 0
2.84308 -3.6893488e+19 1.9953163
-3.6893488e+19 3.3066027 -0
2.8951821 -1.0842022e-19 1.9495701
1.0842022e-19 3.2664344 2
2.7817852 1.0842022e-19 1.8899935
3.6893488e+19 3.3063691 -2
2.8948808 1.0842022e-19 1.8775889
-2 3.3431318 -0
2.8629017 3.6893488e+19 1.8271965
-1.0842022e-19 3.3470752 -2
2.8220541 2 1.7469997
1.0842022e-19 3.3326969 -0
2.8843715 1.0842022e-19 1.5460457
-2 3.3462732 3.6893488e+19
2.82131 3.6893488e+19 -1.5165775
-0 3.2625759 -3.6893488e+19
2.8033593 -2 -1.6763536
-2 3.2502515 2
2.7144215 0 -1.7651862
0 3.2647369 0
2.805856 -3.6893488e+19 -1.8368641
2 3.2998903 -2
2.7782707 -0 -1.9026877
-0 3.3052917 3.6893488e+19
2.8527098 -0 -1.9430568
-3.6893488e+19 3.3010526 -3.6893488e+19
2.7793493 -0 -1.9722385
-1.0842022e-19 3.3070745 1.0842022e-19
2.8547697 -0 -2.0155282
-3.6893488e+19 3.2557814 3.6893488e+19
2.724684 3.6893488e+19 -1.9974382
0 3.2619419 2
2.8026268 3.6893488e+19 -2.03737
0 3.2146575 -1.0842022e-19
2.6811597 -2 -2.0280163
-3.6893488e+19 3.0889874 2
2.6416392 -0 -1.975359
3.6893488e+19 3.0219226 -1.0842022e-19
2.5023193 -2 -1.9438798
2 2.8982048 -0
2.4600542 2 -1.9055198
1.0842022e-19 2.828789 0
2.4237781 -1.0842022e-19 -1.8892709
3.6893488e+19 2.8096445 -0
2.3274848 -1.0842022e-19 -1.8880849
3.6893488e+19 2.7720666 3.6893488e+19
2.3506682 3.6893488e+19 -1.8812299
-1.0842022e-19 2.7577729 -0
2.2726247 -0 -1.8798732
-1.0842022e-19 2.7022426 2
2.2914491 -0 -1.8697358
1.0842022e-19 2.6848948 0
2.2099516 -3.6893488e+19 -1.8693006
3.6893488e+19 2.6444719 1.0842022e-19
2.2542186 0 -1.86169
2 2.6206877 1.0842022e-19
2.1420453 -0 -1.8547269
2 2.5918396 2
2.190599 -3.6893488e+19 -1.8502532
-2 2.5804977 3.6893488e+19
2.0995398 3.6893488e+19 -1.8490002
-3.6893488e+19 2.5471902 -3.6893488e+19
2.1330502 -2 -1.8383602
0 2.5337172 -1.0842022e-19
2.0500636 -0 -1.8337811
-2 2.5135972 2
2.0897522 -0 -1.8298116
-1.0842022e-19 2.505265 -1.0842022e-19
2.0199723 1.0842022e-19 -1.8276935
-3.6893488e+19 2.4728556 -3.6893488e+19
2.054733 2 -1.8226831
0 2.4592068 0
1.9928322 2 -1.8206939
0 2.3670797 3.6893488e+19
1.9203082 -1.0842022e-19 -1.796199
-3.6893488e+19 2.3464122 -0
1.9107195 0 -1.8066812
-0 2.3079064 2
1.8928546 -2 -1.8044343
2 2.270453 -2
1.8754778 -3.6893488e+19 -1.7984356
3.6893488e+19 2.231801 -0
1.905249 -2 -1.7975996
0 2.1847477 -1.0842022e-19
1.8900871 2 -1.793882
-0 2.1490474 -2
1.8785836 1.0842022e-19 -1.7921361
-2 2.1115999 -2
1.8580341 3.6893488e+19 -1.7874975
-1.0842022e-19 3.3133857 -0
2.7907934 3.6893488e+19 2.7898171
3.6893488e+19 3.3034897 -0
2.7816107 -3.6893488e+19 2.7715504
-2 3.2733881 -2
2.7536793 -1.0842022e-19 2.6740351
0 3.3376327 -2
2.8570855 -0 2.7273982
3.6893488e+19 3.2910016 0
2.8750737 3.6893488e+19 2.659164
-1.0842022e-19 3.3360438 -0
2.8554053 3.6893488e+19 2.7052226
1.0842022e-19 3.2738295 2
2.8529403 1.0842022e-19 2.6185462
1.0842022e-19 3.3319719 -3.6893488e+19
2.8510985 3.6893488e+19 2.6800673
0 3.2670867 -1.0842022e-19
2.8442495 3.6893488e+19 2.5934367
1.0842022e-19 3.2691457 -2
2.8469033 -3.6893488e+19 2.5799637
2 3.2863533 3.6893488e+19
2.8690825 0 2.5839403
3.6893488e+19 3.2874932 -3.6893488e+19
2.8705516 2 2.5681183
-2 3.2907987 -2
2.8075533 -1.0842022e-19 2.5582619
1.0842022e-19 3.2752798 -1.0842022e-19
2.8548095 3.6893488e+19 2.538208
1.0842022e-19 3.2627103 0
2.8035147 -0 2.4985857
0 3.286828 2
2.7661502 0 2.5101209
3.6893488e+19 3.2615244 -1.0842022e-19
2.8021445 0 2.4656057
-3.6893488e+19 3.2862544 -0
2.7656181 1.0842022e-19 2.4860477
-2 3.2622058 0
2.802932 3.6893488e+19 2.4360492
-2 3.2837873 3.6893488e+19
2.7633288 -2 2.449044
-1.0842022e-19 3.262666 -1.0842022e-19
2.8034635 -3.6893488e+19 2.4060395
-2 3.2711906 2
2.7516403 -3.6893488e+19 2.3977902
2 3.2644749 -1.0842022e-19
2.8055532 -2 2.377883
-0 3.2578824 1.0842022e-19
2.7285829 0 2.3485274
2 3.2634294 -0
2.8043454 -0 2.3456018
-1.0842022e-19 3.2583427 -3.6893488e+19
2.7294371 -0 2.3193829
-0 3.2633281 -2
2.8042283 2 2.3147211
-3.6893488e+19 3.258563 0
2.7298462 -3.6893488e+19 2.2899003
1.0842022e-19 3.2632737 0
2.8041656 3.6893488e+19 2.2839453
1.0842022e-19 3.2735481 3.6893488e+19
2.8525777 2 2.281702
-0 3.284996 2
2.8014164 2 2.27245
3.6893488e+19 3.2620454 2
2.8377519 0 2.2280984
3.6893488e+19 3.2535582 -2
2.768167 0 2.1761076
3.6893488e+19 3.2638614 -2
2.8400924 1.0842022e-19 2.1694047
-0 3.2530682 -1.0842022e-19
2.7676489 -1.0842022e-19 2.116766
3.6893488e+19 3.2653537 0
2.842016 2 2.1094601
1.0842022e-19 3.2588003 3.6893488e+19
2.7737112 -0 2.0652544
3.6893488e+19 3.2651839 3.6893488e+19
2.8417971 -0 2.0470006
-2 3.2596605 -3.6893488e+19
2.774621 2 2.0063274
-2 3.2659972 2
2.8428454 3.6893488e+19 1.9855081
1.0842022e-19 3.2546945 2
2.7693689 0 1.9426099
-2 3.2664559 1.0842022e-19
2.8434367 -0 1.9234382
1.0842022e-19 3.2664344 2
2.7817852 1.0842022e-19 1.8899935
3.6893488e+19 3.3063691 -2
2.8948808 1.0842022e-19 1.8775889
-2 3.3431318 -0
2.8629017 3.6893488e+19 1.8271965
1.0842022e-19 3.2574108 -1.0842022e-19
2.7277074 1.0842022e-19 1.683189
1.0842022e-19 3.2639148 -1.0842022e-19
2.8049061 0 1.5106835
-2 3.3001237 -1.0842022e-19
2.7784874 2 -1.4954176
-0 3.2625759 -3.6893488e+19
2.8033593 -2 -1.6763536
-2 3.2502515 2
2.7144215 0 -1.7651862
0 3.2647369 0
2.805856 -3.6893488e+19 -1.8368641
-0 3.2507176 -3.6893488e+19
2.7152863 3.6893488e+19 -1.8776517
2 3.2633874 2
2.804297 3.6893488e+19 -1.9165579
-3.6893488e+19 3.3010526 -3.6893488e+19
2.7793493 -0 -1.9722385
-1.0842022e-19 3.2622206 3.6893488e+19
2.802949 1.0842022e-19 -1.976743
-3.6893488e+19 3.2557814 3.6893488e+19
2.724684 3.6893488e+19 -1.9974382
-3.6893488e+19 3.2289639 -3.6893488e+19
2.7766783 -3.6893488e+19 -2.0127296
-0 3.0220287 -0
2.5024178 -3.6893488e+19 -1.9127617
-3.6893488e+19 3.0889874 2
2.6416392 -0 -1.975359
3.6893488e+19 3.0219226 -1.0842022e-19
2.5023193 -2 -1.9438798
2 2.8982048 -0
2.4600542 2 -1.9055198
1.0842022e-19 2.828789 0
2.4237781 -1.0842022e-19 -1.8892709
3.6893488e+19 2.8096445 -0
2.3274848 -1.0842022e-19 -1.8880849
3.6893488e+19 2.7720666 3.6893488e+19
2.3506682 3.6893488e+19 -1.8812299
-1.0842022e-19 2.7577729 -0
2.2726247 -0 -1.8798732
-1.0842022e-19 2.7022426 2
2.2914491 -0 -1.8697358
1.0842022e-19 2.6848948 0
2.2099516 -3.6893488e+19 -1.8693006
3.6893488e+19 2.6444719 1.0842022e-19
2.2542186 0 -1.86169
2 2.6206877 1.0842022e-19
2.1420453 -0 -1.8547269
2 2.5918396 2
2.190599 -3.6893488e+19 -1.8502532
-2 2.5804977 3.6893488e+19
2.0995398 3.6893488e+19 -1.8490002
-3.6893488e+19 2.5471902 -3.6893488e+19
2.1330502 -2 -1.8383602
0 2.5337172 -1.0842022e-19
2.0500636 -0 -1.8337811
-2 2.5135972 2
2.0897522 -0 -1.8298116
-1.0842022e-19 2.505265 -1.0842022e-19
2.0199723 1.0842022e-19 -1.8276935
-3.6893488e+19 2.4728556 -3.6893488e+19
2.054733 2 -1.8226831
0 2.4592068 0
1.9928322 2 -1.8206939
0 2.3670797 3.6893488e+19
1.9203082 -1.0842022e-19 -1.796199
-3.6893488e+19 2.3464122 -0
1.9107195 0 -1.8066812
-0 2.3079064 2
1.8928546 -2 -1.8044343
2 2.270453 -2
1.8754778 -3.6893488e+19 -1.7984356
3.6893488e+19 2.231801 -0
1.905249 -2 -1.7975996
0 2.1847477 -1.0842022e-19
1.8900871 2 -1.793882
-0 2.1490474 -2
1.8785836 1.0842022e-19 -1.7921361
-2 2.1115999 -2
1.8580341 3.6893488e+19 -1.7874975
1.0842022e-19 3.3135157 0
2.7874563 0 2.7897623
2 3.3034647 1.0842022e-19
2.7782407 -0 2.7713642
1.0842022e-19 3.2789407 -3.6893488e+19
2.7557549 2 2.7321782
-3.6893488e+19 3.3119097 -0
2.7859838 -1.0842022e-19 2.7334914
0 3.3374629 1.0842022e-19
2.8531277 2 2.7268298
1.0842022e-19 3.2890587 -2
2.8692307 2 2.656091
-2 3.3367527 -1.0842022e-19
2.8523846 -3.6893488e+19 2.7058687
-1.0842022e-19 3.2888007 3.6893488e+19
2.8689015 -1.0842022e-19 2.6383698
-1.0842022e-19 3.2931917 3.6893488e+19
2.8745103 3.6893488e+19 2.6266878
1.0842022e-19 3.2884815 -2
2.8018725 3.6893488e+19 2.6064479
-1.0842022e-19 3.2920833 0
2.8730946 3.6893488e+19 2.607784
1.0842022e-19 3.3014059 1.0842022e-19
2.815397 1.0842022e-19 2.6046712
-2 3.2874637 1.0842022e-19
2.8671937 1.0842022e-19 2.5849538
2 3.2997501 -3.6893488e+19
2.8136642 -0 2.5851126
-0 3.2881775 1.0842022e-19
2.8681054 2 2.5686078
-2 3.2997553 3.6893488e+19
2.8136699 2 2.5675378
2 3.2951686 -3.6893488e+19
2.8088701 2 2.5454013
-1.0842022e-19 3.2796035 2
2.7563629 -3.6893488e+19 2.5196228
2 3.2886257 -1.0842022e-19
2.830183 -3.6893488e+19 2.5236785
3.6893488e+19 3.2850332 1.0842022e-19
2.7613413 -3.6893488e+19 2.508337
0 3.2875335 -2
2.8289335 -0 2.5057628
0 3.2991226 -2
2.7742593 3.6893488e+19 2.5037951
-3.6893488e+19 3.2880247 2
2.8294957 3.6893488e+19 2.4786258
0 3.3026054 -0
2.7774527 -3.6893488e+19 2.4785311
3.6893488e+19 3.2911501 2
2.833071 -1.0842022e-19 2.4497328
-3.6893488e+19 3.2778773 3.6893488e+19
2.7547803 0 2.4073527
-3.6893488e+19 3.2899692 -2
2.8317201 3.6893488e+19 2.4139981
-3.6893488e+19 3.2579925 3.6893488e+19
2.7230966 1.0842022e-19 2.3484659
-3.6893488e+19 3.281045 2
2.821511 3.6893488e+19 2.3684351
-2 3.2586658 -2
2.7243311 3.6893488e+19 2.3195894
3.6893488e+19 3.2816122 2
2.8221598 -2 2.3363204
-3.6893488e+19 3.2577012 -1.0842022e-19
2.7225623 2 2.2887597
-2 3.2827206 0
2.8234279 3.6893488e+19 2.3046899
-3.6893488e+19 3.2819786 3.6893488e+19
2.8601873 -1.0842022e-19 2.2901402
-3.6893488e+19 3.2915909 -3.6893488e+19
2.8051264 0 2.2785628
1.0842022e-19 3.2959294 -1.0842022e-19
2.8780072 2 2.269733
-1.0842022e-19 3.2909012 3.6893488e+19
2.8044047 -0 2.2385266
-1.0842022e-19 3.295826 -3.6893488e+19
2.8778751 0 2.2198174
3.6893488e+19 3.2885506 -0
2.801945 -0 2.167902
2 3.3027279 -0
2.8866913 1.0842022e-19 2.1597447
-0 3.2543862 -3.6893488e+19
2.7661946 -2 2.0596642
-0 3.2956054 1.0842022e-19
2.8775935 1.0842022e-19 2.0807943
-1.0842022e-19 3.2576032 3.6893488e+19
2.7695611 -2 2.0041213
0 3.3116474 3.6893488e+19
2.8980846 -1.0842022e-19 2.0256939
-3.6893488e+19 3.2629397 -1.0842022e-19
2.7751453 0 1.9487085
-1.0842022e-19 3.3116076 0
2.8980341 -3.6893488e+19 1.9526575
-1.0842022e-19 3.2592874 2
2.7713234 1.0842022e-19 1.8861445
-0 3.2649977 -2
2.8384964 -1.0842022e-19 1.8455338
-2 3.3466604 2
2.8178461 -2 1.7465556
0 3.3370936 -1.0842022e-19
2.8856294 -0 1.5481757
1.0842022e-19 3.3470764 -1.0842022e-19
2.8182273 2 -1.5168202
3.6893488e+19 3.2642908 -1.0842022e-19
2.8023443 -1.0842022e-19 -1.6773719
-0 3.3462417 1.0842022e-19
2.8174622 -2 -1.8188409
3.6893488e+19 3.2640347 0
2.8020515 -3.6893488e+19 -1.8361434
-0 3.3001018 -3.6893488e+19
2.7751572 -0 -1.9027032
-3.6893488e+19 3.2627294 2
2.8005583 1.0842022e-19 -1.9160169
0 3.3013868 3.6893488e+19
2.7763355 -3.6893488e+19 -1.9723508
3.6893488e+19 3.3056839 3.6893488e+19
2.8496974 -1.0842022e-19 -2.0141268
-0 3.2543223 0
2.7163663 3.6893488e+19 -1.9958781
-1.0842022e-19 3.2288139 -0
2.7738776 2 -2.01245
3.6893488e+19 3.2138727 1.0842022e-19
2.6753156 -1.0842022e-19 -2.0273793
-0 2.8252001 1.0842022e-19
2.4153965 3.6893488e+19 -1.8876351
-0 2.8078048 3.6893488e+19
2.322093 3.6893488e+19 -1.8871701
-3.6893488e+19 2.7734244 1.0842022e-19
2.3492606 2 -1.8817742
3.6893488e+19 2.7571056 2
2.2690403 -3.6893488e+19 -1.8794477
-2 2.7019095 2
2.2886248 -1.0842022e-19 -1.8693503
3.6893488e+19 2.6847117 -1.0842022e-19
2.2048907 2 -1.8690298
1.0842022e-19 2.6445658 0
2.2520006 -0 -1.8615476
1.0842022e-19 2.6216667 -1.0842022e-19
2.1389191 -0 -1.855175
3.6893488e+19 2.5914145 3.6893488e+19
2.1861079 0 -1.8497844
-1.0842022e-19 2.5809665 -3.6893488e+19
2.0963297 -3.6893488e+19 -1.8491634
-0 2.5473213 3.6893488e+19
2.1297853 -1.0842022e-19 -1.8382751
-1.0842022e-19 2.5334306 -3.6893488e+19
2.0465872 3.6893488e+19 -1.8334268
-2 2.5131073 -3.6893488e+19
2.0860817 3.6893488e+19 -1.8292593
3.6893488e+19 2.5052001 2
2.0170465 3.6893488e+19 -1.8275024
1.0842022e-19 2.47349 -2
2.0524075 -2 -1.822782
2 2.4609666 2
1.9911822 1.0842022e-19 -1.8213086
1.0842022e-19 3.3135157 0
2.7874563 0 2.7897623
1.0842022e-19 3.2781971 1.0842022e-19
2.7550733 -3.6893488e+19 2.7475388
1.0842022e-19 3.2789407 -3.6893488e+19
2.7557549 2 2.7321782
0 3.2733738 -0
2.7506509 0 2.6737568
0 3.3374629 1.0842022e-19
2.8531277 2 2.7268298
1.0842022e-19 3.2890587 -2
2.8692307 2 2.656091
-2 3.3367527 -1.0842022e-19
2.8523846 -3.6893488e+19 2.7058687
-1.0842022e-19 3.2733686 -3.6893488e+19
2.849189 -3.6893488e+19 2.6176171
-0 3.2676053 2
2.8418274 1.0842022e-19 2.5938148
1.0842022e-19 3.2884815 -2
2.8018725 3.6893488e+19 2.6064479
1.0842022e-19 3.2695339 2
2.8442907 2 2.5801623
1.0842022e-19 3.2840309 1.0842022e-19
2.7972155 2 2.5842257
-2 3.2874637 1.0842022e-19
2.8671937 1.0842022e-19 2.5849538
3.6893488e+19 3.2854142 -2
2.7986629 -3.6893488e+19 2.5690854
-1.0842022e-19 3.270705 2
2.8457868 -3.6893488e+19 2.5492902
-2 3.2997553 3.6893488e+19
2.8136699 2 2.5675378
2 3.2951686 -3.6893488e+19
2.8088701 2 2.5454013
-1.0842022e-19 3.2796035 2
2.7563629 -3.6893488e+19 2.5196228
-0 3.2621169 0
2.7998576 1.0842022e-19 2.4970856
3.6893488e+19 3.2850332 1.0842022e-19
2.7613413 -3.6893488e+19 2.508337
1.0842022e-19 3.2624533 -1.0842022e-19
2.8002422 -2 2.4669077
0 3.2991226 -2
2.7742593 3.6893488e+19 2.5037951
0 3.2624333 3.6893488e+19
2.8002193 -3.6893488e+19 2.4360988
2 3.2780919 -3.6893488e+19
2.7549767 -0 2.4397664
1.0842022e-19 3.2632527 -0
2.8011568 -2 2.4066403
-3.6893488e+19 3.2778773 3.6893488e+19
2.7547803 0 2.4073527
-3.6893488e+19 3.2899692 -2
2.8317201 3.6893488e+19 2.4139981
-3.6893488e+19 3.2579925 3.6893488e+19
2.7230966 1.0842022e-19 2.3484659
2 3.2641668 -1.0842022e-19
2.8022025 0 2.3463087
-2 3.2586658 -2
2.7243311 3.6893488e+19 2.3195894
2 3.2635863 0
2.8015385 -1.0842022e-19 2.3147926
-3.6893488e+19 3.2577012 -1.0842022e-19
2.7225623 2 2.2887597
0 3.2625275 3.6893488e+19
2.8003271 2 2.2829275
1.0842022e-19 3.2708957 -1.0842022e-19
2.8460302 -0 2.2787364
-2 3.2538178 3.6893488e+19
2.7656 -0 2.2349546
-0 3.2640491 1.0842022e-19
2.8372848 -3.6893488e+19 2.2313495
0 3.2538385 -2
2.7656214 3.6893488e+19 2.176285
-0 3.2624922 0
2.8352962 0 2.1668782
2 3.2538919 3.6893488e+19
2.7656775 2 2.1177065
2 3.3027279 -0
2.8866913 1.0842022e-19 2.1597447
-0 3.2543862 -3.6893488e+19
2.7661946 -2 2.0596642
2 3.2647076 -3.6893488e+19
2.8381257 -2 2.0462182
-1.0842022e-19 3.2576032 3.6893488e+19
2.7695611 -2 2.0041213
-2 3.2662058 3.6893488e+19
2.8400397 0 1.985495
-3.6893488e+19 3.2629397 -1.0842022e-19
2.7751453 0 1.9487085
-0 3.2667394 -3.6893488e+19
2.8407211 3.6893488e+19 1.9234769
-1.0842022e-19 3.2592874 2
2.7713234 1.0842022e-19 1.8861445
-0 3.2649977 -2
2.8384964 -1.0842022e-19 1.8455338
2 3.2569265 -1.0842022e-19
2.7211416 -3.6893488e+19 1.682734
-2 3.2649846 1.0842022e-19
2.8031383 -3.6893488e+19 1.511131
1.0842022e-19 3.3470764 -1.0842022e-19
2.8182273 2 -1.5168202
3.6893488e+19 3.2642908 -1.0842022e-19
2.8023443 -1.0842022e-19 -1.6773719
2 3.2490695 3.6893488e+19
2.7075868 1.0842022e-19 -1.7647002
3.6893488e+19 3.2640347 0
2.8020515 -3.6893488e+19 -1.8361434
-2 3.2496367 1.0842022e-19
2.708107 3.6893488e+19 -1.877117
-3.6893488e+19 3.2627294 2
2.8005583 1.0842022e-19 -1.9160169
2 3.2488093 0
2.7073483 1.0842022e-19 -1.9340006
-1.0842022e-19 3.2621176 -1.0842022e-19
2.7998583 0 -1.9764835
-0 3.2543223 0
2.7163663 3.6893488e+19 -1.9958781
-1.0842022e-19 3.2288139 -0
2.7738776 2 -2.01245
3.6893488e+19 3.2138727 1.0842022e-19
2.6753156 -1.0842022e-19 -2.0273793
-0 2.8252001 1.0842022e-19
2.4153965 3.6893488e+19 -1.8876351
-0 2.8078048 3.6893488e+19
2.322093 3.6893488e+19 -1.8871701
-3.6893488e+19 2.7734244 1.0842022e-19
2.3492606 2 -1.8817742
3.6893488e+19 2.7571056 2
2.2690403 -3.6893488e+19 -1.8794477
-2 2.7019095 2
2.2886248 -1.0842022e-19 -1.8693503
3.6893488e+19 2.6847117 -1.0842022e-19
2.2048907 2 -1.8690298
1.0842022e-19 2.6445658 0
2.2520006 -0 -1.8615476
1.0842022e-19 2.6216667 -1.0842022e-19
2.1389191 -0 -1.855175
3.6893488e+19 2.5914145 3.6893488e+19
2.1861079 0 -1.8497844
-1.0842022e-19 2.5809665 -3.6893488e+19
2.0963297 -3.6893488e+19 -1.8491634
-0 2.5473213 3.6893488e+19
2.1297853 -1.0842022e-19 -1.8382751
-1.0842022e-19 2.5334306 -3.6893488e+19
2.0465872 3.6893488e+19 -1.8334268
-2 2.5131073 -3.6893488e+19
2.0860817 3.6893488e+19 -1.8292593
3.6893488e+19 2.5052001 2
2.0170465 3.6893488e+19 -1.8275024
1.0842022e-19 2.47349 -2
2.0524075 -2 -1.822782
2 2.4609666 2
1.9911822 1.0842022e-19 -1.8213086
2 3.3149812 1.0842022e-19
2.7853303 2 2.7909431
-3.6893488e+19 3.3036158 1.0842022e-19
2.7750349 -3.6893488e+19 2.7713375
2 3.2789431 2
2.7526846 -2 2.7318947
-2 3.2709417 -3.6893488e+19
2.7408731 -3.6893488e+19 2.6858048
3.6893488e+19 3.3122456 3.6893488e+19
2.7828522 -1.0842022e-19 2.7337234
2 3.2897327 0
2.8667512 -2 2.6741436
1.0842022e-19 3.337678 2
2.8495772 0 2.7268088
-1.0842022e-19 3.2896519 -0
2.8666489 2 2.6565859
0 3.3371465 -0
2.8490269 -0 2.7060909
-2 3.2894382 -0
2.8663785 -2 2.6389034
3.6893488e+19 3.3000779 2
2.8106523 -3.6893488e+19 2.6205239
-3.6893488e+19 3.2698023 3.6893488e+19
2.8415229 2 2.5802164
-3.6893488e+19 3.3012667 3.6893488e+19
2.811883 2 2.6042662
-2 3.2871718 3.6893488e+19
2.8635097 2 2.5843353
3.6893488e+19 3.3004041 3.6893488e+19
2.8109899 -3.6893488e+19 2.5856149
2 3.2888458 2
2.8656285 -2 2.5690808
-0 3.2999597 -3.6893488e+19
2.8105297 2 2.5675378
-2 3.2790589 0
2.7527897 -0 2.5189373
0 3.2880492 -1.0842022e-19
2.8262627 -1.0842022e-19 2.5229285
-3.6893488e+19 3.2918286 -0
2.8305438 -3.6893488e+19 2.5093901
-2 3.2990129 -0
2.7708652 0 2.503551
-2 3.2925477 -0
2.8313582 -1.0842022e-19 2.4857798
1.0842022e-19 3.3030741 3.6893488e+19
2.774544 -0 2.4789867
-0 3.2909479 0
2.8295462 1.0842022e-19 2.449086
-1.0842022e-19 3.2899158 -3.6893488e+19
2.828377 0 2.4136136
2 3.2918634 -3.6893488e+19
2.7643886 -3.6893488e+19 2.3939793
1.0842022e-19 3.2832479 1.0842022e-19
2.8208246 -1.0842022e-19 2.3710463
3.6893488e+19 3.2823019 0
2.8197532 -0 2.3368931
2 3.2530811 -2
2.7085142 -3.6893488e+19 2.2834134
2 3.2832015 3.6893488e+19
2.8207719 1.0842022e-19 2.3049808
-0 3.2795668 -3.6893488e+19
2.8538828 -2 2.2874191
-1.0842022e-19 3.2900229 2
2.8002429 2 2.276876
-3.6893488e+19 3.2781918 3.6893488e+19
2.8521426 0 2.2533548
1.0842022e-19 3.2923081 -1.0842022e-19
2.8026085 -0 2.2405548
3.6893488e+19 3.2765048 -2
2.8500068 1.0842022e-19 2.188767
1.0842022e-19 3.2905457 0
2.8007841 2 2.1705048
-1.0842022e-19 3.3036795 -1.0842022e-19
2.8844054 2 2.1606908
2 3.255255 2
2.7642498 -2 2.0605102
2 3.2621031 3.6893488e+19
2.7713392 -1.0842022e-19 2.0083842
3.6893488e+19 3.3120706 0
2.8950272 -3.6893488e+19 2.0258386
0 3.2637694 3.6893488e+19
2.7730641 -1.0842022e-19 1.9491996
-2 3.3119266 -3.6893488e+19
2.8948448 -1.0842022e-19 1.9526962
2 3.2550931 2
2.7640822 -0 1.8838509
-2 3.2729194 -1.0842022e-19
2.8454685 -3.6893488e+19 1.8519374
-3.6893488e+19 3.2615435 3.6893488e+19
2.7707601 0 1.7789083
2 3.3477969 -0
2.8150568 -0 1.7472163
-1.0842022e-19 3.3375702 3.6893488e+19
2.8823535 -0 1.5482914
3.6893488e+19 3.2520087 -3.6893488e+19
2.7065713 1.0842022e-19 -1.4558257
1.0842022e-19 3.26545 -3.6893488e+19
2.8006654 -0 -1.6780171
1.0842022e-19 3.247752 2
2.7008958 -0 -1.7642483
1.0842022e-19 3.2640662 -2
2.799098 2 -1.8360113
-1.0842022e-19 3.2511253 0
2.7049713 3.6893488e+19 -1.8777059
2 3.2616026 1.0842022e-19
2.7963078 0 -1.9151818
-1.0842022e-19 3.2481623 -1.0842022e-19
2.7012675 0 -1.9336524
1.0842022e-19 3.2614865 2
2.7961762 2 -1.9757698
2 3.2513971 -0
2.7054634 -3.6893488e+19 -1.992905
3.6893488e+19 3.2629654 -1.0842022e-19
2.7978513 -3.6893488e+19 -2.0380611
1.0842022e-19 3.2132967 2
2.6696839 0 -2.0268698
3.6893488e+19 2.8317196 -3.6893488e+19
2.4198992 0 -1.8902776
3.6893488e+19 2.8091626 -3.6893488e+19
2.3200569 -3.6893488e+19 -1.8876812
-1.0842022e-19 2.771451 2
2.3436098 -3.6893488e+19 -1.8807142
-0 2.7554085 1.0842022e-19
2.2644088 -3.6893488e+19 -1.8785057
2 2.7027617 -0
2.2865586 -0 -1.8696073
-3.6893488e+19 2.6850078 -0
2.2003369 2 -1.8690298
-2 2.6423979 -2
2.2467074 -1.0842022e-19 -1.8600522
-0 2.6227646 3.6893488e+19
2.1359003 -3.6893488e+19 -1.8556978
-3.6893488e+19 2.5918174 0
2.1826816 -0 -1.8498625
-3.6893488e+19 2.5799859 1.0842022e-19
2.0916142 0 -1.8483472
-0 2.5467377 -1.0842022e-19
2.1256182 2 -1.8376794
-2 2.5369987 -0
2.0471122 -3.6893488e+19 -1.835907
1.0842022e-19 2.5126145 -0
2.0824242 3.6893488e+19 -1.828707
-2 2.505374 3.6893488e+19
2.0143731 3.6893488e+19 -1.8275024
-3.6893488e+19 2.4748328 -0
2.0505278 2 -1.8231781
-0 2.4615214 -3.6893488e+19
1.9888923 -0 -1.821411
-3.6893488e+19 2.368974 -1.0842022e-19
1.9171202 -2 -1.7968761
3.6893488e+19 2.3470702 -0
1.9071993 -3.6893488e+19 -1.8068078
2 2.3073106 -3.6893488e+19
1.8891908 -3.6893488e+19 -1.8038722
0 2.2722232 -0
1.8715973 1.0842022e-19 -1.7993615
2 2.2307277 -3.6893488e+19
1.9021293 3.6893488e+19 -1.7969273
-0 2.1850064 0
1.8876606 2 -1.7937002
-3.6893488e+19 2.147845 -1.0842022e-19
1.8759006 -3.6893488e+19 -1.7913541
1.0842022e-19 2.1126714 2
1.8545394 -2 -1.7877066
2 3.3149812 1.0842022e-19
2.7853303 2 2.7909431
-0 3.2755339 0
2.749193 0 2.7424824
2 3.2789431 2
2.7526846 -2 2.7318947
-2 3.2709417 -3.6893488e+19
2.7408731 -3.6893488e+19 2.6858048
-2 3.272788 -2
2.7442181 1.0842022e-19 2.6725969
2 3.2897327 0
2.8667512 -2 2.6741436
1.0842022e-19 3.337678 2
2.8495772 0 2.7268088
-1.0842022e-19 3.2896519 -0
2.8666489 2 2.6565859
0 3.3371465 -0
2.8490269 -0 2.7060909
-2 3.2894382 -0
2.8663785 -2 2.6389034
-1.0842022e-19 3.2887976 2
2.7989745 1.0842022e-19 2.6065958
-3.6893488e+19 3.2698023 3.6893488e+19
2.8415229 2 2.5802164
-0 3.2844191 0
2.7944417 -0 2.5844545
-2 3.2871718 3.6893488e+19
2.8635097 2 2.5843353
-3.6893488e+19 3.2856386 -0
2.7957041 3.6893488e+19 2.569119
-2 3.2698374 3.6893488e+19
2.8415673 -3.6893488e+19 2.5480828
-0 3.2999597 -3.6893488e+19
2.8105297 2 2.5675378
-2 3.2790589 0
2.7527897 -0 2.5189373
-3.6893488e+19 3.2621031 2
2.7968748 0 2.4966893
2 3.2623649 2
2.7971711 -3.6893488e+19 2.4664028
2 3.2625117 -3.6893488e+19
2.7256 3.6893488e+19 2.4451988
1.0842022e-19 3.2632272 0
2.7981479 2 2.4370925
-3.6893488e+19 3.2627399 -1.0842022e-19
2.7260137 3.6893488e+19 2.4152417
0 3.2621915 -1.0842022e-19
2.7969747 1.0842022e-19 2.4046996
3.6893488e+19 3.2644668 -3.6893488e+19
2.7995517 -1.0842022e-19 2.377306
2 3.2918634 -3.6893488e+19
2.7643886 -3.6893488e+19 2.3939793
-0 3.2653079 1.0842022e-19
2.8005047 0 2.3475456
-3.6893488e+19 3.2642624 -3.6893488e+19
2.7993205 3.6893488e+19 2.3153653
2 3.2530811 -2
2.7085142 -3.6893488e+19 2.2834134
-2 3.2637281 3.6893488e+19
2.7987154 3.6893488e+19 2.2840099
-3.6893488e+19 3.2686231 -1.0842022e-19
2.8400302 -3.6893488e+19 2.2761681
3.6893488e+19 3.2543533 0
2.7633164 0 2.2356467
2 3.2583041 -1.0842022e-19
2.826968 3.6893488e+19 2.220485
3.6893488e+19 3.254087 -2
2.7630405 0 2.1764119
3.6893488e+19 3.2765048 -2
2.8500068 1.0842022e-19 2.188767
-0 3.2540801 -2
2.7630334 1.0842022e-19 2.1177285
-1.0842022e-19 3.3036795 -1.0842022e-19
2.8844054 2 2.1606908
2 3.255255 2
2.7642498 -2 2.0605102
2 3.2621031 3.6893488e+19
2.7713392 -1.0842022e-19 2.0083842
-1.0842022e-19 3.2593539 -0
2.8282969 -2 1.9792426
0 3.2637694 3.6893488e+19
2.7730641 -1.0842022e-19 1.9491996
-2 3.2727849 -2
2.8452983 1.0842022e-19 1.9272612
2 3.2550931 2
2.7640822 -0 1.8838509
-3.6893488e+19 3.262403 -0
2.8321567 2 1.8431929
-3.6893488e+19 3.2615435 3.6893488e+19
2.7707601 0 1.7789083
1.0842022e-19 3.2582228 3.6893488e+19
2.7178297 -2 1.6835464
-2 3.2660842 2
2.801384 3.6893488e+19 1.5115942
3.6893488e+19 3.2520087 -3.6893488e+19
2.7065713 1.0842022e-19 -1.4558257
1.0842022e-19 3.26545 -3.6893488e+19
2.8006654 -0 -1.6780171
1.0842022e-19 3.247752 2
2.7008958 -0 -1.7642483
1.0842022e-19 3.2640662 -2
2.799098 2 -1.8360113
-1.0842022e-19 3.2511253 0
2.7049713 3.6893488e+19 -1.8777059
2 3.2616026 1.0842022e-19
2.7963078 0 -1.9151818
-1.0842022e-19 3.2481623 -1.0842022e-19
2.7012675 0 -1.9336524
1.0842022e-19 3.2614865 2
2.7961762 2 -1.9757698
2 3.2513971 -0
2.7054634 -3.6893488e+19 -1.992905
1.0842022e-19 3.2295315 -1.0842022e-19
2.7715738 -2 -2.0126474
1.0842022e-19 3.2132967 2
2.6696839 0 -2.0268698
3.6893488e+19 2.8317196 -3.6893488e+19
2.4198992 0 -1.8902776
3.6893488e+19 2.8091626 -3.6893488e+19
2.3200569 -3.6893488e+19 -1.8876812
-1.0842022e-19 2.771451 2
2.3436098 -3.6893488e+19 -1.8807142
-0 2.7554085 1.0842022e-19
2.2644088 -3.6893488e+19 -1.8785057
2 2.7027617 -0
2.2865586 -0 -1.8696073
-3.6893488e+19 2.6850078 -0
2.2003369 2 -1.8690298
-2 2.6423979 -2
2.2467074 -1.0842022e-19 -1.8600522
-0 2.6227646 3.6893488e+19
2.1359003 -3.6893488e+19 -1.8556978
-3.6893488e+19 2.5918174 0
2.1826816 -0 -1.8498625
-3.6893488e+19 2.5799859 1.0842022e-19
2.0916142 0 -1.8483472
-0 2.5467377 -1.0842022e-19
2.1256182 2 -1.8376794
-2 2.5369987 -0
2.0471122 -3.6893488e+19 -1.835907
1.0842022e-19 2.5126145 -0
2.0824242 3.6893488e+19 -1.828707
-2 2.505374 3.6893488e+19
2.0143731 3.6893488e+19 -1.8275024
-3.6893488e+19 2.4748328 -0
2.0505278 2 -1.8231781
-0 2.4615214 -3.6893488e+19
1.9888923 -0 -1.821411
-3.6893488e+19 2.368974 -1.0842022e-19
1.9171202 -2 -1.7968761
3.6893488e+19 2.3470702 -0
1.9071993 -3.6893488e+19 -1.8068078
2 2.3073106 -3.6893488e+19
1.8891908 -3.6893488e+19 -1.8038722
0 2.2722232 -0
1.8715973 1.0842022e-19 -1.7993615
2 2.2307277 -3.6893488e+19
1.9021293 3.6893488e+19 -1.7969273
-0 2.1850064 0
1.8876606 2 -1.7937002
-3.6893488e+19 2.147845 -1.0842022e-19
1.8759006 -3.6893488e+19 -1.7913541
1.0842022e-19 2.1126714 2
1.8545394 -2 -1.7877066
0 3.3152413 -0
2.7820973 2 2.7910118
0 3.3044207 1.0842022e-19
2.7724144 0 2.7718966
0 3.2794955 -2
2.7501097 -3.6893488e+19 2.7325644
-0 3.2710567 2
2.7351167 3.6893488e+19 2.6857328
-0 3.2726343 -2
2.7379401 -3.6893488e+19 2.6721096
-3.6893488e+19 3.2899716 0
2.8637159 -2 2.6741436
-3.6893488e+19 3.2901261 -3.6893488e+19
2.8639095 -0 2.6569159
-2 3.2883816 -3.6893488e+19
2.8617213 -3.6893488e+19 2.6371641
-3.6893488e+19 3.2896397 1.0842022e-19
2.8632996 0 2.6215084
0 3.300415 2
2.8076468 2 2.6206903
0 3.2698333 0
2.8384559 -0 2.5799818
2 3.3001661 3.6893488e+19
2.8073919 2 2.6027341
-3.6893488e+19 3.2872906 2
2.860353 -2 2.5841978
0 3.3012516 -1.0842022e-19
2.8085034 2 2.5863352
-1.0842022e-19 3.2704 2
2.8391669 -2 2.5484581
3.6893488e+19 3.3003421 2
2.8075721 -2 2.5677283
1.0842022e-19 3.278739 -3.6893488e+19
2.7488656 -2 2.5184705
1.0842022e-19 3.2885756 -0
2.8235972 1.0842022e-19 2.5232258
2 3.2922685 3.6893488e+19
2.8277383 -2 2.5095894
1.0842022e-19 3.2625604 -3.6893488e+19
2.7199104 -1.0842022e-19 2.4450188
2 3.2924643 0
2.8279579 -3.6893488e+19 2.4852829
3.6893488e+19 3.3022206 -3.6893488e+19
2.7704456 -3.6893488e+19 2.4773564
-0 3.2922711 0
2.8277414 -1.0842022e-19 2.4507957
-0 3.2615767 2
2.7181501 0 2.3830023
0 3.2908194 -0
2.8261132 0 2.4145966
-0 3.2926888 2
2.7619162 3.6893488e+19 2.394861
-3.6893488e+19 3.2839367 1.0842022e-19
2.8183956 -3.6893488e+19 2.3716745
2 3.2782528 0
2.7479959 -2 2.3433821
-3.6893488e+19 3.2844009 2
2.8189161 -3.6893488e+19 2.3391478
2 3.2920682 -1.0842022e-19
2.7613606 -1.0842022e-19 2.3268807
-3.6893488e+19 3.2828097 3.6893488e+19
2.8171318 -1.0842022e-19 2.3043344
0 3.2682943 -0
2.8365254 -1.0842022e-19 2.2756026
1.0842022e-19 3.2866068 1.0842022e-19
2.7935061 1.0842022e-19 2.2734303
-1.0842022e-19 3.2782576 -2
2.8490226 -3.6893488e+19 2.2532055
-1.0842022e-19 3.2536535 -0
2.7597597 -0 2.1753976
-1.0842022e-19 3.2763903 0
2.8466806 2 2.1882238
-0 3.2542059 1.0842022e-19
2.7603254 -3.6893488e+19 2.1176627
1.0842022e-19 3.3059859 1.0842022e-19
2.8838027 -2 2.1634686
-2 3.2547765 -3.6893488e+19
2.7609096 1.0842022e-19 2.0597196
0 3.3055131 -1.0842022e-19
2.8832095 1.0842022e-19 2.0913153
-3.6893488e+19 3.2641709 -1.0842022e-19
2.7705302 3.6893488e+19 2.0102475
2 3.2590761 -3.6893488e+19
2.8249629 1.0842022e-19 1.9788083
-3.6893488e+19 3.2649457 -3.6893488e+19
2.7713237 -1.0842022e-19 1.9499533
1.0842022e-19 3.2532673 0
2.7593641 -2 1.8828033
-1.0842022e-19 3.2720861 -3.6893488e+19
2.8412817 0 1.8510581
1.0842022e-19 3.2918713 -2
2.7988973 -2 1.7966391
-3.6893488e+19 3.3490691 -3.6893488e+19
2.8123686 0 1.7479746
1.0842022e-19 3.3374884 2
2.8784461 2 1.5481217
-1.0842022e-19 3.2504036 -0
2.6981535 2 -1.4543943
-1.0842022e-19 3.3350925 1.0842022e-19
2.8757596 2 -1.7245555
2 3.2463071 1.0842022e-19
2.6941264 -3.6893488e+19 -1.7637622
2 3.2625461 0
2.7944088 -3.6893488e+19 -1.8346418
-1.0842022e-19 3.2497416 0
2.6971998 2 -1.8769931
3.6893488e+19 3.2618859 1.0842022e-19
2.7936685 -2 -1.9152386
-0 3.2466571 0
2.6944396 2 -1.9329896
2 3.2612884 -3.6893488e+19
2.7929983 2 -1.9754324
-2 3.2502801 -2
2.6979325 3.6893488e+19 -1.9916835
2 3.2616558 -3.6893488e+19
2.7934103 1.0842022e-19 -2.0364153
2 3.2117107 -0
2.6631672 0 -2.0257595
-0 2.8312786 -1.0842022e-19
2.4155276 -1.0842022e-19 -1.8899755
0 2.8107617 -3.6893488e+19
2.3182423 2 -1.8883002
3.6893488e+19 2.7728658 1.0842022e-19
2.3422596 0 -1.8812872
-1.0842022e-19 2.7558224 3.6893488e+19
2.2619808 -0 -1.8786273
-2 2.7075391 -2
2.2869489 -3.6893488e+19 -1.8719846
-0 2.6854219 1.0842022e-19
2.1959038 3.6893488e+19 -1.8690975
-0 2.6431975 0
2.2431936 -3.6893488e+19 -1.860337
-3.6893488e+19 2.622895 2
2.1318717 3.6893488e+19 -1.8556231
-2 2.5916238 0
2.178504 0 -1.8495499
2 2.5803292 -2
2.0882809 -3.6893488e+19 -1.8484287
3.6893488e+19 2.5472202 3.6893488e+19
2.1228077 1.0842022e-19 -1.8378496
-3.6893488e+19 2.537554 -1.0842022e-19
2.0444763 0 -1.8361728
0 2.5128312 0
2.0796731 3.6893488e+19 -1.828707
2 2.5056667 3.6893488e+19
2.0118213 -1.0842022e-19 -1.8275979
2 2.4764116 3.6893488e+19
2.048785 2 -1.823673
0 2.4615917 -3.6893488e+19
1.9863516 1.0842022e-19 -1.8213086
0 3.3152413 -0
2.7820973 2 2.7910118
0 3.3044207 1.0842022e-19
2.7724144 0 2.7718966
0 3.2794955 -2
2.7501097 -3.6893488e+19 2.7325644
-0 3.2710567 2
2.7351167 3.6893488e+19 2.6857328
-0 3.2726343 -2
2.7379401 -3.6893488e+19 2.6721096
-3.6893488e+19 3.2899716 0
2.8637159 -2 2.6741436
-3.6893488e+19 3.2901261 -3.6893488e+19
2.8639095 -0 2.6569159
-2 3.2883816 -3.6893488e+19
2.8617213 -3.6893488e+19 2.6371641
-3.6893488e+19 3.2896397 1.0842022e-19
2.8632996 0 2.6215084
2 3.288708 3.6893488e+19
2.7956579 1.0842022e-19 2.6062448
0 3.2698333 0
2.8384559 -0 2.5799818
-1.0842022e-19 3.2848206 2
2.791677 -1.0842022e-19 2.5847011
-3.6893488e+19 3.2872906 2
2.860353 -2 2.5841978
-0 3.2858312 2
2.792712 3.6893488e+19 2.569119
-1.0842022e-19 3.2704 2
2.8391669 -2 2.5484581
3.6893488e+19 3.3003421 2
2.8075721 -2 2.5677283
1.0842022e-19 3.278739 -3.6893488e+19
2.7488656 -2 2.5184705
-2 3.2629542 3.6893488e+19
2.7948666 0 2.4979348
-1.0842022e-19 3.2624238 1.0842022e-19
2.7942717 -3.6893488e+19 2.4661636
1.0842022e-19 3.2625604 -3.6893488e+19
2.7199104 -1.0842022e-19 2.4450188
-0 3.2627926 -3.6893488e+19
2.7946851 3.6893488e+19 2.4360492
-0 3.2619994 3.6893488e+19
2.7189066 -2 2.4138272
0 3.263149 -1.0842022e-19
2.7950847 -0 2.4058778
-0 3.2615767 2
2.7181501 0 2.3830023
-3.6893488e+19 3.2633727 -0
2.7953358 -0 2.3754683
-0 3.2926888 2
2.7619162 3.6893488e+19 2.394861
1.0842022e-19 3.2642589 -1.0842022e-19
2.7963293 1.0842022e-19 2.345916
2 3.2782528 0
2.7479959 -2 2.3433821
-0 3.2647877 2
2.7969224 -1.0842022e-19 2.3157589
2 3.2920682 -1.0842022e-19
2.7613606 -1.0842022e-19 2.3268807
0 3.2633524 2
2.7953129 2 2.283396
0 3.2682943 -0
2.8365254 -1.0842022e-19 2.2756026
1.0842022e-19 3.2866068 1.0842022e-19
2.7935061 1.0842022e-19 2.2734303
0 3.2581153 -2
2.8237576 1.0842022e-19 2.2197535
-1.0842022e-19 3.2536535 -0
2.7597597 -0 2.1753976
-1.0842022e-19 3.2763903 0
2.8466806 2 2.1882238
-0 3.2542059 1.0842022e-19
2.7603254 -3.6893488e+19 2.1176627
1.0842022e-19 3.3059859 1.0842022e-19
2.8838027 -2 2.1634686
-2 3.2547765 -3.6893488e+19
2.7609096 1.0842022e-19 2.0597196
0 3.3055131 -1.0842022e-19
2.8832095 1.0842022e-19 2.0913153
-3.6893488e+19 3.2641709 -1.0842022e-19
2.7705302 3.6893488e+19 2.0102475
2 3.2590761 -3.6893488e+19
2.8249629 1.0842022e-19 1.9788083
3.6893488e+19 3.2531574 1.0842022e-19
2.7592516 -0 1.9410566
1.0842022e-19 3.2532673 0
2.7593641 -2 1.8828033
2 3.2607114 2
2.8270142 -2 1.8416075
1.0842022e-19 3.2918713 -2
2.7988973 -2 1.7966391
-3.6893488e+19 3.3490691 -3.6893488e+19
2.8123686 0 1.7479746
1.0842022e-19 3.265408 -2
2.7976179 3.6893488e+19 1.5111465
-1.0842022e-19 3.2504036 -0
2.6981535 2 -1.4543943
-2 3.2654953 -2
2.7977159 -2 -1.6779163
2 3.2463071 1.0842022e-19
2.6941264 -3.6893488e+19 -1.7637622
2 3.2625461 0
2.7944088 -3.6893488e+19 -1.8346418
-1.0842022e-19 3.2497416 0
2.6971998 2 -1.8769931
3.6893488e+19 3.2618859 1.0842022e-19
2.7936685 -2 -1.9152386
-0 3.2466571 0
2.6944396 2 -1.9329896
2 3.2612884 -3.6893488e+19
2.7929983 2 -1.9754324
-2 3.2502801 -2
2.6979325 3.6893488e+19 -1.9916835
-2 3.2278101 -3.6893488e+19
2.7678986 1.0842022e-19 -2.0115118
2 3.2117107 -0
2.6631672 0 -2.0257595
-0 2.8312786 -1.0842022e-19
2.4155276 -1.0842022e-19 -1.8899755
0 2.8107617 -3.6893488e+19
2.3182423 2 -1.8883002
3.6893488e+19 2.7728658 1.0842022e-19
2.3422596 0 -1.8812872
-1.0842022e-19 2.7558224 3.6893488e+19
2.2619808 -0 -1.8786273
-2 2.7075391 -2
2.2869489 -3.6893488e+19 -1.8719846
-0 2.6854219 1.0842022e-19
2.1959038 3.6893488e+19 -1.8690975
-0 2.6431975 0
2.2431936 -3.6893488e+19 -1.860337
-3.6893488e+19 2.622895 2
2.1318717 3.6893488e+19 -1.8556231
-2 2.5916238 0
2.178504 0 -1.8495499
2 2.5803292 -2
2.0882809 -3.6893488e+19 -1.8484287
3.6893488e+19 2.5472202 3.6893488e+19
2.1228077 1.0842022e-19 -1.8378496
-3.6893488e+19 2.537554 -1.0842022e-19
2.0444763 0 -1.8361728
0 2.5128312 0
2.0796731 3.6893488e+19 -1.828707
2 2.5056667 3.6893488e+19
2.0118213 -1.0842022e-19 -1.8275979
2 2.4764116 3.6893488e+19
2.048785 2 -1.823673
0 2.4615917 -3.6893488e+19
1.9863516 1.0842022e-19 -1.8213086
0 3.3032794 1.0842022e-19
2.7680602 2 2.7798064
-0 3.304404 -2
2.7690542 3.6893488e+19 2.7717235
-0 3.2782547 -3.6893488e+19
2.7418833 1.0842022e-19 2.7301431
-3.6893488e+19 3.2711096 0
2.7292528 1.0842022e-19 2.6855645
1.0842022e-19 3.2725532 3.6893488e+19
2.7318044 0 2.6717386
1.0842022e-19 3.2902088 -0
2.860678 -2 2.6741436
3.6893488e+19 3.2911286 -1.0842022e-19
2.8618212 -1.0842022e-19 2.6579883
-1.0842022e-19 3.2889121 3.6893488e+19
2.8590665 -3.6893488e+19 2.6375594
-1.0842022e-19 3.2825916 3.6893488e+19
2.7862432 -2 2.6151047
-0 3.2885196 -0
2.8585787 -0 2.6197691
3.6893488e+19 3.288481 2
2.7922087 -0 2.6057274
-3.6893488e+19 3.2887464 -3.6893488e+19
2.8588605 -1.0842022e-19 2.6028225
-2 3.2989416 -0
2.8028045 2 2.6010611
-1.0842022e-19 3.2864761 -0
2.856039 0 2.5829782
1.0842022e-19 3.2870276 2
2.7907364 -2 2.570241
-1.0842022e-19 3.2998061 3.6893488e+19
2.8036802 3.6893488e+19 2.5669501
0 3.2823236 -0
2.850878 1.0842022e-19 2.5446048
-3.6893488e+19 3.2998409 -0
2.8037155 2 2.5494714
-2 3.2937205 -2
2.7596114 1.0842022e-19 2.5327358
3.6893488e+19 3.2894297 -2
2.8212881 -3.6893488e+19 2.5238342
2 3.3209019 -3.6893488e+19
2.7836361 -0 2.5403326
-0 3.2927065 -2
2.8249257 -2 2.5097888
-2 3.3193502 1.0842022e-19
2.7822649 2 2.5204792
0 3.2923484 -3.6893488e+19
2.824528 -2 2.4847364
-3.6893488e+19 3.3038392 2
2.7685552 3.6893488e+19 2.479634
3.6893488e+19 3.2920949 2
2.8242469 0 2.4501951
3.6893488e+19 3.2838314 1.0842022e-19
2.8150737 -3.6893488e+19 2.4043388
-0 3.297132 -2
2.7626266 -1.0842022e-19 2.4006219
-1.0842022e-19 3.2852399 -1.0842022e-19
2.8166373 1.0842022e-19 2.3731079
2 3.2964129 -3.6893488e+19
2.761991 3.6893488e+19 2.3655801
-2 3.2863808 -0
2.8179038 -1.0842022e-19 2.3412595
-3.6893488e+19 3.283392 -3.6893488e+19
2.8145859 -2 2.3047383
-0 3.274039 -0
2.8405819 0 2.2812741
0 3.2768612 2
2.8440893 -0 2.251729
0 3.2656524 -2
2.7690849 -3.6893488e+19 2.1952236
-1.0842022e-19 3.2764523 -0
2.8435812 -3.6893488e+19 2.187964
0 3.2539065 0
2.7571874 0 2.1169848
3.6893488e+19 3.2915206 -3.6893488e+19
2.8623083 3.6893488e+19 2.1436005
0 3.3009014 1.0842022e-19
2.8047895 2 2.1155474
-2 3.3204262 1.0842022e-19
2.8245668 -1.0842022e-19 2.0654569
2 3.2594371 -0
2.8224342 2 1.9789399
-3.6893488e+19 3.3192887 -0
2.8234146 3.6893488e+19 1.9908051
1.0842022e-19 3.2906582 1.0842022e-19
2.8612366 -3.6893488e+19 1.9385656
1.0842022e-19 3.2531636 -3.6893488e+19
2.7564347 -0 1.8826605
1.0842022e-19 3.2726817 -1.0842022e-19
2.8388948 -0 1.8513677
0 3.2926567 2
2.7964382 -2 1.7969862
3.6893488e+19 3.3508592 -1.0842022e-19
2.8101146 0 1.7491012
3.6893488e+19 3.2648942 2
2.7940521 -1.0842022e-19 1.5107838
2 3.2489936 -2
2.6910465 1.0842022e-19 -1.4535356
-2 3.3353825 -2
2.8722992 0 -1.7245858
-1.0842022e-19 3.3155024 1.0842022e-19
2.7788639 -2 -1.8013197
-0 3.3266759 -3.6893488e+19
2.8626342 -3.6893488e+19 -1.8803294
-1.0842022e-19 3.249697 -0
2.6916683 3.6893488e+19 -1.8769078
0 3.2623181 -0
2.7911923 -0 -1.9153905
0 3.2439263 -2
2.6865675 2 -1.9318775
2 3.261991 -2
2.7908292 1.0842022e-19 -1.9758736
-0 3.2630808 1.0842022e-19
2.7920392 2 -2.037765
-3.6893488e+19 3.2122843 -0
2.6586003 -0 -2.0259414
2 2.8992069 -2
