# .PCD v0.7 - Point Cloud Data file format
VERSION 0.7
FIELDS x y z
SIZE 4 4 4
TYPE F F F
COUNT 1 1 1
WIDTH 1707
HEIGHT 1
VIEWPOINT 0 0 0 1 0 0 0
POINTS 1707
DATA ascii
1.8283254 -2 -1.7871623
-0 2.558692 1.0842022e-19
1.9093293 -0 -1.7827013
0 2.5474937 1.0842022e-19
1.804057 -3.6893488e+19 -1.7845099
0 2.5287447 1.0842022e-19
1.8938721 2 -1.7831447
-3.6893488e+19 2.5192537 1.0842022e-19
1.7870599 -3.6893488e+19 -1.7845027
2 2.4983673 2
1.8786144 1.0842022e-19 -1.7804631
0 2.483551 1.0842022e-19
1.770521 -0 -1.7818261
1.0842022e-19 2.4533675 -0
1.8590025 1.0842022e-19 -1.7792544
-2 2.3878942 -3.6893488e+19
1.8252089 -2 -1.7789741
-2 2.3454745 -0
1.6214223 2 -1.7806438
-3.6893488e+19 2.3032732 0
1.5913208 2 -1.7788036
-0 2.2715471 0
1.5686909 3.6893488e+19 -1.7781441
-3.6893488e+19 2.2396531 2
1.5496315 1.0842022e-19 -1.7770413
0 2.1905191 -0
1.7273709 1.0842022e-19 -1.7754936
3.6893488e+19 2.1538322 -2
1.7084352 -0 -1.7746686
-2 2.1269777 -0
1.6945745 -3.6893488e+19 -1.7757015
-1.0842022e-19 2.1055279 -2
1.6835033 -1.0842022e-19 -1.7775449
2 3.2891743 0
2.1382065 3.6893488e+19 2.7401934
3.6893488e+19 3.2867033 -3.6893488e+19
2.1348891 1.0842022e-19 2.7193072
-0 3.2808418 0
2.428894 2 2.703207
1.0842022e-19 3.2593024 -2
2.0981042 0 2.629406
0 3.2679813 0
2.4092536 3.6893488e+19 2.6357861
-1.0842022e-19 3.252491 -3.6893488e+19
2.5052574 3.6893488e+19 2.6074007
2 3.2268226 2
2.2769303 3.6893488e+19 2.5788231
1.0842022e-19 3.2398429 -2
2.4952097 -3.6893488e+19 2.5825095
-3.6893488e+19 3.2566357 -0
2.2980993 0 2.5892007
2 3.2400079 -0
2.4953766 -3.6893488e+19 2.5684767
3.6893488e+19 3.2528603 -1.0842022e-19
2.2937138 2 2.5697057
-0 3.2361035 2
2.4914296 1.0842022e-19 2.5519359
0 3.2425182 2
2.286046 -1.0842022e-19 2.5472612
-2 3.2271967 3.6893488e+19
2.4824252 -1.0842022e-19 2.5326889
-1.0842022e-19 3.2376359 3.6893488e+19
2.2832105 0 2.5164874
3.6893488e+19 3.2320619 -0
2.4873435 -1.0842022e-19 2.5079429
-3.6893488e+19 3.2536569 0
2.2946393 -2 2.5128064
-3.6893488e+19 3.2525797 0
2.2933881 -1.0842022e-19 2.4946916
-0 3.2557945 -1.0842022e-19
2.0933952 0 2.4856293
1.0842022e-19 3.2378333 -3.6893488e+19
2.3725026 2 2.4509194
0 3.2604837 -0
2.0996902 -1.0842022e-19 2.4650645
-1.0842022e-19 3.2372227 -1.0842022e-19
2.3720365 -1.0842022e-19 2.4227231
-3.6893488e+19 3.2579625 0
2.0963058 -2 2.431427
-0 3.2474511 1.0842022e-19
2.3798468 0 2.4034224
2 3.2594337 -1.0842022e-19
2.0982807 2 2.4046333
-2 3.2467048 2
2.379277 -3.6893488e+19 2.3747292
-1.0842022e-19 3.2595258 3.6893488e+19
2.0984044 -2 2.3755462
-3.6893488e+19 3.246429 -3.6893488e+19
2.3790662 -3.6893488e+19 2.3464801
-2 3.2624521 -3.6893488e+19
2.1023328 -0 2.3502636
2 3.2455082 -0
2.3783631 -0 2.3178878
-0 3.2633455 -1.0842022e-19
2.1035321 2 2.3218668
1.0842022e-19 3.2443447 1.0842022e-19
2.3774748 0 2.289283
-3.6893488e+19 3.2609406 -2
2.1003036 -0 2.2896454
-2 3.2375681 1.0842022e-19
2.3723004 -1.0842022e-19 2.2578688
-3.6893488e+19 3.238225 2
2.4935744 0 2.2406306
1.0842022e-19 3.2525384 1.0842022e-19
2.29334 -2 2.2265432
2 3.2357631 -0
2.4910853 -2 2.1833608
2 3.2513752 0
2.2919888 -3.6893488e+19 2.1679473
-3.6893488e+19 3.2303953 3.6893488e+19
2.4856589 -0 2.1244135
0 3.2530479 2
2.2939317 -0 2.1140044
3.6893488e+19 3.1448014 -0
2.399127 1.0842022e-19 2.0132236
-2 3.1339014 -2
2.1959267 -3.6893488e+19 1.9831074
-2 3.231509 3.6893488e+19
2.4867847 2 2.0168278
-3.6893488e+19 3.2332242 3.6893488e+19
2.4885187 3.6893488e+19 1.9633948
2 3.1690896 -0
2.2368 1.0842022e-19 1.9106487
3.6893488e+19 3.1526196 -2
2.4070308 -2 1.8825133
3.6893488e+19 3.168931 2
2.2366159 3.6893488e+19 1.8524467
1.0842022e-19 3.1472111 0
2.4015632 3.6893488e+19 1.7971193
-1.0842022e-19 3.135217 1.0842022e-19
2.1974549 0 1.7459198
1.0842022e-19 3.1287527 -1.0842022e-19
2.004231 2 1.6568084
-2 3.1470063 -0
2.3031485 -2 1.5269494
-1.0842022e-19 3.1376901 -3.6893488e+19
2.0102301 3.6893488e+19 -1.2020891
2 3.1703362 3.6893488e+19
2.3209629 1.0842022e-19 -1.5908566
3.6893488e+19 3.1357124 -3.6893488e+19
2.0089025 -3.6893488e+19 -1.6847895
0 3.1656172 -0
2.3173594 3.6893488e+19 -1.7715081
-3.6893488e+19 3.1344652 0
2.0080657 2 -1.8029552
3.6893488e+19 3.167877 0
2.3190851 1.0842022e-19 -1.865957
-3.6893488e+19 3.0770433 -3.6893488e+19
1.9695221 -2 -1.8494126
-2 3.0635085 3.6893488e+19
2.2287817 3.6893488e+19 -1.8755345
1.0842022e-19 3.0657511 -2
1.9619423 -1.0842022e-19 -1.8936064
0 2.837055 -1.0842022e-19
1.8512422 -0 -1.8159651
0 2.7810719 -3.6893488e+19
1.9646225 -0 -1.8005964
-1.0842022e-19 2.7552338 2
1.7963213 -3.6893488e+19 -1.7981412
-3.6893488e+19 2.6962507 2
1.9203755 -2 -1.7894374
-1.0842022e-19 2.6498296 -2
1.9521052 -3.6893488e+19 -1.7840981
1.0842022e-19 2.6317115 -3.6893488e+19
1.8466914 0 -1.7867855
3.6893488e+19 2.6002793 3.6893488e+19
1.9270586 3.6893488e+19 -1.7841245
1.0842022e-19 2.5867598 2
1.8205843 3.6893488e+19 -1.7866248
-1.0842022e-19 2.5601568 -2
1.9067775 -2 -1.7833965
3.6893488e+19 2.5478001 2
1.7979572 -0 -1.7846433
-2 2.5277245 -1.0842022e-19
1.8903837 1.0842022e-19 -1.7825133
-3.6893488e+19 2.5193059 -1.0842022e-19
1.7814083 -3.6893488e+19 -1.7845027
1.0842022e-19 2.4968033 3.6893488e+19
1.8755616 0 -1.7799233
-3.6893488e+19 2.4833961 -0
1.7653741 3.6893488e+19 -1.7817456
-3.6893488e+19 2.4537663 -1.0842022e-19
1.854369 2 -1.7793385
-0 3.2469449 -2
2.0835655 3.6893488e+19 2.6711977
3.6893488e+19 3.2867033 -3.6893488e+19
2.1348891 1.0842022e-19 2.7193072
-0 3.2808418 0
2.428894 2 2.703207
1.0842022e-19 3.2593024 -2
2.0981042 0 2.629406
0 3.2679813 0
2.4092536 3.6893488e+19 2.6357861
-1.0842022e-19 3.252491 -3.6893488e+19
2.5052574 3.6893488e+19 2.6074007
2 3.2268226 2
2.2769303 3.6893488e+19 2.5788231
1.0842022e-19 3.2398429 -2
2.4952097 -3.6893488e+19 2.5825095
-0 3.2295661 -0
2.2785237 3.6893488e+19 2.566926
2 3.2400079 -0
2.4953766 -3.6893488e+19 2.5684767
-1.0842022e-19 3.2369709 -0
2.2828243 2 2.5578525
-0 3.2361035 2
2.4914296 1.0842022e-19 2.5519359
0 3.2425182 2
2.286046 -1.0842022e-19 2.5472612
-2 3.2271967 3.6893488e+19
2.4824252 -1.0842022e-19 2.5326889
-1.0842022e-19 3.2376359 3.6893488e+19
2.2832105 0 2.5164874
3.6893488e+19 3.2320619 -0
2.4873435 -1.0842022e-19 2.5079429
-3.6893488e+19 3.2536569 0
2.2946393 -2 2.5128064
-3.6893488e+19 3.2525797 0
2.2933881 -1.0842022e-19 2.4946916
3.6893488e+19 3.1535664 1.0842022e-19
2.0208869 -0 2.3830879
0 3.1611583 0
2.3139548 1.0842022e-19 2.3800464
1.0842022e-19 3.1495149 -1.0842022e-19
2.0181673 2 2.3566446
2 3.1498177 3.6893488e+19
2.3052952 0 2.346889
-1.0842022e-19 3.1466792 3.6893488e+19
2.016264 -2 2.3317111
-1.0842022e-19 3.1523683 -0
2.3072429 -3.6893488e+19 2.3263121
-0 3.1501591 -0
2.0185997 0 2.3120599
-1.0842022e-19 3.1486151 1.0842022e-19
2.3043771 -1.0842022e-19 2.3007274
2 3.152971 -3.6893488e+19
2.0204871 -2 2.291559
-0 3.1510668 0
2.3062491 -3.6893488e+19 2.2799225
-2 3.1472409 -3.6893488e+19
2.0166409 -0 2.265075
-1.0842022e-19 3.1449118 3.6893488e+19
2.3015492 -3.6893488e+19 2.2533512
-0 3.2633455 -1.0842022e-19
2.1035321 2 2.3218668
-2 3.1480074 -3.6893488e+19
2.3039129 -3.6893488e+19 2.2158158
-3.6893488e+19 3.2609406 -2
2.1003036 -0 2.2896454
2 3.1426435 2
2.2998171 -2 2.1653285
3.6893488e+19 3.1496341 -0
2.4040127 -2 2.151603
-3.6893488e+19 3.1377761 -1.0842022e-19
2.2004275 -3.6893488e+19 2.1158693
3.6893488e+19 3.1494575 3.6893488e+19
2.4038341 0 2.1063657
-1.0842022e-19 3.1328211 3.6893488e+19
2.1946719 -0 2.0682476
-0 3.151274 0
2.4056706 0 2.0627475
-3.6893488e+19 3.1334794 -2
2.1954365 3.6893488e+19 2.0258138
3.6893488e+19 3.1448014 -0
2.399127 1.0842022e-19 2.0132236
-2 3.1339014 -2
2.1959267 -3.6893488e+19 1.9831074
3.6893488e+19 3.144069 -2
2.3983865 -2 1.9683729
-1.0842022e-19 3.1457343 -1.0842022e-19
2.4000702 -1.0842022e-19 1.9247587
0 3.1307328 -1.0842022e-19
2.192246 -0 1.8959454
3.6893488e+19 3.1526196 -2
2.4070308 -2 1.8825133
3.6893488e+19 3.1349628 -0
2.1971595 -3.6893488e+19 1.8340045
1.0842022e-19 3.1472111 0
2.4015632 3.6893488e+19 1.7971193
-1.0842022e-19 3.135217 1.0842022e-19
2.1974549 0 1.7459198
1.0842022e-19 3.1287527 -1.0842022e-19
2.004231 2 1.6568084
-2 3.1470063 -0
2.3031485 -2 1.5269494
-1.0842022e-19 3.1376901 -3.6893488e+19
2.0102301 3.6893488e+19 -1.2020891
0 3.1437697 2
2.3006771 0 -1.5772138
3.6893488e+19 3.1357124 -3.6893488e+19
2.0089025 -3.6893488e+19 -1.6847895
0 3.1656172 -0
2.3173594 3.6893488e+19 -1.7715081
1.0842022e-19 3.0859818 2
1.9755219 1.0842022e-19 -1.7805139
1.0842022e-19 3.073602 2
2.2441959 -0 -1.8115959
-3.6893488e+19 3.0770433 -3.6893488e+19
1.9695221 -2 -1.8494126
-2 3.0635085 3.6893488e+19
2.2287817 3.6893488e+19 -1.8755345
0 3.0508327 -3.6893488e+19
1.9519286 0 -1.8868215
0 2.837055 -1.0842022e-19
1.8512422 -0 -1.8159651
0 2.7810719 -3.6893488e+19
1.9646225 -0 -1.8005964
-1.0842022e-19 2.7552338 2
1.7963213 -3.6893488e+19 -1.7981412
-3.6893488e+19 2.6962507 2
1.9203755 -2 -1.7894374
-1.0842022e-19 2.6498296 -2
1.9521052 -3.6893488e+19 -1.7840981
1.0842022e-19 2.6317115 -3.6893488e+19
1.8466914 0 -1.7867855
3.6893488e+19 2.6002793 3.6893488e+19
1.9270586 3.6893488e+19 -1.7841245
1.0842022e-19 2.5867598 2
1.8205843 3.6893488e+19 -1.7866248
-1.0842022e-19 2.5601568 -2
1.9067775 -2 -1.7833965
3.6893488e+19 2.5478001 2
1.7979572 -0 -1.7846433
-2 2.5277245 -1.0842022e-19
1.8903837 1.0842022e-19 -1.7825133
-3.6893488e+19 2.5193059 -1.0842022e-19
1.7814083 -3.6893488e+19 -1.7845027
1.0842022e-19 2.4968033 3.6893488e+19
1.8755616 0 -1.7799233
-3.6893488e+19 2.4833961 -0
1.7653741 3.6893488e+19 -1.7817456
-3.6893488e+19 2.4537663 -1.0842022e-19
1.854369 2 -1.7793385
-0 3.2683902 -2
2.087724 -2 2.7363088
-0 3.2270005 1.0842022e-19
2.354126 -1.0842022e-19 2.6766565
-3.6893488e+19 3.2517076 3.6893488e+19
2.3737364 2 2.6707771
-0 3.2863269 -1.0842022e-19
2.1102943 -0 2.6854367
-3.6893488e+19 3.2763011 0
2.0976789 0 2.6542354
0 3.2680016 -1.0842022e-19
2.3979294 0 2.63572
1.0842022e-19 3.2527573 0
2.5001361 2 2.6076601
-1.0842022e-19 3.2253449 -0
2.2660398 2 2.5777428
1.0842022e-19 3.2563455 -2
2.2869415 -2 2.5887535
-3.6893488e+19 3.2529845 0
2.2831798 -0 2.569803
3.6893488e+19 3.2350984 2
2.4800677 -1.0842022e-19 2.5512125
2 3.2514532 -2
2.2814653 2 2.5534744
-1.0842022e-19 3.2294092 0
2.4744377 0 2.5339065
2 3.2322538 -3.6893488e+19
2.4772525 1.0842022e-19 2.5217612
-2 3.2356884 -1.0842022e-19
2.2718289 1.0842022e-19 2.5153735
-2 3.2379999 3.6893488e+19
2.4829392 2 2.5110347
3.6893488e+19 3.2539518 -2
2.2842622 3.6893488e+19 2.5130627
3.6893488e+19 3.2219152 -1.0842022e-19
2.4670212 1.0842022e-19 2.4778979
-3.6893488e+19 3.2526579 -0
2.282814 -1.0842022e-19 2.4947522
1.0842022e-19 3.2574189 -0
2.0739183 1.0842022e-19 2.4886608
-2 3.2407358 1.0842022e-19
2.3643231 -1.0842022e-19 2.4534903
1.0842022e-19 3.259115 3.6893488e+19
2.0760527 0 2.4625716
0 3.2456961 2
2.3680055 -0 2.4299684
0 3.2474194 2
2.3692849 -2 2.4032967
-2 3.2591505 -1.0842022e-19
2.0760975 3.6893488e+19 2.4041486
1.0842022e-19 3.2471066 2
2.3690526 0 2.3749397
3.6893488e+19 3.2602999 -1.0842022e-19
2.0775437 2 2.3766263
-2 3.2459936 2
2.3682265 -1.0842022e-19 2.3460908
3.6893488e+19 3.2628536 -0
2.0807571 -1.0842022e-19 2.3507619
1.0842022e-19 3.2454445 1.0842022e-19
2.3678188 -3.6893488e+19 2.3177683
2 3.2629533 -0
2.0808825 -1.0842022e-19 2.321353
2 3.2451806 3.6893488e+19
2.3676229 -0 2.2897005
0 3.2605169 2
2.0778167 -3.6893488e+19 2.289144
2 3.2366331 3.6893488e+19
2.3612771 3.6893488e+19 2.2573106
1.0842022e-19 3.2325971 -2
2.4775922 3.6893488e+19 2.2348156
1.0842022e-19 3.2573004 -2
2.2880104 0 2.2354383
-2 3.236294 -1.0842022e-19
2.481251 -2 2.1836922
-1.0842022e-19 3.2520759 -3.6893488e+19
2.2821624 1.0842022e-19 2.1690342
3.6893488e+19 3.2310178 -2
2.4760294 0 2.1247756
-2 3.1328971 -2
2.1785979 -3.6893488e+19 2.0253434
-0 3.2286582 -0
2.4736943 -3.6893488e+19 2.0690281
-1.0842022e-19 3.1320107 -2
2.1776056 3.6893488e+19 1.9819161
1.0842022e-19 3.2275758 2
2.4726231 -3.6893488e+19 2.0145612
-2 3.1298587 -1.0842022e-19
2.1751969 -2 1.9380914
1.0842022e-19 3.1445622 1.0842022e-19
2.3904705 -0 1.9241838
-1.0842022e-19 3.1657398 -3.6893488e+19
2.2153604 -2 1.9093348
-0 3.1525967 -3.6893488e+19
2.3984215 -2 1.8824623
-2 3.1618092 3.6893488e+19
2.2109609 -1.0842022e-19 1.8485383
3.6893488e+19 3.1578231 -0
2.4035938 1.0842022e-19 1.8016597
-0 3.1326394 3.6893488e+19
2.1783094 2 1.7442286
-3.6893488e+19 3.1283245 -2
1.988029 -1.0842022e-19 1.6566144
3.6893488e+19 3.1680145 1.0842022e-19
2.3103347 -3.6893488e+19 1.5349505
0 3.1292381 -0
1.9886037 1.0842022e-19 -1.1976622
-2 3.170191 -3.6893488e+19
2.3119504 0 -1.5907288
2 3.1391571 2
1.9948444 -1.0842022e-19 -1.68642
-2 3.1655331 -1.0842022e-19
2.3084924 3.6893488e+19 -1.7714423
-0 3.1354742 0
1.9925274 0 -1.8034031
2 3.1653047 0
2.3083229 -0 -1.8644146
1.0842022e-19 3.0702727 1.0842022e-19
1.9515047 -0 -1.8447431
-1.0842022e-19 3.0636482 1.0842022e-19
2.2157061 2 -1.8755594
2 3.0654726 3.6893488e+19
1.9484847 -3.6893488e+19 -1.8934644
-2 2.8433321 3.6893488e+19
1.841013 -1.0842022e-19 -1.8195008
1.0842022e-19 2.7822607 3.6893488e+19
1.9595507 0 -1.8012955
-0 2.7563841 0
1.7863083 3.6893488e+19 -1.7989031
3.6893488e+19 2.6963611 2
1.9156896 -2 -1.7894374
-2 2.6516955 3.6893488e+19
1.9487649 1.0842022e-19 -1.7847883
0 2.6324055 -2
1.8390237 1.0842022e-19 -1.7870493
-1.0842022e-19 2.6003942 -1.0842022e-19
1.9233803 3.6893488e+19 -1.7841245
2 2.5863249 -0
1.8132335 2 -1.7863859
3.6893488e+19 2.5601349 -0
1.9034593 -1.0842022e-19 -1.7833333
0 2.5472338 -2
1.791355 -1.0842022e-19 -1.7843099
-2 2.5267019 2
1.8869163 0 -1.7818818
-1.0842022e-19 2.5204756 0
1.7763792 -0 -1.7851655
-2 2.4972136 -2
1.8710287 -3.6893488e+19 -1.7800003
-3.6893488e+19 2.4844809 -3.6893488e+19
1.7605765 -1.0842022e-19 -1.7820679
0 2.4521849 -0
1.8487477 1.0842022e-19 -1.7787501
-3.6893488e+19 2.3883984 -3.6893488e+19
1.8171853 -0 -1.779072
-1.0842022e-19 2.3413305 -0
1.5897536 0 -1.778743
2 2.3045793 1.0842022e-19
1.566631 -2 -1.7794318
-2 2.2713594 3.6893488e+19
1.5457302 2 -1.7780046
-2 2.2382798 -3.6893488e+19
1.5286045 0 -1.7765815
-3.6893488e+19 2.1903219 3.6893488e+19
1.7178779 0 -1.7753266
1.0842022e-19 2.1565404 0
1.7011622 1.0842022e-19 -1.7755724
-2 2.1238205 -3.6893488e+19
1.6849719 -0 -1.7743404
1.0842022e-19 2.1125588 0
1.6793995 2 -1.7804585
-0 3.2683902 -2
2.087724 -2 2.7363088
-0 3.2270005 1.0842022e-19
2.354126 -1.0842022e-19 2.6766565
-3.6893488e+19 3.2517076 3.6893488e+19
2.3737364 2 2.6707771
0 3.2766023 1.0842022e-19
2.0980575 -2 2.6706476
-3.6893488e+19 3.2763011 0
2.0976789 0 2.6542354
0 3.2680016 -1.0842022e-19
2.3979294 0 2.63572
1.0842022e-19 3.2527573 0
2.5001361 2 2.6076601
-1.0842022e-19 3.2253449 -0
2.2660398 2 2.5777428
-2 3.2249188 3.6893488e+19
2.2658014 -3.6893488e+19 2.563796
-1.0842022e-19 3.2374008 1.0842022e-19
2.2727873 2 2.5580666
3.6893488e+19 3.2350984 2
2.4800677 -1.0842022e-19 2.5512125
1.0842022e-19 3.2400825 1.0842022e-19
2.2742882 -2 2.5457358
-1.0842022e-19 3.2294092 0
2.4744377 0 2.5339065
2 3.2322538 -3.6893488e+19
2.4772525 1.0842022e-19 2.5217612
-2 3.2356884 -1.0842022e-19
2.2718289 1.0842022e-19 2.5153735
-2 3.2379999 3.6893488e+19
2.4829392 2 2.5110347
3.6893488e+19 3.2539518 -2
2.2842622 3.6893488e+19 2.5130627
3.6893488e+19 3.2219152 -1.0842022e-19
2.4670212 1.0842022e-19 2.4778979
-3.6893488e+19 3.2526579 -0
2.282814 -1.0842022e-19 2.4947522
-2 3.1534543 -1.0842022e-19
2.0038397 2 2.3829408
-2 3.1531916 -3.6893488e+19
2.29933 1.0842022e-19 2.3725905
1.0842022e-19 3.1503644 2
2.0018957 0 2.3573649
-2 3.152051 2
2.2984834 0 2.3487406
1.0842022e-19 3.1508889 2
2.2976205 -0 2.325032
-0 3.1553919 -2
2.0050588 -1.0842022e-19 2.3161068
1.0842022e-19 3.2471066 2
2.3690526 0 2.3749397
-1.0842022e-19 3.1542268 0
2.0043259 0 2.2924366
1.0842022e-19 3.149616 -1.0842022e-19
2.2966754 -1.0842022e-19 2.278841
-3.6893488e+19 3.1553428 2
2.005028 -0 2.2704525
-1.0842022e-19 3.1433654 -0
2.2920351 -0 2.2522969
2 3.1478782 3.6893488e+19
2.0003314 0 2.2362437
-1.0842022e-19 3.1423955 3.6893488e+19
2.2913151 -2 2.2091343
3.6893488e+19 3.1454635 -0
1.9988122 0 2.1889198
-0 3.1422436 3.6893488e+19
2.2912023 2 2.1648033
-1.0842022e-19 3.1497653 1.0842022e-19
2.3956196 -2 2.151603
-1.0842022e-19 3.1416454 0
2.1883905 -2 2.1194508
1.0842022e-19 3.1507344 -0
2.3965786 -3.6893488e+19 2.1073873
3.6893488e+19 3.1322079 1.0842022e-19
2.1778264 -2 2.0676782
-2 3.1520562 -1.0842022e-19
2.3978868 0 2.0632544
-2 3.1328971 -2
2.1785979 -3.6893488e+19 2.0253434
1.0842022e-19 3.1468523 3.6893488e+19
2.3927367 -3.6893488e+19 2.014504
-1.0842022e-19 3.1320107 -2
2.1776056 3.6893488e+19 1.9819161
0 3.1445084 2
2.3904171 1.0842022e-19 1.9685447
-2 3.1298587 -1.0842022e-19
2.1751969 -2 1.9380914
1.0842022e-19 3.1445622 1.0842022e-19
2.3904705 -0 1.9241838
3.6893488e+19 3.1333907 2
2.1791503 -1.0842022e-19 1.8969368
-0 3.1525967 -3.6893488e+19
2.3984215 -2 1.8824623
-0 3.1372478 -0
2.1834679 -3.6893488e+19 1.8352058
3.6893488e+19 3.1578231 -0
2.4035938 1.0842022e-19 1.8016597
-0 3.1326394 3.6893488e+19
2.1783094 2 1.7442286
-3.6893488e+19 3.1283245 -2
1.988029 -1.0842022e-19 1.6566144
-1.0842022e-19 3.1415346 -0
2.2906759 -0 1.5248182
0 3.1292381 -0
1.9886037 1.0842022e-19 -1.1976622
2 3.1429646 1.0842022e-19
2.2917376 -1.0842022e-19 -1.5767504
2 3.1391571 2
1.9948444 -1.0842022e-19 -1.68642
-2 3.1655331 -1.0842022e-19
2.3084924 3.6893488e+19 -1.7714423
-3.6893488e+19 3.0857365 -0
1.9612341 1.0842022e-19 -1.7803838
2 3.1653047 0
2.3083229 -0 -1.8644146
1.0842022e-19 3.0702727 1.0842022e-19
1.9515047 -0 -1.8447431
-1.0842022e-19 3.0636482 1.0842022e-19
2.2157061 2 -1.8755594
2 3.0654726 3.6893488e+19
1.9484847 -3.6893488e+19 -1.8934644
-2 2.8433321 3.6893488e+19
1.841013 -1.0842022e-19 -1.8195008
1.0842022e-19 2.7822607 3.6893488e+19
1.9595507 0 -1.8012955
-0 2.7563841 0
1.7863083 3.6893488e+19 -1.7989031
3.6893488e+19 2.6963611 2
1.9156896 -2 -1.7894374
-2 2.6516955 3.6893488e+19
1.9487649 1.0842022e-19 -1.7847883
0 2.6324055 -2
1.8390237 1.0842022e-19 -1.7870493
-1.0842022e-19 2.6003942 -1.0842022e-19
1.9233803 3.6893488e+19 -1.7841245
2 2.5863249 -0
1.8132335 2 -1.7863859
3.6893488e+19 2.5601349 -0
1.9034593 -1.0842022e-19 -1.7833333
0 2.5472338 -2
1.791355 -1.0842022e-19 -1.7843099
-2 2.5267019 2
1.8869163 0 -1.7818818
-1.0842022e-19 2.5204756 0
1.7763792 -0 -1.7851655
-2 2.4972136 -2
1.8710287 -3.6893488e+19 -1.7800003
-3.6893488e+19 2.4844809 -3.6893488e+19
1.7605765 -1.0842022e-19 -1.7820679
0 2.4521849 -0
1.8487477 1.0842022e-19 -1.7787501
-3.6893488e+19 2.3883984 -3.6893488e+19
1.8171853 -0 -1.779072
-1.0842022e-19 2.3413305 -0
1.5897536 0 -1.778743
2 2.3045793 1.0842022e-19
1.566631 -2 -1.7794318
-2 2.2713594 3.6893488e+19
1.5457302 2 -1.7780046
-2 2.2382798 -3.6893488e+19
1.5286045 0 -1.7765815
-3.6893488e+19 2.1903219 3.6893488e+19
1.7178779 0 -1.7753266
1.0842022e-19 2.1565404 0
1.7011622 1.0842022e-19 -1.7755724
-2 2.1238205 -3.6893488e+19
1.6849719 -0 -1.7743404
1.0842022e-19 2.1125588 0
1.6793995 2 -1.7804585
1.0842022e-19 3.2685981 -0
2.0669062 -1.0842022e-19 2.73664
3.6893488e+19 3.2279277 -2
2.3453724 1.0842022e-19 2.6773901
2 3.2585971 3.6893488e+19
2.0551066 2 2.6732152
0 3.2362735 -1.0842022e-19
2.3514035 1.0842022e-19 2.6421757
2 3.2590053 1.0842022e-19
2.0555882 -3.6893488e+19 2.6588473
-0 3.2864916 1.0842022e-19
2.0880182 0 2.6856468
-1.0842022e-19 3.2768185 1.0842022e-19
2.0766053 -3.6893488e+19 2.6549542
-0 3.2514122 3.6893488e+19
2.4876113 -3.6893488e+19 2.6056499
-1.0842022e-19 3.2255785 1.0842022e-19
2.2568095 -0 2.5778487
-3.6893488e+19 3.2506735 3.6893488e+19
2.4861789 -0 2.5901053
3.6893488e+19 3.255681 2
2.2761323 -1.0842022e-19 2.5878186
-1.0842022e-19 3.253058 -0
2.2732995 -1.0842022e-19 2.5698419
3.6893488e+19 3.2404256 0
2.4755876 -2 2.5544291
-2 3.2513566 -3.6893488e+19
2.271462 0 2.5533071
1.0842022e-19 3.2517996 -3.6893488e+19
2.2719402 -3.6893488e+19 2.5394614
-3.6893488e+19 3.2305856 2
2.4660454 -3.6893488e+19 2.5207398
-0 3.2362955 -2
2.2625964 -0 2.5156603
-0 3.2387307 1.0842022e-19
2.4739439 -2 2.5113471
1.0842022e-19 3.2573187 3.6893488e+19
2.2779009 -1.0842022e-19 2.5165055
-3.6893488e+19 3.2550371 -2
2.2754369 1.0842022e-19 2.4993272
0 3.2566056 -1.0842022e-19
2.0527568 1.0842022e-19 2.4870715
0 3.2418664 -0
2.3554451 -0 2.454433
1.0842022e-19 3.2578356 -2
2.054208 -1.0842022e-19 2.4602447
-3.6893488e+19 3.2512763 -0
2.3631678 -3.6893488e+19 2.4358182
2 3.2602816 -3.6893488e+19
2.0570939 -0 2.4352183
3.6893488e+19 3.1506691 1.0842022e-19
2.289542 -2 2.3247809
3.6893488e+19 3.2590971 -0
2.0556965 2 2.4040275
-2 3.2597487 1.0842022e-19
2.3754129 -1.0842022e-19 2.3917401
-1.0842022e-19 3.2608373 -1.0842022e-19
2.0577497 2 2.3773687
-1.0842022e-19 3.2541296 3.6893488e+19
2.3672917 1.0842022e-19 2.3545702
2 3.2628782 -1.0842022e-19
2.0601575 -1.0842022e-19 2.3507619
-0 3.2516713 -2
2.3637385 -3.6893488e+19 2.3227618
2 3.2631335 3.6893488e+19
2.0604589 -1.0842022e-19 2.3215432
0 3.2522244 0
2.364538 -1.0842022e-19 2.2950566
1.0842022e-19 3.2606969 1.0842022e-19
2.057584 -3.6893488e+19 2.2893169
-2 3.2359967 1.0842022e-19
2.3512037 -2 2.2569165
3.6893488e+19 3.2322464 0
2.4676559 -1.0842022e-19 2.234318
-2 3.253484 -0
2.2737596 -1.0842022e-19 2.2281578
-2 3.2347982 -0
2.4701304 -2 2.1822286
0 3.2520874 2
2.2722511 1.0842022e-19 2.1689825
-2 3.1518979 -1.0842022e-19
2.3897383 -2 2.0630369
3.6893488e+19 3.1329305 3.6893488e+19
2.1635602 -3.6893488e+19 2.025321
3.6893488e+19 3.2276239 -0
2.4631732 1.0842022e-19 2.0682435
-1.0842022e-19 3.266499 -3.6893488e+19
2.2878156 -3.6893488e+19 2.073525
-2 3.2160301 2
2.4519303 1.0842022e-19 2.0080881
-1.0842022e-19 3.1290812 2
2.1594031 1.0842022e-19 1.9376749
-0 3.1446805 2
2.3827393 -0 1.9241838
-3.6893488e+19 3.1321459 -2
2.1627128 3.6893488e+19 1.8964351
-2 3.1351619 3.6893488e+19
2.1659701 -2 1.8340384
-1.0842022e-19 3.1493838 -0
2.3873003 -3.6893488e+19 1.7979521
-3.6893488e+19 3.1342938 2
2.1650326 2 1.7452433
0 3.1662397 1.0842022e-19
1.9955509 2 1.672294
-2 3.1684194 3.6893488e+19
2.3023691 -0 1.5350696
-0 3.1288049 -0
1.9734671 2 -1.1974181
0 3.16487 -3.6893488e+19
2.299804 3.6893488e+19 -1.587949
-2 3.1329477 -2
1.975911 -0 -1.6834284
-2 3.166342 0
2.300868 0 -1.7716945
-0 3.1362908 3.6893488e+19
1.9778832 3.6893488e+19 -1.8037643
-1.0842022e-19 3.1658645 -0
2.3005228 1.0842022e-19 -1.8646836
-3.6893488e+19 3.1396456 -1.0842022e-19
1.9798623 -1.0842022e-19 -1.8836579
1.0842022e-19 3.06599 -0
2.2066977 -3.6893488e+19 -1.8764684
3.6893488e+19 3.0665321 2
1.9367307 3.6893488e+19 -1.8939329
-0 2.8388076 1.0842022e-19
1.8248717 -3.6893488e+19 -1.8169197
-1.0842022e-19 2.7812042 2
1.9532112 -0 -1.8005964
-0 2.7546608 2
1.7752312 -1.0842022e-19 -1.797718
1.0842022e-19 2.6948445 3.6893488e+19
1.9107325 -1.0842022e-19 -1.788842
0 2.6519401 -1.0842022e-19
1.9448895 -1.0842022e-19 -1.7848375
0 2.6334662 -2
1.8320693 3.6893488e+19 -1.7874714
0 2.6009951 3.6893488e+19
1.9201877 -1.0842022e-19 -1.7843494
0 2.5858836 1.0842022e-19
1.806375 1.0842022e-19 -1.786147
-2 2.5588655 3.6893488e+19
1.8997604 2 -1.7826381
2 2.5501459 -2
1.7870768 -1.0842022e-19 -1.7858436
1.0842022e-19 2.5269089 1.0842022e-19
1.8842654 -1.0842022e-19 -1.7819519
-2 2.5203967 -2
1.7710125 -2 -1.7850919
2 2.4973629 -1.0842022e-19
1.8661574 -3.6893488e+19 -1.7800003
2 2.4853084 1.0842022e-19
1.7560318 -1.0842022e-19 -1.7823097
3.6893488e+19 2.4528151 -3.6893488e+19
1.8445574 -0 -1.7789181
1.0842022e-19 3.2685981 -0
2.0669062 -1.0842022e-19 2.73664
3.6893488e+19 3.2279277 -2
2.3453724 1.0842022e-19 2.6773901
2 3.2585971 3.6893488e+19
2.0551066 2 2.6732152
0 3.2362735 -1.0842022e-19
2.3514035 1.0842022e-19 2.6421757
2 3.2590053 1.0842022e-19
2.0555882 -3.6893488e+19 2.6588473
-1.0842022e-19 3.2759223 1.0842022e-19
2.0755479 2 2.6695747
-1.0842022e-19 3.2768185 1.0842022e-19
2.0766053 -3.6893488e+19 2.6549542
-0 3.2514122 3.6893488e+19
2.4876113 -3.6893488e+19 2.6056499
-1.0842022e-19 3.2255785 1.0842022e-19
2.2568095 -0 2.5778487
-3.6893488e+19 3.2506735 3.6893488e+19
2.4861789 -0 2.5901053
0 3.2285061 3.6893488e+19
2.2583902 -1.0842022e-19 2.566113
1.0842022e-19 3.2342799 -0
2.261508 2 2.5560424
3.6893488e+19 3.2404256 0
2.4755876 -2 2.5544291
-2 3.2513566 -3.6893488e+19
2.271462 0 2.5533071
1.0842022e-19 3.2517996 -3.6893488e+19
2.2719402 -3.6893488e+19 2.5394614
-3.6893488e+19 3.2305856 2
2.4660454 -3.6893488e+19 2.5207398
2 3.1617494 -2
2.194684 1.0842022e-19 2.4498725
-0 3.2387307 1.0842022e-19
2.4739439 -2 2.5113471
1.0842022e-19 3.1615739 -2
2.1944945 -3.6893488e+19 2.4262679
-3.6893488e+19 3.2550371 -2
2.2754369 1.0842022e-19 2.4993272
3.6893488e+19 3.1542363 -1.0842022e-19
1.9884697 0 2.3836472
-1.0842022e-19 3.1526327 0
2.290961 0 2.3719907
-1.0842022e-19 3.150743 -2
1.9864089 0 2.3576696
0 3.1535957 2
2.2916567 -3.6893488e+19 2.3500016
-2 3.154834 0
1.9888225 1.0842022e-19 2.3384628
3.6893488e+19 3.1506691 1.0842022e-19
2.289542 -2 2.3247809
-1.0842022e-19 3.1552122 1.0842022e-19
1.9890455 1.0842022e-19 2.3159373
3.6893488e+19 3.1512201 1.0842022e-19
2.2899401 1.0842022e-19 2.3025501
-1.0842022e-19 3.2608373 -1.0842022e-19
2.0577497 2 2.3773687
2 3.1510699 -2
2.2898314 -0 2.2797928
0 3.155941 1.0842022e-19
1.9894754 -3.6893488e+19 2.2708261
3.6893488e+19 3.1509926 -2
2.2897756 -3.6893488e+19 2.2571311
-0 3.1421547 -3.6893488e+19
1.9813424 1.0842022e-19 2.2292044
0 3.1441288 2
2.2848155 -3.6893488e+19 2.2110589
-1.0842022e-19 3.1398926 -0
1.980008 2 2.1826963
3.6893488e+19 3.1420832 2
2.2833374 -1.0842022e-19 2.1645405
3.6893488e+19 3.1470985 3.6893488e+19
2.3850842 -0 2.1488044
2 3.1418359 0
2.173178 2 2.1195683
2 3.1511953 3.6893488e+19
2.3890569 0 2.1076913
-0 3.1301548 3.6893488e+19
2.1605625 -1.0842022e-19 2.0659187
-2 3.1518979 -1.0842022e-19
2.3897383 -2 2.0630369
3.6893488e+19 3.1329305 3.6893488e+19
2.1635602 -3.6893488e+19 2.025321
0 3.1490481 -0
2.3869746 -3.6893488e+19 2.0158877
1.0842022e-19 3.1317012 -2
2.1622324 -1.0842022e-19 1.9816891
3.6893488e+19 3.1439135 -0
2.3819954 3.6893488e+19 1.9681498
-1.0842022e-19 3.1290812 2
2.1594031 1.0842022e-19 1.9376749
-0 3.1446805 2
2.3827393 -0 1.9241838
-3.6893488e+19 3.1321459 -2
2.1627128 3.6893488e+19 1.8964351
-2 3.1351619 3.6893488e+19
2.1659701 -2 1.8340384
-1.0842022e-19 3.1493838 -0
2.3873003 -3.6893488e+19 1.7979521
-3.6893488e+19 3.1342938 2
2.1650326 2 1.7452433
-1.0842022e-19 3.1274543 -2
1.9726703 1.0842022e-19 1.6562396
1.0842022e-19 3.1429608 1.0842022e-19
2.2839715 2 1.5253302
-0 3.1288049 -0
1.9734671 2 -1.1974181
2 3.1422124 -2
2.2834306 3.6893488e+19 -1.5763191
-2 3.1329477 -2
1.975911 -0 -1.6834284
-2 3.166342 0
2.300868 0 -1.7716945
0 3.0818336 -1.0842022e-19
1.9457574 -2 -1.778563
-1.0842022e-19 3.1658645 -0
2.3005228 1.0842022e-19 -1.8646836
3.6893488e+19 3.070365 -0
1.9389918 -3.6893488e+19 -1.8447859
1.0842022e-19 3.06599 -0
2.2066977 -3.6893488e+19 -1.8764684
3.6893488e+19 3.0665321 2
1.9367307 3.6893488e+19 -1.8939329
-0 2.8388076 1.0842022e-19
1.8248717 -3.6893488e+19 -1.8169197
-1.0842022e-19 2.7812042 2
1.9532112 -0 -1.8005964
-0 2.7546608 2
1.7752312 -1.0842022e-19 -1.797718
1.0842022e-19 2.6948445 3.6893488e+19
1.9107325 -1.0842022e-19 -1.788842
0 2.6519401 -1.0842022e-19
1.9448895 -1.0842022e-19 -1.7848375
0 2.6334662 -2
1.8320693 3.6893488e+19 -1.7874714
0 2.6009951 3.6893488e+19
1.9201877 -1.0842022e-19 -1.7843494
0 2.5858836 1.0842022e-19
1.806375 1.0842022e-19 -1.786147
-2 2.5588655 3.6893488e+19
1.8997604 2 -1.7826381
2 2.5501459 -2
1.7870768 -1.0842022e-19 -1.7858436
1.0842022e-19 2.5269089 1.0842022e-19
1.8842654 -1.0842022e-19 -1.7819519
-2 2.5203967 -2
1.7710125 -2 -1.7850919
2 2.4973629 -1.0842022e-19
1.8661574 -3.6893488e+19 -1.7800003
2 2.4853084 1.0842022e-19
1.7560318 -1.0842022e-19 -1.7823097
3.6893488e+19 2.4528151 -3.6893488e+19
1.8445574 -0 -1.7789181
-2 3.268821 0
2.0445616 1.0842022e-19 2.7369988
2 3.2274621 1.0842022e-19
2.3349307 1.0842022e-19 2.6768739
1.0842022e-19 3.25804 2
2.032748 -3.6893488e+19 2.6722636
-2 3.2773991 0
2.053961 1.0842022e-19 2.6878419
3.6893488e+19 3.2840855 -1.0842022e-19
2.3985612 -2 2.6915944
1.0842022e-19 3.2869787 -2
2.0644577 1.0842022e-19 2.6863465
3.6893488e+19 3.2889493 2
2.066617 -1.0842022e-19 2.6726606
-1.0842022e-19 3.2274437 -2
2.2454941 -1.0842022e-19 2.5790772
-3.6893488e+19 3.2537253 -1.0842022e-19
2.2633178 -3.6893488e+19 2.5851765
-1.0842022e-19 3.2523472 -2
2.2618876 -0 2.5688882
0 3.240304 2
2.4650259 3.6893488e+19 2.5542579
-1.0842022e-19 3.2539444 1.0842022e-19
2.2635453 -3.6893488e+19 2.5563762
-3.6893488e+19 3.2515345 2
2.2610443 -1.0842022e-19 2.5391066
-3.6893488e+19 3.2305524 -2
2.4557772 2 2.5206361
2 3.2378013 -0
2.2531216 -1.0842022e-19 2.5164366
-0 3.2558324 3.6893488e+19
2.2655046 3.6893488e+19 2.5149202
-3.6893488e+19 3.2464991 3.6893488e+19
2.4709017 -1.0842022e-19 2.5012422
2 3.2551744 -2
2.2648215 -1.0842022e-19 2.4995089
1.0842022e-19 3.2561798 3.6893488e+19
2.0307097 0 2.486218
-3.6893488e+19 3.2423213 -1.0842022e-19
2.3453541 -0 2.4547472
-3.6893488e+19 3.2602961 3.6893488e+19
2.0352204 -0 2.4645936
-1.0842022e-19 3.2520778 -0
2.3536558 3.6893488e+19 2.4371064
-0 3.2604456 0
2.0353842 -2 2.435452
-2 3.2508521 0
2.3519363 3.6893488e+19 2.406585
3.6893488e+19 3.2590902 3.6893488e+19
2.0338988 -3.6893488e+19 2.4039788
2 3.2594376 -3.6893488e+19
2.363981 -0 2.3911793
1.0842022e-19 3.2601464 3.6893488e+19
2.0350561 -0 2.3763337
-1.0842022e-19 3.2514753 1.0842022e-19
2.3528106 1.0842022e-19 2.3507848
1.0842022e-19 3.2628405 3.6893488e+19
2.0380082 2 2.3506789
-2 3.251668 -3.6893488e+19
2.3530807 1.0842022e-19 2.3226824
-0 3.2631736 -0
2.0383732 3.6893488e+19 2.3215623
1.0842022e-19 3.2608926 1.0842022e-19
2.0358739 -0 2.2895072
3.6893488e+19 3.2362657 -0
2.3411062 0 2.2569988
2 3.2316239 -0
2.4567933 0 2.2335408
1.0842022e-19 3.2523763 0
2.2619178 1.0842022e-19 2.2259855
0 3.2330608 -1.0842022e-19
2.4581561 0 2.1805441
-0 3.2529252 3.6893488e+19
2.2624874 1.0842022e-19 2.1703022
-0 3.2237813 -1.0842022e-19
2.4493551 -2 2.1189106
0 3.2680731 -3.6893488e+19
2.2782078 -3.6893488e+19 2.1354136
0 3.2279294 1.0842022e-19
2.4532893 2 2.0683467
-1.0842022e-19 3.2677295 0
2.2778516 3.6893488e+19 2.0749624
-1.0842022e-19 3.2141919 3.6893488e+19
2.4402602 0 2.0069892
-0 3.1308303 -0
2.1452281 1.0842022e-19 1.938508
0 3.2124307 -1.0842022e-19
2.4385896 -3.6893488e+19 1.9540197
-3.6893488e+19 3.1287518 3.6893488e+19
2.1430712 -2 1.8951093
3.6893488e+19 3.2102118 -2
2.4364851 -3.6893488e+19 1.9013257
-1.0842022e-19 3.134917 -2
2.1494694 3.6893488e+19 1.8338692
0 3.1485167 -0
2.3779707 -3.6893488e+19 1.7975222
-2 3.1633806 -0
2.2899787 -1.0842022e-19 1.533105
-3.6893488e+19 3.1286216 -3.6893488e+19
1.9574379 -0 -1.1973041
2 3.1668036 3.6893488e+19
2.2923799 -3.6893488e+19 -1.5888915
1.0842022e-19 3.1310785 -2
1.9587839 -0 -1.682516
3.6893488e+19 3.1656923 -3.6893488e+19
2.2916002 -0 -1.7714313
-0 3.1367016 -0
1.9618647 0 -1.8039378
0 3.1649346 2
2.2910688 3.6893488e+19 -1.8640918
1.0842022e-19 3.0718312 0
1.9263238 0 -1.8457713
0 3.0659082 2
2.1932073 -0 -1.8764062
1.0842022e-19 3.0666242 -3.6893488e+19
1.9234709 -0 -1.8939613
-1.0842022e-19 2.839401 -3.6893488e+19
1.8109498 1.0842022e-19 -1.817238
2 2.783572 -0
1.9489204 -0 -1.8020334
-0 2.75612 -2
1.7653221 2 -1.7986915
1.0842022e-19 2.6959436 -1.0842022e-19
1.9064105 -1.0842022e-19 -1.7892084
-1.0842022e-19 2.6521904 -1.0842022e-19
1.9407276 0 -1.7848868
-2 2.6325362 2
1.8234993 1.0842022e-19 -1.7870493
3.6893488e+19 2.6009815 -3.6893488e+19
1.9164431 -2 -1.7842932
-0 2.5888057 -1.0842022e-19
1.8008074 0 -1.7875208
-1.0842022e-19 2.5592105 -1.0842022e-19
1.8966345 -1.0842022e-19 -1.7827644
0 2.5505714 2
1.7809675 -3.6893488e+19 -1.7860436
2 2.5268722 2
1.8812989 0 -1.7818818
-0 2.5200706 1.0842022e-19
1.7651405 -0 -1.784871
0 2.4990046 -2
1.8616389 1.0842022e-19 -1.7804631
-3.6893488e+19 2.4853926 2
1.7509359 -1.0842022e-19 -1.7823097
1.0842022e-19 2.4529576 2
1.8398025 -0 -1.7789181
3.6893488e+19 2.391355 3.6893488e+19
1.8105892 -1.0842022e-19 -1.7801495
0 2.3441255 -1.0842022e-19
1.5635382 -0 -1.7799729
-2 2.3053796 3.6893488e+19
1.5423104 0 -1.7798089
3.6893488e+19 2.2731421 -3.6893488e+19
1.5246481 -0 -1.778981
1.0842022e-19 2.2354083 2
1.5079719 -2 -1.7756618
-0 2.1925509 -3.6893488e+19
1.7098674 -1.0842022e-19 -1.7759947
-1.0842022e-19 2.1572785 3.6893488e+19
1.6931405 3.6893488e+19 -1.7757531
-0 2.129895 -1.0842022e-19
1.6801546 -3.6893488e+19 -1.7766738
-3.6893488e+19 2.0957837 2
1.6639783 -2 -1.7731745
-2 3.268821 0
2.0445616 1.0842022e-19 2.7369988
2 3.2274621 1.0842022e-19
2.3349307 1.0842022e-19 2.6768739
1.0842022e-19 3.25804 2
2.032748 -3.6893488e+19 2.6722636
-3.6893488e+19 3.2595196 -0
2.0343695 -0 2.6596212
3.6893488e+19 3.2840855 -1.0842022e-19
2.3985612 -2 2.6915944
1.0842022e-19 3.2772522 2
2.0537999 3.6893488e+19 2.6715574
-1.0842022e-19 3.2779043 -2
2.0545144 -2 2.6565046
-1.0842022e-19 3.2274437 -2
2.2454941 -1.0842022e-19 2.5790772
-0 3.229543 -0
2.2476728 2 2.5667431
2 3.2328854 1.0842022e-19
2.2505708 -1.0842022e-19 2.5551081
0 3.240304 2
2.4650259 3.6893488e+19 2.5542579
1.0842022e-19 3.2310915 -3.6893488e+19
2.2492797 0 2.5402112
-3.6893488e+19 3.2515345 2
2.2610443 -1.0842022e-19 2.5391066
-3.6893488e+19 3.2305524 -2
2.4557772 2 2.5206361
-0 3.1647253 3.6893488e+19
2.1804047 1.0842022e-19 2.4530454
2 3.1615217 1.0842022e-19
2.1770799 -1.0842022e-19 2.4261398
-3.6893488e+19 3.2464991 3.6893488e+19
2.4709017 -1.0842022e-19 2.5012422
2 3.2551744 -2
2.2648215 -1.0842022e-19 2.4995089
0 3.1493118 -0
1.9687735 -0 2.378938
-1.0842022e-19 3.1527886 3.6893488e+19
2.2825487 -1.0842022e-19 2.3720477
-3.6893488e+19 3.1503458 -1.0842022e-19
1.9693401 -0 2.3572817
3.6893488e+19 3.1537209 0
2.2832026 -0 2.3500285
-3.6893488e+19 3.1535361 0
1.9710881 -1.0842022e-19 2.3373461
1.0842022e-19 3.1520946 0
2.2820618 -2 2.3258603
-0 3.1514888 2
1.9699663 1.0842022e-19 2.313005
-1.0842022e-19 3.1522436 -2
2.2821662 2 2.303251
3.6893488e+19 3.1552665 3.6893488e+19
1.972036 3.6893488e+19 2.293134
1.0842022e-19 3.1484344 -3.6893488e+19
2.279494 -2 2.2778893
2 3.1548584 2
1.9718124 -3.6893488e+19 2.2700787
1.0842022e-19 3.1506209 1.0842022e-19
2.281028 2 2.2568328
-0 3.2631736 -0
2.0383732 3.6893488e+19 2.3215623
1.0842022e-19 3.1402407 3.6893488e+19
1.9638036 3.6893488e+19 2.183042
-3.6893488e+19 3.1417708 -2
2.2748199 1.0842022e-19 2.1641138
2 3.2316239 -0
2.4567933 0 2.2335408
3.6893488e+19 3.1432426 -1.0842022e-19
2.1581097 -3.6893488e+19 2.1208305
-2 3.1490595 -2
2.3784857 2 2.1056752
-1.0842022e-19 3.1338334 -3.6893488e+19
2.1483448 2 2.0689204
0 3.1513116 1.0842022e-19
2.3806217 -0 2.0624819
3.6893488e+19 3.1312213 -0
2.1456339 -2 2.0240445
-1.0842022e-19 3.1479332 2
2.3774176 -3.6893488e+19 2.0150616
3.6893488e+19 3.1308014 -3.6893488e+19
2.1451981 -1.0842022e-19 1.9811028
-3.6893488e+19 3.1479452 -2
2.3774288 -2 1.9703132
-0 3.1308303 -0
2.1452281 1.0842022e-19 1.938508
0 3.1449289 2
2.374568 -3.6893488e+19 1.9242386
-3.6893488e+19 3.1287518 3.6893488e+19
2.1430712 -2 1.8951093
3.6893488e+19 3.1467321 -1.0842022e-19
2.3762782 -0 1.8804525
-1.0842022e-19 3.134917 -2
2.1494694 3.6893488e+19 1.8338692
0 3.1485167 -0
2.3779707 -3.6893488e+19 1.7975222
-3.6893488e+19 3.1428657 0
2.275588 0 1.5252588
-3.6893488e+19 3.1286216 -3.6893488e+19
1.9574379 -0 -1.1973041
1.0842022e-19 3.1438606 -2
2.2762856 -3.6893488e+19 -1.5771178
1.0842022e-19 3.1310785 -2
1.9587839 -0 -1.682516
3.6893488e+19 3.1656923 -3.6893488e+19
2.2916002 -0 -1.7714313
-0 3.1367016 -0
1.9618647 0 -1.8039378
0 3.1237245 -1.0842022e-19
2.2621605 -2 -1.8403457
1.0842022e-19 3.0718312 0
1.9263238 0 -1.8457713
0 3.0659082 2
2.1932073 -0 -1.8764062
1.0842022e-19 3.0666242 -3.6893488e+19
1.9234709 -0 -1.8939613
-1.0842022e-19 2.839401 -3.6893488e+19
1.8109498 1.0842022e-19 -1.817238
2 2.783572 -0
1.9489204 -0 -1.8020334
-0 2.75612 -2
1.7653221 2 -1.7986915
1.0842022e-19 2.6959436 -1.0842022e-19
1.9064105 -1.0842022e-19 -1.7892084
-1.0842022e-19 2.6521904 -1.0842022e-19
1.9407276 0 -1.7848868
-2 2.6325362 2
1.8234993 1.0842022e-19 -1.7870493
3.6893488e+19 2.6009815 -3.6893488e+19
1.9164431 -2 -1.7842932
-0 2.5888057 -1.0842022e-19
1.8008074 0 -1.7875208
-1.0842022e-19 2.5592105 -1.0842022e-19
1.8966345 -1.0842022e-19 -1.7827644
0 2.5505714 2
1.7809675 -3.6893488e+19 -1.7860436
2 2.5268722 2
1.8812989 0 -1.7818818
-0 2.5200706 1.0842022e-19
1.7651405 -0 -1.784871
0 2.4990046 -2
1.8616389 1.0842022e-19 -1.7804631
-3.6893488e+19 2.4853926 2
1.7509359 -1.0842022e-19 -1.7823097
1.0842022e-19 2.4529576 2
1.8398025 -0 -1.7789181
3.6893488e+19 2.391355 3.6893488e+19
1.8105892 -1.0842022e-19 -1.7801495
0 2.3441255 -1.0842022e-19
1.5635382 -0 -1.7799729
-2 2.3053796 3.6893488e+19
1.5423104 0 -1.7798089
3.6893488e+19 2.2731421 -3.6893488e+19
1.5246481 -0 -1.778981
1.0842022e-19 2.2354083 2
1.5079719 -2 -1.7756618
-0 2.1925509 -3.6893488e+19
1.7098674 -1.0842022e-19 -1.7759947
-1.0842022e-19 2.1572785 3.6893488e+19
1.6931405 3.6893488e+19 -1.7757531
-0 2.129895 -1.0842022e-19
1.6801546 -3.6893488e+19 -1.7766738
-3.6893488e+19 2.0957837 2
1.6639783 -2 -1.7731745
3.6893488e+19 3.222069 2
2.321166 -3.6893488e+19 2.6719565
-3.6893488e+19 3.2611375 3.6893488e+19
2.0141959 0 2.6772962
-1.0842022e-19 3.2775609 0
2.0308118 1.0842022e-19 2.6880596
1.0842022e-19 3.2875252 -3.6893488e+19
2.0408924 -2 2.6871395
-2 3.2608182 -2
2.3548887 -0 2.6402118
-3.6893488e+19 3.2872841 -3.6893488e+19
2.0406487 -1.0842022e-19 2.6701889
-0 3.2553144 -2
2.2542067 -2 2.6018913
-1.0842022e-19 3.2530336 3.6893488e+19
2.4692097 2 2.5930939
0 3.253814 -1.0842022e-19
2.2527127 -1.0842022e-19 2.5852375
3.6893488e+19 3.2507808 2
2.4650321 0 2.5755789
-1.0842022e-19 3.255501 -0
2.2543926 -3.6893488e+19 2.5728197
3.6893488e+19 3.2244396 1.0842022e-19
2.4398854 -0 2.5443227
-2 3.2562382 2
2.2551267 1.0842022e-19 2.5590923
-2 3.2529812 -0
2.2518837 -1.0842022e-19 2.5407209
0 3.2300241 -2
2.4450629 1.0842022e-19 2.5202553
3.6893488e+19 3.2379754 2
2.2358584 0 2.5164874
-0 3.2562153 -0
2.2551038 -3.6893488e+19 2.5152724
2 3.2489619 0
2.4626217 0 2.5024109
-1.0842022e-19 3.2552633 -3.6893488e+19
2.2541559 -3.6893488e+19 2.4995997
1.0842022e-19 3.2559383 2
2.0089357 3.6893488e+19 2.4857175
2 3.2439487 -2
2.3360515 -0 2.456147
-1.0842022e-19 3.2611723 -3.6893488e+19
2.014231 -1.0842022e-19 2.4661171
0 3.2554166 2
2.3475387 3.6893488e+19 2.4427953
-3.6893488e+19 3.260468 -0
2.0135186 -2 2.435452
2 3.2509246 1.0842022e-19
2.3414266 -2 2.40661
-0 3.2587395 2
2.0117698 3.6893488e+19 2.4033973
0 3.2587059 2
2.3520143 1.0842022e-19 2.3899877
-2 3.2574468 0
2.010462 3.6893488e+19 2.3723965
-1.0842022e-19 3.2526491 3.6893488e+19
2.3437731 -0 2.3523421
-3.6893488e+19 3.2613223 -0
2.0143828 -3.6893488e+19 2.3486233
-1.0842022e-19 3.2516785 2
2.3424525 -2 2.3226225
-3.6893488e+19 3.2626979 0
2.0157747 -3.6893488e+19 2.3209534
3.6893488e+19 3.2510827 -0
2.3416417 2 2.293586
-3.6893488e+19 3.2609305 2
2.0139866 0 2.2895246
-3.6893488e+19 3.2445784 -3.6893488e+19
2.3364799 1.0842022e-19 2.261333
-1.0842022e-19 3.2293863 1.0842022e-19
2.4444718 2 2.2311463
0 3.2526364 0
2.2515404 0 2.2263966
2 3.2311327 3.6893488e+19
2.4460909 1.0842022e-19 2.1786938
-0 3.2556772 2
2.2545681 -2 2.1748044
0 3.2688656 -2
2.267699 -1.0842022e-19 2.1364887
-2 3.2326045 2
2.4474556 -0 2.071362
-1.0842022e-19 3.1300857 -1.0842022e-19
2.1284368 -1.0842022e-19 1.98063
2 3.213249 -0
2.4295096 3.6893488e+19 2.0063882
-0 3.1290233 -3.6893488e+19
2.1273789 -1.0842022e-19 1.9375823
3.6893488e+19 3.2069564 -2
2.4236753 -1.0842022e-19 1.9515425
-0 3.1313095 2
2.1296554 3.6893488e+19 1.8960649
-1.0842022e-19 3.2092049 1.0842022e-19
2.4257603 3.6893488e+19 1.9009483
-3.6893488e+19 3.1318626 -0
2.1302061 -0 1.8321773
3.6893488e+19 3.1481736 -2
2.3691738 -2 1.7973207
-1.0842022e-19 3.1362648 2
2.1345892 -1.0842022e-19 1.7464172
-3.6893488e+19 3.1607342 1.0842022e-19
2.2794378 -0 1.5320573
2 3.1390243 -3.6893488e+19
1.9467901 3.6893488e+19 -1.2027075
-3.6893488e+19 3.1611063 1.0842022e-19
2.279691 1.0842022e-19 -1.5859202
2 3.1318922 -0
1.9431823 2 -1.6828899
0 3.1636693 1.0842022e-19
2.2814345 -0 -1.7706857
1.0842022e-19 3.1348612 2
1.9446843 0 -1.8030708
0 3.1660249 -3.6893488e+19
2.2830369 -2 -1.8646656
-2 3.0703287 -3.6893488e+19
1.9120401 -2 -1.8447217
1.0842022e-19 3.065295 1.0842022e-19
2.1790137 -0 -1.8761322
1.0842022e-19 3.0664954 -3.6893488e+19
1.9101009 1.0842022e-19 -1.8938904
2 2.8411784 -0
1.797587 -3.6893488e+19 -1.8182279
-0 2.7805247 0
1.9408514 -3.6893488e+19 -1.8000914
1.0842022e-19 2.757328 -0
1.7551708 -2 -1.7994956
0 2.6985331 1.0842022e-19
1.9025768 2 -1.7901245
-0 2.6523142 0
1.9365065 0 -1.7848868
-2 2.6311049 2
1.8147259 3.6893488e+19 -1.7864161
0 2.6028252 3.6893488e+19
1.9135641 -1.0842022e-19 -1.7850807
1.0842022e-19 2.5891113 -1.0842022e-19
1.79382 0 -1.7876402
-0 2.5578187 3.6893488e+19
1.8926998 1.0842022e-19 -1.782006
0 2.5516174 -3.6893488e+19
1.7751544 -3.6893488e+19 -1.7865771
0 2.5270813 -0
1.8784504 -1.0842022e-19 -1.7819519
3.6893488e+19 2.5201156 3.6893488e+19
1.7594719 -0 -1.784871
1.0842022e-19 2.4984152 -3.6893488e+19
1.8560573 -0 -1.7802317
-3.6893488e+19 2.4849761 3.6893488e+19
1.7414361 -0 -1.7821485
-2 2.4526019 3.6893488e+19
1.8348191 1.0842022e-19 -1.7787501
3.6893488e+19 3.222069 2
2.321166 -3.6893488e+19 2.6719565
-3.6893488e+19 3.2611375 3.6893488e+19
2.0141959 0 2.6772962
-1.0842022e-19 3.2775609 0
2.0308118 1.0842022e-19 2.6880596
1.0842022e-19 3.2875252 -3.6893488e+19
2.0408924 -2 2.6871395
-3.6893488e+19 3.2280777 -0
2.325254 -0 2.6076274
1.0842022e-19 3.2764075 -2
2.0296445 3.6893488e+19 2.6542802
-0 3.2296751 3.6893488e+19
2.2275941 -3.6893488e+19 2.58056
-1.0842022e-19 3.2530336 3.6893488e+19
2.4692097 2 2.5930939
1.0842022e-19 3.2301154 0
2.2280326 1.0842022e-19 2.5670683
3.6893488e+19 3.2198732 0
2.4356515 1.0842022e-19 2.5550089
2 3.233274 -1.0842022e-19
2.2311773 0 2.5553029
3.6893488e+19 3.2244396 1.0842022e-19
2.4398854 -0 2.5443227
-3.6893488e+19 3.2364764 0
2.2343662 -3.6893488e+19 2.5434105
-2 3.2529812 -0
2.2518837 -1.0842022e-19 2.5407209
0 3.2300241 -2
2.4450629 1.0842022e-19 2.5202553
3.6893488e+19 3.2379754 2
2.2358584 0 2.5164874
-0 3.2562153 -0
2.2551038 -3.6893488e+19 2.5152724
2 3.2489619 0
2.4626217 0 2.5024109
-1.0842022e-19 3.1540251 0
2.1522725 2 2.3953776
0 3.1490982 3.6893488e+19
1.9518861 -3.6893488e+19 2.3787024
-2 3.1526015 0
2.2739048 2 2.3717906
-1.0842022e-19 3.2611723 -3.6893488e+19
2.014231 -1.0842022e-19 2.4661171
2 3.1529455 -0
2.2741387 1.0842022e-19 2.3492773
2 3.1519246 -0
1.9533159 1.0842022e-19 2.3359699
1.0842022e-19 3.1523097 -3.6893488e+19
2.273706 0 2.3259609
-1.0842022e-19 3.1550052 1.0842022e-19
1.9548743 2 2.3157191
-2 3.1533887 -1.0842022e-19
2.2744403 -0 2.3040454
-3.6893488e+19 3.1544926 2
1.954615 -2 2.2925489
-2 3.1516266 1.0842022e-19
2.2732415 2 2.2800524
2 3.1542397 2
1.954487 1.0842022e-19 2.2696428
0 3.1532569 -3.6893488e+19
2.2743504 -0 2.2584641
-3.6893488e+19 3.2626979 0
2.0157747 -3.6893488e+19 2.3209534
0 3.1466393 3.6893488e+19
2.2698483 -2 2.2137823
-3.6893488e+19 3.1360676 2
1.9452946 3.6893488e+19 2.1783745
-2 3.1454327 -2
2.2690275 -3.6893488e+19 2.1678896
1.0842022e-19 3.1454868 2
2.3666828 -3.6893488e+19 2.1469386
3.6893488e+19 3.1407862 -1.0842022e-19
2.1390908 3.6893488e+19 2.1184528
-0 3.1496162 1.0842022e-19
2.3705115 -3.6893488e+19 2.1060617
2 3.1295991 1.0842022e-19
2.1279523 -3.6893488e+19 2.0653493
-3.6893488e+19 3.1294153 1.0842022e-19
2.1277695 0 2.022701
-1.0842022e-19 3.150661 0
2.3714802 2 2.0167966
-1.0842022e-19 3.1300857 -1.0842022e-19
2.1284368 -1.0842022e-19 1.98063
1.0842022e-19 3.1494949 -2
2.3703988 -0 1.9711031
-0 3.1290233 -3.6893488e+19
2.1273789 -1.0842022e-19 1.9375823
-2 3.1462915 0
2.367429 1.0842022e-19 1.9247861
-0 3.1313095 2
2.1296554 3.6893488e+19 1.8960649
3.6893488e+19 3.1483128 2
2.369303 -2 1.880932
-3.6893488e+19 3.1318626 -0
2.1302061 -0 1.8321773
3.6893488e+19 3.1481736 -2
2.3691738 -2 1.7973207
-1.0842022e-19 3.1362648 2
2.1345892 -1.0842022e-19 1.7464172
-3.6893488e+19 3.1409619 0
2.265986 -2 1.5244967
2 3.1390243 -3.6893488e+19
1.9467901 3.6893488e+19 -1.2027075
-1.0842022e-19 3.144012 -0
2.2680609 -3.6893488e+19 -1.5771497
2 3.1318922 -0
1.9431823 2 -1.6828899
0 3.1636693 1.0842022e-19
2.2814345 -0 -1.7706857
-1.0842022e-19 3.0711496 1.0842022e-19
1.9124554 -3.6893488e+19 -1.7735921
0 3.1660249 -3.6893488e+19
2.2830369 -2 -1.8646656
-2 3.0703287 -3.6893488e+19
1.9120401 -2 -1.8447217
1.0842022e-19 3.065295 1.0842022e-19
2.1790137 -0 -1.8761322
1.0842022e-19 3.0664954 -3.6893488e+19
1.9101009 1.0842022e-19 -1.8938904
2 2.8411784 -0
1.797587 -3.6893488e+19 -1.8182279
-0 2.7805247 0
1.9408514 -3.6893488e+19 -1.8000914
1.0842022e-19 2.757328 -0
1.7551708 -2 -1.7994956
0 2.6985331 1.0842022e-19
1.9025768 2 -1.7901245
-0 2.6523142 0
1.9365065 0 -1.7848868
-2 2.6311049 2
1.8147259 3.6893488e+19 -1.7864161
0 2.6028252 3.6893488e+19
1.9135641 -1.0842022e-19 -1.7850807
1.0842022e-19 2.5891113 -1.0842022e-19
1.79382 0 -1.7876402
-0 2.5578187 3.6893488e+19
1.8926998 1.0842022e-19 -1.782006
0 2.5516174 -3.6893488e+19
1.7751544 -3.6893488e+19 -1.7865771
0 2.5270813 -0
1.8784504 -1.0842022e-19 -1.7819519
3.6893488e+19 2.5201156 3.6893488e+19
1.7594719 -0 -1.784871
1.0842022e-19 2.4984152 -3.6893488e+19
1.8560573 -0 -1.7802317
-3.6893488e+19 2.4849761 3.6893488e+19
1.7414361 -0 -1.7821485
-2 2.4526019 3.6893488e+19
1.8348191 1.0842022e-19 -1.7787501
-1.0842022e-19 3.2225375 2
2.3114927 2 2.6722827
-2 3.2856567 -0
2.0149868 3.6893488e+19 2.7173793
0 3.2787018 -1.0842022e-19
2.0085349 2 2.6898248
3.6893488e+19 3.2867501 2
2.016001 1.0842022e-19 2.6859267
3.6893488e+19 3.260447 -3.6893488e+19
2.3433688 2 2.6395707
-1.0842022e-19 3.2871227 3.6893488e+19
2.0163467 -2 2.6699193
2 3.2597368 2
2.3424325 -3.6893488e+19 2.623487
0 3.2542593 1.0842022e-19
2.460664 -1.0842022e-19 2.6093457
-1.0842022e-19 3.2571075 -0
2.2403088 3.6893488e+19 2.6043062
-3.6893488e+19 3.2531097 1.0842022e-19
2.4585814 2 2.5930939
0 3.2560861 -1.0842022e-19
2.2383606 0 2.5881846
0 3.2524045 3.6893488e+19
2.4573033 3.6893488e+19 2.5775881
-3.6893488e+19 3.2554648 -1.0842022e-19
2.2371762 -2 2.5727224
-2 3.2220657 1.0842022e-19
2.4276416 -0 2.542762
3.6893488e+19 3.256233 1.0842022e-19
2.238641 0 2.5590365
-2 3.2287669 1.0842022e-19
2.4337122 3.6893488e+19 2.5331795
-3.6893488e+19 3.255986 3.6893488e+19
2.2381701 -1.0842022e-19 2.544127
-0 3.2301991 -1.0842022e-19
2.4350095 -2 2.5202725
-1.0842022e-19 3.2563491 3.6893488e+19
2.2388625 -3.6893488e+19 2.5153685
-0 3.2486806 -2
2.4517517 0 2.5021927
-0 3.2553661 3.6893488e+19
2.2369878 1.0842022e-19 2.4997211
-2 3.2557414 3.6893488e+19
1.9872361 1.0842022e-19 2.4853055
1.0842022e-19 3.2439954 -2
2.3256373 -3.6893488e+19 2.4560897
2 3.261131 -3.6893488e+19
1.9922357 -2 2.4660063
-3.6893488e+19 3.2578259 1.0842022e-19
2.3399134 1.0842022e-19 2.4468741
-0 3.2602713 2
1.9914383 0 2.4350886
-0 3.2510417 1.0842022e-19
2.3309691 -3.6893488e+19 2.4067104
2 3.2578585 3.6893488e+19
1.9892 1.0842022e-19 2.4019918
-1.0842022e-19 3.2593362 -2
2.3419044 3.6893488e+19 2.3908522
0 3.2572963 1.0842022e-19
1.9886785 3.6893488e+19 2.372149
-1.0842022e-19 3.2518358 -2
2.332016 -3.6893488e+19 2.3511307
1.0842022e-19 3.2595844 3.6893488e+19
1.990801 3.6893488e+19 2.3462772
0 3.2512062 1.0842022e-19
2.3311858 -1.0842022e-19 2.3219461
3.6893488e+19 3.1381762 -1.0842022e-19
1.9300439 2 2.2242198
2 3.2506254 -3.6893488e+19
2.33042 2 2.2929869
-3.6893488e+19 3.2664826 -1.0842022e-19
1.9972001 1.0842022e-19 2.2956614
-3.6893488e+19 3.2462409 -1.0842022e-19
2.3271177 0 2.2621539
1.0842022e-19 3.2298715 -0
2.4347126 0 2.2314885
3.6893488e+19 3.253284 1.0842022e-19
2.2330172 0 2.2275414
2 3.2314634 2
2.4361548 0 2.1788595
-0 3.1294105 3.6893488e+19
2.1117713 -2 2.0651424
0 3.2320096 -0
2.4366496 0 2.1250894
0 3.2704823 -1.0842022e-19
2.2579072 -1.0842022e-19 2.1387506
3.6893488e+19 3.2324705 -3.6893488e+19
2.437067 -3.6893488e+19 2.0711761
0 3.1289933 2
2.1113734 -2 1.9799303
1.0842022e-19 3.2146297 -1.0842022e-19
2.4209051 1.0842022e-19 2.0070751
-0 3.129957 -2
2.1122923 -1.0842022e-19 1.9380143
-1.0842022e-19 3.2096701 -1.0842022e-19
2.4164124 -2 1.9526784
-1.0842022e-19 3.1317759 2
2.1140268 -3.6893488e+19 1.8962201
