# .PCD v0.7 - Point Cloud Data file format
VERSION 0.7
FIELDS x y z
SIZE 4 4 4
TYPE F F F
COUNT 1 1 1
WIDTH 1720
HEIGHT 1
VIEWPOINT 0 0 0 1 0 0 0
POINTS 1720
DATA ascii
2.4203725 3.6893488e+19 -1.8435605
-3.6893488e+19 3.0626497 3.6893488e+19
2.623286 -3.6893488e+19 -1.9274215
1.0842022e-19 2.9311211 2
2.4162285 -1.0842022e-19 -1.8829675
-2 2.9346094 0
2.5094495 2 -1.8986478
-0 2.9348824 -2
2.4198599 -2 -1.9091164
-1.0842022e-19 2.8456416 -0
2.4126763 -1.0842022e-19 -1.8883727
2 2.85163 -0
2.4670584 0 -1.9024919
-2 2.8037708 -2
2.3328562 3.6893488e+19 -1.8884366
2 2.8032358 0
2.4027781 1.0842022e-19 -1.8993759
-0 2.7503419 -1.0842022e-19
2.2743115 3.6893488e+19 -1.8786141
0 2.6709495 3.6893488e+19
2.2795665 -0 -1.8571961
-3.6893488e+19 2.6010563 -1.0842022e-19
2.2162967 -0 -1.8393683
-2 2.5512023 -2
2.1500771 3.6893488e+19 -1.8267291
0 2.5231357 1.0842022e-19
2.112797 0 -1.8240907
-1.0842022e-19 2.4930129 1.0842022e-19
2.0774264 2 -1.8192848
1.0842022e-19 2.4379113 0
2.0408316 -0 -1.8105594
3.6893488e+19 2.3843725 -3.6893488e+19
1.9355474 -3.6893488e+19 -1.8063194
-2 2.3355145 1.0842022e-19
1.9119624 3.6893488e+19 -1.8028058
2 2.3011992 3.6893488e+19
1.8953973 -0 -1.8022195
1.0842022e-19 2.2640786 -1.0842022e-19
1.8774781 2 -1.7958704
-0 2.2190914 -3.6893488e+19
1.9057696 1.0842022e-19 -1.7946014
3.6893488e+19 2.1810684 -3.6893488e+19
1.8931434 2 -1.7939245
-3.6893488e+19 2.154319 -1.0842022e-19
1.8842609 2 -1.7957652
-1.0842022e-19 2.1183558 0
1.8696375 2 -1.7918658
-0 3.0724409 0
2.5613027 3.6893488e+19 2.5570879
2 3.0568871 3.6893488e+19
2.5462861 3.6893488e+19 2.5330157
-2 3.0511665 2
2.6095757 3.6893488e+19 2.5271597
2 3.0553107 -2
2.544764 2 2.5223775
2 3.0511243 2
2.6095252 0 2.5179453
-0 3.0549619 -0
2.5444274 3.6893488e+19 2.5129218
-2 3.0517991 -1.0842022e-19
2.6103308 -1.0842022e-19 2.5093768
0 3.0501397 0
2.6083496 1.0842022e-19 2.4977202
-0 3.0522451 1.0842022e-19
2.5418046 3.6893488e+19 2.4850602
-3.6893488e+19 3.050081 0
2.5397153 2 2.4637392
3.6893488e+19 3.0658429 2
2.6270983 2 2.4856493
-1.0842022e-19 3.0527086 1.0842022e-19
2.5422521 -0 2.4498458
0 3.048382 -2
2.6463308 1.0842022e-19 2.4360971
3.6893488e+19 3.0511544 -0
2.5799892 1.0842022e-19 2.4241478
3.6893488e+19 3.0524802 -2
2.6517744 2 2.4237978
-0 3.050492 -2
2.5792634 0 2.4053578
-2 3.0508022 -3.6893488e+19
2.6495457 -0 2.4033051
3.6893488e+19 3.0150278 2
2.5404036 -2 2.3418059
-1.0842022e-19 3.0502195 -1.0842022e-19
2.6487718 -1.0842022e-19 2.3844535
-2 3.050518 -0
2.5792921 1.0842022e-19 2.3697982
1.0842022e-19 3.0514696 -3.6893488e+19
2.6504319 -0 2.3679507
0 3.0472405 3.6893488e+19
2.5757005 -3.6893488e+19 2.3482151
-0 3.0522659 -2
2.6514897 2 2.3508046
-2 3.0473764 -2
2.5758495 -2 2.3308549
-1.0842022e-19 2.983525 0
2.5711253 -2 2.2661242
-3.6893488e+19 3.0150869 -1.0842022e-19
2.5404685 -2 2.2793391
-1.0842022e-19 2.9720621 1.0842022e-19
2.5635123 -1.0842022e-19 2.2414403
-2 3.0170209 1.0842022e-19
2.5425878 0 2.2657032
2 3.0539713 -2
2.5434709 3.6893488e+19 2.29126
-0 3.0306537 -1.0842022e-19
2.5850844 3.6893488e+19 2.2645307
-3.6893488e+19 3.0540595 -0
2.5435562 1.0842022e-19 2.2736766
0 3.0303319 2
2.5847001 0 2.2454367
-0 3.0159652 -1.0842022e-19
2.5067778 -2 2.1979156
-3.6893488e+19 3.1443059 0
2.7207789 -1.0842022e-19 2.3252416
2 3.0183561 -3.6893488e+19
2.5090859 1.0842022e-19 2.1708531
-1.0842022e-19 3.0339684 2
2.5890422 -3.6893488e+19 2.1851094
-1.0842022e-19 2.9903946 -2
2.4734545 -0 2.1061602
0 3.0321741 -2
2.5868995 -2 2.1492555
2 2.9995861 -2
2.4823284 1.0842022e-19 2.0839713
2 3.0304232 -2
2.5848091 0 2.1139247
0 2.9969487 -1.0842022e-19
2.4797821 -2 2.0535228
3.6893488e+19 2.9390283 0
2.5120873 -0 2.0091839
3.6893488e+19 3.0006578 -1.0842022e-19
2.4839983 -2 2.0272884
-3.6893488e+19 2.9404891 0
2.5129595 -3.6893488e+19 1.9842914
-2 2.929909 3.6893488e+19
2.535517 3.6893488e+19 1.9681976
0 3.0114026 1.0842022e-19
2.5364313 -1.0842022e-19 1.9959376
2 2.9296052 -3.6893488e+19
2.535315 -0 1.9427196
0 3.0090613 -2
2.5338657 -0 1.9636873
-1.0842022e-19 2.9288061 0
2.5347846 3.6893488e+19 1.9170983
1.0842022e-19 3.0060132 -2
2.5305257 -2 1.9315054
1.0842022e-19 2.9289932 0
2.5349088 -2 1.8919135
3.6893488e+19 3.0121675 -1.0842022e-19
2.5372694 -3.6893488e+19 1.9055001
-2 2.9285665 -1.0842022e-19
2.5346253 -1.0842022e-19 1.8581175
-1.0842022e-19 2.9467249 3.6893488e+19
2.4894979 -0 1.838256
0 2.9309652 0
2.5362184 3.6893488e+19 1.8087254
-0 2.9437904 -2
2.4862823 2 1.7854942
1.0842022e-19 2.9341738 0
2.5383494 0 1.759047
3.6893488e+19 2.9401102 -1.0842022e-19
2.4822497 -1.0842022e-19 1.7165073
-2 2.934871 2
2.5388124 -1.0842022e-19 1.6662742
-3.6893488e+19 2.9406874 -3.6893488e+19
2.4828823 2 1.6046795
-2 2.9125855 3.6893488e+19
2.3983333 1.0842022e-19 1.4873462
-2 2.9416814 2
2.5136712 0 1.2082014
-2 2.9096718 -1.0842022e-19
2.3955202 2 -1.3904158
-2 2.9425118 -1.0842022e-19
2.5141668 -1.0842022e-19 -1.5549417
-3.6893488e+19 2.918828 1.0842022e-19
2.4043603 3.6893488e+19 -1.631996
-1.0842022e-19 2.9392486 -2
2.5122187 0 -1.6915843
2 2.9332478 3.6893488e+19
2.4182818 -0 -1.7359896
3.6893488e+19 2.9393177 -2
2.51226 -2 -1.771953
0 2.9333088 1.0842022e-19
2.4183407 -2 -1.7927446
-3.6893488e+19 2.9396048 -2
2.5124314 3.6893488e+19 -1.8232527
-0 2.9354134 -2
2.4203725 3.6893488e+19 -1.8435605
0 2.9408882 -2
2.5131974 -2 -1.8750968
1.0842022e-19 2.9311211 2
2.4162285 -1.0842022e-19 -1.8829675
-2 2.9346094 0
2.5094495 2 -1.8986478
-0 2.9348824 -2
2.4198599 -2 -1.9091164
-1.0842022e-19 2.8456416 -0
2.4126763 -1.0842022e-19 -1.8883727
2 2.85163 -0
2.4670584 0 -1.9024919
-2 2.8037708 -2
2.3328562 3.6893488e+19 -1.8884366
2 2.8032358 0
2.4027781 1.0842022e-19 -1.8993759
-0 2.7503419 -1.0842022e-19
2.2743115 3.6893488e+19 -1.8786141
0 2.6709495 3.6893488e+19
2.2795665 -0 -1.8571961
-3.6893488e+19 2.6010563 -1.0842022e-19
2.2162967 -0 -1.8393683
-2 2.5512023 -2
2.1500771 3.6893488e+19 -1.8267291
0 2.5231357 1.0842022e-19
2.112797 0 -1.8240907
-1.0842022e-19 2.4930129 1.0842022e-19
2.0774264 2 -1.8192848
1.0842022e-19 2.4379113 0
2.0408316 -0 -1.8105594
3.6893488e+19 2.3843725 -3.6893488e+19
1.9355474 -3.6893488e+19 -1.8063194
-2 2.3355145 1.0842022e-19
1.9119624 3.6893488e+19 -1.8028058
2 2.3011992 3.6893488e+19
1.8953973 -0 -1.8022195
1.0842022e-19 2.2640786 -1.0842022e-19
1.8774781 2 -1.7958704
-0 2.2190914 -3.6893488e+19
1.9057696 1.0842022e-19 -1.7946014
3.6893488e+19 2.1810684 -3.6893488e+19
1.8931434 2 -1.7939245
-3.6893488e+19 2.154319 -1.0842022e-19
1.8842609 2 -1.7957652
-1.0842022e-19 2.1183558 0
1.8696375 2 -1.7918658
-3.6893488e+19 3.0727618 -1.0842022e-19
2.5580397 1.0842022e-19 2.5572007
-0 3.0638745 2
2.6211731 0 2.5482144
2 3.052747 -3.6893488e+19
2.6080141 -0 2.5283976
-0 3.055443 -1.0842022e-19
2.5415108 1.0842022e-19 2.5223246
-3.6893488e+19 3.0515635 3.6893488e+19
2.6066148 1.0842022e-19 2.5181277
2 3.054261 -1.0842022e-19
2.5403826 -3.6893488e+19 2.5121527
3.6893488e+19 3.0510945 -1.0842022e-19
2.60606 -0 2.5085702
-2 3.051331 -1.0842022e-19
2.5375865 -0 2.4832897
1.0842022e-19 3.0506282 -0
2.5369155 -0 2.4642928
-0 3.072366 0
2.6312149 -1.0842022e-19 2.4952943
-1.0842022e-19 3.0528688 3.6893488e+19
2.5390542 2 2.4498014
-1.0842022e-19 3.0486109 -1.0842022e-19
2.643168 -3.6893488e+19 2.4360542
2 3.0516071 3.6893488e+19
2.5770941 -0 2.4244826
3.6893488e+19 3.0489354 3.6893488e+19
2.6435952 -3.6893488e+19 2.418469
2 3.0512424 1.0842022e-19
2.5766985 -1.0842022e-19 2.40608
2 3.0506523 -0
2.6458557 -0 2.4027553
0 3.051964 -1.0842022e-19
2.577481 -1.0842022e-19 2.3891649
3.6893488e+19 3.0514185 3.6893488e+19
2.6468647 3.6893488e+19 2.3856552
0 3.0498972 1.0842022e-19
2.5752397 -0 2.3687708
2 3.0517011 3.6893488e+19
2.6472366 1.0842022e-19 2.3679149
0 3.0476317 1.0842022e-19
2.5727828 -2 2.3484249
-3.6893488e+19 3.0524392 -1.0842022e-19
2.6482086 2 2.3507023
0 3.0475588 2
2.5727036 2 2.3308218
3.6893488e+19 3.0540173 -3.6893488e+19
2.6502862 -0 2.334363
-0 3.0584216 -3.6893488e+19
2.5844843 -2 2.3247719
-0 3.0544045 2
2.6507962 3.6893488e+19 2.3166263
-2 3.0171216 0
2.5396945 2 2.2656138
-3.6893488e+19 3.0589325 -0
2.5448413 3.6893488e+19 2.2958281
2 3.0484414 0
2.6029227 3.6893488e+19 2.2810779
-3.6893488e+19 3.0725617 0
2.5578489 1.0842022e-19 2.2901478
0 3.0483413 0
2.6028042 -3.6893488e+19 2.2634275
-1.0842022e-19 3.0230267 -0
2.5105731 3.6893488e+19 2.2095194
-2 3.1438074 -0
2.715698 0 2.324578
2 3.0600712 0
2.545928 -1.0842022e-19 2.2359681
-2 3.0329359 3.6893488e+19
2.5845866 1.0842022e-19 2.1831906
-0 3.060421 3.6893488e+19
2.5462618 -1.0842022e-19 2.2006176
-3.6893488e+19 3.0549979 0
2.6106763 -1.0842022e-19 2.1812146
1.0842022e-19 2.9980216 1.0842022e-19
2.4753053 -2 2.0827162
2 2.9392619 2
2.5097251 -0 2.0348089
-0 3.0615306 0
2.5473208 3.6893488e+19 2.1303103
1.0842022e-19 3.0586469 1.0842022e-19
2.6149912 -1.0842022e-19 2.1141412
-3.6893488e+19 3.066956 1.0842022e-19
2.6248174 1.0842022e-19 2.0869093
-2 2.9317033 -3.6893488e+19
2.5342023 3.6893488e+19 1.9689188
-1.0842022e-19 3.0116191 -1.0842022e-19
2.5337269 2 1.995966
0 3.0651762 1.0842022e-19
2.6649787 -0 2.0325296
1.0842022e-19 3.0101197 -2
2.5321007 0 1.9644074
-1.0842022e-19 3.0643365 -1.0842022e-19
2.6638732 0 1.9947712
-2 3.0064065 3.6893488e+19
2.528074 2 1.9316549
-2 3.0657649 0
2.6657541 -3.6893488e+19 1.9587333
-3.6893488e+19 3.0055423 1.0842022e-19
2.5271368 3.6893488e+19 1.9014626
0 3.0659328 -3.6893488e+19
2.6659746 3.6893488e+19 1.921702
-3.6893488e+19 2.9371548 -3.6893488e+19
2.4740961 0 1.8335388
-1.0842022e-19 2.9303885 2
2.5333369 -1.0842022e-19 1.8083209
-3.6893488e+19 2.9433832 -0
2.4808509 3.6893488e+19 1.7852327
-0 2.9340746 -0
2.5357635 2 1.7589005
1.0842022e-19 2.9403036 1.0842022e-19
2.4775109 1.0842022e-19 1.7164481
-2 2.9340007 -1.0842022e-19
2.5357149 -1.0842022e-19 1.6657979
-3.6893488e+19 3.0435185 2
2.5683222 -0 1.6528683
-3.6893488e+19 2.9119935 3.6893488e+19
2.3932014 -1.0842022e-19 1.4868568
2 3.0658605 -0
2.6235216 -2 1.2737757
-3.6893488e+19 2.9101722 -3.6893488e+19
2.391463 -3.6893488e+19 -1.390499
-2 3.0679524 -2
2.6259954 0 -1.6291908
-1.0842022e-19 2.9205501 1.0842022e-19
2.4013677 1.0842022e-19 -1.6324556
3.6893488e+19 3.0684407 2
2.6265728 -2 -1.7637843
0 2.9293258 -1.0842022e-19
2.4097428 1.0842022e-19 -1.7337065
2 3.0677748 2
2.6257854 3.6893488e+19 -1.837428
-0 2.9329731 2
2.413224 3.6893488e+19 -1.7925096
-0 3.0673931 2
2.625334 -0 -1.8930265
0 2.9363554 -2
2.4164517 1.0842022e-19 -1.8438958
0 3.0599279 -3.6893488e+19
2.6165059 -3.6893488e+19 -1.9257401
2 2.9321816 -0
2.4124684 -1.0842022e-19 -1.8832109
0 2.9389 -0
2.509511 -0 -1.8999985
-0 2.9323618 1.0842022e-19
2.4126406 3.6893488e+19 -1.9080949
2 2.8472874 -0
2.4106855 1.0842022e-19 -1.8889235
1.0842022e-19 2.858041 2
2.471417 2 -1.9051379
0 2.805373 -3.6893488e+19
2.3311779 -0 -1.8890674
0 2.8026686 1.0842022e-19
2.3985105 -0 -1.8989675
-2 2.7570829 0
2.2788076 -1.0842022e-19 -1.8819832
-0 2.6765268 1.0842022e-19
2.2807946 -0 -1.8600692
0 2.6023078 -0
2.2138681 1.0842022e-19 -1.8399464
0 2.5527651 2
2.1486375 -2 -1.8276002
-1.0842022e-19 2.5243182 3.6893488e+19
2.1111829 3.6893488e+19 -1.8247799
0 2.4932034 1.0842022e-19
2.0746896 3.6893488e+19 -1.8191917
-3.6893488e+19 2.4387627 -0
2.0388498 -2 -1.8107594
-3.6893488e+19 3.0727618 -1.0842022e-19
2.5580397 1.0842022e-19 2.5572007
-0 3.0638745 2
2.6211731 0 2.5482144
2 3.052747 -3.6893488e+19
2.6080141 -0 2.5283976
-0 3.055443 -1.0842022e-19
2.5415108 1.0842022e-19 2.5223246
-3.6893488e+19 3.0515635 3.6893488e+19
2.6066148 1.0842022e-19 2.5181277
2 3.054261 -1.0842022e-19
2.5403826 -3.6893488e+19 2.5121527
3.6893488e+19 3.0510945 -1.0842022e-19
2.60606 -0 2.5085702
-2 3.051331 -1.0842022e-19
2.5375865 -0 2.4832897
1.0842022e-19 3.0506282 -0
2.5369155 -0 2.4642928
-0 3.072366 0
2.6312149 -1.0842022e-19 2.4952943
-1.0842022e-19 3.0528688 3.6893488e+19
2.5390542 2 2.4498014
-1.0842022e-19 3.0486109 -1.0842022e-19
2.643168 -3.6893488e+19 2.4360542
2 3.0516071 3.6893488e+19
2.5770941 -0 2.4244826
3.6893488e+19 3.0489354 3.6893488e+19
2.6435952 -3.6893488e+19 2.418469
2 3.0512424 1.0842022e-19
2.5766985 -1.0842022e-19 2.40608
2 3.0506523 -0
2.6458557 -0 2.4027553
2 3.0143824 -1.0842022e-19
2.5367236 0 2.3407307
3.6893488e+19 3.0514185 3.6893488e+19
2.6468647 3.6893488e+19 2.3856552
0 3.0498972 1.0842022e-19
2.5752397 -0 2.3687708
2 3.0517011 3.6893488e+19
2.6472366 1.0842022e-19 2.3679149
0 3.0476317 1.0842022e-19
2.5727828 -2 2.3484249
-3.6893488e+19 3.0524392 -1.0842022e-19
2.6482086 2 2.3507023
0 3.0475588 2
2.5727036 2 2.3308218
0 2.9800584 0
2.566036 -1.0842022e-19 2.2639878
-0 3.0151265 -1.0842022e-19
2.5375307 0 2.2791817
-2 2.9755344 -1.0842022e-19
2.5630577 0 2.2446272
-2 3.0171216 0
2.5396945 2 2.2656138
-0 3.0236976 1.0842022e-19
2.5112135 0 2.2620878
-1.0842022e-19 3.0291448 3.6893488e+19
2.5801034 -1.0842022e-19 2.2629039
-3.6893488e+19 3.0725617 0
2.5578489 1.0842022e-19 2.2901478
-0 3.0291789 3.6893488e+19
2.5801437 1.0842022e-19 2.2430158
-1.0842022e-19 3.0230267 -0
2.5105731 3.6893488e+19 2.2095194
-0 3.0480769 2
2.6024916 -1.0842022e-19 2.2413528
2 3.0214901 1.0842022e-19
2.5091066 -3.6893488e+19 2.1755006
-2 3.0329359 3.6893488e+19
2.5845866 1.0842022e-19 2.1831906
-1.0842022e-19 2.9917321 -3.6893488e+19
2.4693027 -1.0842022e-19 2.1069074
2 3.0321546 -0
2.5836625 1.0842022e-19 2.1489179
1.0842022e-19 2.9980216 1.0842022e-19
2.4753053 -2 2.0827162
2 2.9392619 2
2.5097251 -0 2.0348089
2 2.9992008 -2
2.4764307 -0 2.0547071
-3.6893488e+19 2.9397283 2
2.5100009 1.0842022e-19 2.0093956
-0 2.9398148 -1.0842022e-19
2.510052 3.6893488e+19 1.9837511
-2 2.9317033 -3.6893488e+19
2.5342023 3.6893488e+19 1.9689188
-1.0842022e-19 3.0116191 -1.0842022e-19
2.5337269 2 1.995966
0 2.9300957 3.6893488e+19
2.533144 3.6893488e+19 1.9427727
1.0842022e-19 3.0101197 -2
2.5321007 0 1.9644074
0 2.9278727 1.0842022e-19
2.5316806 2 1.9165903
-2 3.0064065 3.6893488e+19
2.528074 2 1.9316549
-3.6893488e+19 2.9282966 1.0842022e-19
2.5319598 2 1.8915607
-3.6893488e+19 3.0055423 1.0842022e-19
2.5271368 3.6893488e+19 1.9014626
-3.6893488e+19 2.9282846 2
2.5319519 0 1.8577628
-3.6893488e+19 2.9371548 -3.6893488e+19
2.4740961 0 1.8335388
-1.0842022e-19 2.9303885 2
2.5333369 -1.0842022e-19 1.8083209
-3.6893488e+19 2.9433832 -0
2.4808509 3.6893488e+19 1.7852327
-0 2.9340746 -0
2.5357635 2 1.7589005
1.0842022e-19 2.9403036 1.0842022e-19
2.4775109 1.0842022e-19 1.7164481
-2 2.9340007 -1.0842022e-19
2.5357149 -1.0842022e-19 1.6657979
3.6893488e+19 2.9397955 2
2.4769599 -1.0842022e-19 1.6040511
-3.6893488e+19 2.9119935 3.6893488e+19
2.3932014 -1.0842022e-19 1.4868568
0 2.9421449 -3.6893488e+19
2.5114295 -0 1.2082578
-3.6893488e+19 2.9101722 -3.6893488e+19
2.391463 -3.6893488e+19 -1.390499
2 2.9427361 3.6893488e+19
2.5117793 0 -1.554893
-1.0842022e-19 2.9205501 1.0842022e-19
2.4013677 1.0842022e-19 -1.6324556
2 2.93977 2
2.5100255 2 -1.6916627
0 2.9293258 -1.0842022e-19
2.4097428 1.0842022e-19 -1.7337065
-0 2.9390001 2
2.5095704 -0 -1.7717327
-0 2.9329731 2
2.413224 3.6893488e+19 -1.7925096
-2 2.9401863 0
2.5102718 2 -1.8233607
0 2.9363554 -2
2.4164517 1.0842022e-19 -1.8438958
-2 2.9389546 3.6893488e+19
2.5095434 2 -1.873903
2 2.9321816 -0
2.4124684 -1.0842022e-19 -1.8832109
2 2.8492515 3.6893488e+19
2.4130082 -3.6893488e+19 -1.8637205
-1.0842022e-19 2.8205514 2
2.3059301 1.0842022e-19 -1.859422
2 2.8472874 -0
2.4106855 1.0842022e-19 -1.8889235
1.0842022e-19 2.858041 2
2.471417 2 -1.9051379
0 2.805373 -3.6893488e+19
2.3311779 -0 -1.8890674
0 2.8026686 1.0842022e-19
2.3985105 -0 -1.8989675
-2 2.7570829 0
2.2788076 -1.0842022e-19 -1.8819832
-0 2.6765268 1.0842022e-19
2.2807946 -0 -1.8600692
0 2.6023078 -0
2.2138681 1.0842022e-19 -1.8399464
0 2.5527651 2
2.1486375 -2 -1.8276002
-1.0842022e-19 2.5243182 3.6893488e+19
2.1111829 3.6893488e+19 -1.8247799
0 2.4932034 1.0842022e-19
2.0746896 3.6893488e+19 -1.8191917
-3.6893488e+19 2.4387627 -0
2.0388498 -2 -1.8107594
-3.6893488e+19 3.0729623 -1.0842022e-19
2.5546587 1.0842022e-19 2.5572007
3.6893488e+19 3.0528924 -3.6893488e+19
2.6047397 0 2.528317
1.0842022e-19 3.0538197 3.6893488e+19
2.5366008 -2 2.5207088
-3.6893488e+19 3.0520012 -0
2.6036961 2 2.5183101
0 3.0536165 -0
2.5364091 -0 2.511435
-3.6893488e+19 3.0512383 -3.6893488e+19
2.6028025 2 2.5084946
1.0842022e-19 3.0643675 0
2.546551 1.0842022e-19 2.5113034
1.0842022e-19 3.0502944 3.6893488e+19
2.5332754 -2 2.4813278
1.0842022e-19 3.0493801 -2
2.5324128 -0 2.4620781
-2 3.0476322 -2
2.5985792 0 2.4569407
2 3.0530272 -3.6893488e+19
2.5358531 -3.6893488e+19 2.4497569
-1.0842022e-19 3.0503993 2
2.60182 0 2.4431615
-0 3.0492771 -0
2.6405745 -3.6893488e+19 2.4366522
0 3.052088 -1.0842022e-19
2.5742218 2 2.4248593
-0 3.0525329 -0
2.6448236 -0 2.423142
0 3.0518723 3.6893488e+19
2.5739903 1.0842022e-19 2.406642
3.6893488e+19 3.0507636 -0
2.6425145 -3.6893488e+19 2.4025588
0 3.0480616 2
2.5699005 -0 2.3838644
1.0842022e-19 3.0523822 1.0842022e-19
2.6446269 0 2.3865564
1.0842022e-19 3.0495119 1.0842022e-19
2.5714571 1.0842022e-19 2.3680372
-3.6893488e+19 3.0521951 -2
2.6443827 2 2.3682015
-0 3.047812 1.0842022e-19
2.5696328 1.0842022e-19 2.3483901
-0 3.0524929 2
2.6447713 1.0842022e-19 2.3504636
-2 3.0476491 3.6893488e+19
2.569458 -2 2.3306887
0 3.0551326 1.0842022e-19
2.6482162 0 2.3353019
2 3.0588491 -2
2.5814784 -2 2.3249924
3.6893488e+19 3.0547543 -0
2.6477225 0 2.3167183
-0 3.0171905 -1.0842022e-19
2.5367675 -1.0842022e-19 2.2654946
2 3.0607862 -0
2.5431726 0 2.2974184
-2 3.0484626 -3.6893488e+19
2.5995517 -3.6893488e+19 2.2808814
3.6893488e+19 3.0730948 -2
2.5547836 2 2.2904468
-2 3.0478253 3.6893488e+19
2.5988054 -1.0842022e-19 2.2627697
-2 3.0482767 2
2.599334 3.6893488e+19 2.2413037
3.6893488e+19 3.0238085 -0
2.5082905 0 2.1788681
3.6893488e+19 3.0539403 1.0842022e-19
2.605967 -3.6893488e+19 2.2149909
-2 3.060432 2
2.5428386 3.6893488e+19 2.2003539
-0 3.0572352 -3.6893488e+19
2.6098258 -0 2.1840432
0 2.9956026 -1.0842022e-19
2.4675145 1.0842022e-19 2.0808947
-3.6893488e+19 3.0591135 -2
2.6120257 3.6893488e+19 2.150538
3.6893488e+19 3.0616028 -0
2.5439429 -1.0842022e-19 2.1301622
1.0842022e-19 3.064868 -0
2.6187651 -0 2.1211948
2 3.0611799 -3.6893488e+19
2.5435438 1.0842022e-19 2.093811
0 3.0668414 0
2.6210763 1.0842022e-19 2.0865278
-2 2.9350986 -1.0842022e-19
2.5339148 -1.0842022e-19 1.9704514
3.6893488e+19 3.0077057 -1.0842022e-19
2.5265877 3.6893488e+19 1.9921156
-2 3.0640819 -3.6893488e+19
2.6598957 0 2.0313075
2 3.0116298 -0
2.5307994 -3.6893488e+19 1.9654999
-0 3.063627 -0
2.659302 2 1.9940093
3.6893488e+19 3.0087891 -1.0842022e-19
2.5277505 -0 1.9332134
-2 3.0643735 -3.6893488e+19
2.6602762 2 1.9576354
-0 3.0927737 -1.0842022e-19
2.6178887 2 1.953022
-2 3.0647488 1.0842022e-19
2.6607661 -3.6893488e+19 1.9209119
-0 2.9372222 2
2.4692576 -2 1.8334236
2 2.9317083 3.6893488e+19
2.5317025 3.6893488e+19 1.8087254
-3.6893488e+19 2.9391098 -2
2.4712834 -1.0842022e-19 1.7835763
3.6893488e+19 2.9334967 0
2.5328696 -2 1.7586075
0 3.0076087 -0
2.5264835 -1.0842022e-19 1.7515479
-2 3.0416434 -1.0842022e-19
2.5630121 -1.0842022e-19 1.6517844
1.0842022e-19 2.9168119 0
2.3931894 2 1.4894781
-0 3.0660439 1.0842022e-19
2.6201425 -3.6893488e+19 1.2737474
2 2.9118872 -3.6893488e+19
2.3885436 3.6893488e+19 -1.3909988
-3.6893488e+19 3.0671177 -0
2.6214001 -3.6893488e+19 -1.6287524
-3.6893488e+19 2.9082198 2
2.3850844 2 -1.6284922
-2 3.0670066 -1.0842022e-19
2.6212699 -2 -1.7630529
-3.6893488e+19 2.9081218 -0
2.3849919 2 -1.7220261
-2 3.0688591 -1.0842022e-19
2.6234396 -2 -1.8379887
3.6893488e+19 2.9322691 0
2.4077706 3.6893488e+19 -1.7921333
-1.0842022e-19 3.0674877 -3.6893488e+19
2.6218333 2 -1.892959
0 2.9366872 3.6893488e+19
2.4119382 -3.6893488e+19 -1.8439262
0 3.0670607 -0
2.6213331 -0 -1.9296463
-0 2.9322069 -3.6893488e+19
2.4077117 2 -1.883136
0 2.9404368 1.0842022e-19
2.5079141 1.0842022e-19 -1.9004079
-1.0842022e-19 2.9323266 -0
2.4078248 -3.6893488e+19 -1.9079838
-1.0842022e-19 2.8362913 0
2.3938558 -0 -1.8844212
-2 2.8055885 2
2.3279791 -0 -1.8890674
-0 2.7523844 3.6893488e+19
2.2708766 3.6893488e+19 -1.8794795
-1.0842022e-19 2.6767743 -0
2.2784829 -2 -1.8600038
3.6893488e+19 2.599884 -0
2.2066195 1.0842022e-19 -1.8382846
-3.6893488e+19 2.5530248 2
2.1454656 -2 -1.8276002
3.6893488e+19 2.5253825 0
2.1093907 2 -1.8253829
-0 2.4936266 1.0842022e-19
2.0721061 3.6893488e+19 -1.8191917
3.6893488e+19 2.4391394 -0
2.0365515 -2 -1.8107594
-1.0842022e-19 2.3872702 -3.6893488e+19
1.9326609 0 -1.8074584
2 2.3368993 2
1.9089029 3.6893488e+19 -1.8033167
1.0842022e-19 2.2991669 3.6893488e+19
1.8911059 -0 -1.800804
2 2.2653701 3.6893488e+19
1.8751652 -0 -1.7964917
-2 2.2203689 0
1.9034649 -2 -1.7947705
-1.0842022e-19 2.1785405 -0
1.8898177 1.0842022e-19 -1.7926447
2 2.1498897 -1.0842022e-19
1.8804699 -1.0842022e-19 -1.7936035
-3.6893488e+19 3.0729623 -1.0842022e-19
2.5546587 1.0842022e-19 2.5572007
3.6893488e+19 3.0528924 -3.6893488e+19
2.6047397 0 2.528317
1.0842022e-19 3.0538197 3.6893488e+19
2.5366008 -2 2.5207088
-3.6893488e+19 3.0520012 -0
2.6036961 2 2.5183101
0 3.0536165 -0
2.5364091 -0 2.511435
-3.6893488e+19 3.0512383 -3.6893488e+19
2.6028025 2 2.5084946
1.0842022e-19 3.0643675 0
2.546551 1.0842022e-19 2.5113034
1.0842022e-19 3.0502944 3.6893488e+19
2.5332754 -2 2.4813278
1.0842022e-19 3.0493801 -2
2.5324128 -0 2.4620781
-2 3.0476322 -2
2.5985792 0 2.4569407
2 3.0530272 -3.6893488e+19
2.5358531 -3.6893488e+19 2.4497569
-1.0842022e-19 3.0503993 2
2.60182 0 2.4431615
-0 3.0492771 -0
2.6405745 -3.6893488e+19 2.4366522
3.6893488e+19 3.0150411 -3.6893488e+19
2.5344605 3.6893488e+19 2.3727562
-0 3.0525329 -0
2.6448236 -0 2.423142
3.6893488e+19 3.0152292 -3.6893488e+19
2.5346625 3.6893488e+19 2.3572814
3.6893488e+19 3.0507636 -0
2.6425145 -3.6893488e+19 2.4025588
2 3.0144796 2
2.5338581 -1.0842022e-19 2.3406153
1.0842022e-19 3.0523822 1.0842022e-19
2.6446269 0 2.3865564
1.0842022e-19 3.0495119 1.0842022e-19
2.5714571 1.0842022e-19 2.3680372
-3.6893488e+19 3.0521951 -2
2.6443827 2 2.3682015
-0 3.047812 1.0842022e-19
2.5696328 1.0842022e-19 2.3483901
-0 3.0524929 2
2.6447713 1.0842022e-19 2.3504636
-3.6893488e+19 3.0159996 0
2.5354896 -1.0842022e-19 2.295526
2 2.9779959 1.0842022e-19
2.5619066 0 2.2626283
0 3.0155234 -3.6893488e+19
2.5349782 0 2.2794023
3.6893488e+19 3.0547543 -0
2.6477225 0 2.3167183
-0 3.0171905 -1.0842022e-19
2.5367675 -1.0842022e-19 2.2654946
2 3.0607862 -0
2.5431726 0 2.2974184
-3.6893488e+19 3.0292108 0
2.5770047 -0 2.2627637
3.6893488e+19 3.0730948 -2
2.5547836 2 2.2904468
0 3.0284696 -3.6893488e+19
2.5761361 3.6893488e+19 2.2413843
1.0842022e-19 3.0282803 0
2.5759146 0 2.2083666
3.6893488e+19 3.0238085 -0
2.5082905 0 2.1788681
-3.6893488e+19 3.0333331 -1.0842022e-19
2.5818324 -3.6893488e+19 2.1834645
2 2.9988244 1.0842022e-19
2.4705539 -0 2.1118302
-3.6893488e+19 3.0311167 3.6893488e+19
2.5792367 0 2.1471448
0 2.9956026 -1.0842022e-19
2.4675145 1.0842022e-19 2.0808947
-3.6893488e+19 2.9396601 -2
2.5074592 0 2.0348477
3.6893488e+19 3.0616028 -0
2.5439429 -1.0842022e-19 2.1301622
0 2.9415631 3.6893488e+19
2.5085735 1.0842022e-19 2.0102773
-1.0842022e-19 2.9232216 -3.6893488e+19
2.3992357 2 1.9838009
-3.6893488e+19 2.9415305 -1.0842022e-19
2.5085545 -3.6893488e+19 1.9844822
-2 2.9350986 -1.0842022e-19
2.5339148 -1.0842022e-19 1.9704514
3.6893488e+19 3.0077057 -1.0842022e-19
2.5265877 3.6893488e+19 1.9921156
0 2.9327788 0
2.5324011 1.0842022e-19 1.943809
2 3.0116298 -0
2.5307994 -3.6893488e+19 1.9654999
-3.6893488e+19 2.9265184 -0
2.528316 2 1.9159207
3.6893488e+19 3.0087891 -1.0842022e-19
2.5277505 -0 1.9332134
-1.0842022e-19 2.9283674 -1.0842022e-19
2.5295224 -3.6893488e+19 1.8914626
-1.0842022e-19 3.00705 3.6893488e+19
2.5258842 3.6893488e+19 1.9022486
0 2.9288306 1.0842022e-19
2.5298247 3.6893488e+19 1.8578595
-0 2.9372222 2
2.4692576 -2 1.8334236
2 2.9317083 3.6893488e+19
2.5317025 3.6893488e+19 1.8087254
-3.6893488e+19 2.9391098 -2
2.4712834 -1.0842022e-19 1.7835763
3.6893488e+19 2.9334967 0
2.5328696 -2 1.7586075
-0 2.9390452 3.6893488e+19
2.4712141 2 1.7156771
-0 3.0071158 -0
2.5259547 -1.0842022e-19 1.6338147
1.0842022e-19 2.9168119 0
2.3931894 2 1.4894781
3.6893488e+19 2.9423056 1.0842022e-19
2.5090084 1.0842022e-19 1.2081732
2 2.9118872 -3.6893488e+19
2.3885436 3.6893488e+19 -1.3909988
0 2.9425375 -1.0842022e-19
2.5091441 3.6893488e+19 -1.5546738
-3.6893488e+19 2.9082198 2
2.3850844 2 -1.6284922
2 2.9377098 3.6893488e+19
2.5063171 1.0842022e-19 -1.6906179
-3.6893488e+19 2.9081218 -0
2.3849919 2 -1.7220261
2 2.93628 -0
2.5054798 -2 -1.7707112
3.6893488e+19 2.9322691 0
2.4077706 3.6893488e+19 -1.7921333
1.0842022e-19 2.9401059 3.6893488e+19
2.5077202 -3.6893488e+19 -1.8231716
0 2.9366872 3.6893488e+19
2.4119382 -3.6893488e+19 -1.8439262
-0 2.9392929 -2
2.5072441 2 -1.873903
-0 2.9322069 -3.6893488e+19
2.4077117 2 -1.883136
0 2.9404368 1.0842022e-19
2.5079141 1.0842022e-19 -1.9004079
2 2.8080494 0
2.290591 0 -1.8501393
-1.0842022e-19 2.8362913 0
2.3938558 -0 -1.8844212
-2 2.8055885 2
2.3279791 -0 -1.8890674
-0 2.7523844 3.6893488e+19
2.2708766 3.6893488e+19 -1.8794795
-1.0842022e-19 2.6767743 -0
2.2784829 -2 -1.8600038
3.6893488e+19 2.599884 -0
2.2066195 1.0842022e-19 -1.8382846
-3.6893488e+19 2.5530248 2
2.1454656 -2 -1.8276002
3.6893488e+19 2.5253825 0
2.1093907 2 -1.8253829
-0 2.4936266 1.0842022e-19
2.0721061 3.6893488e+19 -1.8191917
3.6893488e+19 2.4391394 -0
2.0365515 -2 -1.8107594
-1.0842022e-19 2.3872702 -3.6893488e+19
1.9326609 0 -1.8074584
2 2.3368993 2
1.9089029 3.6893488e+19 -1.8033167
1.0842022e-19 2.2991669 3.6893488e+19
1.8911059 -0 -1.800804
2 2.2653701 3.6893488e+19
1.8751652 -0 -1.7964917
-2 2.2203689 0
1.9034649 -2 -1.7947705
-1.0842022e-19 2.1785405 -0
1.8898177 1.0842022e-19 -1.7926447
2 2.1498897 -1.0842022e-19
1.8804699 -1.0842022e-19 -1.7936035
3.6893488e+19 3.0526252 0
2.6009905 1.0842022e-19 2.5278594
3.6893488e+19 3.0534706 0
2.5329208 0 2.5202322
0 3.0520263 0
2.6002958 1.0842022e-19 2.5181277
-2 3.0521736 -2
2.6004667 -1.0842022e-19 2.5090995
-3.6893488e+19 3.050359 2
2.53002 0 2.4811366
1.0842022e-19 3.0499227 -0
2.529613 -2 2.4626317
-3.6893488e+19 3.0499845 3.6893488e+19
2.5979278 -1.0842022e-19 2.4602008
2 3.0532131 0
2.5326807 -3.6893488e+19 2.4497569
-1.0842022e-19 3.0506284 -2
2.5986745 0 2.4431615
-2 3.0490627 -0
2.6368344 -1.0842022e-19 2.4359689
0 3.0152264 -1.0842022e-19
2.5316856 3.6893488e+19 2.3727562
1.0842022e-19 3.0524676 1.0842022e-19
2.6412385 1.0842022e-19 2.4226911
1.0842022e-19 3.015027 -3.6893488e+19
2.5314739 1.0842022e-19 2.3567598
-2 3.0513422 -1.0842022e-19
2.6397829 -2 2.4029908
-0 3.0479414 -1.0842022e-19
2.566431 -0 2.3834419
1.0842022e-19 3.0527864 3.6893488e+19
2.6416507 3.6893488e+19 2.386744
-1.0842022e-19 3.0524521 -2
2.6412184 2 2.3682015
2 3.0458369 -0
2.5641959 -0 2.3458378
3.6893488e+19 3.0527501 1.0842022e-19
2.6416039 1.0842022e-19 2.3504636
0 3.0471089 3.6893488e+19
2.5655468 -2 2.3298578
-3.6893488e+19 3.0548906 -3.6893488e+19
2.6443727 -3.6893488e+19 2.3347514
3.6893488e+19 3.0163381 -0
2.5328665 2 2.2800639
0 3.053479 -3.6893488e+19
2.6425464 -2 2.3151248
-1.0842022e-19 3.0474255 -0
2.5658832 -1.0842022e-19 2.2953315
2 3.058619 -1.0842022e-19
2.5377204 2 2.2951632
-0 3.0466921 0
2.5941093 -0 2.2790024
-3.6893488e+19 2.9952562 2
2.4617195 -3.6893488e+19 2.1949384
-3.6893488e+19 3.0468287 0
2.5942678 -0 2.2616909
2 3.0574853 -2
2.5366635 0 2.2584383
3.6893488e+19 3.057405 0
2.6065342 2 2.2529767
-1.0842022e-19 3.0249763 2
2.506356 2 2.180433
2 3.0551286 -3.6893488e+19
2.6038938 -0 2.2164531
1.0842022e-19 3.0606833 2
2.539645 1.0842022e-19 2.2004418
0 3.0597725 -1.0842022e-19
2.6092799 -0 2.187294
-0 2.9960885 -0
2.4624953 3.6893488e+19 2.0810161
-0 3.0655136 -0
2.6159387 -0 2.1585193
3.6893488e+19 3.061703 0
2.5405958 -3.6893488e+19 2.1300511
-0 3.0661559 1.0842022e-19
2.6166837 -2 2.1224291
2 3.0611279 1.0842022e-19
2.5400596 0 2.0935428
1.0842022e-19 3.0667834 2
2.6174114 -1.0842022e-19 2.0862098
-0 3.0701015 -1.0842022e-19
2.6640477 3.6893488e+19 2.074096
-0 3.0622854 2
2.5816653 -1.0842022e-19 2.0431886
-1.0842022e-19 3.0684762 0
2.6619456 1.0842022e-19 2.0350008
-2 3.0627632 -2
2.5821726 -3.6893488e+19 2.0074377
2 2.9295545 -3.6893488e+19
2.5278118 2 1.9169598
2 3.0915313 3.6893488e+19
2.612726 3.6893488e+19 1.991623
3.6893488e+19 3.0631256 2
2.6550245 1.0842022e-19 1.9566355
-0 3.0924397 1.0842022e-19
2.6136909 -3.6893488e+19 1.9526825
3.6893488e+19 3.0651948 3.6893488e+19
2.657701 3.6893488e+19 1.9210087
-0 3.0057478 0
2.5216191 -2 1.8686595
-0 2.9318376 2
2.5292885 2 1.8086243
-1.0842022e-19 3.0911276 -1.0842022e-19
2.6122973 0 1.8712118
0 2.9345789 2
2.5310614 -3.6893488e+19 1.7588272
-2 3.0908389 -1.0842022e-19
2.6119907 -0 1.7923173
-3.6893488e+19 2.9994991 1.0842022e-19
2.5730484 -1.0842022e-19 1.6904942
0 3.0442333 -3.6893488e+19
2.5624926 2 1.6530254
-3.6893488e+19 2.9193196 -3.6893488e+19
2.3909249 1.0842022e-19 1.4907713
3.6893488e+19 2.9425828 -3.6893488e+19
2.5066578 2 1.2081449
-2 2.9160962 2
2.3879199 -3.6893488e+19 -1.3923523
2 2.9385531 1.0842022e-19
2.5043211 -3.6893488e+19 -1.5529203
-0 2.9122441 1.0842022e-19
2.3843286 2 -1.6296793
0 2.9391241 -3.6893488e+19
2.504652 0 -1.6910881
3.6893488e+19 2.9599819 3.6893488e+19
2.4288337 -0 -1.7500427
-0 2.9388332 -2
2.5044835 3.6893488e+19 -1.7714523
-0 2.9300394 -3.6893488e+19
2.4009187 3.6893488e+19 -1.7911693
2 3.06812 3.6893488e+19
2.6189616 -0 -1.8931345
3.6893488e+19 2.9364076 0
2.4068558 -0 -1.8436519
-2 3.0681722 0
2.6190224 0 -1.9301388
2 2.9316814 2
2.4024496 2 -1.8828926
-1.0842022e-19 2.9405327 2
2.5054691 3.6893488e+19 -1.900326
1.0842022e-19 2.9324095 3.6893488e+19
2.4031284 1.0842022e-19 -1.9079173
-1.0842022e-19 2.8297725 -3.6893488e+19
2.3824763 -2 -1.8817151
1.0842022e-19 2.8062847 -3.6893488e+19
2.3252919 2 -1.8892869
-2 2.750149 0
2.2656729 -3.6893488e+19 -1.8782431
-2 2.6765437 1.0842022e-19
2.2758648 -3.6893488e+19 -1.8596773
1.0842022e-19 2.6001816 1.0842022e-19
2.202956 1.0842022e-19 -1.8382846
-2 2.5520968 -0
2.140759 -2 -1.8268082
-0 2.5228913 -2
2.1029818 -2 -1.8234015
3.6893488e+19 2.4949937 2
2.0701344 0 -1.8195641
2 2.4404595 3.6893488e+19
2.0348647 1.0842022e-19 -1.8111596
3.6893488e+19 3.0526252 0
2.6009905 1.0842022e-19 2.5278594
3.6893488e+19 3.0534706 0
2.5329208 0 2.5202322
0 3.0520263 0
2.6002958 1.0842022e-19 2.5181277
-2 3.0521736 -2
2.6004667 -1.0842022e-19 2.5090995
-3.6893488e+19 3.050359 2
2.53002 0 2.4811366
1.0842022e-19 3.0499227 -0
2.529613 -2 2.4626317
-3.6893488e+19 3.0499845 3.6893488e+19
2.5979278 -1.0842022e-19 2.4602008
2 3.0532131 0
2.5326807 -3.6893488e+19 2.4497569
-1.0842022e-19 3.0506284 -2
2.5986745 0 2.4431615
-2 3.0490627 -0
2.6368344 -1.0842022e-19 2.4359689
0 3.0152264 -1.0842022e-19
2.5316856 3.6893488e+19 2.3727562
1.0842022e-19 3.0524676 1.0842022e-19
2.6412385 1.0842022e-19 2.4226911
1.0842022e-19 3.015027 -3.6893488e+19
2.5314739 1.0842022e-19 2.3567598
-2 3.0513422 -1.0842022e-19
2.6397829 -2 2.4029908
2 3.0146644 -2
2.5310888 -1.0842022e-19 2.3406153
1.0842022e-19 3.0527864 3.6893488e+19
2.6416507 3.6893488e+19 2.386744
-1.0842022e-19 3.0524521 -2
2.6412184 2 2.3682015
3.6893488e+19 3.0161994 2
2.5327191 -0 2.3111911
3.6893488e+19 3.0527501 1.0842022e-19
2.6416039 1.0842022e-19 2.3504636
-3.6893488e+19 3.0159459 -3.6893488e+19
2.53245 -0 2.2952602
-0 2.9768691 -2
2.5584123 -3.6893488e+19 2.2617865
3.6893488e+19 3.0163381 -0
2.5328665 2 2.2800639
0 3.053479 -3.6893488e+19
2.6425464 -2 2.3151248
3.6893488e+19 3.0169573 -2
2.533524 1.0842022e-19 2.2650778
1.0842022e-19 3.0004563 1.0842022e-19
2.4669929 1.0842022e-19 2.2290728
-0 3.0466921 0
2.5941093 -0 2.2790024
-3.6893488e+19 2.9952562 2
2.4617195 -3.6893488e+19 2.1949384
-2 3.0277267 2
2.5721128 -2 2.2397001
2 3.0574853 -2
2.5366635 0 2.2584383
-2 3.0286417 -0
2.573174 0 2.2086124
-1.0842022e-19 3.0249763 2
2.506356 2 2.180433
-3.6893488e+19 3.0294545 -0
2.5741167 2 2.1772051
3.6893488e+19 2.9933703 3.6893488e+19
2.4599612 -0 2.1076546
-1.0842022e-19 3.0306134 1.0842022e-19
2.5754609 1.0842022e-19 2.1461315
-0 2.9960885 -0
2.4624953 3.6893488e+19 2.0810161
-0 3.0655136 -0
2.6159387 -0 2.1585193
-3.6893488e+19 2.9979355 2
2.4642174 -3.6893488e+19 2.0535598
-0 3.0661559 1.0842022e-19
2.6166837 -2 2.1224291
-3.6893488e+19 3.0001836 3.6893488e+19
2.4664845 1.0842022e-19 2.0262492
0 2.9420471 -0
2.5063472 -3.6893488e+19 1.9845775
2 2.9361217 -0
2.5320592 -0 1.9707819
-1.0842022e-19 3.0071318 3.6893488e+19
2.5230889 2 1.9914079
-2 2.9389069 0
2.5338607 -3.6893488e+19 1.9463863
3.6893488e+19 3.0107567 -2
2.5269387 -1.0842022e-19 1.9646308
2 2.9295545 -3.6893488e+19
2.5278118 2 1.9169598
-3.6893488e+19 3.0067971 -0
2.5227334 2 1.9316763
2 2.9312274 1.0842022e-19
2.5288939 -2 1.8922861
-0 3.0924397 1.0842022e-19
2.6136909 -3.6893488e+19 1.9526825
3.6893488e+19 3.0651948 3.6893488e+19
2.657701 3.6893488e+19 1.9210087
-0 3.0057478 0
2.5216191 -2 1.8686595
-0 2.9318376 2
2.5292885 2 1.8086243
0 3.016875 -3.6893488e+19
2.5334365 2 1.8176192
0 2.9345789 2
2.5310614 -3.6893488e+19 1.7588272
1.0842022e-19 3.00649 -3.6893488e+19
2.5224071 0 1.7509105
0 2.9372997 -3.6893488e+19
2.5328209 -3.6893488e+19 1.6667731
-1.0842022e-19 3.0066612 -3.6893488e+19
2.522589 -0 1.6334848
-3.6893488e+19 2.9193196 -3.6893488e+19
2.3909249 1.0842022e-19 1.4907713
3.6893488e+19 2.9425828 -3.6893488e+19
2.5066578 2 1.2081449
-2 2.9160962 2
2.3879199 -3.6893488e+19 -1.3923523
2 2.9385531 1.0842022e-19
2.5043211 -3.6893488e+19 -1.5529203
-0 2.9122441 1.0842022e-19
2.3843286 2 -1.6296793
0 2.9391241 -3.6893488e+19
2.504652 0 -1.6910881
1.0842022e-19 2.908129 -1.0842022e-19
2.380492 -3.6893488e+19 -1.7218937
-0 2.9388332 -2
2.5044835 3.6893488e+19 -1.7714523
-0 2.9300394 -3.6893488e+19
2.4009187 3.6893488e+19 -1.7911693
1.0842022e-19 2.9375613 -1.0842022e-19
2.5037458 -2 -1.8218757
3.6893488e+19 2.9364076 0
2.4068558 -0 -1.8436519
2 2.9387281 -2
2.5044224 2 -1.8733935
2 2.9316814 2
2.4024496 2 -1.8828926
-1.0842022e-19 2.9405327 2
2.5054691 3.6893488e+19 -1.900326
0 2.8081169 0
2.2872524 -3.6893488e+19 -1.8500503
-1.0842022e-19 2.8297725 -3.6893488e+19
2.3824763 -2 -1.8817151
1.0842022e-19 2.8062847 -3.6893488e+19
2.3252919 2 -1.8892869
-2 2.750149 0
2.2656729 -3.6893488e+19 -1.8782431
-2 2.6765437 1.0842022e-19
2.2758648 -3.6893488e+19 -1.8596773
1.0842022e-19 2.6001816 1.0842022e-19
2.202956 1.0842022e-19 -1.8382846
-2 2.5520968 -0
2.140759 -2 -1.8268082
-0 2.5228913 -2
2.1029818 -2 -1.8234015
3.6893488e+19 2.4949937 2
2.0701344 0 -1.8195641
2 2.4404595 3.6893488e+19
2.0348647 1.0842022e-19 -1.8111596
1.0842022e-19 3.0558956 3.6893488e+19
2.6013134 2 2.5399692
3.6893488e+19 3.0522375 -1.0842022e-19
2.5284362 -1.0842022e-19 2.5280404
-1.0842022e-19 3.0530298 3.6893488e+19
2.5980222 3.6893488e+19 2.5280209
2 3.0530596 0
2.5291936 3.6893488e+19 2.5197024
-3.6893488e+19 3.0530181 3.6893488e+19
2.5980089 0 2.5188053
-2 3.0515194 -3.6893488e+19
2.5962875 0 2.5083435
-1.0842022e-19 3.0509431 -3.6893488e+19
2.5956256 -3.6893488e+19 2.4975252
-1.0842022e-19 3.0505712 2
2.5269012 -3.6893488e+19 2.4811842
-0 3.0506134 2
2.5269401 -1.0842022e-19 2.4634161
2 3.0518064 0
2.5966172 -2 2.462646
0 3.0535769 -3.6893488e+19
2.52967 -2 2.4500234
2 3.0507669 -2
2.5954232 -2 2.4430306
-0 3.0491097 -2
2.6334381 -2 2.4356699
1.0842022e-19 3.0541317 -3.6893488e+19
2.6398759 -1.0842022e-19 2.4246585
-2 3.0151505 1.0842022e-19
2.528635 -0 2.3566794
3.6893488e+19 3.0516846 3.6893488e+19
2.636739 -3.6893488e+19 2.4031086
1.0842022e-19 3.0478489 2
2.5629961 -0 2.3830578
3.6893488e+19 3.0524237 -0
2.6376865 1.0842022e-19 2.3859556
3.6893488e+19 3.0152178 2
2.5287056 -3.6893488e+19 2.3254442
3.6893488e+19 3.0518236 -3.6893488e+19
2.6369171 -0 2.3671267
2 3.0164733 -2
2.5300248 -0 2.311296
-3.6893488e+19 3.0527694 -3.6893488e+19
2.6381297 0 2.3501909
0 3.01616 -3.6893488e+19
2.5296955 -3.6893488e+19 2.2952933
1.0842022e-19 3.0545282 -2
2.6403842 -1.0842022e-19 2.3340716
-1.0842022e-19 3.0178115 -1.0842022e-19
2.5314312 -1.0842022e-19 2.2814186
-0 3.0529668 -3.6893488e+19
2.6383827 1.0842022e-19 2.3143282
-2 3.0480514 1.0842022e-19
2.5632091 1.0842022e-19 2.2957485
-1.0842022e-19 3.0590482 2
2.5347106 -0 2.2953944
0 3.0430961 2
2.5866134 3.6893488e+19 2.2754126
-3.6893488e+19 3.0577173 0
2.5334847 3.6893488e+19 2.2762859
1.0842022e-19 3.0450819 2
2.5888941 2 2.2599542
3.6893488e+19 3.057369 -1.0842022e-19
2.5331635 -2 2.2581837
2 3.0271785 0
2.5683327 3.6893488e+19 2.2058594
-3.6893488e+19 3.0281103 0
2.5694029 0 2.1748292
-1.0842022e-19 3.0608413 0
2.5363626 -3.6893488e+19 2.2003977
1.0842022e-19 3.0663216 2
2.6132874 2 2.196202
3.6893488e+19 3.0595984 3.6893488e+19
2.5352175 1.0842022e-19 2.16291
-3.6893488e+19 3.0008194 1.0842022e-19
2.4621351 0 2.0556324
3.6893488e+19 3.0618939 1.0842022e-19
2.5373323 1.0842022e-19 2.0941799
2 3.0676823 -1.0842022e-19
2.61485 1.0842022e-19 2.0869093
-1.0842022e-19 3.0718269 2
2.6625602 3.6893488e+19 2.0755684
0 3.0623205 0
2.5782037 1.0842022e-19 2.0430188
-0 3.0615532 2
2.64939 -3.6893488e+19 2.0285704
-0 3.0092466 -1.0842022e-19
2.5224307 3.6893488e+19 1.9632404
2 2.9385376 -3.6893488e+19
2.5310874 1.0842022e-19 1.9203078
-3.6893488e+19 3.006099 -1.0842022e-19
2.5191231 -2 1.9310571
-0 3.0621407 0
2.6501431 2 1.955812
3.6893488e+19 3.0075889 -3.6893488e+19
2.5206885 -1.0842022e-19 1.9023558
0 3.061594 0
2.6494422 1.0842022e-19 1.9189126
0 3.0062873 -3.6893488e+19
2.5193207 2 1.8690047
0 2.9340463 2
2.5282087 0 1.8094079
1.0842022e-19 3.0923004 -3.6893488e+19
2.6097081 3.6893488e+19 1.8718873
-0 2.9405985 -1.0842022e-19
2.5324085 3.6893488e+19 1.7605667
-1.0842022e-19 3.0924346 1.0842022e-19
2.6098495 -3.6893488e+19 1.7929844
1.0842022e-19 2.925468 3.6893488e+19
2.5227103 3.6893488e+19 1.6621242
1.0842022e-19 2.9161026 -0
2.3833344 -1.0842022e-19 1.4887791
-3.6893488e+19 2.94526 1.0842022e-19
2.5056851 1.0842022e-19 1.2092459
3.6893488e+19 3.0498369 -1.0842022e-19
2.5262246 2 -1.4550325
-0 2.9370823 -1.0842022e-19
2.500989 3.6893488e+19 -1.5521898
3.6893488e+19 2.9149303 -3.6893488e+19
2.3822544 -2 -1.6304451
-1.0842022e-19 2.9448619 0
2.5054564 2 -1.6934388
-3.6893488e+19 2.9122739 -3.6893488e+19
2.3798072 3.6893488e+19 -1.7240114
-2 2.9085021 -1.0842022e-19
2.3763325 -1.0842022e-19 -1.7827514
-3.6893488e+19 2.9455183 0
2.5058334 1.0842022e-19 -1.8253046
1.0842022e-19 2.9064164 -3.6893488e+19
2.3744109 1.0842022e-19 -1.8285021
-2 2.9417613 1.0842022e-19
2.5036759 0 -1.874922
1.0842022e-19 2.9289002 3.6893488e+19
2.3951242 3.6893488e+19 -1.8819563
0 2.9425464 -2
2.5041265 -0 -1.9008991
-2 2.9303596 0
2.3964689 0 -1.9070734
-3.6893488e+19 2.8296616 -0
2.3786082 3.6893488e+19 -1.8815714
0 2.8312566 1.0842022e-19
2.4246483 3.6893488e+19 -1.8931667
2 2.8071001 -1.0842022e-19
2.3227177 2 -1.8895612
-0 2.8122351 -2
2.400264 -0 -1.9032845
-3.6893488e+19 2.7518303 1.0842022e-19
2.2646375 1.0842022e-19 -1.8790159
-3.6893488e+19 2.6795166 1.0842022e-19
2.2753055 -0 -1.8611139
2 2.6437957 1.0842022e-19
2.1638224 -2 -1.8495482
-2 2.5997643 -1.0842022e-19
2.198374 -1.0842022e-19 -1.837851
2 2.5783792 -1.0842022e-19
2.0950789 -2 -1.8312827
-1.0842022e-19 2.5521142 -3.6893488e+19
2.1372898 -3.6893488e+19 -1.8266498
1.0842022e-19 2.5207496 3.6893488e+19
2.0970824 1.0842022e-19 -1.8216785
2 2.489248 1.0842022e-19
2.0635912 1.0842022e-19 -1.8171437
-1.0842022e-19 2.4436734 2
2.0343795 -2 -1.8123599
-2 2.3855646 -3.6893488e+19
1.9276006 1.0842022e-19 -1.8064333
3.6893488e+19 2.3377938 2
1.9055963 -0 -1.8035722
-3.6893488e+19 2.3000143 -0
1.8881941 3.6893488e+19 -1.8010871
-2 2.2661753 -3.6893488e+19
1.870214 -1.0842022e-19 -1.7968024
-1.0842022e-19 2.2258587 3.6893488e+19
1.9025046 3.6893488e+19 -1.7964615
-0 2.1862884 2
1.889823 0 -1.795387
-0 2.1472991 2
1.8773276 -0 -1.792228
1.0842022e-19 3.0558956 3.6893488e+19
2.6013134 2 2.5399692
3.6893488e+19 3.0522375 -1.0842022e-19
2.5284362 -1.0842022e-19 2.5280404
-1.0842022e-19 3.0530298 3.6893488e+19
2.5980222 3.6893488e+19 2.5280209
2 3.0530596 0
2.5291936 3.6893488e+19 2.5197024
-3.6893488e+19 3.0530181 3.6893488e+19
2.5980089 0 2.5188053
-2 3.0515194 -3.6893488e+19
2.5962875 0 2.5083435
-1.0842022e-19 3.0509431 -3.6893488e+19
2.5956256 -3.6893488e+19 2.4975252
-1.0842022e-19 3.0505712 2
2.5269012 -3.6893488e+19 2.4811842
-0 3.0506134 2
2.5269401 -1.0842022e-19 2.4634161
2 3.0518064 0
2.5966172 -2 2.462646
0 3.0535769 -3.6893488e+19
2.52967 -2 2.4500234
2 3.0507669 -2
2.5954232 -2 2.4430306
-0 3.0491097 -2
2.6334381 -2 2.4356699
1.0842022e-19 3.0541317 -3.6893488e+19
2.6398759 -1.0842022e-19 2.4246585
-2 3.0151505 1.0842022e-19
2.528635 -0 2.3566794
3.6893488e+19 3.0516846 3.6893488e+19
2.636739 -3.6893488e+19 2.4031086
-0 3.0139813 -1.0842022e-19
2.5274062 -3.6893488e+19 2.3395014
3.6893488e+19 3.0524237 -0
2.6376865 1.0842022e-19 2.3859556
3.6893488e+19 3.0152178 2
2.5287056 -3.6893488e+19 2.3254442
3.6893488e+19 3.0518236 -3.6893488e+19
2.6369171 -0 2.3671267
2 3.0164733 -2
2.5300248 -0 2.311296
-3.6893488e+19 3.0527694 -3.6893488e+19
2.6381297 0 2.3501909
0 3.01616 -3.6893488e+19
2.5296955 -3.6893488e+19 2.2952933
-3.6893488e+19 2.9755006 -3.6893488e+19
2.5547795 -1.0842022e-19 2.2608154
-1.0842022e-19 3.0178115 -1.0842022e-19
2.5314312 -1.0842022e-19 2.2814186
-0 3.0529668 -3.6893488e+19
2.6383827 1.0842022e-19 2.3143282
2 3.0168419 -0
2.5304122 1.0842022e-19 2.26478
2 2.9997647 -2
2.460408 3.6893488e+19 2.227685
-2 3.0290082 0
2.5704341 1.0842022e-19 2.2621748
-1.0842022e-19 2.9947696 1.0842022e-19
2.4558065 -2 2.1942317
3.6893488e+19 3.0281756 0
2.5694778 -2 2.2401211
3.6893488e+19 2.9898636 2
2.4512868 -0 2.1614757
2 3.0271785 0
2.5683327 3.6893488e+19 2.2058594
-3.6893488e+19 3.0281103 0
2.5694029 0 2.1748292
-0 2.995429 1.0842022e-19
2.456414 0 2.1089294
-1.0842022e-19 3.02894 2
2.5703557 3.6893488e+19 2.1434717
2 2.9957826 1.0842022e-19
2.4567397 -1.0842022e-19 2.0806112
-3.6893488e+19 3.0008194 1.0842022e-19
2.4621351 0 2.0556324
-0 3.0010951 -0
2.4626427 -3.6893488e+19 2.0270872
2 3.0676823 -1.0842022e-19
2.61485 1.0842022e-19 2.0869093
-1.0842022e-19 2.9380934 1.0842022e-19
2.530803 -3.6893488e+19 1.9715933
-0 3.003417 1.0842022e-19
2.5163047 1.0842022e-19 1.9877558
-0 2.9414761 0
2.5329711 0 1.9473696
-0 3.0092466 -1.0842022e-19
2.5224307 3.6893488e+19 1.9632404
2 2.9385376 -3.6893488e+19
2.5310874 1.0842022e-19 1.9203078
-3.6893488e+19 3.006099 -1.0842022e-19
2.5191231 -2 1.9310571
3.6893488e+19 2.9341483 -3.6893488e+19
2.5282741 1.0842022e-19 1.8931292
0 2.9171321 -1.0842022e-19
2.4383454 -0 1.8717207
-1.0842022e-19 2.9413354 -3.6893488e+19
2.5328808 -2 1.8642445
1.0842022e-19 2.9163196 3.6893488e+19
2.4374917 -2 1.8231837
0 2.9340463 2
2.5282087 0 1.8094079
1.0842022e-19 3.0923004 -3.6893488e+19
2.6097081 3.6893488e+19 1.8718873
-0 2.9405985 -1.0842022e-19
2.5324085 3.6893488e+19 1.7605667
-2 3.0089641 -1.0842022e-19
2.5221338 -1.0842022e-19 1.7520372
1.0842022e-19 2.925468 3.6893488e+19
2.5227103 3.6893488e+19 1.6621242
1.0842022e-19 2.9161026 -0
2.3833344 -1.0842022e-19 1.4887791
-3.6893488e+19 2.94526 1.0842022e-19
2.5056851 1.0842022e-19 1.2092459
-0 2.9145825 0
2.3819342 0 -1.3917485
-0 2.9370823 -1.0842022e-19
2.500989 3.6893488e+19 -1.5521898
3.6893488e+19 2.9149303 -3.6893488e+19
2.3822544 -2 -1.6304451
-1.0842022e-19 2.9448619 0
2.5054564 2 -1.6934388
-3.6893488e+19 2.9122739 -3.6893488e+19
2.3798072 3.6893488e+19 -1.7240114
-2 2.9085021 -1.0842022e-19
2.3763325 -1.0842022e-19 -1.7827514
-3.6893488e+19 2.9455183 0
2.5058334 1.0842022e-19 -1.8253046
1.0842022e-19 2.9064164 -3.6893488e+19
2.3744109 1.0842022e-19 -1.8285021
-2 2.9417613 1.0842022e-19
2.5036759 0 -1.874922
1.0842022e-19 2.9289002 3.6893488e+19
2.3951242 3.6893488e+19 -1.8819563
0 2.9425464 -2
2.5041265 -0 -1.9008991
-0 2.8090339 -3.6893488e+19
2.2846973 -3.6893488e+19 -1.8505833
-3.6893488e+19 2.8296616 -0
2.3786082 3.6893488e+19 -1.8815714
0 2.8312566 1.0842022e-19
2.4246483 3.6893488e+19 -1.8931667
2 2.8071001 -1.0842022e-19
2.3227177 2 -1.8895612
-0 2.8122351 -2
2.400264 -0 -1.9032845
-3.6893488e+19 2.7518303 1.0842022e-19
2.2646375 1.0842022e-19 -1.8790159
-3.6893488e+19 2.6795166 1.0842022e-19
2.2753055 -0 -1.8611139
2 2.6437957 1.0842022e-19
2.1638224 -2 -1.8495482
-2 2.5997643 -1.0842022e-19
2.198374 -1.0842022e-19 -1.837851
2 2.5783792 -1.0842022e-19
2.0950789 -2 -1.8312827
-1.0842022e-19 2.5521142 -3.6893488e+19
2.1372898 -3.6893488e+19 -1.8266498
1.0842022e-19 2.5207496 3.6893488e+19
2.0970824 1.0842022e-19 -1.8216785
2 2.489248 1.0842022e-19
2.0635912 1.0842022e-19 -1.8171437
-1.0842022e-19 2.4436734 2
2.0343795 -2 -1.8123599
-2 2.3855646 -3.6893488e+19
1.9276006 1.0842022e-19 -1.8064333
3.6893488e+19 2.3377938 2
1.9055963 -0 -1.8035722
-3.6893488e+19 2.3000143 -0
1.8881941 3.6893488e+19 -1.8010871
-2 2.2661753 -3.6893488e+19
1.870214 -1.0842022e-19 -1.7968024
-1.0842022e-19 2.2258587 3.6893488e+19
1.9025046 3.6893488e+19 -1.7964615
-0 2.1862884 2
1.889823 0 -1.795387
-0 2.1472991 2
1.8773276 -0 -1.792228
-2 3.0560656 0
2.5980439 3.6893488e+19 2.5399137
1.0842022e-19 3.0524187 -0
2.5252719 -1.0842022e-19 2.5280404
3.6893488e+19 3.0542545 -2
2.5959842 1.0842022e-19 2.5289359
3.6893488e+19 3.0558617 -0
2.5284059 1.0842022e-19 2.5220332
-0 3.0524805 3.6893488e+19
2.593967 1.0842022e-19 2.5181277
-2 3.0606408 -0
2.5327561 1.0842022e-19 2.5169976
-3.6893488e+19 3.0513327 -0
2.5926619 -2 2.5079904
3.6893488e+19 3.0511093 3.6893488e+19
2.5924077 3.6893488e+19 2.4974279
-1.0842022e-19 3.0511999 -3.6893488e+19
2.5241625 2 2.4819021
-0 3.0518732 0
2.5932765 -2 2.4805202
0 3.0532494 -2
2.5260279 1.0842022e-19 2.4671996
-3.6893488e+19 3.0520024 -3.6893488e+19
2.5934234 -2 2.4626007
-2 3.0533988 0
2.5261643 -2 2.4494903
-2 3.0526197 -3.6893488e+19
2.5941253 1.0842022e-19 2.4454269
-0 3.0504746 -0
2.6317229 -2 2.4372928
1.0842022e-19 3.0540919 -0
2.6363182 3.6893488e+19 2.4242487
2 3.0148842 3.6893488e+19
2.5253932 -2 2.3560774
-0 3.0520542 0
2.6337297 -1.0842022e-19 2.4032657
2 3.0481124 -3.6893488e+19
2.5599396 -1.0842022e-19 2.3831346
-1.0842022e-19 3.051734 0
2.633323 -1.0842022e-19 2.3847539
-2 3.0153093 -2
2.5258353 1.0842022e-19 2.3253343
0 3.0514863 1.0842022e-19
2.633008 3.6893488e+19 2.3664103
3.6893488e+19 3.0166855 3.6893488e+19
2.527266 2 2.311331
1.0842022e-19 3.0519602 -3.6893488e+19
2.63361 2 2.3489633
1.0842022e-19 3.0166118 -3.6893488e+19
2.5271893 3.6893488e+19 2.2955925
0 3.0494666 -1.0842022e-19
2.6304421 0 2.3282449
1.0842022e-19 3.0177848 0
2.528409 -0 2.281198
1.0842022e-19 3.0497024 2
2.6307418 0 2.3106818
-0 3.0478349 -3.6893488e+19
2.5596511 -1.0842022e-19 2.2953315
2 3.0604441 1.0842022e-19
2.532577 1.0842022e-19 2.296551
2 3.0431957 -3.6893488e+19
2.5834086 -3.6893488e+19 2.2753003
-0 3.0581138 -2
2.5304558 3.6893488e+19 2.2764761
1.0842022e-19 3.0576441 1.0842022e-19
2.5300283 -3.6893488e+19 2.25826
3.6893488e+19 3.0258303 3.6893488e+19
2.5636616 3.6893488e+19 2.2033031
-1.0842022e-19 3.0712028 -2
2.5423698 0 2.2510939
0 3.0284681 3.6893488e+19
2.5666611 2 2.1750576
-3.6893488e+19 3.0610275 0
2.5331082 -3.6893488e+19 2.2003977
-2 3.0274413 -0
2.5654936 1.0842022e-19 2.1410654
-2 3.0602698 1.0842022e-19
2.5324185 -2 2.1635575
2 3.0515134 -3.6893488e+19
2.5928671 -0 2.1398058
-1.0842022e-19 3.0739908 0
2.5449078 -3.6893488e+19 2.1445575
2 3.011251 1.0842022e-19
2.5470827 3.6893488e+19 2.0572894
-2 3.0628712 -2
2.5347862 -0 2.0950515
-0 3.06393 0
2.606987 3.6893488e+19 2.0826812
-2 2.9364376 -3.6893488e+19
2.527225 -3.6893488e+19 1.9705715
2 3.0619905 2
2.5743685 -2 2.0425091
0 3.0623786 -1.0842022e-19
2.6468456 3.6893488e+19 2.0290754
3.6893488e+19 3.0637677 1.0842022e-19
2.5762162 -1.0842022e-19 2.0079095
-1.0842022e-19 3.0607314 3.6893488e+19
2.6447532 -2 1.9911461
-3.6893488e+19 3.0047331 -3.6893488e+19
2.5148394 -0 1.9299684
1.0842022e-19 3.0613301 -1.0842022e-19
2.6455135 2 1.9551061
-3.6893488e+19 2.9168732 -3.6893488e+19
2.4334123 0 1.8713992
-1.0842022e-19 3.0611694 0
2.6453097 1.0842022e-19 1.9185418
0 3.0057371 0
2.5158832 2 1.8683144
-0 2.9984832 -3.6893488e+19
2.5666363 -2 1.8366077
1.0842022e-19 3.0056007 -0
2.5157413 -1.0842022e-19 1.8092283
3.6893488e+19 2.9972486 -1.0842022e-19
2.5658522 -0 1.7778696
-0 3.0128307 0
2.5232584 -3.6893488e+19 1.7538458
3.6893488e+19 2.9258828 3.6893488e+19
