# .PCD v0.7 - Point Cloud Data file format
VERSION 0.7
FIELDS x y z
SIZE 4 4 4
TYPE F F F
COUNT 1 1 1
WIDTH 1723
HEIGHT 1
VIEWPOINT 0 0 0 1 0 0 0
POINTS 1723
DATA ascii
2.654474 -1.0842022e-19 -1.8318061
0 2.9450381 3.6893488e+19
2.5780575 -3.6893488e+19 -1.8431793
-1.0842022e-19 2.9695456 3.6893488e+19
2.6540966 2 -1.8818349
1.0842022e-19 2.9431798 1.0842022e-19
2.5766878 -0 -1.8850051
-3.6893488e+19 2.8887715 0
2.5845816 -0 -1.8827918
0 2.84867 -0
2.5070202 3.6893488e+19 -1.8769683
-2 2.8812578 -2
2.578115 3.6893488e+19 -1.9034126
2 2.8615279 -2
2.5876658 -0 -1.9086353
1.0842022e-19 2.8317356 -2
2.5178239 -3.6893488e+19 -1.9022309
3.6893488e+19 2.7521615 2
2.4710362 0 -1.8762094
3.6893488e+19 2.7114232 -2
2.3725262 1.0842022e-19 -1.8645861
1.0842022e-19 2.6477509 -2
2.3714979 -0 -1.8486511
2 2.6306093 -1.0842022e-19
2.3072817 -1.0842022e-19 -1.8456057
-2 2.5896075 -2
2.3171923 -0 -1.836953
1.0842022e-19 2.5821033 -1.0842022e-19
2.2681208 -3.6893488e+19 -1.8375659
-0 2.5473135 0
2.2776899 -3.6893488e+19 -1.8289591
-2 2.5410249 3.6893488e+19
2.2199135 2 -1.8288801
0 2.5138533 0
2.2428763 3.6893488e+19 -1.822351
-3.6893488e+19 2.5121026 -2
2.173213 -1.0842022e-19 -1.8244962
-0 2.4804635 2
2.1987514 -0 -1.819586
-1.0842022e-19 2.4788682 2
2.1366105 0 -1.821762
1.0842022e-19 2.4357369 -3.6893488e+19
2.1569767 2 -1.8150048
-1.0842022e-19 2.4319532 -1.0842022e-19
2.0987339 0 -1.8156022
-0 2.4264209 0
2.0643342 1.0842022e-19 -1.8173596
2 3.0801563 -0
2.7328229 0 2.5780327
-0 3.0671971 1.0842022e-19
2.7710176 0 2.566808
-2 3.0793395 0
2.7316287 -2 2.5669286
3.6893488e+19 3.0687912 -0
2.7723794 3.6893488e+19 2.5582409
-0 3.0752914 -0
2.7257085 -3.6893488e+19 2.552897
0 3.0798857 2
2.7324271 3.6893488e+19 2.5469291
0 3.0837324 -1.0842022e-19
2.7851453 -0 2.5515106
-0 3.0738645 -3.6893488e+19
2.7236216 0 2.5314784
-0 3.0641735 3.6893488e+19
2.768434 -0 2.5239179
-2 3.0692201 -1.0842022e-19
2.7168298 0 2.5175846
-2 3.0642662 0
2.7685134 -1.0842022e-19 2.5140994
-2 3.0727935 2
2.7220557 3.6893488e+19 2.5106375
-2 3.0618 -3.6893488e+19
2.7664061 1.0842022e-19 2.5022335
-3.6893488e+19 3.0620964 -0
2.7500701 3.6893488e+19 2.4615276
0 3.0712018 -0
2.7979553 0 2.4758811
-1.0842022e-19 3.0638075 1.0842022e-19
2.7514412 -2 2.4446709
-2 3.0586109 1.0842022e-19
2.7862759 -2 2.4377439
-2 3.0657356 0
2.7529862 0 2.4279456
0 3.060883 -2
2.7883832 1.0842022e-19 2.4213803
-0 3.062144 -1.0842022e-19
2.7501082 1.0842022e-19 2.4038796
-1.0842022e-19 3.0646024 2
2.7918336 0 2.4066474
2 3.0580654 2
2.7857697 2 2.37887
0 3.0741212 2
2.7597051 2 2.3796344
0 3.0576267 2
2.7853627 2 2.3590715
-3.6893488e+19 3.118526 1.0842022e-19
2.795285 0 2.4091144
-3.6893488e+19 3.0569746 -3.6893488e+19
2.7847579 -3.6893488e+19 2.339124
3.6893488e+19 3.1183009 2
2.7951045 -2 2.3863924
-2 3.0715504 1.0842022e-19
2.7202377 -0 2.3237386
-2 3.0578301 0
2.7630143 -2 2.3070672
0 3.0701158 -2
2.7181394 3.6893488e+19 2.3030341
3.6893488e+19 3.056783 1.0842022e-19
2.7621195 0 2.28719
3.6893488e+19 3.0709982 -2
2.71943 3.6893488e+19 2.2845862
-3.6893488e+19 3.0592644 3.6893488e+19
2.7642398 2 2.2705526
-3.6893488e+19 3.0732388 1.0842022e-19
2.722707 3.6893488e+19 2.2671869
2 3.0614767 -3.6893488e+19
2.7661297 -2 2.2534223
-1.0842022e-19 3.0707312 1.0842022e-19
2.7190397 -3.6893488e+19 2.2418015
2 3.0297778 -2
2.7280917 -1.0842022e-19 2.1710508
0 3.0689065 3.6893488e+19
2.7163711 -3.6893488e+19 2.200851
2 3.0241816 0
2.718529 0 2.1291478
1.0842022e-19 3.068059 -2
2.7151315 -1.0842022e-19 2.1616383
1.0842022e-19 3.0684955 -2
2.7721267 -2 2.1515694
-2 3.0671947 -0
2.7138679 0 2.1226563
-3.6893488e+19 3.082499 -0
2.7840917 -1.0842022e-19 2.1287012
-0 3.0664215 0
2.7935212 0 2.0957971
-2 3.0724599 -1.0842022e-19
2.758374 0 2.074944
0 3.0731177 -3.6893488e+19
2.7997324 -0 2.0632551
-0 3.072149 -1.0842022e-19
2.7581248 -0 2.0358016
-1.0842022e-19 3.0713646 -0
2.7981064 2 2.021935
-0 3.0735321 -0
2.800117 1.0842022e-19 1.9839078
-2 3.0829005 -0
2.7667396 -3.6893488e+19 1.9651808
2 3.0746651 3.6893488e+19
2.801168 -1.0842022e-19 1.9447566
-1.0842022e-19 3.1192234 -0
2.7958436 -2 1.9442477
3.6893488e+19 3.0734305 2
2.8000228 -0 1.904209
-3.6893488e+19 2.9499145 2
2.6104982 -1.0842022e-19 1.8075944
-1.0842022e-19 3.0740504 2
2.8005979 -0 1.8542881
-1.0842022e-19 3.0959089 0
2.7771628 3.6893488e+19 1.8226177
1.0842022e-19 3.0734076 0
2.8000016 0 1.774277
1.0842022e-19 3.0866582 -2
2.7697504 3.6893488e+19 1.7228158
3.6893488e+19 3.0210419 -1.0842022e-19
2.6463735 1.0842022e-19 1.6008537
-2 2.9700282 3.6893488e+19
2.6515985 -0 1.4219038
-1.0842022e-19 3.0200195 2
2.6448786 2 -1.2512484
1.0842022e-19 2.970083 3.6893488e+19
2.6516452 0 -1.5170809
-3.6893488e+19 3.0198646 0
2.6446521 3.6893488e+19 -1.6439568
-3.6893488e+19 2.969425 -2
2.651083 -1.0842022e-19 -1.684832
-3.6893488e+19 2.9422555 -0
2.5733788 0 -1.7230256
-2 2.9693191 2
2.6509926 -2 -1.7743256
0 2.9429035 2
2.5738525 -0 -1.7892871
-3.6893488e+19 2.9700522 -2
2.651619 0 -1.8316041
-3.6893488e+19 2.9427667 2
2.5737526 -0 -1.8418574
-1.0842022e-19 2.978977 -2
2.6592443 1.0842022e-19 -1.8843321
-1.0842022e-19 2.9439578 1.0842022e-19
2.5746236 1.0842022e-19 -1.8851123
-3.6893488e+19 2.992641 2
2.6709192 -1.0842022e-19 -1.9180814
-2 2.8501194 0
2.5060086 -3.6893488e+19 -1.8773736
-1.0842022e-19 2.8593071 -3.6893488e+19
2.5833027 -1.0842022e-19 -1.9074688
-1.0842022e-19 2.8375309 -2
2.5204496 -2 -1.9047273
1.0842022e-19 2.7515633 2
2.4667137 -3.6893488e+19 -1.8757565
3.6893488e+19 2.7122567 -1.0842022e-19
2.3703873 1.0842022e-19 -1.8647664
-2 2.6486883 -1.0842022e-19
2.3698339 1.0842022e-19 -1.8489053
-0 2.6330941 0
2.3069577 3.6893488e+19 -1.8468124
3.6893488e+19 2.5902479 1.0842022e-19
2.315623 -0 -1.8370941
-1.0842022e-19 2.5825686 1.0842022e-19
2.2664738 -0 -1.8376399
-3.6893488e+19 2.545867 -2
2.2744541 0 -1.8277198
-3.6893488e+19 2.5414472 -1.0842022e-19
2.2170496 2 -1.828961
1.0842022e-19 2.5186946 -3.6893488e+19
2.2484965 -2 -1.8257273
-3.6893488e+19 2.5135345 -0
2.1723192 -3.6893488e+19 -1.825375
-2 2.4805975 -2
2.1958151 -2 -1.8194033
3.6893488e+19 2.4793727 0
2.1341019 0 -1.821762
-1.0842022e-19 2.4367194 0
2.1551127 3.6893488e+19 -1.8152014
-1.0842022e-19 2.4321773 3.6893488e+19
2.0962861 3.6893488e+19 -1.8155004
-2 2.4279983 2
2.0629539 -2 -1.8178856
0 2.3936079 -3.6893488e+19
2.0378072 1.0842022e-19 -1.8142139
1.0842022e-19 2.3386779 -2
1.9976424 2 -1.8082081
-2 2.2941039 3.6893488e+19
1.9650499 2 -1.8018738
-3.6893488e+19 2.2647266 0
1.9435692 0 -1.8002717
-2 2.2021067 1.0842022e-19
1.9596932 -3.6893488e+19 -1.7942147
2 2.1572764 1.0842022e-19
1.9389002 -3.6893488e+19 -1.7903465
0 2.122824 2
1.9229207 1.0842022e-19 -1.7882391
-3.6893488e+19 2.0969124 -1.0842022e-19
1.9109026 -0 -1.7880093
2 3.0801563 -0
2.7328229 0 2.5780327
-0 3.0671971 1.0842022e-19
2.7710176 0 2.566808
-2 3.0793395 0
2.7316287 -2 2.5669286
3.6893488e+19 3.0687912 -0
2.7723794 3.6893488e+19 2.5582409
-0 3.0752914 -0
2.7257085 -3.6893488e+19 2.552897
0 3.0798857 2
2.7324271 3.6893488e+19 2.5469291
0 3.0837324 -1.0842022e-19
2.7851453 -0 2.5515106
-0 3.0738645 -3.6893488e+19
2.7236216 0 2.5314784
-0 3.0641735 3.6893488e+19
2.768434 -0 2.5239179
-2 3.0692201 -1.0842022e-19
2.7168298 0 2.5175846
-2 3.0642662 0
2.7685134 -1.0842022e-19 2.5140994
-2 3.0727935 2
2.7220557 3.6893488e+19 2.5106375
-2 3.0618 -3.6893488e+19
2.7664061 1.0842022e-19 2.5022335
-3.6893488e+19 3.0620964 -0
2.7500701 3.6893488e+19 2.4615276
0 3.0712018 -0
2.7979553 0 2.4758811
-1.0842022e-19 3.0638075 1.0842022e-19
2.7514412 -2 2.4446709
-2 3.0586109 1.0842022e-19
2.7862759 -2 2.4377439
-2 3.0657356 0
2.7529862 0 2.4279456
0 3.060883 -2
2.7883832 1.0842022e-19 2.4213803
-0 3.062144 -1.0842022e-19
2.7501082 1.0842022e-19 2.4038796
-1.0842022e-19 3.0646024 2
2.7918336 0 2.4066474
2 3.0580654 2
2.7857697 2 2.37887
0 3.0741212 2
2.7597051 2 2.3796344
0 3.0576267 2
2.7853627 2 2.3590715
-3.6893488e+19 3.118526 1.0842022e-19
2.795285 0 2.4091144
-3.6893488e+19 3.0569746 -3.6893488e+19
2.7847579 -3.6893488e+19 2.339124
0 3.0750494 -0
2.7604487 1.0842022e-19 2.3410163
2 3.0126734 0
2.6341355 -0 2.2644608
-0 3.0280521 -0
2.725143 1.0842022e-19 2.2773631
-1.0842022e-19 3.01265 1.0842022e-19
2.6341014 -2 2.2472696
-2 3.0288961 3.6893488e+19
2.7265854 -1.0842022e-19 2.2610841
-0 3.0139856 -0
2.6360545 3.6893488e+19 2.2180817
1.0842022e-19 3.0290129 -0
2.7267847 -0 2.2381754
-3.6893488e+19 3.0732388 1.0842022e-19
2.722707 3.6893488e+19 2.2671869
-1.0842022e-19 3.0283146 3.6893488e+19
2.7255917 3.6893488e+19 2.2028825
-1.0842022e-19 3.0707312 1.0842022e-19
2.7190397 -3.6893488e+19 2.2418015
2 3.0297778 -2
2.7280917 -1.0842022e-19 2.1710508
-1.0842022e-19 3.0157602 2
2.6386497 0 2.1257162
2 3.0241816 0
2.718529 0 2.1291478
-1.0842022e-19 3.0143564 -1.0842022e-19
2.6365967 -1.0842022e-19 2.0921354
-1.0842022e-19 3.0224924 -1.0842022e-19
2.7156425 -0 2.0935674
0 2.9339945 3.6893488e+19
2.5673382 -0 2.0049391
0 3.0223942 -0
2.7154744 -0 2.0602443
-1.0842022e-19 2.9617157 2
2.6782999 -1.0842022e-19 2.0022898
1.0842022e-19 3.0146286 2
2.6740723 0 2.0166671
-0 2.9617341 -0
2.6783168 0 1.9738203
-3.6893488e+19 3.0141215 -3.6893488e+19
2.6732597 -3.6893488e+19 1.9843214
2 2.9618433 1.0842022e-19
2.6784182 3.6893488e+19 1.9454031
-2 2.9621563 -1.0842022e-19
2.6787086 3.6893488e+19 1.9170653
0 3.0103142 -3.6893488e+19
2.6671581 -0 1.9182622
2 2.959954 -1.0842022e-19
2.6766655 -0 1.8879561
2 3.0126665 -2
2.6709278 1.0842022e-19 1.8881884
-2 2.9670231 2
2.6832232 -1.0842022e-19 1.8476728
-3.6893488e+19 2.9499145 2
2.6104982 -1.0842022e-19 1.8075944
-3.6893488e+19 2.9669297 -2
2.6831365 -1.0842022e-19 1.7901925
-3.6893488e+19 2.9492233 3.6893488e+19
2.6099443 1.0842022e-19 1.7533206
3.6893488e+19 2.9615412 -3.6893488e+19
2.6781378 -1.0842022e-19 1.7130359
3.6893488e+19 2.9539635 -1.0842022e-19
2.6137424 -1.0842022e-19 1.6502268
-1.0842022e-19 2.946522 2
2.5764985 2 1.5610389
-2 2.9700282 3.6893488e+19
2.6515985 -0 1.4219038
1.0842022e-19 2.9485848 2
2.5780067 3.6893488e+19 -1.2097369
1.0842022e-19 2.970083 3.6893488e+19
2.6516452 0 -1.5170809
3.6893488e+19 2.9509778 -0
2.5797565 0 -1.6155699
-3.6893488e+19 2.969425 -2
2.651083 -1.0842022e-19 -1.684832
-3.6893488e+19 2.9422555 -0
2.5733788 0 -1.7230256
-2 2.9693191 2
2.6509926 -2 -1.7743256
0 2.9429035 2
2.5738525 -0 -1.7892871
-3.6893488e+19 2.9700522 -2
2.651619 0 -1.8316041
-3.6893488e+19 2.9427667 2
2.5737526 -0 -1.8418574
-1.0842022e-19 2.978977 -2
2.6592443 1.0842022e-19 -1.8843321
-1.0842022e-19 2.9439578 1.0842022e-19
2.5746236 1.0842022e-19 -1.8851123
-3.6893488e+19 2.992641 2
2.6709192 -1.0842022e-19 -1.9180814
-2 2.8501194 0
2.5060086 -3.6893488e+19 -1.8773736
-1.0842022e-19 2.8593071 -3.6893488e+19
2.5833027 -1.0842022e-19 -1.9074688
-1.0842022e-19 2.8375309 -2
2.5204496 -2 -1.9047273
1.0842022e-19 2.7515633 2
2.4667137 -3.6893488e+19 -1.8757565
3.6893488e+19 2.7122567 -1.0842022e-19
2.3703873 1.0842022e-19 -1.8647664
-2 2.6486883 -1.0842022e-19
2.3698339 1.0842022e-19 -1.8489053
-0 2.6330941 0
2.3069577 3.6893488e+19 -1.8468124
3.6893488e+19 2.5902479 1.0842022e-19
2.315623 -0 -1.8370941
-1.0842022e-19 2.5825686 1.0842022e-19
2.2664738 -0 -1.8376399
-3.6893488e+19 2.545867 -2
2.2744541 0 -1.8277198
-3.6893488e+19 2.5414472 -1.0842022e-19
2.2170496 2 -1.828961
1.0842022e-19 2.5186946 -3.6893488e+19
2.2484965 -2 -1.8257273
-3.6893488e+19 2.5135345 -0
2.1723192 -3.6893488e+19 -1.825375
-2 2.4805975 -2
2.1958151 -2 -1.8194033
3.6893488e+19 2.4793727 0
2.1341019 0 -1.821762
-1.0842022e-19 2.4367194 0
2.1551127 3.6893488e+19 -1.8152014
-1.0842022e-19 2.4321773 3.6893488e+19
2.0962861 3.6893488e+19 -1.8155004
-2 2.4279983 2
2.0629539 -2 -1.8178856
0 2.3936079 -3.6893488e+19
2.0378072 1.0842022e-19 -1.8142139
1.0842022e-19 2.3386779 -2
1.9976424 2 -1.8082081
-2 2.2941039 3.6893488e+19
1.9650499 2 -1.8018738
-3.6893488e+19 2.2647266 0
1.9435692 0 -1.8002717
-2 2.2021067 1.0842022e-19
1.9596932 -3.6893488e+19 -1.7942147
2 2.1572764 1.0842022e-19
1.9389002 -3.6893488e+19 -1.7903465
0 2.122824 2
1.9229207 1.0842022e-19 -1.7882391
-3.6893488e+19 2.0969124 -1.0842022e-19
1.9109026 -0 -1.7880093
-2 3.0810432 2
2.7301939 2 2.5786006
1.0842022e-19 3.0696819 -3.6893488e+19
2.7711632 2 2.568934
2 3.0691466 -1.0842022e-19
2.7707093 3.6893488e+19 2.5582409
0 3.075774 -1.0842022e-19
2.7225502 -2 2.5530572
3.6893488e+19 3.0796254 2
2.728137 1.0842022e-19 2.5464122
3.6893488e+19 3.0842171 2
2.7834926 0 2.5516124
-3.6893488e+19 3.0742021 2
2.7202704 -2 2.5315032
3.6893488e+19 3.0661035 -3.6893488e+19
2.7681279 -1.0842022e-19 2.5252936
-3.6893488e+19 3.0671608 3.6893488e+19
2.7100568 -1.0842022e-19 2.515605
2 3.0647862 3.6893488e+19
2.7670107 2 2.5142417
-3.6893488e+19 3.0635335 3.6893488e+19
2.7659483 -0 2.5033534
-2 3.0657749 2
2.7080464 -3.6893488e+19 2.4900763
1.0842022e-19 3.0623083 2
2.7466884 1.0842022e-19 2.4613585
1.0842022e-19 3.0648234 -1.0842022e-19
2.750344 -2 2.4456444
1.0842022e-19 3.0587325 -3.6893488e+19
2.7844265 0 2.4373868
0 3.0679305 3.6893488e+19
2.7528148 1.0842022e-19 2.4304702
-0 3.0612032 3.6893488e+19
2.7867029 -1.0842022e-19 2.4213042
1.0842022e-19 3.0627863 0
2.7474487 -1.0842022e-19 2.4042878
-2 3.0650675 -0
2.7902629 2 2.4067562
3.6893488e+19 3.0598159 2
2.7854247 1.0842022e-19 2.3805621
-2 3.0754094 2
2.7587621 2 2.3807454
2 3.0578866 3.6893488e+19
2.7836473 -3.6893488e+19 2.3589401
-1.0842022e-19 3.0734346 -1.0842022e-19
2.7571917 1.0842022e-19 2.3586817
-0 3.0586138 3.6893488e+19
2.7843173 1.0842022e-19 2.3405225
2 3.0763116 -3.6893488e+19
2.7594793 0 2.3419831
3.6893488e+19 3.0703108 2
2.7146258 0 2.3221834
3.6893488e+19 3.0571444 1.0842022e-19
2.7605288 -0 2.306042
-0 3.0705378 3.6893488e+19
2.7149551 -1.0842022e-19 2.3031445
-3.6893488e+19 3.0585265 -1.0842022e-19
2.7617011 2 2.2885005
1.0842022e-19 3.0711291 1.0842022e-19
2.7158127 1.0842022e-19 2.284431
-1.0842022e-19 3.0598383 3.6893488e+19
2.7628138 -0 2.2707527
-0 3.0713542 1.0842022e-19
2.7161393 -0 2.2653759
-1.0842022e-19 3.0619957 0
2.7646439 -1.0842022e-19 2.253562
-0 3.0693693 2
2.7132602 -3.6893488e+19 2.2392466
-0 3.0258763 2
2.7180126 3.6893488e+19 2.164717
-0 3.0682151 1.0842022e-19
2.711586 -3.6893488e+19 2.199445
-3.6893488e+19 3.0710046 3.6893488e+19
2.7722855 1.0842022e-19 2.1934021
-2 3.070442 -2
2.7148161 -3.6893488e+19 2.1643274
-3.6893488e+19 3.0688791 -0
2.7704825 3.6893488e+19 2.1516056
2 3.0684645 0
2.7119477 3.6893488e+19 2.1237915
1.0842022e-19 3.0835876 -2
2.7829585 3.6893488e+19 2.1295178
-2 3.0734336 0
2.7979705 -1.0842022e-19 2.1030326
0 3.073406 -1.0842022e-19
2.7571688 3.6893488e+19 2.0755568
2 3.0734239 -2
2.7979612 1.0842022e-19 2.0631728
-2 3.0724277 -1.0842022e-19
2.756391 -3.6893488e+19 2.0357502
-1.0842022e-19 3.0727177 3.6893488e+19
2.7973108 1.0842022e-19 2.0227497
0 3.0707371 3.6893488e+19
2.7550466 0 1.9956688
0 3.0748315 -1.0842022e-19
2.799258 2 1.9845631
2 2.9453182 -0
2.6041121 -2 1.8937724
-2 3.0741503 3.6893488e+19
2.7986307 3.6893488e+19 1.9442128
-3.6893488e+19 2.9479198 1.0842022e-19
2.6061811 -0 1.8604038
1.0842022e-19 3.0751841 -0
2.799583 0 1.9048576
-2 2.9495139 -1.0842022e-19
2.6074486 -2 1.8072413
-0 3.0757766 1.0842022e-19
2.8001289 -0 1.8552307
3.6893488e+19 2.9477186 -1.0842022e-19
2.6060209 1.0842022e-19 1.7527572
-1.0842022e-19 2.9636893 1.0842022e-19
2.6771841 0 1.7137687
-2 2.9515343 1.0842022e-19
2.6090553 3.6893488e+19 1.649267
0 3.020566 -0
2.6424685 2 1.6002423
3.6893488e+19 2.9699769 0
2.648648 1.0842022e-19 1.4216937
-0 3.0193076 2
2.6406434 -0 -1.2507955
1.0842022e-19 2.9695139 -0
2.6482551 2 -1.5167508
0 3.0206215 -0
2.642549 1.0842022e-19 -1.644223
3.6893488e+19 3.0281832 0
2.7219262 -0 -1.7188205
1.0842022e-19 3.0189846 2
2.6401746 1.0842022e-19 -1.7605172
0 3.027004 -2
2.7199254 1.0842022e-19 -1.8010752
-2 2.9416223 -2
2.5702968 -3.6893488e+19 -1.7886558
-3.6893488e+19 3.0298953 1.0842022e-19
2.7248309 -1.0842022e-19 -1.8707732
-0 2.9448335 3.6893488e+19
2.5726259 -0 -1.8426621
3.6893488e+19 2.9753704 -2
2.6532228 -0 -1.883172
-3.6893488e+19 2.9436178 3.6893488e+19
2.5717442 1.0842022e-19 -1.8848802
3.6893488e+19 2.9819789 -3.6893488e+19
2.6588283 -0 -1.9142605
2 2.8504534 2
2.5041745 -3.6893488e+19 -1.8773736
2 2.8619945 -2
2.557054 3.6893488e+19 -1.8953358
3.6893488e+19 2.8591752 -0
2.580898 -3.6893488e+19 -1.9072206
-3.6893488e+19 2.8399715 -3.6893488e+19
2.5203416 1.0842022e-19 -1.9056835
-0 2.7535114 3.6893488e+19
2.4671061 -3.6893488e+19 -1.8765771
-2 2.716682 -1.0842022e-19
2.3711004 -1.0842022e-19 -1.8668089
0 2.6498511 -1.0842022e-19
2.3683715 0 -1.8492867
-1.0842022e-19 2.6338422 0
2.3052273 3.6893488e+19 -1.8470135
-1.0842022e-19 2.5937176 -3.6893488e+19
2.3166573 -0 -1.8389978
0 2.5821056 3.6893488e+19
2.2640867 0 -1.8371221
-1.0842022e-19 2.5461121 -2
2.2727997 2 -1.8276423
-1.0842022e-19 2.5429096 -0
2.2158372 -2 -1.8297703
3.6893488e+19 2.5182281 0
2.2442222 2 -1.8251365
-2 2.5139258 1.0842022e-19
2.1697421 0 -1.8254629
-2 2.4838929 -3.6893488e+19
2.195797 0 -1.8204997
-0 2.4789488 -2
2.1308548 2 -1.8213826
0 2.4377003 -0
2.1532409 -0 -1.815398
-1.0842022e-19 2.4333224 -1.0842022e-19
2.0945733 3.6893488e+19 -1.8158057
-3.6893488e+19 2.4284065 2
2.0607119 -2 -1.8178856
-2 3.0810432 2
2.7301939 2 2.5786006
1.0842022e-19 3.0696819 -3.6893488e+19
2.7711632 2 2.568934
2 3.0691466 -1.0842022e-19
2.7707093 3.6893488e+19 2.5582409
0 3.075774 -1.0842022e-19
2.7225502 -2 2.5530572
3.6893488e+19 3.0796254 2
2.728137 1.0842022e-19 2.5464122
3.6893488e+19 3.0842171 2
2.7834926 0 2.5516124
-3.6893488e+19 3.0742021 2
2.7202704 -2 2.5315032
3.6893488e+19 3.0661035 -3.6893488e+19
2.7681279 -1.0842022e-19 2.5252936
-3.6893488e+19 3.0671608 3.6893488e+19
2.7100568 -1.0842022e-19 2.515605
2 3.0647862 3.6893488e+19
2.7670107 2 2.5142417
-3.6893488e+19 3.0635335 3.6893488e+19
2.7659483 -0 2.5033534
-2 3.0657749 2
2.7080464 -3.6893488e+19 2.4900763
1.0842022e-19 3.0623083 2
2.7466884 1.0842022e-19 2.4613585
1.0842022e-19 3.0648234 -1.0842022e-19
2.750344 -2 2.4456444
1.0842022e-19 3.0587325 -3.6893488e+19
2.7844265 0 2.4373868
0 3.0679305 3.6893488e+19
2.7528148 1.0842022e-19 2.4304702
-0 3.0612032 3.6893488e+19
2.7867029 -1.0842022e-19 2.4213042
1.0842022e-19 3.0627863 0
2.7474487 -1.0842022e-19 2.4042878
-2 3.0650675 -0
2.7902629 2 2.4067562
3.6893488e+19 3.0598159 2
2.7854247 1.0842022e-19 2.3805621
-2 3.0754094 2
2.7587621 2 2.3807454
2 3.0578866 3.6893488e+19
2.7836473 -3.6893488e+19 2.3589401
-1.0842022e-19 3.0734346 -1.0842022e-19
2.7571917 1.0842022e-19 2.3586817
-0 3.0586138 3.6893488e+19
2.7843173 1.0842022e-19 2.3405225
2 3.0763116 -3.6893488e+19
2.7594793 0 2.3419831
0 3.0131574 1.0842022e-19
2.631722 2 2.2646956
-2 3.0286193 3.6893488e+19
2.722666 1.0842022e-19 2.2776194
-3.6893488e+19 3.0170758 2
2.6374061 -2 2.2525835
3.6893488e+19 3.0288639 -0
2.7230809 3.6893488e+19 2.2607632
-0 3.0149679 3.6893488e+19
2.6343484 0 2.2193758
-0 3.0300395 -3.6893488e+19
2.7250752 2 2.2394261
1.0842022e-19 3.0154462 -1.0842022e-19
2.635042 0 2.1884136
0 3.0289688 2
2.7232587 -2 2.2034411
2 2.9351499 3.6893488e+19
2.5656025 2 2.0833063
-0 3.0258763 2
2.7180126 3.6893488e+19 2.164717
3.6893488e+19 2.935061 0
2.5655382 -2 2.0572386
-0 3.0235982 -2
2.7141478 3.6893488e+19 2.1279197
-0 2.9368839 -0
2.5668602 -1.0842022e-19 2.0324426
-0 3.024231 0
2.7152214 1.0842022e-19 2.0953743
-1.0842022e-19 2.9325325 -1.0842022e-19
2.5637043 3.6893488e+19 2.0038383
-2 3.0225542 2
2.7123768 -0 2.060081
-1.0842022e-19 2.9663541 2
2.6796391 -1.0842022e-19 2.0045161
1.0842022e-19 3.0141516 3.6893488e+19
2.6701009 -1.0842022e-19 2.0159082
-2 2.9625199 -0
2.6761067 0 1.9739301
-1.0842022e-19 3.0156157 -1.0842022e-19
2.6724296 1.0842022e-19 1.9854009
-2 2.9623456 0
2.6759462 2 1.9453791
0 2.953604 -0
2.6107008 -0 1.923719
-0 2.9602771 -3.6893488e+19
2.6740403 -1.0842022e-19 1.9161847
2 2.9453182 -0
2.6041121 -2 1.8937724
-3.6893488e+19 2.9610782 -1.0842022e-19
2.6747785 3.6893488e+19 1.8881261
-3.6893488e+19 2.9479198 1.0842022e-19
2.6061811 -0 1.8604038
-1.0842022e-19 2.9639001 -0
2.6773782 -2 1.8459163
-2 2.9495139 -1.0842022e-19
2.6074486 -2 1.8072413
2 2.9651115 2
2.6784942 -3.6893488e+19 1.7893502
3.6893488e+19 2.9477186 -1.0842022e-19
2.6060209 1.0842022e-19 1.7527572
-1.0842022e-19 2.9636893 1.0842022e-19
2.6771841 0 1.7137687
-2 2.9515343 1.0842022e-19
2.6090553 3.6893488e+19 1.649267
-1.0842022e-19 2.9562311 1.0842022e-19
2.5808923 -1.0842022e-19 1.5649029
3.6893488e+19 2.9699769 0
2.648648 1.0842022e-19 1.4216937
-2 2.9459572 -1.0842022e-19
2.5734408 -0 -1.2083098
1.0842022e-19 2.9695139 -0
2.6482551 2 -1.5167508
2 2.952348 2
2.5780759 -0 -1.6160709
3.6893488e+19 2.9696608 3.6893488e+19
2.6483798 -0 -1.6847188
2 2.9570711 -3.6893488e+19
2.5815012 2 -1.7302772
3.6893488e+19 2.9712231 -2
2.6497049 -2 -1.7747644
-2 2.9416223 -2
2.5702968 -3.6893488e+19 -1.7886558
3.6893488e+19 2.9744303 1.0842022e-19
2.6524255 -1.0842022e-19 -1.8332961
-0 2.9448335 3.6893488e+19
2.5726259 -0 -1.8426621
3.6893488e+19 2.9753704 -2
2.6532228 -0 -1.883172
-3.6893488e+19 2.9436178 3.6893488e+19
2.5717442 1.0842022e-19 -1.8848802
3.6893488e+19 2.9819789 -3.6893488e+19
2.6588283 -0 -1.9142605
2 2.8504534 2
2.5041745 -3.6893488e+19 -1.8773736
2 2.8619945 -2
2.557054 3.6893488e+19 -1.8953358
3.6893488e+19 2.8591752 -0
2.580898 -3.6893488e+19 -1.9072206
-3.6893488e+19 2.8399715 -3.6893488e+19
2.5203416 1.0842022e-19 -1.9056835
-0 2.7535114 3.6893488e+19
2.4671061 -3.6893488e+19 -1.8765771
-2 2.716682 -1.0842022e-19
2.3711004 -1.0842022e-19 -1.8668089
0 2.6498511 -1.0842022e-19
2.3683715 0 -1.8492867
-1.0842022e-19 2.6338422 0
2.3052273 3.6893488e+19 -1.8470135
-1.0842022e-19 2.5937176 -3.6893488e+19
2.3166573 -0 -1.8389978
0 2.5821056 3.6893488e+19
2.2640867 0 -1.8371221
-1.0842022e-19 2.5461121 -2
2.2727997 2 -1.8276423
-1.0842022e-19 2.5429096 -0
2.2158372 -2 -1.8297703
3.6893488e+19 2.5182281 0
2.2442222 2 -1.8251365
-2 2.5139258 1.0842022e-19
2.1697421 0 -1.8254629
-2 2.4838929 -3.6893488e+19
2.195797 0 -1.8204997
-0 2.4789488 -2
2.1308548 2 -1.8213826
0 2.4377003 -0
2.1532409 -0 -1.815398
-1.0842022e-19 2.4333224 -1.0842022e-19
2.0945733 3.6893488e+19 -1.8158057
-3.6893488e+19 2.4284065 2
2.0607119 -2 -1.8178856
-3.6893488e+19 3.0812418 -3.6893488e+19
2.7265606 -2 2.5784869
-1.0842022e-19 3.0724497 2
2.7715213 -2 2.5713396
1.0842022e-19 3.0690219 -1.0842022e-19
2.7686348 3.6893488e+19 2.5577798
-3.6893488e+19 3.0754499 2
2.7182279 1.0842022e-19 2.55247
2 3.0783548 -1.0842022e-19
2.7224069 -1.0842022e-19 2.5449905
2 3.085433 1.0842022e-19
2.782454 -1.0842022e-19 2.5523748
-2 3.0738461 0
2.7159204 -2 2.5309284
0 3.066397 -0
2.7664244 -1.0842022e-19 2.5252445
-1.0842022e-19 3.0644026 0
2.7023339 3.6893488e+19 2.5130463
2 3.0640883 0
2.7644806 -0 2.5133643
3.6893488e+19 3.0655198 -0
2.7039411 -0 2.504281
0 3.064079 0
2.7644727 -1.0842022e-19 2.5035133
2 3.0675781 -1.0842022e-19
2.7069023 -2 2.4924088
-1.0842022e-19 3.0683343 -0
2.7680559 3.6893488e+19 2.4939914
-2 3.0622311 -0
2.7427831 3.6893488e+19 2.4607666
3.6893488e+19 3.0650065 -0
2.7471633 1.0842022e-19 2.4454417
3.6893488e+19 3.0590196 -1.0842022e-19
2.782732 -0 2.4372675
-1.0842022e-19 3.0686622 1.0842022e-19
2.7514665 -2 2.4310138
-0 3.0603416 1.0842022e-19
2.7839417 -1.0842022e-19 2.4196332
-0 3.0599914 1.0842022e-19
2.7836213 2 2.3803203
0 3.0706201 0
2.7530115 -0 2.3747525
3.6893488e+19 3.0568764 3.6893488e+19
2.7807713 0 2.3573329
0 3.0699646 -1.0842022e-19
2.7524941 -3.6893488e+19 2.3544655
2 3.0579417 1.0842022e-19
2.7817459 -1.0842022e-19 2.3393726
-1.0842022e-19 3.0705614 3.6893488e+19
2.7529652 -1.0842022e-19 2.3356085
1.0842022e-19 3.0710812 3.6893488e+19
2.7119422 3.6893488e+19 2.3226528
-3.6893488e+19 3.0299864 3.6893488e+19
2.7215297 0 2.2786732
3.6893488e+19 3.0716009 1.0842022e-19
2.7126901 0 2.3038626
-3.6893488e+19 3.0584958 3.6893488e+19
2.7597713 -3.6893488e+19 2.2881527
1.0842022e-19 3.0712574 -1.0842022e-19
2.7121956 -2 2.2842755
-2 3.0601239 -2
2.7611423 -2 2.2707026
0 3.070868 1.0842022e-19
2.7116356 -3.6893488e+19 2.2647238
-0 3.0636029 -2
2.7640717 -3.6893488e+19 2.2545862
1.0842022e-19 3.0706673 -2
2.7113466 -3.6893488e+19 2.2407706
2 3.0261817 2
2.715122 3.6893488e+19 2.164717
-1.0842022e-19 3.0659373 -3.6893488e+19
2.7045417 2 2.1958063
-1.0842022e-19 3.0700967 0
2.7695401 2 2.191659
-1.0842022e-19 3.0654674 1.0842022e-19
2.7038658 3.6893488e+19 2.1575098
1.0842022e-19 3.0685716 0
2.7682557 1.0842022e-19 2.1507745
-3.6893488e+19 3.0694404 3.6893488e+19
2.7095819 0 2.1245828
-3.6893488e+19 3.085911 0
2.7828567 -1.0842022e-19 2.1317387
1.0842022e-19 3.0736809 3.6893488e+19
2.7961462 1.0842022e-19 2.1028781
1.0842022e-19 3.0732481 -2
2.7550852 -2 2.0750606
0 3.0723374 -0
2.7949169 -3.6893488e+19 2.0617456
0 3.0706432 -0
2.7530296 3.6893488e+19 2.033874
2 3.0673721 -0
2.790374 1.0842022e-19 2.0179095
-2 3.0699952 2
2.7525184 1.0842022e-19 1.9948466
2 2.9591269 -0
2.6700702 -3.6893488e+19 1.9155703
-3.6893488e+19 2.943979 3.6893488e+19
2.600358 1.0842022e-19 1.8931916
3.6893488e+19 2.9610078 -1.0842022e-19
2.6717911 -3.6893488e+19 1.8879391
1.0842022e-19 3.0808551 -2
2.7610881 -3.6893488e+19 1.9237002
1.0842022e-19 2.9626968 -1.0842022e-19
2.6733363 3.6893488e+19 1.8450786
-1.0842022e-19 3.081208 0
2.7613668 -3.6893488e+19 1.8841387
3.6893488e+19 2.9652162 0
2.6756415 0 1.7891898
1.0842022e-19 2.9480088 -1.0842022e-19
2.6035378 1.0842022e-19 1.7527075
-3.6893488e+19 3.0168467 -2
2.7382936 -3.6893488e+19 1.7457463
2 2.9499099 3.6893488e+19
2.6050382 -1.0842022e-19 1.6485758
1.0842022e-19 3.0192928 -3.6893488e+19
2.6374338 2 1.5989705
1.0842022e-19 3.0248215 0
2.7128313 0 1.4505756
-3.6893488e+19 3.0214736 -3.6893488e+19
2.6405716 -3.6893488e+19 -1.2516874
2 3.0236678 -2
2.7108881 2 -1.5400633
3.6893488e+19 3.0215538 -0
2.6406868 -1.0842022e-19 -1.644583
-0 3.0267344 2
2.7160528 2 -1.7174401
-3.6893488e+19 3.0168278 1.0842022e-19
2.6338878 2 -1.7593037
-0 3.0285776 2
2.719157 -2 -1.8018796
-0 3.0155885 2
2.6321046 2 -1.8216569
-2 3.0296869 -2
2.7210252 -0 -1.8703187
2 2.9426677 1.0842022e-19
2.568435 2 -1.8413976
-1.0842022e-19 2.9794085 -2
2.6536896 -0 -1.8841548
-1.0842022e-19 2.9429796 2
2.5686593 3.6893488e+19 -1.8845588
1.0842022e-19 2.9800375 -1.0842022e-19
2.6542192 -0 -1.9134179
2 2.943975 3.6893488e+19
2.5693753 1.0842022e-19 -1.911212
2 2.8659627 3.6893488e+19
2.5581617 3.6893488e+19 -1.8967665
-2 2.8607423 -0
2.580055 -1.0842022e-19 -1.907717
3.6893488e+19 2.8377118 -1.0842022e-19
2.516499 -2 -1.9044883
1.0842022e-19 2.7575047 -3.6893488e+19
2.4711988 -2 -1.8784165
1.0842022e-19 2.7136843 -0
2.3659079 -3.6893488e+19 -1.8650066
1.0842022e-19 2.6518066 1.0842022e-19
2.367626 -1.0842022e-19 -1.8501128
3.6893488e+19 2.6360967 -2
2.3046811 2 -1.848086
-1.0842022e-19 2.5948112 -0
2.315479 3.6893488e+19 -1.8394209
1.0842022e-19 2.5824502 0
2.262347 0 -1.8371221
-0 2.5493014 2
2.2738407 2 -1.8295789
0 2.5430977 1.0842022e-19
2.2125854 -1.0842022e-19 -1.8296894
-3.6893488e+19 2.5180974 1.0842022e-19
2.2405825 -3.6893488e+19 -1.8247988
0 2.5130415 2
2.1651487 -3.6893488e+19 -1.824584
2 2.4844749 -0
2.1932619 0 -1.8204997
-0 2.4762046 2
2.1257882 0 -1.8200551
-3.6893488e+19 2.4377739 -3.6893488e+19
2.1505337 3.6893488e+19 -1.8152014
1.0842022e-19 2.4358542 -2
2.0939462 1.0842022e-19 -1.8167216
-1.0842022e-19 2.4276421 2
2.0576262 1.0842022e-19 -1.8173596
3.6893488e+19 2.3906157 2
2.0309911 2 -1.8124193
-3.6893488e+19 2.3367543 3.6893488e+19
1.9922458 2 -1.8068221
2 2.2941971 -2
1.9616319 3.6893488e+19 -1.8015941
-0 2.2605808 -0
1.9374499 1.0842022e-19 -1.7971995
-0 2.2027502 0
1.957118 -2 -1.7940474
-2 2.1587069 -2
1.9369696 0 -1.7905277
-3.6893488e+19 2.1259539 0
1.9219863 -0 -1.7892131
3.6893488e+19 2.095082 -1.0842022e-19
1.9078634 -1.0842022e-19 -1.7867585
-3.6893488e+19 3.0812418 -3.6893488e+19
2.7265606 -2 2.5784869
-1.0842022e-19 3.0724497 2
2.7715213 -2 2.5713396
1.0842022e-19 3.0690219 -1.0842022e-19
2.7686348 3.6893488e+19 2.5577798
-3.6893488e+19 3.0754499 2
2.7182279 1.0842022e-19 2.55247
2 3.0783548 -1.0842022e-19
2.7224069 -1.0842022e-19 2.5449905
2 3.085433 1.0842022e-19
2.782454 -1.0842022e-19 2.5523748
-2 3.0738461 0
2.7159204 -2 2.5309284
0 3.066397 -0
2.7664244 -1.0842022e-19 2.5252445
-1.0842022e-19 3.0644026 0
2.7023339 3.6893488e+19 2.5130463
2 3.0640883 0
2.7644806 -0 2.5133643
3.6893488e+19 3.0655198 -0
2.7039411 -0 2.504281
0 3.064079 0
2.7644727 -1.0842022e-19 2.5035133
2 3.0675781 -1.0842022e-19
2.7069023 -2 2.4924088
-1.0842022e-19 3.0683343 -0
2.7680559 3.6893488e+19 2.4939914
-2 3.0622311 -0
2.7427831 3.6893488e+19 2.4607666
3.6893488e+19 3.0650065 -0
2.7471633 1.0842022e-19 2.4454417
3.6893488e+19 3.0590196 -1.0842022e-19
2.782732 -0 2.4372675
-1.0842022e-19 3.0686622 1.0842022e-19
2.7514665 -2 2.4310138
-0 3.0603416 1.0842022e-19
2.7839417 -1.0842022e-19 2.4196332
-0 3.0599914 1.0842022e-19
2.7836213 2 2.3803203
0 3.0706201 0
2.7530115 -0 2.3747525
3.6893488e+19 3.0568764 3.6893488e+19
2.7807713 0 2.3573329
0 3.0699646 -1.0842022e-19
2.7524941 -3.6893488e+19 2.3544655
2 3.0579417 1.0842022e-19
2.7817459 -1.0842022e-19 2.3393726
-1.0842022e-19 3.0705614 3.6893488e+19
2.7529652 -1.0842022e-19 2.3356085
0 3.0200353 -2
2.6385019 2 2.2713571
-3.6893488e+19 3.0299864 3.6893488e+19
2.7215297 0 2.2786732
0 3.0230277 1.0842022e-19
2.6428072 -2 2.2579682
2 3.0286858 3.6893488e+19
2.7193391 1.0842022e-19 2.2603085
1.0842022e-19 3.014195 3.6893488e+19
2.6300995 2 2.2175641
3.6893488e+19 3.0286875 3.6893488e+19
2.719342 -3.6893488e+19 2.2365243
0 3.0157559 -0
2.6323452 2 2.1885102
-0 3.0285892 -2
2.7191765 0 2.2023239
3.6893488e+19 2.9352686 -2
2.5631123 2 2.0830822
2 3.0261817 2
2.715122 3.6893488e+19 2.164717
-0 2.9358242 0
2.5635121 3.6893488e+19 2.0574868
0 3.0228963 -1.0842022e-19
2.7095888 -3.6893488e+19 2.126533
0 2.9354794 3.6893488e+19
2.5632639 -3.6893488e+19 2.0312684
3.6893488e+19 3.0229259 1.0842022e-19
2.7096388 0 2.0933506
-2 2.9308882 2
2.5599613 3.6893488e+19 2.0026343
1.0842022e-19 3.0212753 -0
2.7068589 1.0842022e-19 2.0582848
1.0842022e-19 3.0736809 3.6893488e+19
2.7961462 1.0842022e-19 2.1028781
3.6893488e+19 3.0148609 -0
2.6680202 -2 2.016346
0 2.9647219 0
2.6751893 -2 1.9747258
-2 2.9435296 -2
2.6000032 1.0842022e-19 1.9463345
3.6893488e+19 2.9611418 -2
2.6719136 2 1.9446363
-2 2.9440265 2
2.6003954 -1.0842022e-19 1.9198749
2 2.9591269 -0
2.6700702 -3.6893488e+19 1.9155703
-3.6893488e+19 2.943979 3.6893488e+19
2.600358 1.0842022e-19 1.8931916
3.6893488e+19 2.9610078 -1.0842022e-19
2.6717911 -3.6893488e+19 1.8879391
-2 2.9464087 3.6893488e+19
2.6022754 -3.6893488e+19 1.8593664
1.0842022e-19 2.9626968 -1.0842022e-19
2.6733363 3.6893488e+19 1.8450786
-3.6893488e+19 2.9488759 3.6893488e+19
2.6042223 0 1.8067942
3.6893488e+19 2.9652162 0
2.6756415 0 1.7891898
1.0842022e-19 2.9480088 -1.0842022e-19
2.6035378 1.0842022e-19 1.7527075
3.6893488e+19 2.966918 -3.6893488e+19
2.6771984 2 1.7149986
2 2.9499099 3.6893488e+19
2.6050382 -1.0842022e-19 1.6485758
-1.0842022e-19 2.9561923 -0
2.5781639 3.6893488e+19 1.5647073
2 2.9689419 0
2.6448762 2 1.4211261
2 2.9442031 -2
2.5695393 1.0842022e-19 -1.2072943
0 2.9684207 2
2.6444373 -3.6893488e+19 -1.5162643
-3.6893488e+19 2.9477181 -1.0842022e-19
2.572068 3.6893488e+19 -1.613378
-3.6893488e+19 2.9694893 0
2.6453373 -1.0842022e-19 -1.6844473
-2 2.9475064 -3.6893488e+19
2.5719156 -2 -1.7252454
-0 2.9701321 -3.6893488e+19
2.6458783 1.0842022e-19 -1.7742525
-1.0842022e-19 2.9423928 0
2.5682373 -0 -1.7887864
-1.0842022e-19 2.9815776 -2
2.6555161 1.0842022e-19 -1.8362004
2 2.9426677 1.0842022e-19
2.568435 2 -1.8413976
-1.0842022e-19 2.9794085 -2
2.6536896 -0 -1.8841548
-1.0842022e-19 2.9429796 2
2.5686593 3.6893488e+19 -1.8845588
1.0842022e-19 2.8755689 -1.0842022e-19
2.5662506 1.0842022e-19 -1.877854
2 2.8513725 -3.6893488e+19
2.5027611 -2 -1.877587
2 2.8659627 3.6893488e+19
2.5581617 3.6893488e+19 -1.8967665
-2 2.8607423 -0
2.580055 -1.0842022e-19 -1.907717
3.6893488e+19 2.8377118 -1.0842022e-19
2.516499 -2 -1.9044883
1.0842022e-19 2.7575047 -3.6893488e+19
2.4711988 -2 -1.8784165
1.0842022e-19 2.7136843 -0
2.3659079 -3.6893488e+19 -1.8650066
1.0842022e-19 2.6518066 1.0842022e-19
2.367626 -1.0842022e-19 -1.8501128
3.6893488e+19 2.6360967 -2
2.3046811 2 -1.848086
-1.0842022e-19 2.5948112 -0
2.315479 3.6893488e+19 -1.8394209
1.0842022e-19 2.5824502 0
2.262347 0 -1.8371221
-0 2.5493014 2
2.2738407 2 -1.8295789
0 2.5430977 1.0842022e-19
2.2125854 -1.0842022e-19 -1.8296894
-3.6893488e+19 2.5180974 1.0842022e-19
2.2405825 -3.6893488e+19 -1.8247988
0 2.5130415 2
2.1651487 -3.6893488e+19 -1.824584
2 2.4844749 -0
2.1932619 0 -1.8204997
-0 2.4762046 2
2.1257882 0 -1.8200551
-3.6893488e+19 2.4377739 -3.6893488e+19
2.1505337 3.6893488e+19 -1.8152014
1.0842022e-19 2.4358542 -2
2.0939462 1.0842022e-19 -1.8167216
-1.0842022e-19 2.4276421 2
2.0576262 1.0842022e-19 -1.8173596
3.6893488e+19 2.3906157 2
2.0309911 2 -1.8124193
-3.6893488e+19 2.3367543 3.6893488e+19
1.9922458 2 -1.8068221
2 2.2941971 -2
1.9616319 3.6893488e+19 -1.8015941
-0 2.2605808 -0
1.9374499 1.0842022e-19 -1.7971995
-0 2.2027502 0
1.957118 -2 -1.7940474
-2 2.1587069 -2
1.9369696 0 -1.7905277
-3.6893488e+19 2.1259539 0
1.9219863 -0 -1.7892131
3.6893488e+19 2.095082 -1.0842022e-19
1.9078634 -1.0842022e-19 -1.7867585
0 3.0813808 -2
2.7228448 1.0842022e-19 2.5783167
-2 3.072804 0
2.7698321 -2 2.5713396
3.6893488e+19 3.0719619 2
2.7691281 0 2.5602753
-0 3.0952213 0
2.742594 2 2.5598526
-0 3.0808895 -1.0842022e-19
2.7765906 -1.0842022e-19 2.5479517
0 3.0741212 3.6893488e+19
2.7124863 -3.6893488e+19 2.5309033
-2 3.0667162 1.0842022e-19
2.7647433 -0 2.5252199
-2 3.0648708 2
2.6992872 -3.6893488e+19 2.513191
3.6893488e+19 3.0641503 -3.6893488e+19
2.7625983 -3.6893488e+19 2.5131271
-2 3.0657001 1.0842022e-19
2.7004704 -3.6893488e+19 2.5041878
1.0842022e-19 3.0637155 0
2.7622349 0 2.5029421
3.6893488e+19 3.0695844 -0
2.7060127 -0 2.4950552
3.6893488e+19 3.0659595 -1.0842022e-19
2.7641106 1.0842022e-19 2.4897678
2 3.0656214 -2
2.7443178 1.0842022e-19 2.4652905
1.0842022e-19 3.0652161 1.0842022e-19
2.7436831 -1.0842022e-19 2.4452794
1.0842022e-19 3.0600066 1.0842022e-19
2.7816746 -3.6893488e+19 2.4381409
2 3.0666332 -1.0842022e-19
2.7459025 2 2.427829
2 3.0600655 -1.0842022e-19
2.781728 -2 2.4187596
0 3.0815337 -2
2.7596195 -2 2.427635
3.6893488e+19 3.084321 1.0842022e-19
2.7618024 1.0842022e-19 2.4107754
-0 3.0584736 1.0842022e-19
2.7802818 -0 2.3780067
-0 3.0704598 1.0842022e-19
2.750948 -3.6893488e+19 2.3741801
-1.0842022e-19 3.0561428 -1.0842022e-19
2.7781639 0 2.3560536
-2 3.0704093 2
2.7509084 -2 2.3545933
-0 3.0582247 -0
2.7800555 -1.0842022e-19 2.3392794
-0 3.0704293 -3.6893488e+19
2.7509239 2 2.3351252
0 3.0707686 2
2.7077024 -1.0842022e-19 2.3220365
-0 3.0289764 1.0842022e-19
2.7163932 1.0842022e-19 2.2773631
2 3.0732191 2
2.711199 -3.6893488e+19 2.305105
-0 3.0601249 -1.0842022e-19
2.7592335 2 2.2893565
-1.0842022e-19 3.071383 3.6893488e+19
2.7085793 -0 2.2841203
-1.0842022e-19 3.0623581 -1.0842022e-19
2.7611003 2 2.2723536
-3.6893488e+19 3.0713739 3.6893488e+19
2.7085664 -2 2.2648928
1.0842022e-19 3.0635457 -3.6893488e+19
2.7620928 -3.6893488e+19 2.2542603
3.6893488e+19 3.0720234 -1.0842022e-19
2.7094929 0 2.2423844
1.0842022e-19 3.0747445 -3.6893488e+19
2.7714539 -0 2.2371039
0 3.0673192 0
2.7027805 -1.0842022e-19 2.1973362
1.0842022e-19 3.0708222 -0
2.7681754 2 2.192174
-3.6893488e+19 3.0651762 3.6893488e+19
2.699723 1.0842022e-19 2.1567523
2 3.0704458 -1.0842022e-19
2.7678607 -1.0842022e-19 2.1526897
-0 3.0680077 -1.0842022e-19
2.703763 2 2.1225531
-1.0842022e-19 3.0230694 -3.6893488e+19
2.7065177 -0 2.059983
1.0842022e-19 3.0734143 -1.0842022e-19
2.7938569 2 2.1021669
2 3.0739005 -1.0842022e-19
2.7536421 0 2.0753818
-1.0842022e-19 3.0714438 3.6893488e+19
2.7920666 2 2.0605109
-3.6893488e+19 3.070915 2
2.7513044 -2 2.0338225
1.0842022e-19 3.0683479 -1.0842022e-19
2.7892535 -1.0842022e-19 2.0184126
-1.0842022e-19 3.0695107 -2
2.7502046 0 1.9942244
3.6893488e+19 2.9626317 -0
2.670351 -3.6893488e+19 1.9166352
0 3.0654149 1.0842022e-19
2.7439945 -0 1.953245
2 2.9624684 0
2.6702027 0 1.8882111
-1.0842022e-19 2.9470429 0
2.6000736 -2 1.859458
-3.6893488e+19 2.9621685 -0
2.6699302 2 1.8445652
-2 2.948349 -2
2.6010962 1.0842022e-19 1.806394
-0 2.963553 -0
2.6711881 0 1.7884077
1.0842022e-19 2.9522524 0
2.6041529 2 1.7537845
-3.6893488e+19 2.9641185 1.0842022e-19
2.6717021 -2 1.7134546
-1.0842022e-19 2.9499657 -2
2.6023622 2 1.6484414
-1.0842022e-19 2.9419038 -1.0842022e-19
2.5652747 -3.6893488e+19 1.5585932
2 3.0248928 0
2.7095661 2 1.4504074
-0 2.9444432 3.6893488e+19
2.5670865 3.6893488e+19 -1.207212
-3.6893488e+19 3.0263903 -2
2.7120697 -3.6893488e+19 -1.5415224
-1.0842022e-19 2.9458425 -2
2.5680847 -0 -1.6121569
-2 3.029835 -2
2.7178285 1.0842022e-19 -1.7196351
1.0842022e-19 2.9448657 3.6893488e+19
2.5673878 -2 -1.7237062
2 3.0306423 -0
2.719178 -3.6893488e+19 -1.802995
3.6893488e+19 2.9439261 -3.6893488e+19
2.5667174 1.0842022e-19 -1.7892001
-2 2.9818761 2
2.6528006 -1.0842022e-19 -1.8360993
-3.6893488e+19 2.9434948 -1.0842022e-19
2.5664098 -2 -1.8415987
0 2.9806271 3.6893488e+19
2.6517563 3.6893488e+19 -1.8843482
0 2.9440424 -2
2.5668004 -3.6893488e+19 -1.8847551
2 2.9766467 2
2.6484292 2 -1.9120855
-0 2.9439797 -0
2.5667558 2 -1.9110626
0 2.8641183 3.6893488e+19
2.5543666 -2 -1.8958665
3.6893488e+19 2.8620257 2
2.5789397 3.6893488e+19 -1.9080893
-3.6893488e+19 2.8373039 -2
2.5141382 -0 -1.9041431
2 2.7542899 -2
2.4620998 1.0842022e-19 -1.8766621
-1.0842022e-19 2.7163692 0
2.3652077 2 -1.8661481
0 2.6502421 -1.0842022e-19
2.3636632 2 -1.8489689
-3.6893488e+19 2.6368425 -0
2.3029313 2 -1.8482871
0 2.5953367 1.0842022e-19
2.3137758 -3.6893488e+19 -1.8394914
-3.6893488e+19 2.5834887 -2
2.2611506 -3.6893488e+19 -1.8375659
0 2.5517013 -1.0842022e-19
2.2741282 -2 -1.8309731
2 2.5438635 -0
2.2102413 -1.0842022e-19 -1.8300132
3.6893488e+19 2.5176239 3.6893488e+19
2.2363307 3.6893488e+19 -1.824208
-1.0842022e-19 2.5131962 2
2.1622112 -1.0842022e-19 -1.8244962
-0 2.4846001 -1.0842022e-19
2.1903117 2 -1.8203169
1.0842022e-19 2.4757681 3.6893488e+19
2.1225677 2 -1.8196758
-1.0842022e-19 2.4380703 -2
2.1480343 -3.6893488e+19 -1.8151031
-2 2.4358397 -2
2.0913002 -3.6893488e+19 -1.8165179
-1.0842022e-19 2.4266384 0
2.0543838 -3.6893488e+19 -1.8167281
0 3.0813808 -2
2.7228448 1.0842022e-19 2.5783167
-2 3.072804 0
2.7698321 -2 2.5713396
3.6893488e+19 3.0719619 2
2.7691281 0 2.5602753
-0 3.0952213 0
2.742594 2 2.5598526
-0 3.0808895 -1.0842022e-19
2.7765906 -1.0842022e-19 2.5479517
0 3.0741212 3.6893488e+19
2.7124863 -3.6893488e+19 2.5309033
-2 3.0667162 1.0842022e-19
2.7647433 -0 2.5252199
-2 3.0648708 2
2.6992872 -3.6893488e+19 2.513191
3.6893488e+19 3.0641503 -3.6893488e+19
2.7625983 -3.6893488e+19 2.5131271
-2 3.0657001 1.0842022e-19
2.7004704 -3.6893488e+19 2.5041878
1.0842022e-19 3.0637155 0
2.7622349 0 2.5029421
3.6893488e+19 3.0695844 -0
2.7060127 -0 2.4950552
3.6893488e+19 3.0659595 -1.0842022e-19
2.7641106 1.0842022e-19 2.4897678
2 3.0656214 -2
2.7443178 1.0842022e-19 2.4652905
1.0842022e-19 3.0652161 1.0842022e-19
2.7436831 -1.0842022e-19 2.4452794
1.0842022e-19 3.0600066 1.0842022e-19
2.7816746 -3.6893488e+19 2.4381409
2 3.0666332 -1.0842022e-19
2.7459025 2 2.427829
2 3.0600655 -1.0842022e-19
2.781728 -2 2.4187596
0 3.0815337 -2
2.7596195 -2 2.427635
3.6893488e+19 3.084321 1.0842022e-19
2.7618024 1.0842022e-19 2.4107754
-0 3.0584736 1.0842022e-19
2.7802818 -0 2.3780067
-0 3.0098798 -1.0842022e-19
2.657017 2 2.3034449
-1.0842022e-19 3.0561428 -1.0842022e-19
2.7781639 0 2.3560536
-2 3.0704093 2
2.7509084 -2 2.3545933
-0 3.0582247 -0
2.7800555 -1.0842022e-19 2.3392794
-0 3.0704293 -3.6893488e+19
2.7509239 2 2.3351252
0 3.0707686 2
2.7077024 -1.0842022e-19 2.3220365
-0 3.0289764 1.0842022e-19
2.7163932 1.0842022e-19 2.2773631
2 3.0732191 2
2.711199 -3.6893488e+19 2.305105
-3.6893488e+19 3.0291352 2
2.7166588 1.0842022e-19 2.2604423
3.6893488e+19 3.0146477 3.6893488e+19
2.627624 0 2.2179265
3.6893488e+19 3.0293093 -2
2.7169495 0 2.2370749
1.0842022e-19 3.0145111 3.6893488e+19
2.627429 -1.0842022e-19 2.1860471
3.6893488e+19 3.0281777 3.6893488e+19
2.7150578 -3.6893488e+19 2.2011597
2 3.0169702 -0
2.6309378 -3.6893488e+19 2.158206
-1.0842022e-19 3.0230093 -0
2.7064173 1.0842022e-19 2.1595035
-1.0842022e-19 2.9374063 1.0842022e-19
2.5620661 1.0842022e-19 2.0583138
-1.0842022e-19 3.0228798 -2
2.7062008 1.0842022e-19 2.1260974
1.0842022e-19 2.9362988 -3.6893488e+19
2.5612757 0 2.0315337
-0 3.0219316 -3.6893488e+19
2.7046156 0 2.0917244
-2 2.9332304 2
2.5590868 -2 2.0037694
-1.0842022e-19 3.0230694 -3.6893488e+19
2.7065177 -0 2.059983
1.0842022e-19 3.0734143 -1.0842022e-19
2.7938569 2 2.1021669
1.0842022e-19 3.0158889 -2
2.6664281 1.0842022e-19 2.0171049
1.0842022e-19 2.9620383 -2
2.6698117 1.0842022e-19 1.9731617
-0 2.9431145 -3.6893488e+19
2.596997 1.0842022e-19 1.945949
-0 2.9605558 3.6893488e+19
2.6684649 3.6893488e+19 1.9441571
0 2.9449489 -1.0842022e-19
2.5984335 -2 1.9200526
3.6893488e+19 2.9626317 -0
2.670351 -3.6893488e+19 1.9166352
-3.6893488e+19 2.9446688 1.0842022e-19
2.5982144 -3.6893488e+19 1.8932664
2 2.9624684 0
2.6702027 0 1.8882111
-1.0842022e-19 2.9470429 0
2.6000736 -2 1.859458
-3.6893488e+19 2.9621685 -0
2.6699302 2 1.8445652
-2 2.948349 -2
2.6010962 1.0842022e-19 1.806394
-0 2.963553 -0
2.6711881 0 1.7884077
1.0842022e-19 2.9522524 0
2.6041529 2 1.7537845
-3.6893488e+19 2.9641185 1.0842022e-19
2.6717021 -2 1.7134546
-1.0842022e-19 2.9499657 -2
2.6023622 2 1.6484414
-1.0842022e-19 2.9419038 -1.0842022e-19
2.5652747 -3.6893488e+19 1.5585932
-1.0842022e-19 2.9759157 -2
2.6478181 2 1.4234804
-0 2.9444432 3.6893488e+19
2.5670865 3.6893488e+19 -1.207212
0 2.9693391 -2
2.6423206 0 -1.516386
-1.0842022e-19 2.9458425 -2
2.5680847 -0 -1.6121569
1.0842022e-19 2.9690828 2
2.6421065 3.6893488e+19 -1.6840852
1.0842022e-19 2.9448657 3.6893488e+19
2.5673878 -2 -1.7237062
0 2.9818919 -3.6893488e+19
2.6528134 -3.6893488e+19 -1.7778178
3.6893488e+19 2.9439261 -3.6893488e+19
2.5667174 1.0842022e-19 -1.7892001
-2 2.9818761 2
2.6528006 -1.0842022e-19 -1.8360993
-3.6893488e+19 2.9434948 -1.0842022e-19
2.5664098 -2 -1.8415987
0 2.9806271 3.6893488e+19
2.6517563 3.6893488e+19 -1.8843482
0 2.9440424 -2
2.5668004 -3.6893488e+19 -1.8847551
2 2.87287 0
2.5616822 1.0842022e-19 -1.8767959
2 2.8507023 -3.6893488e+19
2.5002072 0 -1.8772243
0 2.8641183 3.6893488e+19
2.5543666 -2 -1.8958665
3.6893488e+19 2.8620257 2
2.5789397 3.6893488e+19 -1.9080893
-3.6893488e+19 2.8373039 -2
2.5141382 -0 -1.9041431
2 2.7542899 -2
2.4620998 1.0842022e-19 -1.8766621
-1.0842022e-19 2.7163692 0
2.3652077 2 -1.8661481
0 2.6502421 -1.0842022e-19
2.3636632 2 -1.8489689
-3.6893488e+19 2.6368425 -0
2.3029313 2 -1.8482871
0 2.5953367 1.0842022e-19
2.3137758 -3.6893488e+19 -1.8394914
-3.6893488e+19 2.5834887 -2
2.2611506 -3.6893488e+19 -1.8375659
0 2.5517013 -1.0842022e-19
2.2741282 -2 -1.8309731
2 2.5438635 -0
2.2102413 -1.0842022e-19 -1.8300132
3.6893488e+19 2.5176239 3.6893488e+19
2.2363307 3.6893488e+19 -1.824208
-1.0842022e-19 2.5131962 2
2.1622112 -1.0842022e-19 -1.8244962
-0 2.4846001 -1.0842022e-19
2.1903117 2 -1.8203169
1.0842022e-19 2.4757681 3.6893488e+19
2.1225677 2 -1.8196758
-1.0842022e-19 2.4380703 -2
2.1480343 -3.6893488e+19 -1.8151031
-2 2.4358397 -2
2.0913002 -3.6893488e+19 -1.8165179
-1.0842022e-19 2.4266384 0
2.0543838 -3.6893488e+19 -1.8167281
0 3.0821769 -2
2.7200632 1.0842022e-19 2.5787995
-1.0842022e-19 3.0733812 2
2.7683277 -0 2.5715635
1.0842022e-19 3.0846918 3.6893488e+19
2.7236221 -0 2.5708683
-3.6893488e+19 3.0731864 -0
2.7681661 -2 2.561116
-1.0842022e-19 3.0740464 2
2.7688797 -1.0842022e-19 2.5516925
-1.0842022e-19 3.0820134 3.6893488e+19
2.7754903 2 2.5486381
-0 3.0753753 -0
2.7104385 2 2.5317283
-2 3.0669484 -2
2.76299 3.6893488e+19 2.5251217
-2 3.0651927 3.6893488e+19
2.6960292 1.0842022e-19 2.5132153
-0 3.0643513 -3.6893488e+19
2.7608349 -2 2.5130086
-1.0842022e-19 3.065907 -3.6893488e+19
2.6970398 -3.6893488e+19 2.504118
-0 3.0642278 1.0842022e-19
2.7607327 1.0842022e-19 2.5030792
0 3.0705194 3.6893488e+19
2.7035668 -0 2.496042
-2 3.0658493 -0
2.762078 3.6893488e+19 2.4890637
0 3.0609388 -0
2.7805598 -3.6893488e+19 2.4780598
3.6893488e+19 3.066659 -1.0842022e-19
2.7421224 -0 2.4468613
-2 3.0606272 -3.6893488e+19
2.7802787 -0 2.4384983
-0 3.0671868 -1.0842022e-19
2.7429428 -1.0842022e-19 2.4281397
2 3.0820739 2
2.7580395 -0 2.4278948
-0 3.1003778 3.6893488e+19
2.7722626 -2 2.4300647
0 3.0586703 1.0842022e-19
2.778513 -0 2.3777995
-1.0842022e-19 3.0707872 -0
2.7485383 -3.6893488e+19 2.3741801
-2 3.0546703 -3.6893488e+19
2.7749038 -2 2.3539212
1.0842022e-19 3.0689745 -2
2.7457209 -3.6893488e+19 2.3526449
3.6893488e+19 3.0524569 -1.0842022e-19
2.7729065 0 2.3325362
-1.0842022e-19 3.0720031 -0
2.7056665 2 2.3229756
3.6893488e+19 3.0683095 -0
2.7641194 -1.0842022e-19 2.3161237
3.6893488e+19 3.0727878 2
2.7067769 2 2.3044147
-2 3.0653706 3.6893488e+19
2.7616808 3.6893488e+19 2.2939303
2 3.0718579 2
2.705461 -2 2.2842755
-3.6893488e+19 3.0650826 1.0842022e-19
2.7614419 3.6893488e+19 2.2744298
-3.6893488e+19 3.0721714 -3.6893488e+19
2.7059047 -1.0842022e-19 2.2653034
1.0842022e-19 3.0639739 1.0842022e-19
2.7605219 -2 2.2543302
2 3.074465 2
2.7091503 1.0842022e-19 2.2456565
-2 3.0244861 1.0842022e-19
2.7055135 -1.0842022e-19 2.1612699
-2 3.0658233 2
2.6969216 -3.6893488e+19 2.1948137
-0 3.0717475 -1.0842022e-19
2.7669721 2 2.1929662
3.6893488e+19 3.0659397 2
2.6970861 -3.6893488e+19 2.1573582
3.6893488e+19 3.0115476 0
2.6840417 -1.0842022e-19 2.0783169
0 3.0677159 3.6893488e+19
2.6995995 -0 2.121865
3.6893488e+19 3.0199974 -3.6893488e+19
2.6980641 -3.6893488e+19 2.0561616
0 3.0730302 -1.0842022e-19
2.7914698 3.6893488e+19 2.1013319
-2 3.0729227 -3.6893488e+19
2.7509284 1.0842022e-19 2.0740685
3.6893488e+19 3.0700901 -2
2.7888169 0 2.0588369
-0 3.0724647 0
2.7505727 -0 2.0349021
-2 3.0688107 3.6893488e+19
2.7876627 1.0842022e-19 2.0184846
1.0842022e-19 3.0657051 3.6893488e+19
2.7406399 -1.0842022e-19 1.9910691
0 3.0722113 1.0842022e-19
2.790731 3.6893488e+19 1.9818394
0 3.0655625 -1.0842022e-19
2.7404182 -0 1.9531326
1.0842022e-19 3.0742314 3.6893488e+19
2.7925537 -1.0842022e-19 1.9435669
1.0842022e-19 2.9516923 -1.0842022e-19
2.6009893 2 1.8616546
2 2.9651086 0
2.6696672 3.6893488e+19 1.8457001
-0 2.9491565 2
2.5990191 -3.6893488e+19 1.8065351
-3.6893488e+19 2.9636469 -0
2.6683483 0 1.7882472
-1.0842022e-19 2.9496853 -2
2.5994298 1.0842022e-19 1.7529229
-1.0842022e-19 2.969511 2
2.6736395 -1.0842022e-19 1.7156789
-3.6893488e+19 2.9496098 -2
2.5993712 -1.0842022e-19 1.6481726
-2 3.0451319 3.6893488e+19
2.6676412 -3.6893488e+19 1.6200029
3.6893488e+19 3.0210361 2
2.6997881 -1.0842022e-19 1.4473804
3.6893488e+19 2.9427946 2
2.5632992 -0 -1.2062514
-1.0842022e-19 3.0264032 0
2.7086949 -1.0842022e-19 -1.5413487
3.6893488e+19 2.9441953 0
2.5642903 3.6893488e+19 -1.611061
2 3.0292168 2
2.7133639 -3.6893488e+19 -1.7189109
3.6893488e+19 2.9458687 3.6893488e+19
2.5654743 -0 -1.7240022
2 3.0291591 -1.0842022e-19
2.713268 3.6893488e+19 -1.8018614
1.0842022e-19 2.9459298 3.6893488e+19
2.5655174 -0 -1.7897878
-2 2.9849987 -3.6893488e+19
2.6524308 -2 -1.8372357
2 2.9464402 2
2.5658786 -3.6893488e+19 -1.8428345
-2 2.9819012 -2
2.6498606 1.0842022e-19 -1.8845576
1.0842022e-19 2.9467521 -1.0842022e-19
2.5660992 -1.0842022e-19 -1.8854514
3.6893488e+19 2.8685465 -1.0842022e-19
2.5558038 -2 -1.8751891
-3.6893488e+19 2.8602707 3.6893488e+19
2.5049095 3.6893488e+19 -1.880574
-2 2.8613436 1.0842022e-19
2.5498273 -3.6893488e+19 -1.8945973
3.6893488e+19 2.8629103 -1.0842022e-19
2.5774536 -3.6893488e+19 -1.9082878
0 2.8349726 3.6893488e+19
2.5102918 3.6893488e+19 -1.9029214
-0 2.7569234 -0
2.4636438 -2 -1.8778223
-1.0842022e-19 2.7207999 -0
2.3658371 -3.6893488e+19 -1.8681906
0 2.6506031 3.6893488e+19
2.3614638 1.0842022e-19 -1.8489053
-2 2.636889 -3.6893488e+19
2.3006337 2 -1.848086
2 2.5959735 -3.6893488e+19
2.3121715 -3.6893488e+19 -1.8396324
-2 2.584759 -2
2.2601259 1.0842022e-19 -1.8381579
-1.0842022e-19 2.5525134 -1.0842022e-19
2.2729576 0 -1.8312831
2 2.542654 -0
2.2048161 2 -1.828961
0 2.5181684 3.6893488e+19
2.2339363 -1.0842022e-19 -1.8243768
