# .PCD v0.7 - Point Cloud Data file format
VERSION 0.7
FIELDS x y z
SIZE 4 4 4
TYPE F F F
COUNT 1 1 1
WIDTH 1693
HEIGHT 1
VIEWPOINT 0 0 0 1 0 0 0
POINTS 1693
DATA ascii
-2 3.0864618 -1.0842022e-19
2.2935517 -3.6893488e+19 2.0192568
3.6893488e+19 3.0951798 2
2.4509156 0 2.0086942
0 3.0920019 -0
2.2983851 -3.6893488e+19 1.9852397
-1.0842022e-19 3.1222482 0
2.4862757 0 1.9868299
-1.0842022e-19 3.0886493 3.6893488e+19
2.2954602 -2 1.9448754
2 3.2423139 1.0842022e-19
2.5715599 0 2.0075128
1.0842022e-19 3.0902472 2
2.2968543 3.6893488e+19 1.9075834
1.0842022e-19 3.1051192 1.0842022e-19
2.4638996 -1.0842022e-19 1.8955798
-1.0842022e-19 3.2463446 0
2.4330442 1.0842022e-19 1.9241484
-1.0842022e-19 3.0956755 3.6893488e+19
2.4515631 -0 1.8302543
-3.6893488e+19 3.0863123 -1.0842022e-19
2.2934213 0 1.7855126
-3.6893488e+19 3.0970681 -3.6893488e+19
2.4533823 3.6893488e+19 1.7526084
-1.0842022e-19 3.0918374 1.0842022e-19
2.2982419 -1.0842022e-19 1.6728486
-1.0842022e-19 3.0921695 -2
2.1783681 1.0842022e-19 1.5669285
0 3.0884976 0
2.3576658 2 1.2792243
-2 3.0908942 -0
2.1767716 -1.0842022e-19 -1.4778554
-3.6893488e+19 3.0882125 2
2.3573647 -2 -1.6329288
-3.6893488e+19 3.087079 3.6893488e+19
2.1719954 -0 -1.7071652
-0 3.0866411 -1.0842022e-19
2.3557041 2 -1.7669187
1.0842022e-19 3.0830925 0
2.1670043 -0 -1.8019094
-1.0842022e-19 3.0888324 2
2.3580196 -0 -1.8440976
-3.6893488e+19 3.089613 -3.6893488e+19
2.3588443 1.0842022e-19 -1.8980348
-0 3.0347157 -2
2.1064405 0 -1.8893514
1.0842022e-19 3.0480814 -3.6893488e+19
2.3149607 -0 -1.9134954
2 3.0333407 -1.0842022e-19
2.1047192 1.0842022e-19 -1.9204179
2 2.8406467 -3.6893488e+19
2.1099365 2 -1.8818109
2 2.8158929 1.0842022e-19
2.1626575 -2 -1.8817348
-0 2.7814665 3.6893488e+19
1.9955702 -0 -1.873895
1.0842022e-19 2.7544403 -0
2.0823805 -3.6893488e+19 -1.8660549
-3.6893488e+19 2.7117469 0
1.9514295 3.6893488e+19 -1.8551515
-0 2.6703961 -2
2.024586 -0 -1.8479892
2 2.6483123 -0
1.9237571 -2 -1.8459719
-3.6893488e+19 2.6065805 -0
1.9829043 -1.0842022e-19 -1.834383
-2 2.5904946 3.6893488e+19
1.8985351 -2 -1.8331002
-1.0842022e-19 2.5660548 -1.0842022e-19
1.9564345 -1.0842022e-19 -1.8285507
3.6893488e+19 2.5511734 -0
1.8813819 1.0842022e-19 -1.826069
2 2.5331788 0
1.9349612 3.6893488e+19 -1.8234876
3.6893488e+19 2.5181947 -1.0842022e-19
1.8589909 2 -1.8192114
-2 2.4981999 -1.0842022e-19
1.9127022 0 -1.8137923
2 2.4766724 -1.0842022e-19
1.8329403 -3.6893488e+19 -1.8110756
0 2.4465549 -2
1.8958359 -2 -1.8069582
-3.6893488e+19 2.3847957 -1.0842022e-19
1.7408663 0 -1.8019915
-3.6893488e+19 2.3374231 0
1.7112131 -0 -1.7993569
0 2.2928669 -3.6893488e+19
1.6833225 3.6893488e+19 -1.7930188
-0 2.2646787 2
1.665678 -2 -1.7919869
1.0842022e-19 2.2173905 2
1.7776405 -1.0842022e-19 -1.7874994
1.0842022e-19 2.1735342 3.6893488e+19
1.7633178 -3.6893488e+19 -1.7846006
-3.6893488e+19 2.1457834 2
1.7542551 -0 -1.7857432
2 2.1156926 -3.6893488e+19
1.7388558 -0 -1.7843001
-0 3.1429884 -1.0842022e-19
2.406862 -2 2.5994434
-2 3.1486671 1.0842022e-19
2.2322829 -2 2.5967224
-1.0842022e-19 3.1435223 -2
2.4074147 0 2.5883324
-3.6893488e+19 3.146271 -0
2.2293842 -1.0842022e-19 2.5830548
-3.6893488e+19 3.1458628 -0
2.2288904 1.0842022e-19 2.5711715
3.6893488e+19 3.1431336 0
2.4070125 0 2.5649533
-3.6893488e+19 3.1484299 -2
2.2319958 -3.6893488e+19 2.5616739
-3.6893488e+19 3.1462557 -2
2.4102447 3.6893488e+19 2.5558882
-1.0842022e-19 3.2439325 2
2.2987645 1.0842022e-19 2.6220617
2 3.1370826 -3.6893488e+19
2.4007475 0 2.5375407
-1.0842022e-19 3.146776 3.6893488e+19
2.229995 2 2.5374064
-0 3.1312225 -0
2.3946807 -1.0842022e-19 2.5221181
2 3.1349685 -3.6893488e+19
2.4946094 -2 2.5204091
-3.6893488e+19 3.1433365 3.6893488e+19
2.3348308 3.6893488e+19 2.5186548
1.0842022e-19 3.1367333 -3.6893488e+19
2.4968767 3.6893488e+19 2.5104108
3.6893488e+19 3.1468599 -3.6893488e+19
2.3378298 1.0842022e-19 2.509624
-1.0842022e-19 3.1499407 0
2.3404527 0 2.5001419
-1.0842022e-19 3.1301486 -1.0842022e-19
2.4884169 -2 2.4679227
1.0842022e-19 3.0936527 1.0842022e-19
2.292537 0 2.4101532
-1.0842022e-19 3.1310916 1.0842022e-19
2.4896286 -2 2.4470863
1.0842022e-19 3.0908613 -1.0842022e-19
2.2901607 -3.6893488e+19 2.3873019
-0 3.1229696 -2
2.4791932 0 2.416069
0 3.128794 3.6893488e+19
2.3224511 -0 2.4087579
2 3.1284299 -1.0842022e-19
2.3221412 2 2.3867774
-2 3.1324272 2
2.3255441 1.0842022e-19 2.3690901
1.0842022e-19 3.1546042 3.6893488e+19
2.239465 -2 2.3779383
2 3.1036603 0
2.3661456 0 2.3220813
3.6893488e+19 3.1471786 3.6893488e+19
2.2304821 -2 2.3485034
-2 3.1210039 -1.0842022e-19
2.3841014 1.0842022e-19 2.3167658
-2 3.1498897 -2
2.2337618 3.6893488e+19 2.3282645
0 3.1467221 2
2.2299297 2 2.3032618
-2 3.0903757 -0
2.352392 3.6893488e+19 2.2519596
-0 3.1446478 1.0842022e-19
2.2274206 2 2.2794163
3.6893488e+19 3.1320891 -1.0842022e-19
2.3955779 3.6893488e+19 2.2611816
0 3.1369922 -3.6893488e+19
2.218159 1.0842022e-19 2.2521989
-1.0842022e-19 3.1311004 -0
2.3945544 -2 2.2278714
2 3.1890981 0
2.2655969 1.0842022e-19 2.2614472
-0 3.1339254 -1.0842022e-19
2.3974791 2 2.1879923
-0 3.0801854 3.6893488e+19
2.1494379 -2 2.1060827
1.0842022e-19 3.1760097 -2
2.5236695 -2 2.1656601
3.6893488e+19 3.2377086 0
2.4151657 -0 2.1950488
3.6893488e+19 3.1918917 0
2.5338724 2 2.1310816
1.0842022e-19 3.2366171 -2
2.4142363 -2 2.1393101
-3.6893488e+19 3.1923838 2
2.5341885 2 2.0814028
2 3.234818 2
2.4127049 -3.6893488e+19 2.083379
-3.6893488e+19 3.0889001 -2
2.2884912 -3.6893488e+19 1.9449646
-1.0842022e-19 3.2420602 -2
2.5661006 -0 2.0072708
-0 3.0920515 3.6893488e+19
2.2911739 -2 1.9083743
3.6893488e+19 3.1001189 0
2.4498346 2 1.8934691
2 3.2468886 -1.0842022e-19
2.4229801 -0 1.9242901
1.0842022e-19 3.0977967 -2
2.4468508 -0 1.8314261
-3.6893488e+19 3.2406445 -3.6893488e+19
2.4176648 3.6893488e+19 1.8591049
-3.6893488e+19 3.0969069 -2
2.4457078 2 1.7524951
-1.0842022e-19 3.2370167 -3.6893488e+19
2.4145765 -3.6893488e+19 1.7461883
-1.0842022e-19 3.2421529 -0
2.297688 1.0842022e-19 1.6380005
-3.6893488e+19 3.0905349 2
2.3525569 -1.0842022e-19 1.2800994
-1.0842022e-19 3.0882208 1.0842022e-19
2.1591587 -0 -1.476023
0 3.090529 3.6893488e+19
2.3525505 -3.6893488e+19 -1.6337934
1.0842022e-19 3.0846856 -1.0842022e-19
2.1548817 1.0842022e-19 -1.7056527
-1.0842022e-19 3.0865395 3.6893488e+19
2.3484204 3.6893488e+19 -1.7668272
-2 3.0738747 0
2.1418037 -1.0842022e-19 -1.7969792
-1.0842022e-19 3.0873682 1.0842022e-19
2.3492785 -2 -1.8430761
-3.6893488e+19 3.082334 0
2.1520374 0 -1.8754206
-1.0842022e-19 3.0884283 0
2.3503759 0 -1.8974679
1.0842022e-19 3.0842962 1.0842022e-19
2.1544108 0 -1.9135851
-1.0842022e-19 3.0471613 -0
2.307652 2 -1.912935
-0 3.0311246 2
2.0900872 3.6893488e+19 -1.9190509
-0 2.8429923 -1.0842022e-19
2.1051009 3.6893488e+19 -1.882673
-0 2.8147328 3.6893488e+19
2.1543703 3.6893488e+19 -1.8811954
-3.6893488e+19 2.7811115 -3.6893488e+19
1.9892983 2 -1.8735111
-1.0842022e-19 2.7546098 1.0842022e-19
2.0771241 3.6893488e+19 -1.8661133
1.0842022e-19 2.7123737 3.6893488e+19
1.9467995 -1.0842022e-19 -1.8553988
1.0842022e-19 2.6705747 -1.0842022e-19
2.0201781 -0 -1.8479892
1.0842022e-19 2.6486728 -1.0842022e-19
1.9196866 -2 -1.8461095
-0 2.6071012 0
1.9794028 -2 -1.8345997
0 2.5881121 -1.0842022e-19
1.8939102 -2 -1.8315856
-0 2.5669272 -2
1.9535948 0 -1.829026
-0 2.5513823 -1.0842022e-19
1.8782769 -1.0842022e-19 -1.8261516
1.0842022e-19 2.5325613 1.0842022e-19
1.9315181 3.6893488e+19 -1.8229707
-1.0842022e-19 2.518518 -2
1.853578 -3.6893488e+19 -1.8193905
2 2.4991488 3.6893488e+19
1.9103272 -2 -1.8140715
-0 2.478539 -2
1.8286799 1.0842022e-19 -1.8117516
3.6893488e+19 2.4477267 1.0842022e-19
1.8938104 2 -1.8073584
-0 3.1429884 -1.0842022e-19
2.406862 -2 2.5994434
-2 3.1486671 1.0842022e-19
2.2322829 -2 2.5967224
-1.0842022e-19 3.1435223 -2
2.4074147 0 2.5883324
-3.6893488e+19 3.146271 -0
2.2293842 -1.0842022e-19 2.5830548
-3.6893488e+19 3.1458628 -0
2.2288904 1.0842022e-19 2.5711715
3.6893488e+19 3.1431336 0
2.4070125 0 2.5649533
-3.6893488e+19 3.1484299 -2
2.2319958 -3.6893488e+19 2.5616739
-3.6893488e+19 3.1462557 -2
2.4102447 3.6893488e+19 2.5558882
-3.6893488e+19 3.153862 3.6893488e+19
2.2385674 -3.6893488e+19 2.5542147
2 3.1370826 -3.6893488e+19
2.4007475 0 2.5375407
-1.0842022e-19 3.146776 3.6893488e+19
2.229995 2 2.5374064
-0 3.1312225 -0
2.3946807 -1.0842022e-19 2.5221181
-1.0842022e-19 3.1052666 -1.0842022e-19
2.4564483 -3.6893488e+19 2.4990921
0 3.0899074 -0
2.2893486 -2 2.4643235
1.0842022e-19 3.1367333 -3.6893488e+19
2.4968767 3.6893488e+19 2.5104108
2 3.0907922 -3.6893488e+19
2.2901018 3.6893488e+19 2.4458895
2 3.0924292 -0
2.2914953 -1.0842022e-19 2.4283426
-1.0842022e-19 3.1301486 -1.0842022e-19
2.4884169 -2 2.4679227
1.0842022e-19 3.0936527 1.0842022e-19
2.292537 0 2.4101532
-1.0842022e-19 3.1310916 1.0842022e-19
2.4896286 -2 2.4470863
1.0842022e-19 3.0908613 -1.0842022e-19
2.2901607 -3.6893488e+19 2.3873019
-0 3.1229696 -2
2.4791932 0 2.416069
-3.6893488e+19 3.0903261 1.0842022e-19
2.2897053 3.6893488e+19 2.3672473
2 3.0922084 2
2.2913074 0 2.349757
-0 3.0897262 0
2.2891946 1.0842022e-19 2.3278782
-3.6893488e+19 3.0696099 3.6893488e+19
2.1366444 3.6893488e+19 2.2985458
2 3.1036603 0
2.3661456 0 2.3220813
1.0842022e-19 3.0692112 -3.6893488e+19
2.1361618 -0 2.280091
-3.6893488e+19 3.1047928 3.6893488e+19
2.3673182 3.6893488e+19 2.3029246
-2 3.1498897 -2
2.2337618 3.6893488e+19 2.3282645
-1.0842022e-19 3.0677125 0
2.1343491 0 2.2357311
-2 3.0903757 -0
2.352392 3.6893488e+19 2.2519596
2 3.0690334 -0
2.1359468 -3.6893488e+19 2.2017603
-2 3.1085887 2
2.371248 -1.0842022e-19 2.2402353
0 3.1369922 -3.6893488e+19
2.218159 1.0842022e-19 2.2521989
1.0842022e-19 3.1107385 0
2.3734736 -2 2.2023389
0 3.0722539 2
2.1398427 3.6893488e+19 2.1337519
-0 3.1339254 -1.0842022e-19
2.3974791 2 2.1879923
-0 3.0801854 3.6893488e+19
2.1494379 -2 2.1060827
-2 3.1002135 -0
2.4499562 -1.0842022e-19 2.0917056
-0 3.0823057 -0
2.2828777 1.0842022e-19 2.0532391
-0 3.097271 1.0842022e-19
2.4461756 -2 2.0494819
-2 3.0864947 3.6893488e+19
2.2864437 -1.0842022e-19 2.0192072
0 3.0958812 3.6893488e+19
2.4443898 1.0842022e-19 2.0091097
2 3.234818 2
2.4127049 -3.6893488e+19 2.083379
-3.6893488e+19 3.0889001 -2
2.2884912 -3.6893488e+19 1.9449646
-1.0842022e-19 3.2420602 -2
2.5661006 -0 2.0072708
-0 3.0920515 3.6893488e+19
2.2911739 -2 1.9083743
3.6893488e+19 3.1001189 0
2.4498346 2 1.8934691
0 3.0864577 -2
2.286412 -2 1.8610337
1.0842022e-19 3.0977967 -2
2.4468508 -0 1.8314261
-0 3.0854752 1.0842022e-19
2.2855759 1.0842022e-19 1.7850678
-3.6893488e+19 3.0969069 -2
2.4457078 2 1.7524951
-3.6893488e+19 3.0910327 2
2.2903068 3.6893488e+19 1.6723931
3.6893488e+19 3.0902443 0
2.1616066 3.6893488e+19 1.5658101
-3.6893488e+19 3.0905349 2
2.3525569 -1.0842022e-19 1.2800994
-1.0842022e-19 3.0882208 1.0842022e-19
2.1591587 -0 -1.476023
0 3.090529 3.6893488e+19
2.3525505 -3.6893488e+19 -1.6337934
1.0842022e-19 3.0846856 -1.0842022e-19
2.1548817 1.0842022e-19 -1.7056527
-1.0842022e-19 3.0865395 3.6893488e+19
2.3484204 3.6893488e+19 -1.7668272
-2 3.0738747 0
2.1418037 -1.0842022e-19 -1.7969792
-1.0842022e-19 3.0873682 1.0842022e-19
2.3492785 -2 -1.8430761
-3.6893488e+19 3.082334 0
2.1520374 0 -1.8754206
-1.0842022e-19 3.0884283 0
2.3503759 0 -1.8974679
-3.6893488e+19 3.0348976 -2
2.0946515 3.6893488e+19 -1.8894123
-1.0842022e-19 3.0471613 -0
2.307652 2 -1.912935
-0 3.0311246 2
2.0900872 3.6893488e+19 -1.9190509
-0 2.8429923 -1.0842022e-19
2.1051009 3.6893488e+19 -1.882673
-0 2.8147328 3.6893488e+19
2.1543703 3.6893488e+19 -1.8811954
-3.6893488e+19 2.7811115 -3.6893488e+19
1.9892983 2 -1.8735111
-1.0842022e-19 2.7546098 1.0842022e-19
2.0771241 3.6893488e+19 -1.8661133
1.0842022e-19 2.7123737 3.6893488e+19
1.9467995 -1.0842022e-19 -1.8553988
1.0842022e-19 2.6705747 -1.0842022e-19
2.0201781 -0 -1.8479892
1.0842022e-19 2.6486728 -1.0842022e-19
1.9196866 -2 -1.8461095
-0 2.6071012 0
1.9794028 -2 -1.8345997
0 2.5881121 -1.0842022e-19
1.8939102 -2 -1.8315856
-0 2.5669272 -2
1.9535948 0 -1.829026
-0 2.5513823 -1.0842022e-19
1.8782769 -1.0842022e-19 -1.8261516
1.0842022e-19 2.5325613 1.0842022e-19
1.9315181 3.6893488e+19 -1.8229707
-1.0842022e-19 2.518518 -2
1.853578 -3.6893488e+19 -1.8193905
2 2.4991488 3.6893488e+19
1.9103272 -2 -1.8140715
-0 2.478539 -2
1.8286799 1.0842022e-19 -1.8117516
3.6893488e+19 2.4477267 1.0842022e-19
1.8938104 2 -1.8073584
-1.0842022e-19 3.2301223 3.6893488e+19
2.2802894 1.0842022e-19 2.6956792
1.0842022e-19 3.1448646 -0
2.4003899 0 2.612649
3.6893488e+19 3.2393401 -0
2.2856705 2 2.6898458
-0 3.1439576 -0
2.3994703 0 2.588593
1.0842022e-19 3.1465008 -3.6893488e+19
2.2129443 0 2.5831831
3.6893488e+19 3.1457567 0
2.2120757 -1.0842022e-19 2.5710227
3.6893488e+19 3.1440258 -0
2.3995395 -0 2.565562
2 3.1515973 1.0842022e-19
2.218895 2 2.5640905
0 3.1462672 -1.0842022e-19
2.4018121 1.0842022e-19 2.5557942
-3.6893488e+19 3.2440286 0
2.2884078 1.0842022e-19 2.6220617
-3.6893488e+19 3.1344988 -3.6893488e+19
2.3898792 3.6893488e+19 2.5355256
-1.0842022e-19 3.1466691 -2
2.213141 1.0842022e-19 2.5372732
-3.6893488e+19 3.1310146 3.6893488e+19
2.3863463 -1.0842022e-19 2.5218785
-1.0842022e-19 3.1362848 3.6893488e+19
2.4879966 2 2.5212207
-2 3.1430771 -0
2.3262777 1.0842022e-19 2.5184038
1.0842022e-19 3.1508043 1.0842022e-19
2.3326917 1.0842022e-19 2.5121322
0 3.1499896 -3.6893488e+19
2.3320153 -3.6893488e+19 2.5001032
-3.6893488e+19 3.1774566 -2
2.5200045 -0 2.5129671
3.6893488e+19 3.146816 1.0842022e-19
2.3293812 -3.6893488e+19 2.4734735
2 3.1308537 -3.6893488e+19
2.4811351 -0 2.4466207
3.6893488e+19 3.0954487 -1.0842022e-19
2.2867432 2 2.3924065
-1.0842022e-19 3.1231253 1.0842022e-19
2.4713721 0 2.416069
-1.0842022e-19 3.1294835 -1.0842022e-19
2.3149941 1.0842022e-19 2.4093895
3.6893488e+19 3.1285341 1.0842022e-19
2.3142061 2 2.3867774
3.6893488e+19 3.1329339 0
2.3178582 -2 2.369477
-3.6893488e+19 3.1542184 0
2.2219555 -1.0842022e-19 2.3775046
-0 3.1199214 -3.6893488e+19
2.3750978 1.0842022e-19 2.3367774
3.6893488e+19 3.1530497 0
2.2205908 1.0842022e-19 2.3535862
-0 3.1210668 1.0842022e-19
2.3762593 3.6893488e+19 2.3167131
2 3.1506498 1.0842022e-19
2.2177887 -0 2.3288243
-3.6893488e+19 3.1531088 1.0842022e-19
2.4087498 -2 2.3211613
-3.6893488e+19 3.1461165 -1.0842022e-19
2.2124958 2 2.3027401
2 3.0884833 -0
2.3432198 1.0842022e-19 2.2504747
-0 3.1451283 -0
2.2113419 -0 2.2797019
-3.6893488e+19 3.1318157 3.6893488e+19
2.3871586 3.6893488e+19 2.2609072
3.6893488e+19 3.1405778 0
2.2060289 2 2.2544861
3.6893488e+19 3.1313829 -0
2.3867197 2 2.2280653
3.6893488e+19 3.1871943 -0
2.2552285 2 2.260263
-1.0842022e-19 3.1293228 -3.6893488e+19
2.3846307 -3.6893488e+19 2.1825962
0 3.0829864 -3.6893488e+19
2.1387863 3.6893488e+19 2.1090333
3.6893488e+19 3.1791453 -0
2.5210712 -2 2.168545
0 3.2377188 2
2.4048359 -0 2.1949356
1.0842022e-19 3.1759553 -2
2.5190561 -0 2.1171849
3.6893488e+19 3.2365959 -3.6893488e+19
2.4039037 0 2.1391861
-0 3.2349825 1.0842022e-19
2.4025648 3.6893488e+19 2.0834005
-3.6893488e+19 3.2422347 3.6893488e+19
2.5609219 -3.6893488e+19 2.0072546
-0 3.2340126 3.6893488e+19
2.4017596 1.0842022e-19 1.9740425
3.6893488e+19 3.099185 3.6893488e+19
2.441128 3.6893488e+19 1.8930267
-2 3.2355895 -1.0842022e-19
2.4030685 -1.0842022e-19 1.9202799
-3.6893488e+19 3.0986207 -3.6893488e+19
2.4404151 -1.0842022e-19 1.831829
-2 3.2353096 1.0842022e-19
2.4028363 -0 1.8564956
-0 3.0968666 1.0842022e-19
2.4381993 -0 1.752427
3.6893488e+19 3.235317 -0
2.4028423 -1.0842022e-19 1.7452615
-3.6893488e+19 3.0746958 -2
2.1291068 0 1.5570551
-0 3.0919204 -0
2.346705 2 1.2806782
1.0842022e-19 3.1350062 -1.0842022e-19
2.1995234 -3.6893488e+19 -1.503619
1.0842022e-19 3.0946114 0
2.3494337 0 -1.635352
-0 3.0839715 -3.6893488e+19
2.1399367 -2 -1.705174
2 3.0938754 -3.6893488e+19
2.3486872 -3.6893488e+19 -1.76987
2 3.076057 -2
2.1306958 -3.6893488e+19 -1.7981042
0 3.0885975 -3.6893488e+19
2.3433354 3.6893488e+19 -1.8437972
-2 3.0777562 -1.0842022e-19
2.1326799 -0 -1.8723376
-2 3.091238 -1.0842022e-19
2.3460131 0 -1.8986423
3.6893488e+19 3.0818379 0
2.1374457 -3.6893488e+19 -1.9123504
2 3.0934274 -1.0842022e-19
2.348233 3.6893488e+19 -1.9382397
2 3.029809 -3.6893488e+19
2.0766978 -3.6893488e+19 -1.918227
-2 2.8448415 1.0842022e-19
2.0996671 3.6893488e+19 -1.8833436
-2 2.815604 1.0842022e-19
2.148705 3.6893488e+19 -1.8815037
-3.6893488e+19 2.7787681 -0
1.9813944 -2 -1.8713715
-0 2.753237 3.6893488e+19
2.0699162 2 -1.8647132
-1.0842022e-19 2.7143624 -2
1.9427243 2 -1.8563261
-0 2.6707501 -2
2.0157683 -0 -1.8479892
-0 2.650147 0
1.9160731 -2 -1.846866
-2 2.6067576 0
1.9753474 -0 -1.8343108
-0 2.5884531 1.0842022e-19
1.8904682 1.0842022e-19 -1.8317372
0 2.5684135 1.0842022e-19
1.9511271 3.6893488e+19 -1.8298972
-1.0842022e-19 2.5514653 3.6893488e+19
1.8751172 -1.0842022e-19 -1.8261516
-1.0842022e-19 2.5330482 -2
1.9287884 3.6893488e+19 -1.8232292
1.0842022e-19 2.5187159 1.0842022e-19
1.8480504 -1.0842022e-19 -1.8194802
-2 2.5007849 -0
1.9084092 1.0842022e-19 -1.8149095
3.6893488e+19 2.4789183 3.6893488e+19
1.8237655 1.0842022e-19 -1.8118482
-3.6893488e+19 2.4481592 1.0842022e-19
1.8915408 3.6893488e+19 -1.8074584
-2 2.3854437 -3.6893488e+19
1.7250172 -3.6893488e+19 -1.8022192
-1.0842022e-19 2.339288 -2
1.6980721 2 -1.8002511
1.0842022e-19 2.2912552 -3.6893488e+19
1.6700311 -1.0842022e-19 -1.792028
1.0842022e-19 2.2615817 -0
1.6527081 0 -1.7899677
3.6893488e+19 2.2231386 -3.6893488e+19
1.7744298 -3.6893488e+19 -1.7893595
2 2.1772897 1.0842022e-19
1.7599496 1.0842022e-19 -1.7858804
3.6893488e+19 2.1485381 2
1.750869 -1.0842022e-19 -1.7867258
-3.6893488e+19 2.114069 -2
1.7299656 -2 -1.7834594
-0 3.1388469 -1.0842022e-19
2.2040079 1.0842022e-19 2.6109517
1.0842022e-19 3.1448646 -0
2.4003899 0 2.612649
0 3.1360891 -1.0842022e-19
2.2007878 3.6893488e+19 2.597038
-0 3.1439576 -0
2.3994703 0 2.588593
1.0842022e-19 3.1465008 -3.6893488e+19
2.2129443 0 2.5831831
3.6893488e+19 3.1457567 0
2.2120757 -1.0842022e-19 2.5710227
3.6893488e+19 3.1440258 -0
2.3995395 -0 2.565562
2 3.1515973 1.0842022e-19
2.218895 2 2.5640905
0 3.1462672 -1.0842022e-19
2.4018121 1.0842022e-19 2.5557942
-2 3.1604652 -1.0842022e-19
2.229249 -2 2.5591285
-3.6893488e+19 3.1344988 -3.6893488e+19
2.3898792 3.6893488e+19 2.5355256
-1.0842022e-19 3.1466691 -2
2.213141 1.0842022e-19 2.5372732
-3.6893488e+19 3.1310146 3.6893488e+19
2.3863463 -1.0842022e-19 2.5218785
-1.0842022e-19 3.1362848 3.6893488e+19
2.4879966 2 2.5212207
1.0842022e-19 3.0899704 3.6893488e+19
2.2821958 3.6893488e+19 2.4642818
-1.0842022e-19 3.0909166 3.6893488e+19
2.2829814 -2 2.4459295
-0 3.0910184 -1.0842022e-19
2.2830658 -2 2.4264605
2 3.1297886 -1.0842022e-19
2.4797897 3.6893488e+19 2.4672844
1.0842022e-19 3.0945776 3.6893488e+19
2.28602 -1.0842022e-19 2.4111435
2 3.1308537 -3.6893488e+19
2.4811351 -0 2.4466207
3.6893488e+19 3.0954487 -1.0842022e-19
2.2867432 2 2.3924065
-1.0842022e-19 3.1231253 1.0842022e-19
2.4713721 0 2.416069
1.0842022e-19 3.0919912 -3.6893488e+19
2.2838731 -2 2.3689423
2 3.0919018 -2
2.2837989 0 2.3493474
0 3.0896039 3.6893488e+19
2.2818916 -3.6893488e+19 2.3276696
-1.0842022e-19 3.0685267 -0
2.1219039 -0 2.2974761
-0 3.1199214 -3.6893488e+19
2.3750978 1.0842022e-19 2.3367774
1.0842022e-19 3.0702958 3.6893488e+19
2.1239693 -0 2.280988
-0 3.0816047 0
2.3362451 1.0842022e-19 2.2830315
2 3.0681448 -1.0842022e-19
2.1214578 -3.6893488e+19 2.2611101
1.0842022e-19 3.0810084 -1.0842022e-19
2.3356402 0 2.2637181
-1.0842022e-19 3.0688603 0
2.1222935 1.0842022e-19 2.237391
2 3.0884833 -0
2.3432198 1.0842022e-19 2.2504747
3.6893488e+19 3.0693128 -2
2.1228216 3.6893488e+19 2.2020681
2 3.0895257 -1.0842022e-19
2.3442767 -3.6893488e+19 2.2140179
-3.6893488e+19 3.070775 0
2.1245291 -1.0842022e-19 2.1680105
3.6893488e+19 3.1313829 -0
2.3867197 2 2.2280653
1.0842022e-19 3.0718193 2
2.1257482 -3.6893488e+19 2.1331596
-1.0842022e-19 3.1293228 -3.6893488e+19
2.3846307 -3.6893488e+19 2.1825962
0 3.0829864 -3.6893488e+19
2.1387863 3.6893488e+19 2.1090333
-2 3.1017771 -0
2.4444027 -1.0842022e-19 2.0930879
0 3.2377188 2
2.4048359 -0 2.1949356
-3.6893488e+19 3.1003749 1.0842022e-19
2.4426315 -1.0842022e-19 2.0520327
2 3.0843523 -3.6893488e+19
2.2775323 1.0842022e-19 2.0174196
-0 3.0891492 -3.6893488e+19
2.2815142 -1.0842022e-19 1.9831476
-3.6893488e+19 3.2422347 3.6893488e+19
2.5609219 -3.6893488e+19 2.0072546
2 3.0966821 -0
2.2877669 0 1.9104742
3.6893488e+19 3.099185 3.6893488e+19
2.441128 3.6893488e+19 1.8930267
1.0842022e-19 3.0961528 -1.0842022e-19
2.2873275 -1.0842022e-19 1.8677682
-3.6893488e+19 3.0986207 -3.6893488e+19
2.4404151 -1.0842022e-19 1.831829
2 3.0953267 -1.0842022e-19
2.2866418 0 1.7897229
-0 3.0968666 1.0842022e-19
2.4381993 -0 1.752427
-1.0842022e-19 3.0916862 -1.0842022e-19
2.2836201 2 1.6726758
-3.6893488e+19 3.0746958 -2
2.1291068 0 1.5570551
-0 3.0919204 -0
2.346705 2 1.2806782
0 3.0776589 -0
2.1325662 3.6893488e+19 -1.468922
1.0842022e-19 3.0946114 0
2.3494337 0 -1.635352
-0 3.0839715 -3.6893488e+19
2.1399367 -2 -1.705174
2 3.0938754 -3.6893488e+19
2.3486872 -3.6893488e+19 -1.76987
2 3.076057 -2
2.1306958 -3.6893488e+19 -1.7981042
0 3.0885975 -3.6893488e+19
2.3433354 3.6893488e+19 -1.8437972
-2 3.0777562 -1.0842022e-19
2.1326799 -0 -1.8723376
-2 3.091238 -1.0842022e-19
2.3460131 0 -1.8986423
-1.0842022e-19 3.0330839 2
2.0805218 2 -1.8884978
-1.0842022e-19 3.0452471 2
2.2993786 0 -1.9118311
2 3.029809 -3.6893488e+19
2.0766978 -3.6893488e+19 -1.918227
-2 2.8448415 1.0842022e-19
2.0996671 3.6893488e+19 -1.8833436
-2 2.815604 1.0842022e-19
2.148705 3.6893488e+19 -1.8815037
-3.6893488e+19 2.7787681 -0
1.9813944 -2 -1.8713715
-0 2.753237 3.6893488e+19
2.0699162 2 -1.8647132
-1.0842022e-19 2.7143624 -2
1.9427243 2 -1.8563261
-0 2.6707501 -2
2.0157683 -0 -1.8479892
-0 2.650147 0
1.9160731 -2 -1.846866
-2 2.6067576 0
1.9753474 -0 -1.8343108
-0 2.5884531 1.0842022e-19
1.8904682 1.0842022e-19 -1.8317372
0 2.5684135 1.0842022e-19
1.9511271 3.6893488e+19 -1.8298972
-1.0842022e-19 2.5514653 3.6893488e+19
1.8751172 -1.0842022e-19 -1.8261516
-1.0842022e-19 2.5330482 -2
1.9287884 3.6893488e+19 -1.8232292
1.0842022e-19 2.5187159 1.0842022e-19
1.8480504 -1.0842022e-19 -1.8194802
-2 2.5007849 -0
1.9084092 1.0842022e-19 -1.8149095
3.6893488e+19 2.4789183 3.6893488e+19
1.8237655 1.0842022e-19 -1.8118482
-3.6893488e+19 2.4481592 1.0842022e-19
1.8915408 3.6893488e+19 -1.8074584
-2 2.3854437 -3.6893488e+19
1.7250172 -3.6893488e+19 -1.8022192
-1.0842022e-19 2.339288 -2
1.6980721 2 -1.8002511
1.0842022e-19 2.2912552 -3.6893488e+19
1.6700311 -1.0842022e-19 -1.792028
1.0842022e-19 2.2615817 -0
1.6527081 0 -1.7899677
3.6893488e+19 2.2231386 -3.6893488e+19
1.7744298 -3.6893488e+19 -1.7893595
2 2.1772897 1.0842022e-19
1.7599496 1.0842022e-19 -1.7858804
3.6893488e+19 2.1485381 2
1.750869 -1.0842022e-19 -1.7867258
-3.6893488e+19 2.114069 -2
1.7299656 -2 -1.7834594
-0 3.2304859 1.0842022e-19
2.2703762 1.0842022e-19 2.6959329
-2 3.1467178 -3.6893488e+19
2.3938208 1.0842022e-19 2.6142313
0 3.1364658 3.6893488e+19
2.1849394 0 2.5973115
-0 3.1477923 -2
2.3948874 -3.6893488e+19 2.6034801
-2 3.1380959 -2
2.186774 -0 2.5873995
2 3.1450274 1.0842022e-19
2.3921428 2 2.5894008
0 3.1435394 -0
2.3906655 2 2.5765779
1.0842022e-19 3.1470227 2
2.1968205 0 2.5719893
3.6893488e+19 3.1438208 2
2.390945 0 2.5652943
2 3.1525295 3.6893488e+19
2.203018 1.0842022e-19 2.5647604
2 3.1455445 2
2.3926561 -1.0842022e-19 2.5551362
1.0842022e-19 3.1614616 3.6893488e+19
2.2130704 -0 2.5598207
2 3.1317279 -0
2.3789403 -3.6893488e+19 2.5333745
-0 3.1477253 3.6893488e+19
2.1976113 -0 2.5379839
-0 3.1312315 0
2.3784478 -1.0842022e-19 2.5219438
2 3.1394861 -2
2.4836745 -3.6893488e+19 2.523356
-1.0842022e-19 3.1433053 -3.6893488e+19
2.3181345 1.0842022e-19 2.5184875
0 3.1222489 -2
2.4622688 -0 2.5004501
-1.0842022e-19 3.1525996 2
2.3256526 -3.6893488e+19 2.5132356
-2 3.1241653 -1.0842022e-19
2.464649 2 2.4818063
-0 3.150527 -0
2.323976 -1.0842022e-19 2.5003722
1.0842022e-19 3.177907 0
2.5156934 2 2.5131361
2 3.146615 3.6893488e+19
2.3208117 2 2.4731069
3.6893488e+19 3.1325991 -0
2.4751222 -3.6893488e+19 2.4484835
-1.0842022e-19 3.1282053 -0
2.3059206 -3.6893488e+19 2.4295003
2 3.1233091 3.6893488e+19
2.4635856 1.0842022e-19 2.4161031
-3.6893488e+19 3.128969 -1.0842022e-19
2.3065383 1.0842022e-19 2.4087248
-1.0842022e-19 3.1288824 -2
2.3064682 3.6893488e+19 2.3870294
-0 3.1330366 -0
2.3098285 -2 2.369477
-3.6893488e+19 3.0678124 -3.6893488e+19
2.1076751 -3.6893488e+19 2.2967532
1.0842022e-19 3.1179168 -0
2.3652301 3.6893488e+19 2.3348422
1.0842022e-19 3.1539931 3.6893488e+19
2.2046652 1.0842022e-19 2.3543472
-3.6893488e+19 3.1216822 -3.6893488e+19
2.368968 3.6893488e+19 2.3171341
-2 3.1497946 2
2.1999402 -0 2.3280609
1.0842022e-19 3.0819197 0
2.3294959 -0 2.2643571
-3.6893488e+19 3.1465323 1.0842022e-19
2.1962688 2 2.3030009
-0 3.084024 -3.6893488e+19
2.3315847 -1.0842022e-19 2.2441871
-3.6893488e+19 3.1435566 -2
2.1929197 1.0842022e-19 2.2785373
1.0842022e-19 3.1314778 1.0842022e-19
2.3786922 3.6893488e+19 2.2605906
-0 3.1408997 3.6893488e+19
2.1899295 3.6893488e+19 2.254648
3.6893488e+19 3.0913756 -1.0842022e-19
2.3388827 -0 2.1777751
1.0842022e-19 3.0719109 2
2.1122875 1.0842022e-19 2.1331968
-2 3.1309323 3.6893488e+19
2.3781507 1.0842022e-19 2.1842892
2 3.1630764 0
2.2148879 -0 2.1953046
-1.0842022e-19 3.1635702 -3.6893488e+19
2.5067914 -1.0842022e-19 2.1531892
-3.6893488e+19 3.1683164 2
2.3383656 -3.6893488e+19 2.1315188
-1.0842022e-19 3.1025848 2
2.4378498 -1.0842022e-19 2.053813
-2 3.1683164 1.0842022e-19
2.3383656 1.0842022e-19 2.0844855
1.0842022e-19 3.1023679 -1.0842022e-19
2.4375801 -3.6893488e+19 2.0137506
-3.6893488e+19 3.0860717 -1.0842022e-19
2.2718399 0 1.9809701
3.6893488e+19 3.0996032 -1.0842022e-19
2.4341469 -1.0842022e-19 1.9721444
3.6893488e+19 3.0906382 -1.0842022e-19
2.2755334 2 1.945858
1.0842022e-19 3.0967441 -2
2.2804723 3.6893488e+19 1.9104598
-3.6893488e+19 3.2476561 3.6893488e+19
2.4025414 0 1.9244645
1.0842022e-19 3.0970349 3.6893488e+19
2.4309576 3.6893488e+19 1.8308036
1.0842022e-19 3.2411292 0
2.3972619 -3.6893488e+19 1.8592086
-1.0842022e-19 3.0971324 -3.6893488e+19
2.4310787 0 1.7524724
0 3.2357583 3.6893488e+19
2.3929174 3.6893488e+19 1.7454187
3.6893488e+19 3.0752869 -0
2.116087 0 1.5573522
-3.6893488e+19 3.0956922 -3.6893488e+19
2.3431678 3.6893488e+19 1.2823437
-3.6893488e+19 3.1352654 -2
2.1835885 -3.6893488e+19 -1.5036814
3.6893488e+19 3.0943215 3.6893488e+19
2.3418071 2 -1.6351937
-0 3.0770206 -2
2.1180382 -3.6893488e+19 -1.700866
1.0842022e-19 3.0962832 0
2.3437545 -2 -1.7708365
0 3.089453 1.0842022e-19
2.3369741 -2 -1.8442779
3.6893488e+19 3.0769141 -1.0842022e-19
2.1179183 -0 -1.8716557
3.6893488e+19 3.0915983 -2
2.3391037 -3.6893488e+19 -1.8987502
2 3.0817444 -1.0842022e-19
2.1233544 -1.0842022e-19 -1.9122742
-2 3.0965776 -1.0842022e-19
2.3440468 -2 -1.939904
2 3.0300796 -1.0842022e-19
2.0652094 3.6893488e+19 -1.9183581
2 2.8445213 1.0842022e-19
2.0920055 1.0842022e-19 -1.883176
3.6893488e+19 2.8148084 3.6893488e+19
2.1409378 -2 -1.8811183
2 2.7800848 -3.6893488e+19
1.9765534 -1.0842022e-19 -1.8724687
-2 2.7557454 3.6893488e+19
2.0675919 0 -1.8669884
1.0842022e-19 2.7146113 -3.6893488e+19
1.937906 -3.6893488e+19 -1.8563879
1.0842022e-19 2.6683345 2
2.0097497 -2 -1.8466179
1.0842022e-19 2.6449194 -0
1.9097201 2 -1.8439088
-0 2.6061649 -0
1.9711478 0 -1.8338773
1.0842022e-19 2.5909002 3.6893488e+19
1.8878727 -3.6893488e+19 -1.8331759
-3.6893488e+19 2.5692828 3.6893488e+19
1.9482472 -3.6893488e+19 -1.8303723
0 2.5524139 -2
1.8696148 3.6893488e+19 -1.8267304
-3.6893488e+19 2.5332873 2
1.9258971 0 -1.8233154
3.6893488e+19 2.519655 1.0842022e-19
1.8431171 2 -1.8201076
0 2.500396 -0
1.9054743 2 -1.814537
3.6893488e+19 2.4807799 -1.0842022e-19
1.8194453 3.6893488e+19 -1.8125241
1.0842022e-19 2.4500639 3.6893488e+19
1.8897254 2 -1.8081586
-1.0842022e-19 3.1375532 1.0842022e-19
2.1861634 1.0842022e-19 2.6096833
-2 3.1467178 -3.6893488e+19
2.3938208 1.0842022e-19 2.6142313
0 3.1364658 3.6893488e+19
2.1849394 0 2.5973115
-0 3.1477923 -2
2.3948874 -3.6893488e+19 2.6034801
-2 3.1380959 -2
2.186774 -0 2.5873995
2 3.1450274 1.0842022e-19
2.3921428 2 2.5894008
0 3.1435394 -0
2.3906655 2 2.5765779
1.0842022e-19 3.1470227 2
2.1968205 0 2.5719893
3.6893488e+19 3.1438208 2
2.390945 0 2.5652943
2 3.1525295 3.6893488e+19
2.203018 1.0842022e-19 2.5647604
2 3.1455445 2
2.3926561 -1.0842022e-19 2.5551362
1.0842022e-19 3.1614616 3.6893488e+19
2.2130704 -0 2.5598207
2 3.1317279 -0
2.3789403 -3.6893488e+19 2.5333745
-0 3.1477253 3.6893488e+19
2.1976113 -0 2.5379839
-0 3.1312315 0
2.3784478 -1.0842022e-19 2.5219438
2 3.1394861 -2
2.4836745 -3.6893488e+19 2.523356
0 3.0905521 3.6893488e+19
2.2754638 -2 2.4649513
0 3.1222489 -2
2.4622688 -0 2.5004501
3.6893488e+19 3.0900569 -1.0842022e-19
2.2750633 -3.6893488e+19 2.4446855
-2 3.1241653 -1.0842022e-19
2.464649 2 2.4818063
2 3.0916016 2
2.2763128 2 2.4270751
-2 3.1286926 -1.0842022e-19
2.4702711 3.6893488e+19 2.465745
3.6893488e+19 3.092025 -3.6893488e+19
2.2766552 -0 2.4079885
3.6893488e+19 3.1325991 -0
2.4751222 -3.6893488e+19 2.4484835
-1.0842022e-19 3.0953875 -1.0842022e-19
2.2793751 0 2.3922317
2 3.1233091 3.6893488e+19
2.4635856 1.0842022e-19 2.4161031
-3.6893488e+19 3.0922985 0
2.2768767 -1.0842022e-19 2.369175
-2 3.0921168 -0
2.2767296 -2 2.3494732
2 3.0897567 1.0842022e-19
2.2748206 -1.0842022e-19 2.3277292
-3.6893488e+19 3.0678124 -3.6893488e+19
2.1076751 -3.6893488e+19 2.2967532
0 3.0846968 -3.6893488e+19
2.3322525 1.0842022e-19 2.3046086
-3.6893488e+19 3.069798 -0
2.1099098 -1.0842022e-19 2.2804987
2 3.0812204 -0
2.3288016 2 2.2826104
-0 3.0684836 -1.0842022e-19
2.1084304 -0 2.2613392
1.0842022e-19 3.0819197 0
2.3294959 -0 2.2643571
2 3.0683928 -0
2.1083281 -0 2.2365847
-0 3.084024 -3.6893488e+19
2.3315847 -1.0842022e-19 2.2441871
0 3.068876 3.6893488e+19
2.1088719 -0 2.2013648
1.0842022e-19 3.0905335 1.0842022e-19
2.3380468 1.0842022e-19 2.2152424
-3.6893488e+19 3.070276 -3.6893488e+19
2.1104476 -0 2.1672819
3.6893488e+19 3.0913756 -1.0842022e-19
2.3388827 -0 2.1777751
1.0842022e-19 3.0719109 2
2.1122875 1.0842022e-19 2.1331968
-2 3.1309323 3.6893488e+19
2.3781507 1.0842022e-19 2.1842892
0 3.0815871 -0
2.1231773 -1.0842022e-19 2.1074574
-2 3.1020756 0
2.4372175 -3.6893488e+19 2.0932381
-3.6893488e+19 3.1683164 2
2.3383656 -3.6893488e+19 2.1315188
-1.0842022e-19 3.1025848 2
2.4378498 -1.0842022e-19 2.053813
-0 3.0909631 2
2.2757964 -0 2.0226338
1.0842022e-19 3.1023679 -1.0842022e-19
2.4375801 -3.6893488e+19 2.0137506
-3.6893488e+19 3.0860717 -1.0842022e-19
2.2718399 0 1.9809701
3.6893488e+19 3.0996032 -1.0842022e-19
2.4341469 -1.0842022e-19 1.9721444
3.6893488e+19 3.0906382 -1.0842022e-19
2.2755334 2 1.945858
1.0842022e-19 3.0967441 -2
2.2804723 3.6893488e+19 1.9104598
-1.0842022e-19 3.0970538 -3.6893488e+19
2.2807229 1.0842022e-19 1.8683349
1.0842022e-19 3.0970349 3.6893488e+19
2.4309576 3.6893488e+19 1.8308036
0 3.0969117 2
2.2806079 -0 1.7904345
-1.0842022e-19 3.0971324 -3.6893488e+19
2.4310787 0 1.7524724
-2 3.0932081 -2
2.2776122 -0 1.6733984
3.6893488e+19 3.0752869 -0
2.116087 0 1.5573522
-3.6893488e+19 3.0956922 -3.6893488e+19
2.3431678 3.6893488e+19 1.2823437
-1.0842022e-19 3.07532 1.0842022e-19
2.1161244 -2 -1.4673185
3.6893488e+19 3.0943215 3.6893488e+19
2.3418071 2 -1.6351937
-0 3.0770206 -2
2.1180382 -3.6893488e+19 -1.700866
1.0842022e-19 3.0962832 0
2.3437545 -2 -1.7708365
0 3.089453 1.0842022e-19
2.3369741 -2 -1.8442779
3.6893488e+19 3.0769141 -1.0842022e-19
2.1179183 -0 -1.8716557
3.6893488e+19 3.0915983 -2
2.3391037 -3.6893488e+19 -1.8987502
0 3.0335112 -0
2.0690713 3.6893488e+19 -1.8886807
-3.6893488e+19 3.0436394 1.0842022e-19
2.2914953 -0 -1.910897
2 3.0300796 -1.0842022e-19
2.0652094 3.6893488e+19 -1.9183581
2 2.8445213 1.0842022e-19
2.0920055 1.0842022e-19 -1.883176
3.6893488e+19 2.8148084 3.6893488e+19
2.1409378 -2 -1.8811183
2 2.7800848 -3.6893488e+19
1.9765534 -1.0842022e-19 -1.8724687
-2 2.7557454 3.6893488e+19
2.0675919 0 -1.8669884
1.0842022e-19 2.7146113 -3.6893488e+19
1.937906 -3.6893488e+19 -1.8563879
1.0842022e-19 2.6683345 2
2.0097497 -2 -1.8466179
1.0842022e-19 2.6449194 -0
1.9097201 2 -1.8439088
-0 2.6061649 -0
1.9711478 0 -1.8338773
1.0842022e-19 2.5909002 3.6893488e+19
1.8878727 -3.6893488e+19 -1.8331759
-3.6893488e+19 2.5692828 3.6893488e+19
1.9482472 -3.6893488e+19 -1.8303723
0 2.5524139 -2
1.8696148 3.6893488e+19 -1.8267304
-3.6893488e+19 2.5332873 2
1.9258971 0 -1.8233154
3.6893488e+19 2.519655 1.0842022e-19
1.8431171 2 -1.8201076
0 2.500396 -0
1.9054743 2 -1.814537
3.6893488e+19 2.4807799 -1.0842022e-19
1.8194453 3.6893488e+19 -1.8125241
1.0842022e-19 2.4500639 3.6893488e+19
1.8897254 2 -1.8081586
0 3.1371982 2
2.1694505 0 2.6092887
-2 3.1471479 -0
2.3857958 -0 2.6145089
-1.0842022e-19 3.1349535 -2
2.1670189 -2 2.5958898
-3.6893488e+19 3.1477082 3.6893488e+19
2.3863401 -2 2.6032917
-2 3.1383793 -2
2.1707301 1.0842022e-19 2.587585
-0 3.1468232 1.0842022e-19
2.3854804 -3.6893488e+19 2.5908339
-1.0842022e-19 3.1436355 3.6893488e+19
2.3823838 -1.0842022e-19 2.5765526
-2 3.1481946 0
2.1813631 -1.0842022e-19 2.5728812
-2 3.1440387 2
2.3827755 -0 2.5653672
2 3.1536121 1.0842022e-19
2.1872318 -1.0842022e-19 2.5655499
3.6893488e+19 3.1557751 0
2.189575 -2 2.5554836
1.0842022e-19 3.1320949 -1.0842022e-19
2.3711729 -0 2.5335557
2 3.1532588 -2
2.1868489 0 2.5419378
1.0842022e-19 3.1330955 -1.0842022e-19
2.3721449 -0 2.5231855
2 3.1210148 -1.0842022e-19
2.4527736 2 2.5102873
-3.6893488e+19 3.1466582 0
2.3124478 2 2.5207055
-0 3.1231608 -0
2.4553926 -1.0842022e-19 2.5009625
-0 3.1539021 -0
2.3181536 1.0842022e-19 2.5140183
-3.6893488e+19 3.1250789 -3.6893488e+19
2.4577334 0 2.4827881
-3.6893488e+19 3.1497712 0
2.3148999 -0 2.4996691
0 3.1727347 -0
2.5079453 0 2.5098507
-1.0842022e-19 3.1490874 -1.0842022e-19
2.3143611 3.6893488e+19 2.4759316
2 3.1333344 3.6893488e+19
2.467808 -3.6893488e+19 2.4491642
-1.0842022e-19 3.1343091 1.0842022e-19
2.3027203 2 2.4363179
-2 3.1259997 -1.0842022e-19
2.4588571 -1.0842022e-19 2.4189332
-2 3.1287599 -0
2.2983491 1.0842022e-19 2.4083924
-3.6893488e+19 3.1197348 2
2.4512117 -3.6893488e+19 2.3907213
2 3.1319742 -3.6893488e+19
2.3008809 -2 2.3900855
0 3.1202159 -3.6893488e+19
2.4517984 3.6893488e+19 2.3700051
1.0842022e-19 3.1317782 2
2.3007267 3.6893488e+19 2.3681669
-2 3.1485763 2
2.1817765 0 2.3720982
-3.6893488e+19 3.1514626 -3.6893488e+19
2.1849031 1.0842022e-19 2.3520641
2 3.1221104 -2
2.3614738 -3.6893488e+19 2.3173971
0 3.1504874 2
2.1838467 1.0842022e-19 2.3285699
2 3.1243517 0
2.3636513 -2 2.2980561
-1.0842022e-19 3.1477835 1.0842022e-19
2.1809177 -2 2.3039019
-2 3.1230557 -3.6893488e+19
2.3623922 -1.0842022e-19 2.2758784
-0 3.1381617 -0
2.1704943 -1.0842022e-19 2.2746692
1.0842022e-19 3.1323116 -1.0842022e-19
2.3713834 -2 2.261076
2 3.1385465 -1.0842022e-19
2.1709111 -0 2.2530692
-0 3.1354353 -0
2.374418 3.6893488e+19 2.2328308
-0 3.0717514 -0
2.0985522 -1.0842022e-19 2.1329377
2 3.1311479 2
2.3702531 0 2.1843951
-3.6893488e+19 3.0739319 -2
2.1009145 -1.0842022e-19 2.0991421
3.6893488e+19 3.0917604 -1.0842022e-19
2.3319914 -0 2.1009285
3.6893488e+19 3.1627195 -2
2.5018342 2 2.1521976
-0 3.1027579 -1.0842022e-19
2.4304936 0 2.0538397
-1.0842022e-19 3.1683016 3.6893488e+19
2.3294961 -0 2.0843861
1.0842022e-19 3.1026335 0
2.4303417 2 2.0138431
1.0842022e-19 3.0895777 -2
2.2674851 3.6893488e+19 1.9833184
-3.6893488e+19 3.0957003 -2
2.4218807 -0 1.9695759
1.0842022e-19 3.2563457 -0
2.403847 1.0842022e-19 2.0447071
-0 3.089148 2
2.4138846 1.0842022e-19 1.9271035
2 3.0931976 -1.0842022e-19
2.2703366 -3.6893488e+19 1.908777
2 3.0977089 -1.0842022e-19
2.4243319 -3.6893488e+19 1.8923062
-0 3.2487502 -2
2.3928654 -3.6893488e+19 1.9248022
-0 3.0954452 -0
2.4215693 0 1.8297783
2 3.2454245 -3.6893488e+19
2.3902457 -1.0842022e-19 1.8611952
0 3.0972726 -3.6893488e+19
2.4237993 0 1.7524724
2 3.2393994 -3.6893488e+19
2.3854997 0 1.7471937
-3.6893488e+19 3.0752521 0
2.1023448 2 1.5572997
0 3.0927634 0
2.3329659 -0 1.2809604
2 3.1361458 -3.6893488e+19
2.1683104 -2 -1.5039521
3.6893488e+19 3.092602 -1.0842022e-19
2.332809 -2 -1.6344752
0 3.0826294 -0
2.1103363 0 -1.7042742
0 3.0959604 -1.0842022e-19
2.3360713 1.0842022e-19 -1.7706537
3.6893488e+19 3.0830667 -2
2.11081 3.6893488e+19 -1.8017606
0 3.095021 2
2.3351588 -0 -1.847803
0 3.0747602 2
2.1018116 1.0842022e-19 -1.8699863
-2 3.0945301 -2
2.334682 -3.6893488e+19 -1.8999786
-2 3.0752287 -2
2.1023192 -1.0842022e-19 -1.9090583
0 3.0985496 2
2.3385866 -1.0842022e-19 -1.940923
2 3.0297875 3.6893488e+19
2.053093 -1.0842022e-19 -1.9181521
-1.0842022e-19 2.8479786 2
2.088032 2 -1.8844692
-2 2.8125288 -3.6893488e+19
2.1313994 3.6893488e+19 -1.8801165
-2 2.7817106 2
1.9719036 3.6893488e+19 -1.8738402
1.0842022e-19 2.7544918 -1.0842022e-19
2.0605729 -2 -1.8657049
0 2.7124979 2
1.9321548 -0 -1.8552752
-0 2.6681333 2
2.0051377 -1.0842022e-19 -1.8464221
-0 2.645519 0
1.9057752 -3.6893488e+19 -1.8441838
1.0842022e-19 2.6084039 -0
1.9686918 -0 -1.8351055
1.0842022e-19 2.5914855 0
1.8844941 -3.6893488e+19 -1.8334788
1.0842022e-19 2.5664554 2
1.9430956 1.0842022e-19 -1.8284715
-2 2.5523689 -3.6893488e+19
1.863176 -3.6893488e+19 -1.8266476
2 2.5334017 -1.0842022e-19
1.9229268 0 -1.8233154
-1.0842022e-19 2.520345 0
1.8379508 3.6893488e+19 -1.8205557
2 2.4975491 3.6893488e+19
1.9017979 3.6893488e+19 -1.8132337
-3.6893488e+19 2.4809055 -3.6893488e+19
1.8144046 3.6893488e+19 -1.8125241
-1.0842022e-19 2.4502454 -1.0842022e-19
1.8873659 2 -1.8081586
-0 2.3880639 3.6893488e+19
1.7101942 0 -1.8033582
-3.6893488e+19 2.3371866 -1.0842022e-19
1.6826366 -0 -1.7991015
2 2.2943256 -0
1.659421 3.6893488e+19 -1.7937266
3.6893488e+19 2.2666061 1.0842022e-19
1.6444068 1.0842022e-19 -1.7930744
1.0842022e-19 2.2181649 -1.0842022e-19
1.767833 -1.0842022e-19 -1.7874994
1.0842022e-19 2.1781235 0
1.7556168 -2 -1.7860632
-3.6893488e+19 2.1493471 3.6893488e+19
1.7436748 1.0842022e-19 -1.7869223
3.6893488e+19 2.1129158 0
1.721445 0 -1.782829
0 3.1371982 2
2.1694505 0 2.6092887
-2 3.1471479 -0
2.3857958 -0 2.6145089
-1.0842022e-19 3.1349535 -2
2.1670189 -2 2.5958898
-3.6893488e+19 3.1477082 3.6893488e+19
2.3863401 -2 2.6032917
-2 3.1383793 -2
2.1707301 1.0842022e-19 2.587585
-0 3.1468232 1.0842022e-19
2.3854804 -3.6893488e+19 2.5908339
-1.0842022e-19 3.1436355 3.6893488e+19
2.3823838 -1.0842022e-19 2.5765526
-2 3.1481946 0
2.1813631 -1.0842022e-19 2.5728812
-2 3.1440387 2
2.3827755 -0 2.5653672
2 3.1536121 1.0842022e-19
2.1872318 -1.0842022e-19 2.5655499
3.6893488e+19 3.1557751 0
2.189575 -2 2.5554836
1.0842022e-19 3.1320949 -1.0842022e-19
2.3711729 -0 2.5335557
2 3.1532588 -2
2.1868489 0 2.5419378
1.0842022e-19 3.1330955 -1.0842022e-19
2.3721449 -0 2.5231855
2 3.1210148 -1.0842022e-19
2.4527736 2 2.5102873
-3.6893488e+19 3.0883107 -1.0842022e-19
2.2664874 3.6893488e+19 2.4617708
-0 3.1231608 -0
2.4553926 -1.0842022e-19 2.5009625
2 3.0887032 -1.0842022e-19
2.2667964 -3.6893488e+19 2.4427993
-3.6893488e+19 3.1250789 -3.6893488e+19
2.4577334 0 2.4827881
-3.6893488e+19 3.0908918 1.0842022e-19
2.2685206 -1.0842022e-19 2.4260764
3.6893488e+19 3.1287844 1.0842022e-19
2.4622555 3.6893488e+19 2.4656699
-2 3.0921452 0
2.2695079 3.6893488e+19 2.4080253
2 3.1333344 3.6893488e+19
2.467808 -3.6893488e+19 2.4491642
-3.6893488e+19 3.0939996 -3.6893488e+19
2.2709684 3.6893488e+19 2.3905535
-2 3.1259997 -1.0842022e-19
2.4588571 -1.0842022e-19 2.4189332
-1.0842022e-19 3.0939293 2
2.2709131 -0 2.3708367
-3.6893488e+19 3.1197348 2
2.4512117 -3.6893488e+19 2.3907213
-0 3.0928543 -0
2.2700663 -3.6893488e+19 2.3501348
0 3.1202159 -3.6893488e+19
2.4517984 3.6893488e+19 2.3700051
-2 3.0895367 -3.6893488e+19
2.267453 -2 2.3274314
-2 3.1485763 2
2.1817765 0 2.3720982
-1.0842022e-19 3.069484 -0
2.096096 -0 2.2801726
2 3.1221104 -2
2.3614738 -3.6893488e+19 2.3173971
3.6893488e+19 3.0676417 -1.0842022e-19
2.0941002 2 2.2606013
2 3.0829217 1.0842022e-19
2.3234055 2 2.26507
3.6893488e+19 3.0671778 -0
2.0935977 0 2.2346404
-1.0842022e-19 3.0847492 3.6893488e+19
2.3251808 3.6893488e+19 2.245101
0 3.068002 0
2.0944905 -3.6893488e+19 2.2000461
-3.6893488e+19 3.0881391 1.0842022e-19
2.3284738 0 2.2118227
1.0842022e-19 3.0707381 2
2.0974545 -2 2.1678081
-3.6893488e+19 3.0900626 -0
2.3303423 3.6893488e+19 2.175993
-0 3.0717514 -0
2.0985522 -1.0842022e-19 2.1329377
3.6893488e+19 3.0919716 2
2.3321967 -2 2.1397457
-3.6893488e+19 3.0739319 -2
2.1009145 -1.0842022e-19 2.0991421
3.6893488e+19 3.0917604 -1.0842022e-19
2.3319914 -0 2.1009285
-1.0842022e-19 3.0867684 -3.6893488e+19
2.4109805 0 2.0781829
-0 3.1027579 -1.0842022e-19
2.4304936 0 2.0538397
3.6893488e+19 3.0901515 0
2.2679374 2 2.0219138
1.0842022e-19 3.1026335 0
2.4303417 2 2.0138431
1.0842022e-19 3.0895777 -2
2.2674851 3.6893488e+19 1.9833184
-3.6893488e+19 3.0957003 -2
2.4218807 -0 1.9695759
1.0842022e-19 3.0882099 -2
2.2664077 2 1.9444109
-0 3.089148 2
2.4138846 1.0842022e-19 1.9271035
2 3.0931976 -1.0842022e-19
2.2703366 -3.6893488e+19 1.908777
2 3.0977089 -1.0842022e-19
2.4243319 -3.6893488e+19 1.8923062
-3.6893488e+19 3.0931647 3.6893488e+19
2.2703109 -0 1.8655452
-0 3.0954452 -0
2.4215693 0 1.8297783
1.0842022e-19 3.0963182 -1.0842022e-19
2.2727947 3.6893488e+19 1.7901083
0 3.0972726 -3.6893488e+19
2.4237993 0 1.7524724
-1.0842022e-19 3.0953815 2
2.2720571 -3.6893488e+19 1.6744508
-3.6893488e+19 3.0752521 0
2.1023448 2 1.5572997
0 3.0927634 0
2.3329659 -0 1.2809604
3.6893488e+19 3.0775614 2
2.1048462 -0 -1.4687762
3.6893488e+19 3.092602 -1.0842022e-19
2.332809 -2 -1.6344752
0 3.0826294 -0
2.1103363 0 -1.7042742
0 3.0959604 -1.0842022e-19
2.3360713 1.0842022e-19 -1.7706537
3.6893488e+19 3.0830667 -2
2.11081 3.6893488e+19 -1.8017606
0 3.095021 2
2.3351588 -0 -1.847803
0 3.0747602 2
2.1018116 1.0842022e-19 -1.8699863
-2 3.0945301 -2
2.334682 -3.6893488e+19 -1.8999786
-2 3.0331571 1.0842022e-19
2.0567434 3.6893488e+19 -1.8884826
1.0842022e-19 3.042928 -3.6893488e+19
2.2845547 -0 -1.9104555
2 3.0297875 3.6893488e+19
2.053093 -1.0842022e-19 -1.9181521
-1.0842022e-19 2.8479786 2
2.088032 2 -1.8844692
-2 2.8125288 -3.6893488e+19
2.1313994 3.6893488e+19 -1.8801165
-2 2.7817106 2
1.9719036 3.6893488e+19 -1.8738402
1.0842022e-19 2.7544918 -1.0842022e-19
2.0605729 -2 -1.8657049
0 2.7124979 2
1.9321548 -0 -1.8552752
-0 2.6681333 2
2.0051377 -1.0842022e-19 -1.8464221
-0 2.645519 0
1.9057752 -3.6893488e+19 -1.8441838
1.0842022e-19 2.6084039 -0
1.9686918 -0 -1.8351055
1.0842022e-19 2.5914855 0
1.8844941 -3.6893488e+19 -1.8334788
1.0842022e-19 2.5664554 2
1.9430956 1.0842022e-19 -1.8284715
-2 2.5523689 -3.6893488e+19
1.863176 -3.6893488e+19 -1.8266476
2 2.5334017 -1.0842022e-19
1.9229268 0 -1.8233154
-1.0842022e-19 2.520345 0
1.8379508 3.6893488e+19 -1.8205557
2 2.4975491 3.6893488e+19
1.9017979 3.6893488e+19 -1.8132337
-3.6893488e+19 2.4809055 -3.6893488e+19
1.8144046 3.6893488e+19 -1.8125241
-1.0842022e-19 2.4502454 -1.0842022e-19
1.8873659 2 -1.8081586
-0 2.3880639 3.6893488e+19
1.7101942 0 -1.8033582
-3.6893488e+19 2.3371866 -1.0842022e-19
1.6826366 -0 -1.7991015
2 2.2943256 -0
1.659421 3.6893488e+19 -1.7937266
3.6893488e+19 2.2666061 1.0842022e-19
1.6444068 1.0842022e-19 -1.7930744
1.0842022e-19 2.2181649 -1.0842022e-19
1.767833 -1.0842022e-19 -1.7874994
1.0842022e-19 2.1781235 0
1.7556168 -2 -1.7860632
-3.6893488e+19 2.1493471 3.6893488e+19
1.7436748 1.0842022e-19 -1.7869223
3.6893488e+19 2.1129158 0
1.721445 0 -1.782829
0 3.1348047 -2
2.150651 1.0842022e-19 2.6070056
-1.0842022e-19 3.1454575 2
2.3757432 0 2.6128433
-0 3.1657236 -1.0842022e-19
2.1828432 -1.0842022e-19 2.6234725
-0 3.1473789 3.6893488e+19
2.3775687 -1.0842022e-19 2.6028881
-3.6893488e+19 3.1385078 1.0842022e-19
2.1545069 3.6893488e+19 2.5876379
-1.0842022e-19 3.1434882 -3.6893488e+19
2.3738718 -0 2.5878632
1.0842022e-19 3.1440027 0
2.3743608 3.6893488e+19 2.5767543
0 3.1548049 1.0842022e-19
2.1714749 -0 2.5781841
3.6893488e+19 3.1440411 1.0842022e-19
2.3743973 -3.6893488e+19 2.5652697
0 3.1531315 1.0842022e-19
2.1697326 2 2.5651193
-0 3.1300693 -2
2.3611219 2 2.5430117
0 3.155478 3.6893488e+19
2.1721756 -1.0842022e-19 2.5552068
-0 3.131269 -3.6893488e+19
2.3622618 -1.0842022e-19 2.5328538
-0 3.1562443 2
2.1729736 -2 2.5440478
-2 3.1331854 3.6893488e+19
2.3640828 1.0842022e-19 2.5231638
1.0842022e-19 3.1214664 -1.0842022e-19
2.4453585 0 2.5105009
-3.6893488e+19 3.1510835 -1.0842022e-19
2.307445 2 2.5236559
-3.6893488e+19 3.12465 -1.0842022e-19
2.4491756 -3.6893488e+19 2.5018642
-3.6893488e+19 3.1537285 -1.0842022e-19
2.3094726 -1.0842022e-19 2.5138376
3.6893488e+19 3.1251667 0
2.449795 -1.0842022e-19 2.4827094
2 3.1488588 -1.0842022e-19
2.3057396 1.0842022e-19 2.4984016
2 3.1289651 0
2.454349 0 2.4657075
3.6893488e+19 3.1499891 -3.6893488e+19
2.3066061 1.0842022e-19 2.4768856
3.6893488e+19 3.1354132 1.0842022e-19
2.4620798 0 2.4514213
2 3.1358855 2
2.2957952 0 2.4379961
-1.0842022e-19 3.1256895 -1.0842022e-19
2.4504218 3.6893488e+19 2.4184217
2 3.1288564 2
2.2904072 1.0842022e-19 2.4083924
-3.6893488e+19 3.120249 -1.0842022e-19
2.4438992 2 2.3911099
-3.6893488e+19 3.1314232 3.6893488e+19
2.2923748 -1.0842022e-19 2.3894238
-1.0842022e-19 3.1226015 2
2.4467196 -0 2.372242
1.0842022e-19 3.131999 -3.6893488e+19
2.2928159 0 2.3682861
0 3.1462297 0
2.1625466 2 2.369843
-1.0842022e-19 3.122283 -3.6893488e+19
2.3537238 3.6893488e+19 2.3386004
1.0842022e-19 3.1488976 0
2.1653244 -3.6893488e+19 2.3497536
3.6893488e+19 3.1228447 1.0842022e-19
2.3542576 3.6893488e+19 2.3179235
-3.6893488e+19 3.1517978 -2
2.168344 3.6893488e+19 2.3295877
3.6893488e+19 3.1238828 1.0842022e-19
2.3552439 -3.6893488e+19 2.2975891
-0 3.1456797 -0
2.161974 -1.0842022e-19 2.302242
0 3.1230497 -3.6893488e+19
2.3544521 3.6893488e+19 2.2757871
1.0842022e-19 3.1409318 0
2.1570306 2 2.2765813
-2 3.0917397 3.6893488e+19
2.3247032 -1.0842022e-19 2.2165933
-1.0842022e-19 3.0717573 -0
2.0850074 2 2.1690631
-0 3.1343501 -0
2.3651893 -1.0842022e-19 2.2313197
-1.0842022e-19 3.2422583 0
2.2562649 -1.0842022e-19 2.2928836
1.0842022e-19 3.1322584 -1.0842022e-19
2.3632019 -1.0842022e-19 2.1855235
-0 3.2407587 3.6893488e+19
2.2554841 1.0842022e-19 2.26443
3.6893488e+19 3.0910938 1.0842022e-19
2.3240895 1.0842022e-19 2.1001339
-1.0842022e-19 3.1622043 1.0842022e-19
2.4942002 2 2.1515365
-0 3.1645584 0
2.4970226 0 2.1069286
3.6893488e+19 3.0896168 -1.0842022e-19
2.2603285 3.6893488e+19 2.0214171
-2 3.1639612 0
2.4963067 3.6893488e+19 2.0596063
0 3.2681665 1.0842022e-19
2.4111187 -2 2.118412
-2 3.1654124 -3.6893488e+19
2.4980464 -0 2.0137498
1.0842022e-19 3.2568152 2
2.3937163 -0 2.0451715
2 3.0876763 -0
2.4048469 -2 1.926265
2 3.2504985 1.0842022e-19
2.3840325 -0 1.9817225
3.6893488e+19 3.0949426 1.0842022e-19
2.4135587 3.6893488e+19 1.8911182
3.6893488e+19 3.2479131 0
2.3816686 0 1.9244645
3.6893488e+19 3.0959837 -3.6893488e+19
2.4148068 -2 1.8300163
-1.0842022e-19 3.244493 2
2.3790469 2 1.8606912
-3.6893488e+19 3.0963902 -0
2.4152944 1.0842022e-19 1.7520982
-1.0842022e-19 3.2408926 -2
2.376287 -2 1.7478848
-2 3.0781152 -2
2.0916271 -0 1.5588725
-2 3.0931194 0
2.3260143 -1.0842022e-19 1.2810733
-0 3.1390507 -1.0842022e-19
2.155072 -3.6893488e+19 -1.5048996
2 3.0933926 3.6893488e+19
2.3262737 0 -1.6347432
-2 3.0824065 1.0842022e-19
2.0960953 -0 -1.7041018
-1.0842022e-19 3.0960381 -0
2.3287873 -0 -1.7706406
-0 3.0808797 0
2.0945055 -3.6893488e+19 -1.8005693
1.0842022e-19 3.0905378 1.0842022e-19
2.3235612 1.0842022e-19 -1.8448387
-0 3.0743802 3.6893488e+19
2.0877383 -2 -1.869657
0 3.093646 1.0842022e-19
2.3265145 1.0842022e-19 -1.8995467
2 3.0742257 -0
2.0875773 -0 -1.9085401
2 3.0427721 -3.6893488e+19
2.2781765 -2 -1.9103196
1.0842022e-19 3.0293376 2
2.0408409 3.6893488e+19 -1.9178525
-3.6893488e+19 2.8471582 -0
2.0798516 -3.6893488e+19 -1.8841099
3.6893488e+19 2.8138256 2
2.1262519 -3.6893488e+19 -1.8806045
-1.0842022e-19 2.7812233 3.6893488e+19
1.9655679 -2 -1.8733464
-0 2.7525563 -0
2.0527949 2 -1.8637798
0 2.7160931 -0
1.9286386 -1.0842022e-19 -1.8570061
3.6893488e+19 2.6673121 -2
2.0001619 -0 -1.8458997
1.0842022e-19 2.6462405 -0
1.9018663 -0 -1.8445277
-1.0842022e-19 2.6100254 -0
1.9658209 3.6893488e+19 -1.8359725
2 2.5929372 0
1.8814369 -2 -1.8343118
1.0842022e-19 2.566704 -0
1.9398514 -1.0842022e-19 -1.8285507
-2 2.5524459 3.6893488e+19
