# .PCD v0.7 - Point Cloud Data file format
VERSION 0.7
FIELDS x y z
SIZE 4 4 4
TYPE F F F
COUNT 1 1 1
WIDTH 1708
HEIGHT 1
VIEWPOINT 0 0 0 1 0 0 0
POINTS 1708
DATA ascii
-1.0842022e-19 3.1688848 2
3.1009054 0 1.9558631
-1.0842022e-19 3.215296 3.6893488e+19
3.1839466 -3.6893488e+19 1.9541993
-2 3.1658535 -2
3.098366 0 1.893847
1.0842022e-19 3.1635225 -2
3.1356611 0 1.8617706
-0 3.1665382 3.6893488e+19
3.0989397 1.0842022e-19 1.7919198
1.0842022e-19 3.1724443 -1.0842022e-19
3.0824709 0 1.7103606
-2 3.1595421 0
3.1092014 -0 1.5582128
-2 3.1721573 -0
3.0822451 -1.0842022e-19 -1.360906
-3.6893488e+19 3.1625233 1.0842022e-19
3.1118162 0 -1.6525124
-0 3.1761718 1.0842022e-19
3.0854046 1.0842022e-19 -1.7608548
0 3.1575441 3.6893488e+19
3.1074488 -2 -1.8212821
-1.0842022e-19 3.1758189 3.6893488e+19
3.0851269 3.6893488e+19 -1.8783247
-3.6893488e+19 3.1951354 0
3.1003294 3.6893488e+19 -1.9473426
-0 3.0971978 1.0842022e-19
3.0545204 -1.0842022e-19 -1.9366659
-1.0842022e-19 3.1140773 0
3.0365353 0 -1.9631215
0 2.85584 1.0842022e-19
2.8121002 -3.6893488e+19 -1.8691434
1.0842022e-19 2.7812638 2
2.692719 1.0842022e-19 -1.8695916
-0 2.7052937 -3.6893488e+19
2.6493289 -3.6893488e+19 -1.848842
-0 2.6444225 -1.0842022e-19
2.6178482 1.0842022e-19 -1.8394257
2 2.6384838 2
2.575438 -0 -1.8406516
-3.6893488e+19 2.5856824 -0
2.5630658 -0 -1.8331605
0 2.582185 3.6893488e+19
2.5282757 -0 -1.8336465
0 2.5489588 -0
2.5288162 -0 -1.8332707
-3.6893488e+19 2.4544215 -2
2.4238048 2 -1.8181144
3.6893488e+19 2.4618697 0
2.3869145 -1.0842022e-19 -1.8207054
0 2.4118998 2
2.3841479 0 -1.8158514
1.0842022e-19 2.3993635 -0
2.334552 -3.6893488e+19 -1.8088528
1.0842022e-19 2.3639457 -3.6893488e+19
2.3394246 -3.6893488e+19 -1.8076185
2 2.3655312 -1.0842022e-19
2.3062103 -0 -1.8066847
1.0842022e-19 2.328953 3.6893488e+19
2.3067896 1.0842022e-19 -1.8027179
0 2.3146875 -0
2.2453289 2 -1.8058019
1.0842022e-19 2.262516 -0
2.1632092 -0 -1.7947258
3.6893488e+19 2.211025 1.0842022e-19
2.1128347 -2 -1.790688
-3.6893488e+19 2.1619298 0
2.0741961 -0 -1.7879827
-0 2.0949972 -3.6893488e+19
2.0717528 1.0842022e-19 -1.7851766
3.6893488e+19 2.0729301 -2
2.0511725 -3.6893488e+19 -1.78763
-2 2.0591581 0
2.0383286 -2 -1.7929142
3.6893488e+19 3.2388458 1.0842022e-19
3.1764979 1.0842022e-19 2.7139199
1.0842022e-19 3.2567189 1.0842022e-19
3.1778312 1.0842022e-19 2.6133225
2 3.2628841 2
3.1615644 0 2.5656834
1.0842022e-19 3.2397375 -3.6893488e+19
3.1772757 3.6893488e+19 2.5480962
-3.6893488e+19 3.2581906 2
3.1542165 0 2.5415192
2 3.2305179 0
3.1692321 -2 2.5244846
0 3.2605262 3.6893488e+19
3.1578727 2 2.5254891
2 3.2305152 3.6893488e+19
3.1692297 3.6893488e+19 2.5065072
-3.6893488e+19 3.2626803 -1.0842022e-19
3.1612453 2 2.5089769
-0 3.2601142 -1.0842022e-19
3.2038779 1.0842022e-19 2.5082762
-3.6893488e+19 3.2629864 -2
3.1617246 2 2.4809768
-2 3.2373121 -3.6893488e+19
3.1751597 0 2.4475067
-2 3.2620783 3.6893488e+19
3.1603029 0 2.4419193
-1.0842022e-19 3.2193081 0
3.1594522 -0 2.3960035
2 3.2634628 -3.6893488e+19
3.1624701 -2 2.4066954
-3.6893488e+19 3.2391911 -3.6893488e+19
3.1767991 0 2.376363
-0 3.2647619 0
3.1645043 -0 2.3710051
-2 3.2395203 -1.0842022e-19
3.1770864 -3.6893488e+19 2.3402104
-3.6893488e+19 3.2190154 -0
3.1851251 -3.6893488e+19 2.3171325
3.6893488e+19 3.2556534 0
3.1760557 2 2.3112867
-1.0842022e-19 3.2507763 -2
3.1679277 3.6893488e+19 2.2688258
-2 3.2155077 -0
3.1818709 0 2.2374415
-1.0842022e-19 3.2503445 -1.0842022e-19
3.1672082 -3.6893488e+19 2.2138729
-3.6893488e+19 3.2200699 -3.6893488e+19
3.1861033 -3.6893488e+19 2.1705506
-1.0842022e-19 3.2470658 -3.6893488e+19
3.1641889 -3.6893488e+19 2.138221
2 3.221498 -0
3.1874282 1.0842022e-19 2.0999978
1.0842022e-19 3.1720266 2
3.1016612 2 2.0182767
-2 3.2180257 3.6893488e+19
3.184207 -1.0842022e-19 2.0261385
3.6893488e+19 3.1705461 -3.6893488e+19
3.1004274 -1.0842022e-19 1.9562279
-2 3.2150333 2
3.1814308 -3.6893488e+19 1.9535877
3.6893488e+19 3.1684685 -2
3.0986962 -1.0842022e-19 1.8944352
-1.0842022e-19 3.1646681 -0
3.1347048 -1.0842022e-19 1.8618491
-3.6893488e+19 3.1679304 -0
3.098248 -1.0842022e-19 1.7921118
1.0842022e-19 3.1999381 -2
3.1022053 -0 1.7235914
-3.6893488e+19 3.1850412 1.0842022e-19
3.1295557 1.0842022e-19 1.5691749
1.0842022e-19 3.1766677 3.6893488e+19
3.0839896 -0 -1.362937
-1.0842022e-19 3.1872756 -1.0842022e-19
3.131505 -1.0842022e-19 -1.6612936
-1.0842022e-19 3.1834953 -0
3.0893342 -0 -1.7629057
0 3.1607625 1.0842022e-19
3.1083734 2 -1.8223797
-3.6893488e+19 3.1942625 1.0842022e-19
3.0977628 3.6893488e+19 -1.8836081
1.0842022e-19 3.1850407 -2
3.129555 -0 -1.9189261
3.6893488e+19 3.1950178 -0
3.0983539 -1.0842022e-19 -1.9468855
3.6893488e+19 3.183727 -2
3.1284089 1.0842022e-19 -1.9826537
-2 3.1149983 3.6893488e+19
3.0357158 -2 -1.963222
1.0842022e-19 2.7821374 2
2.6917067 -3.6893488e+19 -1.8698475
-2 2.7023857 -1.0842022e-19
2.6446879 0 -1.8469037
-2 2.6418147 -3.6893488e+19
2.6135027 -1.0842022e-19 -1.8374898
3.6893488e+19 2.6385672 -0
2.5737805 -3.6893488e+19 -1.8402267
-2 2.5857689 -3.6893488e+19
2.5615067 3.6893488e+19 -1.8327078
-3.6893488e+19 2.5830081 -3.6893488e+19
2.5274849 -0 -1.8337066
-2 2.5495961 -3.6893488e+19
2.5279477 3.6893488e+19 -1.8332071
-0 2.4551642 0
2.4222748 -2 -1.8179594
1.0842022e-19 2.4584782 -2
2.382035 -2 -1.8188438
2 2.4130867 3.6893488e+19
2.3832376 1.0842022e-19 -1.8159359
-3.6893488e+19 2.4023423 -1.0842022e-19
2.335259 3.6893488e+19 -1.8098196
-0 2.3639205 -2
2.3376241 1.0842022e-19 -1.8071618
2 2.3665228 -1.0842022e-19
2.3054116 -3.6893488e+19 -1.8067795
-3.6893488e+19 2.3319435 3.6893488e+19
2.3079579 -3.6893488e+19 -1.8038974
3.6893488e+19 3.2388458 1.0842022e-19
3.1764979 1.0842022e-19 2.7139199
-0 3.2313225 -0
3.1510706 3.6893488e+19 2.5905969
2 3.2628841 2
3.1615644 0 2.5656834
1.0842022e-19 3.2397375 -3.6893488e+19
3.1772757 3.6893488e+19 2.5480962
-3.6893488e+19 3.2581906 2
3.1542165 0 2.5415192
2 3.2305179 0
3.1692321 -2 2.5244846
0 3.2605262 3.6893488e+19
3.1578727 2 2.5254891
2 3.2305152 3.6893488e+19
3.1692297 3.6893488e+19 2.5065072
-3.6893488e+19 3.2626803 -1.0842022e-19
3.1612453 2 2.5089769
-0 3.2254479 3.6893488e+19
3.1648088 1.0842022e-19 2.4720883
-1.0842022e-19 3.1846061 -0
3.0902038 2 2.3974261
-3.6893488e+19 3.2250659 1.0842022e-19
3.1644757 -1.0842022e-19 2.4362607
-2 3.184721 -3.6893488e+19
3.0902936 -2 2.3665154
-1.0842022e-19 3.1832292 1.0842022e-19
3.1279747 2 2.3655601
1.0842022e-19 3.1850357 -1.0842022e-19
3.0905399 -0 2.3357723
-3.6893488e+19 3.1841867 2
3.1288102 3.6893488e+19 2.3340449
3.6893488e+19 3.1843472 1.0842022e-19
3.0900011 -3.6893488e+19 2.3043203
2 3.1787093 -3.6893488e+19
3.1240311 1.0842022e-19 2.2979476
-3.6893488e+19 3.2190154 -0
3.1851251 -3.6893488e+19 2.3171325
3.6893488e+19 3.1791248 -0
3.1075759 0 2.2612538
-2 3.1806798 3.6893488e+19
3.1088717 0 2.2116778
0 3.1734719 -1.0842022e-19
3.1428723 0 2.1934249
-1.0842022e-19 3.1817832 -2
3.109791 -2 2.1500337
1.0842022e-19 3.1739924 1.0842022e-19
3.1433554 3.6893488e+19 2.1293271
1.0842022e-19 3.1704152 1.0842022e-19
3.1003184 -3.6893488e+19 2.0783548
1.0842022e-19 3.1741261 -0
3.1434793 -3.6893488e+19 2.0648329
1.0842022e-19 3.1720266 2
3.1016612 2 2.0182767
-0 3.1749949 -1.0842022e-19
3.1442854 -0 2.0007501
3.6893488e+19 3.1705461 -3.6893488e+19
3.1004274 -1.0842022e-19 1.9562279
2 3.1638186 -1.0842022e-19
3.1339166 3.6893488e+19 1.9311663
3.6893488e+19 3.1684685 -2
3.0986962 -1.0842022e-19 1.8944352
-1.0842022e-19 3.1646681 -0
3.1347048 -1.0842022e-19 1.8618491
-3.6893488e+19 3.1679304 -0
3.098248 -1.0842022e-19 1.7921118
-1.0842022e-19 3.1736577 1.0842022e-19
3.0816336 1.0842022e-19 1.7105318
0 3.1617999 2
3.1092784 -2 1.5588013
1.0842022e-19 3.1766677 3.6893488e+19
3.0839896 -0 -1.362937
-3.6893488e+19 3.1633749 -0
3.1106527 -1.0842022e-19 -1.6524776
-1.0842022e-19 3.1834953 -0
3.0893342 -0 -1.7629057
0 3.1607625 1.0842022e-19
3.1083734 2 -1.8223797
1.0842022e-19 3.1788847 -0
3.0857251 -3.6893488e+19 -1.8789833
3.6893488e+19 3.163404 -0
3.110678 -0 -1.9105246
3.6893488e+19 3.1950178 -0
3.0983539 -1.0842022e-19 -1.9468855
0 3.1003244 3.6893488e+19
3.0556436 1.0842022e-19 -1.937916
-2 3.1149983 3.6893488e+19
3.0357158 -2 -1.963222
1.0842022e-19 2.7821374 2
2.6917067 -3.6893488e+19 -1.8698475
-2 2.7023857 -1.0842022e-19
2.6446879 0 -1.8469037
-2 2.6418147 -3.6893488e+19
2.6135027 -1.0842022e-19 -1.8374898
3.6893488e+19 2.6385672 -0
2.5737805 -3.6893488e+19 -1.8402267
-2 2.5857689 -3.6893488e+19
2.5615067 3.6893488e+19 -1.8327078
-3.6893488e+19 2.5830081 -3.6893488e+19
2.5274849 -0 -1.8337066
-2 2.5495961 -3.6893488e+19
2.5279477 3.6893488e+19 -1.8332071
-0 2.4551642 0
2.4222748 -2 -1.8179594
1.0842022e-19 2.4584782 -2
2.382035 -2 -1.8188438
2 2.4130867 3.6893488e+19
2.3832376 1.0842022e-19 -1.8159359
-3.6893488e+19 2.4023423 -1.0842022e-19
2.335259 3.6893488e+19 -1.8098196
-0 2.3639205 -2
2.3376241 1.0842022e-19 -1.8071618
2 2.3665228 -1.0842022e-19
2.3054116 -3.6893488e+19 -1.8067795
-3.6893488e+19 2.3319435 3.6893488e+19
2.3079579 -3.6893488e+19 -1.8038974
0 3.2574089 -3.6893488e+19
3.1767035 -3.6893488e+19 2.6135075
-1.0842022e-19 3.2546039 1.0842022e-19
3.1720541 1.0842022e-19 2.5907795
-0 3.2555189 2
3.1735709 3.6893488e+19 2.5732071
-2 3.2588425 0
3.1530569 3.6893488e+19 2.5601957
0 3.2403615 3.6893488e+19
3.1755655 0 2.5477972
-0 3.2889724 1.0842022e-19
3.1999736 -2 2.5756083
-3.6893488e+19 3.2879629 -1.0842022e-19
3.1984017 1.0842022e-19 2.5538805
2 3.2401583 1.0842022e-19
3.1753893 2 2.5110598
3.6893488e+19 3.2627635 -0
3.1591623 -0 2.5085301
1.0842022e-19 3.2235944 2
3.1610141 -3.6893488e+19 2.4691782
0 3.2634139 -2
3.1601748 2 2.4807751
2 3.2353427 1.0842022e-19
3.1712101 -1.0842022e-19 2.4446843
0 3.2622089 0
3.1582987 3.6893488e+19 2.441237
3.6893488e+19 3.2660668 -2
3.1643059 3.6893488e+19 2.4098771
1.0842022e-19 3.2659061 -3.6893488e+19
3.1640556 3.6893488e+19 2.3718479
-3.6893488e+19 3.1780143 -3.6893488e+19
3.1214569 0 2.2967882
0 3.2187314 -3.6893488e+19
3.1825848 2 2.316174
3.6893488e+19 3.2555854 -0
3.173681 -3.6893488e+19 2.3105278
-1.0842022e-19 3.2255721 -3.6893488e+19
3.1888981 0 2.2845778
3.6893488e+19 3.2518749 -2
3.1675301 -2 2.2694168
1.0842022e-19 3.214916 0
3.1790638 -1.0842022e-19 2.2356443
-3.6893488e+19 3.2514062 -2
3.1667533 3.6893488e+19 2.2148285
2 3.2161386 -2
3.180192 2 2.1660249
-2 3.2472582 0
3.1621497 0 2.1375279
-1.0842022e-19 3.2208507 0
3.184541 -3.6893488e+19 2.0986719
-1.0842022e-19 3.2512372 0
3.1664732 -1.0842022e-19 2.0687225
0 3.1686792 1.0842022e-19
3.1363926 0 1.9964265
3.6893488e+19 3.2505028 -3.6893488e+19
3.1652555 1.0842022e-19 1.9951502
-0 3.1673932 3.6893488e+19
3.1352057 3.6893488e+19 1.9322894
1.0842022e-19 3.1701252 -2
3.0982182 1.0842022e-19 1.8946921
-3.6893488e+19 3.1683369 -0
3.1360767 -0 1.8633668
2 3.1692975 1.0842022e-19
3.0975323 -2 1.7922941
-1.0842022e-19 3.192795 3.6893488e+19
3.0947492 -1.0842022e-19 1.7195928
0 3.1883459 0
3.1304233 2 1.5702049
0 3.2026911 2
3.1024539 3.6893488e+19 -1.375967
-0 3.1901133 -3.6893488e+19
3.1319571 -2 -1.6619711
-3.6893488e+19 3.2008772 -0
3.1010418 1.0842022e-19 -1.7681427
0 3.1803191 -2
3.123457 -2 -1.8313067
0 3.1811671 0
3.085696 0 -1.8794051
2 3.1846166 1.0842022e-19
3.1271868 2 -1.9183776
3.6893488e+19 3.1893704 -2
3.0920827 -1.0842022e-19 -1.9439902
-1.0842022e-19 3.1009576 -3.6893488e+19
3.0545824 -1.0842022e-19 -1.9378276
-2 3.1161637 -2
3.0350859 0 -1.9634664
1.0842022e-19 2.7789698 -2
2.6843977 3.6893488e+19 -1.8666046
3.6893488e+19 2.7074721 -3.6893488e+19
2.647022 0 -1.8488883
2 2.6468015 -0
2.6162019 1.0842022e-19 -1.8396739
-1.0842022e-19 2.644026 2
2.5765862 3.6893488e+19 -1.8427763
3.6893488e+19 2.5858493 2
2.5599501 2 -1.832255
0 2.5828686 3.6893488e+19
2.5258961 -3.6893488e+19 -1.8331659
3.6893488e+19 2.5504141 -2
2.5272474 -0 -1.8332707
0 2.4575498 -0
2.4222655 3.6893488e+19 -1.8185017
1.0842022e-19 2.4623539 -1.0842022e-19
2.3832192 -3.6893488e+19 -1.8200579
-0 2.4128065 0
2.3809729 -0 -1.8153449
-2 2.4036016 2
2.334523 -2 -1.8099953
1.0842022e-19 2.3649857 0
2.3368397 -0 -1.8072531
-1.0842022e-19 2.3675122 0
2.3046105 3.6893488e+19 -1.8068744
-1.0842022e-19 2.3331139 3.6893488e+19
2.3074257 0 -1.8040941
2 2.309315 3.6893488e+19
2.2316499 -2 -1.8019884
-0 2.2649636 0
2.1625884 3.6893488e+19 -1.7956078
-1.0842022e-19 2.211746 2
2.109504 0 -1.7902687
-2 2.1667399 -0
2.0744634 1.0842022e-19 -1.7892116
-2 2.0974011 3.6893488e+19
2.0706112 2 -1.7855114
-2 2.0676363 -1.0842022e-19
2.0431416 1.0842022e-19 -1.7841891
-0 2.061384 -2
2.0373714 -3.6893488e+19 -1.7933037
-0 3.2305822 2
3.1483278 -3.6893488e+19 2.5893342
-1.0842022e-19 3.2546039 1.0842022e-19
3.1720541 1.0842022e-19 2.5907795
-0 3.2555189 2
3.1735709 3.6893488e+19 2.5732071
-2 3.2588425 0
3.1530569 3.6893488e+19 2.5601957
0 3.2403615 3.6893488e+19
3.1755655 0 2.5477972
2 3.25965 -0
3.154314 2 2.5425684
-3.6893488e+19 3.2879629 -1.0842022e-19
3.1984017 1.0842022e-19 2.5538805
1.0842022e-19 3.2322681 0
3.1685417 2 2.5068574
3.6893488e+19 3.2627635 -0
3.1591623 -0 2.5085301
1.0842022e-19 3.2235944 2
3.1610141 -3.6893488e+19 2.4691782
0 3.2634139 -2
3.1601748 2 2.4807751
2 3.2353427 1.0842022e-19
3.1712101 -1.0842022e-19 2.4446843
-3.6893488e+19 3.185782 -3.6893488e+19
3.0892889 -3.6893488e+19 2.3666601
1.0842022e-19 3.184696 -3.6893488e+19
3.0884433 -3.6893488e+19 2.3348253
-1.0842022e-19 3.1860471 -0
3.0894954 -1.0842022e-19 2.304888
-3.6893488e+19 3.1780143 -3.6893488e+19
3.1214569 0 2.2967882
0 3.2187314 -3.6893488e+19
3.1825848 2 2.316174
-2 3.1798427 2
3.1062727 1.0842022e-19 2.2611225
-1.0842022e-19 3.2136025 3.6893488e+19
3.1778517 3.6893488e+19 2.2774153
-2 3.1817856 -0
3.107883 -1.0842022e-19 2.2118576
-1.0842022e-19 3.1653459 -2
3.1333163 3.6893488e+19 2.1838644
-0 3.1820261 -1.0842022e-19
3.1080823 0 2.1493895
1.0842022e-19 3.1633868 -3.6893488e+19
3.1315081 1.0842022e-19 2.1189444
3.6893488e+19 3.1718593 1.0842022e-19
3.0996556 0 2.0787673
-1.0842022e-19 3.1645505 0
3.1325824 -2 2.0569808
1.0842022e-19 3.174268 -2
3.1016519 2 2.0191157
0 3.1686792 1.0842022e-19
3.1363926 0 1.9964265
3.6893488e+19 3.1727123 -2
3.1003625 -1.0842022e-19 1.9568399
-0 3.1673932 3.6893488e+19
3.1352057 3.6893488e+19 1.9322894
1.0842022e-19 3.1701252 -2
3.0982182 1.0842022e-19 1.8946921
-3.6893488e+19 3.1683369 -0
3.1360767 -0 1.8633668
2 3.1692975 1.0842022e-19
3.0975323 -2 1.7922941
0 3.1747954 -1.0842022e-19
3.080735 3.6893488e+19 1.7106663
-1.0842022e-19 3.1665854 -3.6893488e+19
3.1115382 -2 1.5605145
-3.6893488e+19 3.1750495 3.6893488e+19
3.0809331 0 -1.361551
0 3.1551838 -0
3.1016431 3.6893488e+19 -1.6491163
0 3.1777492 3.6893488e+19
3.0830348 -0 -1.7608
-0 3.1577811 3.6893488e+19
3.1038973 -2 -1.8205014
0 3.1811671 0
3.085696 0 -1.8794051
3.6893488e+19 3.1639452 0
3.109247 -3.6893488e+19 -1.9103692
3.6893488e+19 3.1893704 -2
3.0920827 -1.0842022e-19 -1.9439902
-1.0842022e-19 3.1009576 -3.6893488e+19
3.0545824 -1.0842022e-19 -1.9378276
-2 3.1161637 -2
3.0350859 0 -1.9634664
1.0842022e-19 2.7789698 -2
2.6843977 3.6893488e+19 -1.8666046
3.6893488e+19 2.7074721 -3.6893488e+19
2.647022 0 -1.8488883
2 2.6468015 -0
2.6162019 1.0842022e-19 -1.8396739
-1.0842022e-19 2.644026 2
2.5765862 3.6893488e+19 -1.8427763
3.6893488e+19 2.5858493 2
2.5599501 2 -1.832255
0 2.5828686 3.6893488e+19
2.5258961 -3.6893488e+19 -1.8331659
3.6893488e+19 2.5504141 -2
2.5272474 -0 -1.8332707
0 2.4575498 -0
2.4222655 3.6893488e+19 -1.8185017
1.0842022e-19 2.4623539 -1.0842022e-19
2.3832192 -3.6893488e+19 -1.8200579
-0 2.4128065 0
2.3809729 -0 -1.8153449
-2 2.4036016 2
2.334523 -2 -1.8099953
1.0842022e-19 2.3649857 0
2.3368397 -0 -1.8072531
-1.0842022e-19 2.3675122 0
2.3046105 3.6893488e+19 -1.8068744
-1.0842022e-19 2.3331139 3.6893488e+19
2.3074257 0 -1.8040941
2 2.309315 3.6893488e+19
2.2316499 -2 -1.8019884
-0 2.2649636 0
2.1625884 3.6893488e+19 -1.7956078
-1.0842022e-19 2.211746 2
2.109504 0 -1.7902687
-2 2.1667399 -0
2.0744634 1.0842022e-19 -1.7892116
-2 2.0974011 3.6893488e+19
2.0706112 2 -1.7855114
-2 2.0676363 -1.0842022e-19
2.0431416 1.0842022e-19 -1.7841891
-0 2.061384 -2
2.0373714 -3.6893488e+19 -1.7933037
-1.0842022e-19 3.2571301 2
3.1739755 3.6893488e+19 2.6123292
0 3.2552154 0
3.1708181 1.0842022e-19 2.5908594
2 3.2560606 -3.6893488e+19
3.1722116 1.0842022e-19 2.5731921
0 3.2432835 2
3.1758425 0 2.5488937
-1.0842022e-19 3.2421134 -2
3.1748323 3.6893488e+19 2.5298343
1.0842022e-19 3.289016 2
3.1976156 -1.0842022e-19 2.5543721
-3.6893488e+19 3.225807 -1.0842022e-19
3.1607554 1.0842022e-19 2.5028427
1.0842022e-19 3.262954 -0
3.1572518 -1.0842022e-19 2.5081921
1.0842022e-19 3.2254696 -0
3.160464 -2 2.4699697
-0 3.264848 -0
3.1601853 3.6893488e+19 2.4824111
3.6893488e+19 3.2393897 3.6893488e+19
3.1724811 -2 2.4473772
-0 3.1968136 -1.0842022e-19
3.0960028 1.0842022e-19 2.3751786
-3.6893488e+19 3.2203839 -0
3.1560738 2 2.3951123
-1.0842022e-19 3.2658937 3.6893488e+19
3.1618049 3.6893488e+19 2.4087787
0 3.2259417 -1.0842022e-19
3.1608715 2 2.3645096
-2 3.2668045 -3.6893488e+19
3.1632154 -0 2.3723466
1.0842022e-19 3.2252972 2
3.1603153 2 2.3288283
-0 3.2157495 -0
3.1775806 -1.0842022e-19 2.3134065
2 3.2558503 -0
3.171865 1.0842022e-19 2.3101778
-2 3.1647046 3.6893488e+19
3.1307189 3.6893488e+19 2.245116
-1.0842022e-19 3.2521918 1.0842022e-19
3.1658328 -1.0842022e-19 2.2691727
0 3.2171414 -1.0842022e-19
3.1788583 -2 2.2367945
3.6893488e+19 3.2518787 -1.0842022e-19
3.1653163 1.0842022e-19 2.2146952
2 3.2173092 1.0842022e-19
3.1790125 1.0842022e-19 2.1660659
1.0842022e-19 3.2514689 -3.6893488e+19
3.1646404 -2 2.1411066
-3.6893488e+19 3.2207212 -3.6893488e+19
3.1821449 1.0842022e-19 2.0977373
0 3.2524564 3.6893488e+19
3.1662688 -0 2.0695767
0 3.2164264 2
3.1782019 -2 2.0238686
1.0842022e-19 3.250901 2
3.1637042 -0 1.9950089
3.6893488e+19 3.2157433 3.6893488e+19
3.1775749 0 1.9529159
-2 3.1699986 -2
3.0962625 -1.0842022e-19 1.8943357
-3.6893488e+19 3.1693692 1.0842022e-19
3.1350014 3.6893488e+19 1.86338
2 3.1690726 1.0842022e-19
3.095499 0 1.7918431
3.6893488e+19 3.1880381 0
3.0892074 -0 1.7167926
0 3.1645029 1.0842022e-19
3.1078327 -1.0842022e-19 1.5591692
-3.6893488e+19 3.2022531 -0
3.1002152 -2 -1.3755896
1.0842022e-19 3.1556299 2
3.1001728 1.0842022e-19 -1.6489426
-2 3.1772852 1.0842022e-19
3.0808806 -0 -1.7603773
-1.0842022e-19 3.1923649 -0
3.1318855 -2 -1.8366019
-1.0842022e-19 3.1802409 0
3.0831695 -1.0842022e-19 -1.8788649
2 3.1866195 -2
3.1269255 -2 -1.9187707
2 3.1824093 -1.0842022e-19
3.0848484 1.0842022e-19 -1.9405291
-2 3.1853235 3.6893488e+19
3.1258068 3.6893488e+19 -1.9824517
3.6893488e+19 3.1179709 3.6893488e+19
3.0349488 0 -1.9640843
0 2.7814629 -0
2.6859176 -1.0842022e-19 -1.8682687
-1.0842022e-19 2.7096441 -3.6893488e+19
2.6468022 0 -1.8494421
1.0842022e-19 2.6461034 -1.0842022e-19
2.613642 3.6893488e+19 -1.8387804
3.6893488e+19 2.6443019 -1.0842022e-19
2.5750771 -3.6893488e+19 -1.8424575
-3.6893488e+19 2.5866594 0
2.5590699 2 -1.832255
3.6893488e+19 2.5837822 1.0842022e-19
2.5251825 -3.6893488e+19 -1.833286
-3.6893488e+19 2.5510468 1.0842022e-19
2.5263758 3.6893488e+19 -1.8332071
1.0842022e-19 2.4584701 2
2.4208977 -1.0842022e-19 -1.8184242
-0 2.4637401 -3.6893488e+19
2.3823245 -3.6893488e+19 -1.8202198
2 2.412518 -0
2.3787115 -3.6893488e+19 -1.814754
-0 2.4040918 -2
2.3331482 3.6893488e+19 -1.8098196
-3.6893488e+19 2.3662329 -2
2.3362195 1.0842022e-19 -1.8074359
0 2.3686926 0
2.3039639 2 -1.8070641
1.0842022e-19 2.3359337 -1.0842022e-19
2.3084033 1.0842022e-19 -1.8051753
1.0842022e-19 3.2314324 -0
3.1469107 1.0842022e-19 2.5891998
0 3.2552154 0
3.1708181 1.0842022e-19 2.5908594
2 3.2560606 -3.6893488e+19
3.1722116 1.0842022e-19 2.5731921
0 3.2432835 2
3.1758425 0 2.5488937
-1.0842022e-19 3.2244976 2
3.1596251 0 2.5198174
1.0842022e-19 3.289016 2
3.1976156 -1.0842022e-19 2.5543721
-3.6893488e+19 3.225807 -1.0842022e-19
3.1607554 1.0842022e-19 2.5028427
1.0842022e-19 3.262954 -0
3.1572518 -1.0842022e-19 2.5081921
1.0842022e-19 3.2254696 -0
3.160464 -2 2.4699697
-3.6893488e+19 3.1952646 -3.6893488e+19
3.0948033 -2 2.4055166
0 3.226263 3.6893488e+19
3.161149 -2 2.4353774
-0 3.1968136 -1.0842022e-19
3.0960028 1.0842022e-19 2.3751786
-3.6893488e+19 3.2203839 -0
3.1560738 2 2.3951123
-0 3.1967163 -2
3.0959275 1.0842022e-19 2.3433855
1.0842022e-19 3.1784725 -0
3.1198924 -1.0842022e-19 2.3281543
1.0842022e-19 3.1875753 -2
3.0888488 2 2.3053353
-1.0842022e-19 3.179009 2
3.1203556 -0 2.2968044
-0 3.2157495 -0
3.1775806 -1.0842022e-19 2.3134065
0 3.182435 3.6893488e+19
3.1065154 0 2.2621293
-2 3.1647046 3.6893488e+19
3.1307189 3.6893488e+19 2.245116
2 3.1846476 3.6893488e+19
3.1083395 -1.0842022e-19 2.2139137
2 3.1651294 -3.6893488e+19
3.1311088 -3.6893488e+19 2.1825943
-3.6893488e+19 3.1862381 -2
3.1096509 1.0842022e-19 2.1524115
-0 3.1659482 -2
3.1318605 0 2.120337
1.0842022e-19 3.2514689 -3.6893488e+19
3.1646404 -2 2.1411066
0 3.1664941 -1.0842022e-19
3.1323617 -0 2.0576777
-0 3.1729939 0
3.098732 0 2.0177276
3.6893488e+19 3.1673651 -1.0842022e-19
3.1331613 2 1.9950618
1.0842022e-19 3.250901 2
3.1637042 -0 1.9950089
-1.0842022e-19 3.1700113 2
3.1355908 -0 1.9329913
-2 3.1699986 -2
3.0962625 -1.0842022e-19 1.8943357
-3.6893488e+19 3.1693692 1.0842022e-19
3.1350014 3.6893488e+19 1.86338
2 3.1690726 1.0842022e-19
3.095499 0 1.7918431
3.6893488e+19 3.1880381 0
3.0892074 -0 1.7167926
0 3.1645029 1.0842022e-19
3.1078327 -1.0842022e-19 1.5591692
-1.0842022e-19 3.1770017 2
3.0806611 1.0842022e-19 -1.3621548
1.0842022e-19 3.1556299 2
3.1001728 1.0842022e-19 -1.6489426
-2 3.1772852 1.0842022e-19
3.0808806 -0 -1.7603773
-2 3.1572397 -1.0842022e-19
3.1015625 2 -1.8198
-1.0842022e-19 3.1802409 0
3.0831695 -1.0842022e-19 -1.8788649
2 3.1690469 -0
3.1117554 0 -1.9119782
2 3.1824093 -1.0842022e-19
3.0848484 1.0842022e-19 -1.9405291
2 3.1026525 -1.0842022e-19
3.0544384 -2 -1.9383074
3.6893488e+19 3.1179709 3.6893488e+19
3.0349488 0 -1.9640843
0 2.7814629 -0
2.6859176 -1.0842022e-19 -1.8682687
-1.0842022e-19 2.7096441 -3.6893488e+19
2.6468022 0 -1.8494421
1.0842022e-19 2.6461034 -1.0842022e-19
2.613642 3.6893488e+19 -1.8387804
3.6893488e+19 2.6443019 -1.0842022e-19
2.5750771 -3.6893488e+19 -1.8424575
-3.6893488e+19 2.5866594 0
2.5590699 2 -1.832255
3.6893488e+19 2.5837822 1.0842022e-19
2.5251825 -3.6893488e+19 -1.833286
-3.6893488e+19 2.5510468 1.0842022e-19
2.5263758 3.6893488e+19 -1.8332071
1.0842022e-19 2.4584701 2
2.4208977 -1.0842022e-19 -1.8184242
-0 2.4637401 -3.6893488e+19
2.3823245 -3.6893488e+19 -1.8202198
2 2.412518 -0
2.3787115 -3.6893488e+19 -1.814754
-0 2.4040918 -2
2.3331482 3.6893488e+19 -1.8098196
-3.6893488e+19 2.3662329 -2
2.3362195 1.0842022e-19 -1.8074359
0 2.3686926 0
2.3039639 2 -1.8070641
1.0842022e-19 2.3359337 -1.0842022e-19
2.3084033 1.0842022e-19 -1.8051753
-0 3.2575164 1.0842022e-19
3.1723535 -3.6893488e+19 2.6120934
0 3.2558849 2
3.1696775 -2 2.5910189
-3.6893488e+19 3.256588 2
3.170831 3.6893488e+19 2.5731618
0 3.2880089 1.0842022e-19
3.1936498 -0 2.5937521
-1.0842022e-19 3.2525799 -3.6893488e+19
3.1837935 -3.6893488e+19 2.5554011
1.0842022e-19 3.240489 1.0842022e-19
3.1711953 3.6893488e+19 2.5282829
-0 3.2892065 2
3.1954947 -2 2.5539579
-2 3.2435341 2
3.1738102 -2 2.5116725
3.6893488e+19 3.2879062 -2
3.1934915 1.0842022e-19 2.5321219
-1.0842022e-19 3.2377779 0
3.1688673 2 2.481051
3.6893488e+19 3.265692 -3.6893488e+19
3.1592727 3.6893488e+19 2.4829714
2 3.2402101 -0
3.1709557 -0 2.4471188
2 3.2670119 3.6893488e+19
3.1613059 2 2.4475017
0 3.2414391 0
3.1720111 3.6893488e+19 2.411869
3.6893488e+19 3.2665427 0
3.1605833 2 2.4089491
1.0842022e-19 3.2693202 2
3.1648617 2 2.3750987
1.0842022e-19 3.2454135 0
3.1754241 3.6893488e+19 2.3419743
-2 3.2189164 1.0842022e-19
3.1782324 0 2.3147826
-1.0842022e-19 3.2568114 -2
3.1711972 0 2.310674
0 3.2207437 -0
3.1799009 -3.6893488e+19 2.2803378
3.6893488e+19 3.2528436 -2
3.1646895 -2 2.2692883
1.0842022e-19 3.2181237 0
3.1775084 -1.0842022e-19 2.2366507
3.6893488e+19 3.2516246 -3.6893488e+19
3.1626902 0 2.2132287
-1.0842022e-19 3.218384 -1.0842022e-19
3.1777461 2 2.1660249
1.0842022e-19 3.1709311 -1.0842022e-19
3.095185 -1.0842022e-19 2.0766311
-2 3.2197518 0
3.1789954 1.0842022e-19 2.0961907
0 3.2526379 -1.0842022e-19
3.1643519 0 2.0691192
3.6893488e+19 3.2153769 -2
3.1749997 -0 2.0225985
-2 3.1815944 -3.6893488e+19
3.1039295 1.0842022e-19 1.9602767
0 3.2157302 -3.6893488e+19
3.1753223 2 1.9524245
-3.6893488e+19 3.1732709 2
3.0971041 -1.0842022e-19 1.8951477
-1.0842022e-19 3.1912868 3.6893488e+19
3.1118779 -3.6893488e+19 1.8003094
0 3.1792936 -0
3.0806425 0 1.7120359
3.6893488e+19 3.1626401 -1.0842022e-19
3.1043444 0 1.557929
0 3.1918538 -0
3.0903163 3.6893488e+19 -1.3699081
3.6893488e+19 3.1654115 -0
3.1067243 2 -1.652191
1.0842022e-19 3.177803 2
3.0794945 1.0842022e-19 -1.7602677
-1.0842022e-19 3.1683047 2
3.1092088 -0 -1.8246425
1.0842022e-19 3.1803439 3.6893488e+19
3.0814514 3.6893488e+19 -1.8786355
-1.0842022e-19 3.1813226 -0
3.1203876 2 -1.9163481
-2 3.1826155 2
3.0832012 -3.6893488e+19 -1.9402351
-2 3.1847885 -3.6893488e+19
3.1233637 2 -1.9816436
2 3.1224027 -2
3.0368249 -3.6893488e+19 -1.9662251
-3.6893488e+19 2.7831204 0
2.6861198 -0 -1.8692075
-2 2.7086914 2
2.6438899 -0 -1.8484728
-1.0842022e-19 2.6467769 0
2.6123519 2 -1.8386315
3.6893488e+19 2.6451511 -0
2.5740442 -3.6893488e+19 -1.8424575
-3.6893488e+19 2.5884807 -1.0842022e-19
2.5591135 -1.0842022e-19 -1.8328775
-2 2.587106 -3.6893488e+19
2.5264442 -2 -1.8349081
-0 2.5526903 -0
2.5264282 -3.6893488e+19 -1.8338426
-1.0842022e-19 3.2523918 0
3.1639488 2 -2.3508677
0 2.4593859 -1.0842022e-19
2.4195285 -1.0842022e-19 -1.8183467
-3.6893488e+19 2.4649315 -0
2.3812678 -2 -1.8203007
3.6893488e+19 2.4105644 3.6893488e+19
2.374943 -1.0842022e-19 -1.8134035
-0 2.4051547 3.6893488e+19
2.3322477 -1.0842022e-19 -1.8099074
-3.6893488e+19 2.3676629 -3.6893488e+19
2.3357637 1.0842022e-19 -1.8077099
-1.0842022e-19 2.3694866 2
2.3029981 2 -1.8070641
3.6893488e+19 2.3350861 3.6893488e+19
2.3060133 1.0842022e-19 -1.8042907
-3.6893488e+19 2.3105712 3.6893488e+19
2.228405 -2 -1.8019884
-2 2.2646644 2
2.15769 -0 -1.7947258
3.6893488e+19 2.214406 -3.6893488e+19
2.107686 -3.6893488e+19 -1.7905482
-0 2.166867 2
2.0710716 -3.6893488e+19 -1.7885971
3.6893488e+19 2.0987108 2
2.0684559 2 -1.785344
0 2.0749762 1.0842022e-19
2.0467806 2 -1.7870867
-2 2.0570898 -2
2.0304461 -3.6893488e+19 -1.790187
-0 3.2575164 1.0842022e-19
3.1723535 -3.6893488e+19 2.6120934
0 3.2558849 2
3.1696775 -2 2.5910189
-3.6893488e+19 3.256588 2
3.170831 3.6893488e+19 2.5731618
0 3.2880089 1.0842022e-19
3.1936498 -0 2.5937521
0 3.242182 -2
3.1726489 -2 2.547555
-0 3.219439 -0
3.1531191 -0 2.51634
-0 3.2892065 2
3.1954947 -2 2.5539579
3.6893488e+19 3.225913 2
3.1586785 3.6893488e+19 2.5023298
-1.0842022e-19 3.266948 0
3.1612077 3.6893488e+19 2.5115848
0 3.2263768 2
3.1590767 2 2.4698069
2 3.197201 -2
3.0944347 -2 2.4064579
2 3.2402101 -0
3.1709557 -0 2.4471188
3.6893488e+19 3.1974213 -0
3.0946045 -1.0842022e-19 2.3749304
1.0842022e-19 3.2211614 -1.0842022e-19
3.154598 2 2.3948746
-3.6893488e+19 3.1972249 2
3.0944533 3.6893488e+19 2.3430824
0 3.1883123 0
3.0875888 3.6893488e+19 2.305232
-2 3.1738019 0
3.1139295 3.6893488e+19 2.2925422
-2 3.2189164 1.0842022e-19
3.1782324 0 2.3147826
1.0842022e-19 3.173862 -0
3.0975885 3.6893488e+19 2.2563803
0 3.2207437 -0
3.1799009 -3.6893488e+19 2.2803378
-0 3.1850045 -3.6893488e+19
3.1067259 3.6893488e+19 2.2132969
1.0842022e-19 3.2181237 0
3.1775084 -1.0842022e-19 2.2366507
1.0842022e-19 3.1856811 -3.6893488e+19
3.1072807 -2 2.1510336
-1.0842022e-19 3.218384 -1.0842022e-19
3.1777461 2 2.1660249
1.0842022e-19 3.1709311 -1.0842022e-19
3.095185 -1.0842022e-19 2.0766311
2 3.1691537 -1.0842022e-19
3.132787 1.0842022e-19 2.0589015
1.0842022e-19 3.1745572 -2
3.0981586 -0 2.0181394
-3.6893488e+19 3.1687121 -3.6893488e+19
3.1323838 2 1.9952644
-2 3.1815944 -3.6893488e+19
3.1039295 1.0842022e-19 1.9602767
-1.0842022e-19 3.1716187 -3.6893488e+19
3.1350381 -1.0842022e-19 1.933252
-3.6893488e+19 3.1732709 2
3.0971041 -1.0842022e-19 1.8951477
-1.0842022e-19 3.1706517 -3.6893488e+19
3.0949559 -1.0842022e-19 1.7921118
0 3.1792936 -0
3.0806425 0 1.7120359
3.6893488e+19 3.1626401 -1.0842022e-19
3.1043444 0 1.557929
-3.6893488e+19 3.177593 3.6893488e+19
3.0793328 -1.0842022e-19 -1.3620038
3.6893488e+19 3.1654115 -0
3.1067243 2 -1.652191
1.0842022e-19 3.177803 2
3.0794945 1.0842022e-19 -1.7602677
-1.0842022e-19 3.1683047 2
3.1092088 -0 -1.8246425
1.0842022e-19 3.1803439 3.6893488e+19
3.0814514 3.6893488e+19 -1.8786355
-3.6893488e+19 3.1701341 -0
3.1107798 1.0842022e-19 -1.9120331
-2 3.1826155 2
3.0832012 -3.6893488e+19 -1.9402351
0 3.1050596 -1.0842022e-19
3.0548985 -0 -1.9391661
2 3.1224027 -2
3.0368249 -3.6893488e+19 -1.9662251
-3.6893488e+19 2.7831204 0
2.6861198 -0 -1.8692075
-2 2.7086914 2
2.6438899 -0 -1.8484728
-1.0842022e-19 2.6467769 0
2.6123519 2 -1.8386315
3.6893488e+19 2.6451511 -0
2.5740442 -3.6893488e+19 -1.8424575
-3.6893488e+19 2.5884807 -1.0842022e-19
2.5591135 -1.0842022e-19 -1.8328775
-2 2.587106 -3.6893488e+19
2.5264442 -2 -1.8349081
-0 2.5526903 -0
2.5264282 -3.6893488e+19 -1.8338426
-1.0842022e-19 3.2523918 0
3.1639488 2 -2.3508677
0 2.4593859 -1.0842022e-19
2.4195285 -1.0842022e-19 -1.8183467
-3.6893488e+19 2.4649315 -0
2.3812678 -2 -1.8203007
3.6893488e+19 2.4105644 3.6893488e+19
2.374943 -1.0842022e-19 -1.8134035
-0 2.4051547 3.6893488e+19
2.3322477 -1.0842022e-19 -1.8099074
-3.6893488e+19 2.3676629 -3.6893488e+19
2.3357637 1.0842022e-19 -1.8077099
-1.0842022e-19 2.3694866 2
2.3029981 2 -1.8070641
3.6893488e+19 2.3350861 3.6893488e+19
2.3060133 1.0842022e-19 -1.8042907
-3.6893488e+19 2.3105712 3.6893488e+19
2.228405 -2 -1.8019884
-2 2.2646644 2
2.15769 -0 -1.7947258
3.6893488e+19 2.214406 -3.6893488e+19
2.107686 -3.6893488e+19 -1.7905482
-0 2.166867 2
2.0710716 -3.6893488e+19 -1.7885971
3.6893488e+19 2.0987108 2
2.0684559 2 -1.785344
0 2.0749762 1.0842022e-19
2.0467806 2 -1.7870867
-2 2.0570898 -2
2.0304461 -3.6893488e+19 -1.790187
1.0842022e-19 3.2579005 -0
3.1707296 3.6893488e+19 2.6118579
1.0842022e-19 3.2564814 -0
3.1684146 -3.6893488e+19 2.5910828
-3.6893488e+19 3.2568254 0
3.1689763 1.0842022e-19 2.5727692
-1.0842022e-19 3.2891059 2
3.1929328 2 2.5943685
-1.0842022e-19 3.244349 1.0842022e-19
3.1722665 -0 2.5481958
-1.0842022e-19 3.2775762 -0
3.1752684 3.6893488e+19 2.5608764
2 3.2426059 -3.6893488e+19
3.1707773 -0 2.5288579
-1.0842022e-19 3.2439091 1.0842022e-19
3.1718907 -0 2.5112848
-2 3.2889054 0
3.1926258 -3.6893488e+19 2.5325322
-3.6893488e+19 3.2416408 -1.0842022e-19
3.1699531 2 2.4837747
3.6893488e+19 3.2663133 -1.0842022e-19
3.1580126 3.6893488e+19 2.4831283
-3.6893488e+19 3.2414997 0
3.1698327 3.6893488e+19 2.4472911
-3.6893488e+19 3.2683403 1.0842022e-19
3.1611185 2 2.4488249
2 3.2428265 0
3.1709659 3.6893488e+19 2.4121068
0 3.2682543 -3.6893488e+19
3.1609862 2 2.4107482
-3.6893488e+19 3.2449596 -3.6893488e+19
3.1727879 0 2.3773749
2 3.2701964 -1.0842022e-19
3.1639619 1.0842022e-19 2.3755631
-3.6893488e+19 3.2442729 -2
3.1722014 3.6893488e+19 2.3404229
2 3.2185585 2
3.1756611 -3.6893488e+19 2.3137929
-3.6893488e+19 3.2570596 0
3.1693583 -3.6893488e+19 2.3103089
1.0842022e-19 3.2130911 -1.0842022e-19
3.1706941 3.6893488e+19 2.2751238
0 3.252249 -0
3.16151 1.0842022e-19 2.2680805
-1.0842022e-19 3.2204425 1.0842022e-19
3.1773727 -1.0842022e-19 2.2378967
-1.0842022e-19 3.2514381 1.0842022e-19
3.1601875 1.0842022e-19 2.2118955
-0 3.218832 -0
3.1759095 3.6893488e+19 2.165431
3.6893488e+19 3.2530346 3.6893488e+19
3.1627917 2 2.1418562
0 3.2194171 3.6893488e+19
3.176441 1.0842022e-19 2.09512
-3.6893488e+19 3.2534575 2
3.163482 -1.0842022e-19 2.0694699
-3.6893488e+19 3.214638 2
3.1720996 -2 2.0215175
0 3.1789367 -1.0842022e-19
3.0998759 -3.6893488e+19 1.9585347
-0 3.2167726 2
3.1740386 -3.6893488e+19 1.9523944
-1.0842022e-19 3.1758974 -3.6893488e+19
3.0973969 2 1.895736
-2 3.214236 -0
3.1717343 -1.0842022e-19 1.8813124
2 3.1923296 0
3.1108005 -3.6893488e+19 1.8003478
-2 3.177156 -0
3.0772181 3.6893488e+19 1.7105563
-1.0842022e-19 3.1891811 0
3.1251428 -0 1.5692589
3.6893488e+19 3.2051718 1.0842022e-19
3.0986793 2 -1.3758916
3.6893488e+19 3.1651797 -1.0842022e-19
3.104641 0 -1.6517655
2 3.1787386 1.0842022e-19
3.0784304 1.0842022e-19 -1.7602912
-3.6893488e+19 3.1820781 -0
3.0809886 0 -1.8788946
-2 3.1715999 -0
3.1101251 2 -1.9122342
0 3.1831641 1.0842022e-19
3.0818205 -3.6893488e+19 -1.9400936
-0 3.1849093 3.6893488e+19
3.1214938 -3.6893488e+19 -1.9811889
-0 3.1232018 -2
3.035887 0 -1.966254
2 2.7836905 0
2.6846359 -0 -1.8692075
-2 2.711525 0
2.6442287 -0 -1.8493497
2 2.6457837 -0
2.6095488 2 -1.8375891
-0 2.6454177 2
2.5725353 -0 -1.8421389
-2 2.5908592 -3.6893488e+19
2.5596528 -1.0842022e-19 -1.8338397
-3.6893488e+19 2.5875385 0
2.5253243 -3.6893488e+19 -1.8347279
-3.6893488e+19 2.5532281 1.0842022e-19
2.5254672 -0 -1.8337156
2 3.2538993 2
3.1642025 3.6893488e+19 -2.3522084
-1.0842022e-19 3.2565634 -1.0842022e-19
3.1685486 -0 -2.3930213
-0 2.4601135 3.6893488e+19
2.4179893 1.0842022e-19 -1.8181919
3.6893488e+19 2.4665074 -2
2.3805218 -1.0842022e-19 -1.8205435
-2 2.4117289 2
2.3740344 -1.0842022e-19 -1.8134879
-2 2.4077599 -2
2.3326025 -1.0842022e-19 -1.8106984
3.6893488e+19 2.3685408 -3.6893488e+19
2.3348 1.0842022e-19 -1.8077099
-0 2.36835 -2
2.3004565 -2 -1.8061157
2 2.3357019 -2
2.3049676 -0 -1.8041923
1.0842022e-19 3.2579005 -0
3.1707296 3.6893488e+19 2.6118579
1.0842022e-19 3.2564814 -0
3.1684146 -3.6893488e+19 2.5910828
2 3.2376418 -3.6893488e+19
3.1477606 -3.6893488e+19 2.5564251
-1.0842022e-19 3.2851641 3.6893488e+19
3.1868937 -3.6893488e+19 2.589673
-1.0842022e-19 3.244349 1.0842022e-19
3.1722665 -0 2.5481958
-1.0842022e-19 3.2775762 -0
3.1752684 3.6893488e+19 2.5608764
2 3.2191699 0
3.1507587 2 2.5155911
-1.0842022e-19 3.2439091 1.0842022e-19
3.1718907 -0 2.5112848
3.6893488e+19 3.2674854 -0
3.1598084 3.6893488e+19 2.5115848
-3.6893488e+19 3.2416408 -1.0842022e-19
3.1699531 2 2.4837747
2 3.1992872 -2
3.0941713 -2 2.4075336
-3.6893488e+19 3.2414997 0
3.1698327 3.6893488e+19 2.4472911
-1.0842022e-19 3.1983714 -1.0842022e-19
3.0934699 1.0842022e-19 2.3749719
1.0842022e-19 3.2268853 1.0842022e-19
3.1573491 -0 2.3987765
-2 3.1996093 0
3.0944183 2 2.3442187
-3.6893488e+19 3.2449596 -3.6893488e+19
3.1727879 0 2.3773749
1.0842022e-19 3.1997871 0
3.0945544 3.6893488e+19 2.3125937
-3.6893488e+19 3.2442729 -2
3.1722014 3.6893488e+19 2.3404229
2 3.2185585 2
3.1756611 -3.6893488e+19 2.3137929
-0 3.1762693 2
3.0977004 -2 2.2572849
1.0842022e-19 3.2130911 -1.0842022e-19
3.1706941 3.6893488e+19 2.2751238
-0 3.1720312 -2
3.0942433 1.0842022e-19 2.1985185
0 3.1806808 0
3.1412511 -0 2.1966596
-2 3.1740351 -1.0842022e-19
3.0958779 2 2.1394792
0 3.1781566 2
3.138958 0 2.1293886
-2 3.1734061 -3.6893488e+19
3.0953648 1.0842022e-19 2.0778491
0 3.2194171 3.6893488e+19
3.176441 1.0842022e-19 2.09512
1.0842022e-19 3.1756124 -2
3.0971644 3.6893488e+19 2.0182309
-1.0842022e-19 3.1674228 -1.0842022e-19
3.1292069 2 1.9939268
0 3.1789367 -1.0842022e-19
3.0998759 -3.6893488e+19 1.9585347
-2 3.1699889 2
3.1315382 2 1.9321089
-1.0842022e-19 3.1758974 -3.6893488e+19
3.0973969 2 1.895736
-3.6893488e+19 3.1724195 1.0842022e-19
3.1337464 2 1.8639687
2 3.1923296 0
3.1108005 -3.6893488e+19 1.8003478
-2 3.177156 -0
3.0772181 3.6893488e+19 1.7105563
-2 3.1638277 -3.6893488e+19
3.1034861 -3.6893488e+19 1.5580446
-2 3.1782305 1.0842022e-19
3.0780413 -2 -1.3618803
3.6893488e+19 3.1651797 -1.0842022e-19
3.104641 0 -1.6517655
2 3.1787386 1.0842022e-19
3.0784304 1.0842022e-19 -1.7602912
-3.6893488e+19 3.1820781 -0
3.0809886 0 -1.8788946
-2 3.1715999 -0
3.1101251 2 -1.9122342
0 3.1831641 1.0842022e-19
3.0818205 -3.6893488e+19 -1.9400936
3.6893488e+19 3.1057615 -3.6893488e+19
3.0538867 -2 -1.9391155
-0 3.1232018 -2
3.035887 0 -1.966254
2 2.7836905 0
2.6846359 -0 -1.8692075
-2 2.711525 0
2.6442287 -0 -1.8493497
2 2.6457837 -0
2.6095488 2 -1.8375891
-0 2.6454177 2
2.5725353 -0 -1.8421389
-2 2.5908592 -3.6893488e+19
2.5596528 -1.0842022e-19 -1.8338397
-3.6893488e+19 2.5875385 0
2.5253243 -3.6893488e+19 -1.8347279
-3.6893488e+19 2.5532281 1.0842022e-19
2.5254672 -0 -1.8337156
2 3.2538993 2
3.1642025 3.6893488e+19 -2.3522084
-1.0842022e-19 3.2565634 -1.0842022e-19
3.1685486 -0 -2.3930213
-0 2.4601135 3.6893488e+19
2.4179893 1.0842022e-19 -1.8181919
3.6893488e+19 2.4665074 -2
2.3805218 -1.0842022e-19 -1.8205435
-2 2.4117289 2
2.3740344 -1.0842022e-19 -1.8134879
-2 2.4077599 -2
2.3326025 -1.0842022e-19 -1.8106984
3.6893488e+19 2.3685408 -3.6893488e+19
2.3348 1.0842022e-19 -1.8077099
-0 2.36835 -2
2.3004565 -2 -1.8061157
2 2.3357019 -2
2.3049676 -0 -1.8041923
3.6893488e+19 3.2394385 -3.6893488e+19
3.1658616 -2 2.7092781
-0 3.2518764 0
3.2052331 2 2.7257736
-0 3.258426 0
3.1693397 2 2.6118243
-3.6893488e+19 3.2570157 -1.0842022e-19
3.1670513 -2 2.5910668
1.0842022e-19 3.2569513 3.6893488e+19
3.1669466 -0 2.5722404
3.6893488e+19 3.244009 1.0842022e-19
3.1697452 1.0842022e-19 2.5473273
0 3.2792683 0
3.1755462 2 2.5621467
-2 3.2455046 3.6893488e+19
3.171016 -1.0842022e-19 2.5298743
-2 3.2445848 -0
3.1702344 2 2.5110598
0 3.2443743 -0
3.1700554 -1.0842022e-19 2.4853809
-1.0842022e-19 3.2692971 -3.6893488e+19
3.1603522 -1.0842022e-19 2.4875658
-1.0842022e-19 3.2443998 0
3.1700773 -2 2.4489284
-3.6893488e+19 3.2699425 2
3.1613359 2 2.450603
-3.6893488e+19 3.2409587 -3.6893488e+19
3.1671534 -2 2.4096308
3.6893488e+19 3.2420027 1.0842022e-19
3.1680405 3.6893488e+19 2.374285
-1.0842022e-19 3.2423105 3.6893488e+19
3.1683021 -1.0842022e-19 2.3383162
-2 3.2199714 -3.6893488e+19
3.1747053 -2 2.3139939
0 3.2582617 3.6893488e+19
3.1690729 -1.0842022e-19 2.3110969
3.6893488e+19 3.2153015 1.0842022e-19
3.1704853 -3.6893488e+19 2.2757823
-1.0842022e-19 3.2513928 2
3.1579273 -1.0842022e-19 2.2666025
3.6893488e+19 3.2238057 -1.0842022e-19
3.1781702 2 2.240221
0 3.2518165 -1.0842022e-19
3.1586144 -0 2.2116065
-2 3.180192 1.0842022e-19
3.1387575 3.6893488e+19 2.1302896
1.0842022e-19 3.2539012 3.6893488e+19
3.1619973 2 2.1423621
-1.0842022e-19 3.2240996 1.0842022e-19
3.178436 1.0842022e-19 2.0977373
-1.0842022e-19 3.255441 -0
3.1644959 3.6893488e+19 2.0712852
1.0842022e-19 3.2160192 0
3.1711338 -2 2.0216796
2 3.1802146 -0
3.0990477 0 1.9587114
3.6893488e+19 3.2188773 -0
3.1737165 0 1.9528257
0 3.2627678 -2
3.1763847 -1.0842022e-19 1.9294482
0 3.1720083 -0
3.1313617 1.0842022e-19 1.8631706
-3.6893488e+19 3.1950192 -3.6893488e+19
3.1110592 -1.0842022e-19 1.801039
-0 3.1817393 -2
3.0789399 -3.6893488e+19 1.7123904
-3.6893488e+19 3.1630127 -2
3.100925 -2 1.5572773
-3.6893488e+19 3.1680827 0
3.105233 -0 -1.6524863
-1.0842022e-19 3.1818087 -1.0842022e-19
3.0789928 -0 -1.7609879
2 3.1701794 -0
3.1070142 -0 -1.8246425
-3.6893488e+19 3.1820977 1.0842022e-19
3.0792131 -0 -1.8786429
3.6893488e+19 3.1733742 2
3.1097288 3.6893488e+19 -1.9125541
-0 3.1839066 3.6893488e+19
3.0805912 -0 -1.9400393
-1.0842022e-19 3.1867132 -2
3.1210625 -0 -1.9816309
0 3.1199484 1.0842022e-19
3.0318618 -1.0842022e-19 -1.9639405
-3.6893488e+19 2.7817745 3.6893488e+19
2.6793654 0 -1.867074
-2 2.7200723 2
2.6494069 1.0842022e-19 -1.8529959
-2 2.6525586 -0
2.6137855 -3.6893488e+19 -1.8407161
-1.0842022e-19 2.6482959 -3.6893488e+19
2.5731509 3.6893488e+19 -1.8432543
1.0842022e-19 2.5921314 3.6893488e+19
2.5591784 -0 -1.8341227
-3.6893488e+19 2.5856416 -3.6893488e+19
2.5223174 0 -1.8331059
-3.6893488e+19 2.5540404 1.0842022e-19
2.5247564 -1.0842022e-19 -1.8337791
0 3.2542546 1.0842022e-19
3.1625707 2 -2.3886561
-3.6893488e+19 2.4608357 -1.0842022e-19
2.4164495 -0 -1.8180369
2 2.4663405 2
2.3783579 -3.6893488e+19 -1.8200579
1.0842022e-19 2.414 -3.6893488e+19
2.3741248 1.0842022e-19 -1.8140788
-0 2.4090157 0
2.3318484 0 -1.8108742
0 2.3697851 -2
2.3341684 -3.6893488e+19 -1.8078926
-0 2.3693283 -0
2.2996485 2 -1.8062106
3.6893488e+19 2.3364987 1.0842022e-19
2.3040884 -0 -1.8041923
2 2.3145857 3.6893488e+19
2.2293625 -3.6893488e+19 -1.8035586
2 2.2667143 2
2.1564167 3.6893488e+19 -1.7953558
-1.0842022e-19 2.2166657 3.6893488e+19
2.1055503 -2 -1.790688
-0 2.173651 -0
2.0727775 -0 -1.7905941
1.0842022e-19 2.1022017 1.0842022e-19
2.0682788 3.6893488e+19 -1.7861809
-3.6893488e+19 2.0794437 -1.0842022e-19
2.0477128 -3.6893488e+19 -1.7885355
0 2.0654671 1.0842022e-19
2.0350823 1.0842022e-19 -1.7938882
3.6893488e+19 3.2394385 -3.6893488e+19
3.1658616 -2 2.7092781
-0 3.2518764 0
3.2052331 2 2.7257736
-0 3.258426 0
3.1693397 2 2.6118243
-3.6893488e+19 3.2570157 -1.0842022e-19
3.1670513 -2 2.5910668
0 3.2382474 -2
3.1461315 -0 2.5561533
-2 3.226217 -2
3.1546278 1.0842022e-19 2.5366189
0 3.2792683 0
3.1755462 2 2.5621467
-0 3.2309666 -3.6893488e+19
3.1586633 0 2.521663
-2 3.2445848 -0
3.1702344 2 2.5110598
0 3.2443743 -0
3.1700554 -1.0842022e-19 2.4853809
-1.0842022e-19 3.2692971 -3.6893488e+19
3.1603522 -1.0842022e-19 2.4875658
-1.0842022e-19 3.2443998 0
3.1700773 -2 2.4489284
-3.6893488e+19 3.2699425 2
3.1613359 2 2.450603
-3.6893488e+19 3.2409587 -3.6893488e+19
3.1671534 -2 2.4096308
3.6893488e+19 3.2420027 1.0842022e-19
3.1680405 3.6893488e+19 2.374285
-1.0842022e-19 3.2423105 3.6893488e+19
3.1683021 -1.0842022e-19 2.3383162
-2 3.2199714 -3.6893488e+19
3.1747053 -2 2.3139939
1.0842022e-19 3.1770082 -2
3.096446 3.6893488e+19 2.2571828
3.6893488e+19 3.2153015 1.0842022e-19
3.1704853 -3.6893488e+19 2.2757823
-2 3.1756933 -2
3.0953794 3.6893488e+19 2.2014484
0 3.1817262 -1.0842022e-19
3.1401436 0 2.1966836
3.6893488e+19 3.1728053 -3.6893488e+19
3.0930362 -1.0842022e-19 2.1375237
-2 3.180192 1.0842022e-19
3.1387575 3.6893488e+19 2.1302896
2 3.17523 0
3.0950036 -0 2.0785611
-1.0842022e-19 3.2240996 1.0842022e-19
3.178436 1.0842022e-19 2.0977373
-3.6893488e+19 3.1779261 0
3.0971911 2 2.0191157
3.6893488e+19 3.1751118 1.0842022e-19
3.1341665 -2 1.9978316
2 3.1802146 -0
3.0990477 0 1.9587114
0 3.1705687 0
3.1300609 2 1.9319284
2 3.1778727 -2
3.0971475 2 1.8961005
0 3.1720083 -0
3.1313617 1.0842022e-19 1.8631706
-3.6893488e+19 3.1950192 -3.6893488e+19
3.1110592 -1.0842022e-19 1.801039
-0 3.1817393 -2
3.0789399 -3.6893488e+19 1.7123904
-3.6893488e+19 3.1630127 -2
3.100925 -2 1.5572773
-3.6893488e+19 3.1680827 0
3.105233 -0 -1.6524863
-1.0842022e-19 3.1818087 -1.0842022e-19
3.0789928 -0 -1.7609879
2 3.1701794 -0
3.1070142 -0 -1.8246425
-3.6893488e+19 3.1820977 1.0842022e-19
3.0792131 -0 -1.8786429
3.6893488e+19 3.1733742 2
3.1097288 3.6893488e+19 -1.9125541
-0 3.1839066 3.6893488e+19
3.0805912 -0 -1.9400393
-1.0842022e-19 3.1867132 -2
3.1210625 -0 -1.9816309
0 3.1199484 1.0842022e-19
3.0318618 -1.0842022e-19 -1.9639405
-3.6893488e+19 2.7817745 3.6893488e+19
2.6793654 0 -1.867074
-2 2.7200723 2
2.6494069 1.0842022e-19 -1.8529959
-2 2.6525586 -0
2.6137855 -3.6893488e+19 -1.8407161
-1.0842022e-19 2.6482959 -3.6893488e+19
2.5731509 3.6893488e+19 -1.8432543
1.0842022e-19 2.5921314 3.6893488e+19
2.5591784 -0 -1.8341227
-3.6893488e+19 2.5856416 -3.6893488e+19
2.5223174 0 -1.8331059
-3.6893488e+19 2.5540404 1.0842022e-19
2.5247564 -1.0842022e-19 -1.8337791
0 3.2542546 1.0842022e-19
3.1625707 2 -2.3886561
-3.6893488e+19 2.4608357 -1.0842022e-19
2.4164495 -0 -1.8180369
2 2.4663405 2
2.3783579 -3.6893488e+19 -1.8200579
1.0842022e-19 2.414 -3.6893488e+19
2.3741248 1.0842022e-19 -1.8140788
-0 2.4090157 0
2.3318484 0 -1.8108742
0 2.3697851 -2
2.3341684 -3.6893488e+19 -1.8078926
-0 2.3693283 -0
2.2996485 2 -1.8062106
3.6893488e+19 2.3364987 1.0842022e-19
2.3040884 -0 -1.8041923
2 2.3145857 3.6893488e+19
2.2293625 -3.6893488e+19 -1.8035586
2 2.2667143 2
2.1564167 3.6893488e+19 -1.7953558
-1.0842022e-19 2.2166657 3.6893488e+19
2.1055503 -2 -1.790688
-0 2.173651 -0
2.0727775 -0 -1.7905941
1.0842022e-19 2.1022017 1.0842022e-19
2.0682788 3.6893488e+19 -1.7861809
-3.6893488e+19 2.0794437 -1.0842022e-19
2.0477128 -3.6893488e+19 -1.7885355
0 2.0654671 1.0842022e-19
2.0350823 1.0842022e-19 -1.7938882
3.6893488e+19 3.2431295 2
3.1667879 3.6893488e+19 2.71172
1.0842022e-19 3.2524693 2
3.2039175 2 2.7257736
-3.6893488e+19 3.2489824 -3.6893488e+19
3.1526875 -2 2.6717134
3.6893488e+19 3.258743 3.6893488e+19
3.1676204 -1.0842022e-19 2.6115043
2 3.257571 -1.0842022e-19
3.1657286 -3.6893488e+19 2.5910828
0 3.2578926 -0
3.1662476 3.6893488e+19 2.5727389
0 3.2454817 -0
3.1687758 -2 2.547555
3.6893488e+19 3.2500803 -3.6893488e+19
3.1727304 -2 2.5318804
-3.6893488e+19 3.2903872 3.6893488e+19
3.1900997 2 2.5533757
1.0842022e-19 3.2507725 -2
3.1739004 -0 2.514149
1.0842022e-19 3.2483199 -2
3.1711745 -2 2.4881744
3.6893488e+19 3.2702904 0
3.1596417 -2 2.488395
0 3.2693117 -3.6893488e+19
3.1581581 -1.0842022e-19 2.4486594
-0 3.2466383 -3.6893488e+19
3.1697533 -2 2.3769772
-2 3.2450194 3.6893488e+19
3.1683853 2 2.3394268
3.6893488e+19 3.2207994 -1.0842022e-19
3.1732278 -1.0842022e-19 2.3138084
-3.6893488e+19 3.2586615 2
3.1674891 3.6893488e+19 2.3109219
0 3.2256324 1.0842022e-19
3.1775725 1.0842022e-19 2.2812436
3.6893488e+19 3.252337 -3.6893488e+19
3.1572807 2 2.2670395
-1.0842022e-19 3.2276368 2
3.1793745 -1.0842022e-19 2.2430243
2 3.2531745 -2
3.1586325 1.0842022e-19 2.2131176
-3.6893488e+19 3.2261827 -2
3.1780672 0 2.1699569
-0 3.2557256 2
3.1627502 -3.6893488e+19 2.1443481
-2 3.2285602 0
3.1802046 2 2.1001847
-3.6893488e+19 3.2572324 -1.0842022e-19
3.1651824 3.6893488e+19 2.0728564
-3.6893488e+19 3.2179987 1.0842022e-19
3.1707103 3.6893488e+19 2.0221932
0 3.1818287 2
3.0984933 1.0842022e-19 1.9590527
2 3.2675295 2
3.181802 1.0842022e-19 1.932315
-2 3.1746049 -2
3.131701 -0 1.8640734
-0 3.1974187 -1.0842022e-19
3.1110747 0 1.801615
2 3.1800306 0
3.0758688 3.6893488e+19 1.711131
-0 3.1669579 2
3.1024084 -3.6893488e+19 1.5586121
3.6893488e+19 3.1826038 -3.6893488e+19
3.0778186 0 -1.3633487
3.6893488e+19 3.1671941 -2
3.102608 1.0842022e-19 -1.6518263
2 3.1816692 3.6893488e+19
3.0771105 -2 -1.7606747
-3.6893488e+19 3.1703215 -0
3.1052513 -0 -1.8242692
-1.0842022e-19 3.1804895 1.0842022e-19
3.0762167 2 -1.8779104
-3.6893488e+19 3.1861119 2
3.0804772 -2 -1.940627
-1.0842022e-19 3.1773722 1.0842022e-19
3.1112106 3.6893488e+19 -1.976176
-0 3.1211553 1.0842022e-19
3.0312543 -3.6893488e+19 -1.9642135
2 2.7862654 3.6893488e+19
2.6838527 1.0842022e-19 -1.870445
0 2.7149138 -3.6893488e+19
2.64294 -2 -1.8499959
3.6893488e+19 2.649421 -1.0842022e-19
2.6090617 3.6893488e+19 -1.8385322
3.6893488e+19 2.6491375 -1.0842022e-19
2.5721109 3.6893488e+19 -1.8432543
-1.0842022e-19 2.5951641 -0
2.5602872 -2 -1.8354809
-0 2.589361 -0
2.5238702 -1.0842022e-19 -1.8349682
-0 2.5546634 0
2.5238791 -0 -1.8337156
3.6893488e+19 3.2565794 0
3.1641283 -0 -2.3544204
1.0842022e-19 3.2555921 -3.6893488e+19
3.1625345 -1.0842022e-19 -2.3898768
2 2.4617352 1.0842022e-19
2.4150796 -2 -1.8179594
-3.6893488e+19 2.4677136 -2
2.3774531 -3.6893488e+19 -1.8202198
-3.6893488e+19 2.4166417 -3.6893488e+19
2.3745425 0 -1.8148385
-3.6893488e+19 2.4091046 -0
2.3301547 1.0842022e-19 -1.8105227
-1.0842022e-19 2.3699148 0
2.3325372 -0 -1.8075272
-0 2.3706896 1.0842022e-19
2.2991531 -1.0842022e-19 -1.8064951
-1.0842022e-19 2.3369207 1.0842022e-19
2.3028769 3.6893488e+19 -1.8039957
3.6893488e+19 3.2431295 2
3.1667879 3.6893488e+19 2.71172
1.0842022e-19 3.2524693 2
3.2039175 2 2.7257736
-3.6893488e+19 3.2489824 -3.6893488e+19
3.1526875 -2 2.6717134
3.6893488e+19 3.258743 3.6893488e+19
3.1676204 -1.0842022e-19 2.6115043
2 3.257571 -1.0842022e-19
3.1657286 -3.6893488e+19 2.5910828
2 3.2392306 -2
3.1448176 -2 2.556123
0 3.227603 -1.0842022e-19
3.1536648 2 2.5368183
-1.0842022e-19 3.2291358 -3.6893488e+19
3.1549604 -0 2.5200312
-3.6893488e+19 3.2903872 3.6893488e+19
3.1900997 2 2.5533757
1.0842022e-19 3.2507725 -2
3.1739004 -0 2.514149
-3.6893488e+19 3.2346082 -1.0842022e-19
3.1595857 2 2.4747422
3.6893488e+19 3.2702904 0
3.1596417 -2 2.488395
0 3.2693117 -3.6893488e+19
3.1581581 -1.0842022e-19 2.4486594
-1.0842022e-19 3.1856267 1.0842022e-19
3.1181872 0 2.3306661
0 3.1862888 -2
3.1187465 -1.0842022e-19 2.299156
3.6893488e+19 3.177563 -2
3.1343601 0 2.2849896
-0 3.1752398 -3.6893488e+19
3.0931759 3.6893488e+19 2.2555778
-0 3.1778069 -0
3.1345794 -2 2.252964
-1.0842022e-19 3.1761799 0
3.0939348 -2 2.2010114
2 3.1787729 -3.6893488e+19
3.1354477 -0 2.1925862
-2 3.1777315 1.0842022e-19
3.0951869 -2 2.1412122
-3.6893488e+19 3.2261827 -2
3.1780672 0 2.1699569
0 3.1780727 -0
3.0954621 -2 2.08006
