# .PCD v0.7 - Point Cloud Data file format
VERSION 0.7
FIELDS x y z
SIZE 4 4 4
TYPE F F F
COUNT 1 1 1
WIDTH 1709
HEIGHT 1
VIEWPOINT 0 0 0 1 0 0 0
POINTS 1709
DATA ascii
-2.7673314 3.6893488e+19 -1.8296994
-2 3.1823401 1.0842022e-19
-2.7265255 -1.0842022e-19 -1.8837199
-1.0842022e-19 3.1495759 -3.6893488e+19
-2.7667031 -0 -1.8991052
-0 3.1818519 -1.0842022e-19
-2.7259872 3.6893488e+19 -1.9335613
-3.6893488e+19 3.1273115 3.6893488e+19
-2.7518425 0 -1.9351969
-0 3.1384945 1.0842022e-19
-2.6781988 -2 -1.9601125
-0 3.1191683 -1.0842022e-19
-2.7428143 -1.0842022e-19 -1.974659
3.6893488e+19 2.8337889 -3.6893488e+19
-2.367902 -1.0842022e-19 -1.8441973
3.6893488e+19 2.9162734 0
-2.5278482 -3.6893488e+19 -1.9011722
-2 2.8342905 3.6893488e+19
-2.3684552 -3.6893488e+19 -1.8791351
3.6893488e+19 2.8035901 -2
-2.2950311 1.0842022e-19 -1.8750855
1.0842022e-19 2.7658861 3.6893488e+19
-2.3191907 1.0842022e-19 -1.8628112
2 2.7424753 -0
-2.2285912 -3.6893488e+19 -1.8562521
0 2.6828492 -3.6893488e+19
-2.2598131 2 -1.84386
-1.0842022e-19 2.6558387 3.6893488e+19
-2.1443973 -3.6893488e+19 -1.8389493
-2 2.6200628 -0
-2.194253 0 -1.8337474
-3.6893488e+19 2.5937343 3.6893488e+19
-2.0840437 -3.6893488e+19 -1.8260247
-1.0842022e-19 2.5675855 -1.0842022e-19
-2.1312549 -1.0842022e-19 -1.8227326
-3.6893488e+19 2.5525033 -2
-2.0439751 -2 -1.819371
2 2.5257673 3.6893488e+19
-2.081053 -3.6893488e+19 -1.8128492
-2 2.5152965 1.0842022e-19
-2.0078173 -2 -1.8107895
0 2.4927716 0
-2.0457811 2 -1.8072863
-0 2.478255 2
-1.982386 0 -1.806296
1.0842022e-19 2.4531257 0
-2.0219841 1.0842022e-19 -1.805923
2 2.4397402 2
-1.9636714 -2 -1.804431
3.6893488e+19 3.2670867 -0
-2.794383 -0 2.7418585
-2 3.2719266 -0
-2.7997177 1.0842022e-19 2.7342904
0 3.214678 2
-2.8101566 0 2.6634092
-2 3.2156696 -2
-2.8108184 -2 2.6500125
3.6893488e+19 3.2530539 1.0842022e-19
-2.7789161 1.0842022e-19 2.6701427
-0 3.2141962 -1.0842022e-19
-2.809835 3.6893488e+19 2.6345563
-3.6893488e+19 3.2260656 2
-2.7623599 0 2.6309009
-1.0842022e-19 3.2410049 2
-2.827729 1.0842022e-19 2.6417937
1.0842022e-19 3.2345438 0
-2.7670321 -3.6893488e+19 2.6231687
3.6893488e+19 3.2009282 1.0842022e-19
-2.8009791 3.6893488e+19 2.5961037
3.6893488e+19 3.2532418 -2
-2.7791231 -3.6893488e+19 2.6249294
-0 3.244252 -1.0842022e-19
-2.7303178 2 2.6056778
0 3.2279277 0
-2.7868712 2 2.5917706
-3.6893488e+19 3.2460701 0
-2.732085 -1.0842022e-19 2.5923324
-0 3.2461882 -1.0842022e-19
-2.7321994 1.0842022e-19 2.5777936
-0 3.2449303 3.6893488e+19
-2.7309771 1.0842022e-19 2.5624092
-0 3.2189965 3.6893488e+19
-2.7815104 -1.0842022e-19 2.543364
3.6893488e+19 3.2425027 3.6893488e+19
-2.7286179 3.6893488e+19 2.5464284
-3.6893488e+19 3.2737021 -1.0842022e-19
-2.8285739 -2 2.5761304
0 3.2423913 1.0842022e-19
-2.7285097 -1.0842022e-19 2.5319428
2 3.2720993 1.0842022e-19
-2.8266497 0 2.5580721
-2 3.249239 1.0842022e-19
-2.7351644 1.0842022e-19 2.5212762
0 3.2219365 -1.0842022e-19
-2.7832749 3.6893488e+19 2.5031838
-2 3.2495055 -1.0842022e-19
-2.7354233 -3.6893488e+19 2.5068493
2 3.1632953 -0
-2.7758603 -1.0842022e-19 2.4107635
-0 3.2408588 2
-2.7705123 3.6893488e+19 2.4656155
2 3.1625347 2
-2.7753527 -3.6893488e+19 2.3854342
-2 3.16131 -3.6893488e+19
-2.7745352 2 2.3598275
-0 3.2413836 1.0842022e-19
-2.7708015 -0 2.408608
-3.6893488e+19 3.1773531 -2
-2.7852435 0 2.3484876
0 3.2411151 3.6893488e+19
-2.7706535 2 2.3797121
3.6893488e+19 3.1587944 1.0842022e-19
-2.7728562 2 2.3091085
0 3.2419624 0
-2.7711205 2 2.3516769
0 3.1581242 -2
-2.7724087 -0 2.2844312
1.0842022e-19 3.1967454 3.6893488e+19
-2.7424028 -2 2.2933366
1.0842022e-19 3.1952081 3.6893488e+19
-2.7407084 0 2.2664235
2 3.1499193 -2
-2.7669322 1.0842022e-19 2.2128379
1.0842022e-19 3.2387426 3.6893488e+19
-2.769346 1.0842022e-19 2.2640672
-0 3.2432513 0
-2.7293456 0 2.2501922
2 3.1683891 -0
-2.7511337 -1.0842022e-19 2.1561697
-0 3.1909344 3.6893488e+19
-2.6785035 -0 2.1465333
-2 3.1687276 2
-2.7513371 -1.0842022e-19 2.1075861
2 3.2359531 -2
-2.7222528 -3.6893488e+19 2.1310883
2 3.1720364 0
-2.7533231 -0 2.0611577
-2 3.1966281 2
-2.6840367 -3.6893488e+19 2.0488794
-2 3.1633024 -0
-2.7461612 0 2.0065041
3.6893488e+19 3.1947105 -1.0842022e-19
-2.682173 0 1.9964858
-1.0842022e-19 3.1641474 -2
-2.7471755 -1.0842022e-19 1.9587498
1.0842022e-19 3.1909792 -1.0842022e-19
-2.6785469 -2 1.9437499
1.0842022e-19 3.1653616 1.0842022e-19
-2.7486331 3.6893488e+19 1.9109526
-0 3.2900665 0
-2.781889 -0 1.9382706
-3.6893488e+19 3.1653287 -0
-2.7485938 3.6893488e+19 1.8501192
-2 3.1881549 2
-2.6758025 1.0842022e-19 1.8087676
0 3.1709328 3.6893488e+19
-2.7526605 1.0842022e-19 1.7550936
3.6893488e+19 3.1546767 3.6893488e+19
-2.7701077 3.6893488e+19 1.6574078
0 3.1857584 -1.0842022e-19
-2.7302928 2 1.5068232
-0 3.1510963 1.0842022e-19
-2.7677181 -0 -1.3806262
3.6893488e+19 3.1872308 1.0842022e-19
-2.731916 -2 -1.6361876
-0 3.1517353 0
-2.7681446 -2 -1.721647
3.6893488e+19 3.1859708 1.0842022e-19
-2.7305272 3.6893488e+19 -1.7937933
-2 3.150517 3.6893488e+19
-2.7673314 3.6893488e+19 -1.8296994
-2 3.1823401 1.0842022e-19
-2.7265255 -1.0842022e-19 -1.8837199
-1.0842022e-19 3.1495759 -3.6893488e+19
-2.7667031 -0 -1.8991052
-0 3.1818519 -1.0842022e-19
-2.7259872 3.6893488e+19 -1.9335613
-3.6893488e+19 3.1273115 3.6893488e+19
-2.7518425 0 -1.9351969
-0 3.1384945 1.0842022e-19
-2.6781988 -2 -1.9601125
1.0842022e-19 2.9159143 -0
-2.5276084 -0 -1.8765532
3.6893488e+19 2.8337889 -3.6893488e+19
-2.367902 -1.0842022e-19 -1.8441973
3.6893488e+19 2.9162734 0
-2.5278482 -3.6893488e+19 -1.9011722
-2 2.8342905 3.6893488e+19
-2.3684552 -3.6893488e+19 -1.8791351
3.6893488e+19 2.8035901 -2
-2.2950311 1.0842022e-19 -1.8750855
1.0842022e-19 2.7658861 3.6893488e+19
-2.3191907 1.0842022e-19 -1.8628112
2 2.7424753 -0
-2.2285912 -3.6893488e+19 -1.8562521
0 2.6828492 -3.6893488e+19
-2.2598131 2 -1.84386
-1.0842022e-19 2.6558387 3.6893488e+19
-2.1443973 -3.6893488e+19 -1.8389493
-2 2.6200628 -0
-2.194253 0 -1.8337474
-3.6893488e+19 2.5937343 3.6893488e+19
-2.0840437 -3.6893488e+19 -1.8260247
-1.0842022e-19 2.5675855 -1.0842022e-19
-2.1312549 -1.0842022e-19 -1.8227326
-3.6893488e+19 2.5525033 -2
-2.0439751 -2 -1.819371
2 2.5257673 3.6893488e+19
-2.081053 -3.6893488e+19 -1.8128492
-2 2.5152965 1.0842022e-19
-2.0078173 -2 -1.8107895
0 2.4927716 0
-2.0457811 2 -1.8072863
-0 2.478255 2
-1.982386 0 -1.806296
1.0842022e-19 2.4531257 0
-2.0219841 1.0842022e-19 -1.805923
2 2.4397402 2
-1.9636714 -2 -1.804431
2 3.2547851 3.6893488e+19
-2.8430884 -2 2.7504697
-3.6893488e+19 3.2675447 1.0842022e-19
-2.7979047 3.6893488e+19 2.754667
0 3.2673929 -3.6893488e+19
-2.7977352 -0 2.7427793
-3.6893488e+19 3.213752 2
-2.8122396 -2 2.648715
-0 3.2149515 2
-2.8130472 1.0842022e-19 2.6355202
3.6893488e+19 3.2238879 -3.6893488e+19
-2.7638311 0 2.6294334
2 3.2405744 -1.0842022e-19
-2.8302987 1.0842022e-19 2.6417937
2 3.2342222 -0
-2.7695847 -0 2.6231916
-1.0842022e-19 3.2414134 2
-2.8308637 3.6893488e+19 2.6275086
3.6893488e+19 3.2527618 -1.0842022e-19
-2.7814441 1.0842022e-19 2.6244905
-2 3.2442348 1.0842022e-19
-2.735786 1.0842022e-19 2.6058931
-3.6893488e+19 3.2228632 3.6893488e+19
-2.7865324 -2 2.5884161
0 3.2431493 1.0842022e-19
-2.7347188 1.0842022e-19 2.5905344
2 3.2460806 2
-2.7376001 -1.0842022e-19 2.5779321
-0 3.2730339 1.0842022e-19
-2.8308909 -3.6893488e+19 2.608129
2 3.2444639 1.0842022e-19
-2.736011 -3.6893488e+19 2.5623143
-1.0842022e-19 3.2553427 -1.0842022e-19
-2.8094509 3.6893488e+19 2.5696936
-0 3.2421877 -0
-2.7337737 3.6893488e+19 2.5464284
-2 3.1885133 3.6893488e+19
-2.6810169 3.6893488e+19 2.5012531
-2 3.2716177 -2
-2.8291745 2 2.5577698
-0 3.2488596 1.0842022e-19
-2.7403316 0 2.5212436
2 3.2509253 0
-2.8040974 0 2.5194449
-1.0842022e-19 3.2496679 3.6893488e+19
-2.7411261 -1.0842022e-19 2.5070972
-3.6893488e+19 3.2406526 -2
-2.7731647 -3.6893488e+19 2.4657574
-3.6893488e+19 3.2366476 0
-2.8276551 1.0842022e-19 2.4550779
-2 3.2506194 2
-2.7790587 2 2.4464371
-2 3.2351263 -1.0842022e-19
-2.8266306 2 2.424777
1.0842022e-19 3.2438433 1.0842022e-19
-2.7749412 -0 2.4109511
3.6893488e+19 3.2309256 -2
-2.8238022 -2 2.3925176
1.0842022e-19 3.2398598 1.0842022e-19
-2.7727234 -3.6893488e+19 2.3790162
-1.0842022e-19 3.2428055 -3.6893488e+19
-2.7743633 0 2.3525352
-2 3.1537519 -2
-2.771842 2 2.2816312
-3.6893488e+19 3.2420089 0
-2.7739201 -0 2.3232915
0 3.1930838 0
-2.7433629 -1.0842022e-19 2.2653444
-2 3.1556551 -1.0842022e-19
-2.7731235 3.6893488e+19 2.2198884
3.6893488e+19 3.2441778 -2
-2.7357297 -2 2.2508223
0 3.1674917 -0
-2.7529798 -3.6893488e+19 2.1556184
1.0842022e-19 3.2368026 3.6893488e+19
-2.7284806 2 2.1880627
-0 3.2834516 3.6893488e+19
-2.8435161 -3.6893488e+19 2.2345078
2 3.2720428 2
-2.7673922 -3.6893488e+19 2.1769493
1.0842022e-19 3.2832022 2
-2.8432138 1.0842022e-19 2.1679268
3.6893488e+19 3.1954026 0
-2.6877885 0 2.0482502
-3.6893488e+19 3.2880044 2
-2.8490338 -3.6893488e+19 2.1077652
3.6893488e+19 3.1945474 3.6893488e+19
-2.6869478 -0 1.9965531
-0 3.1679161 3.6893488e+19
-2.753237 0 1.9608158
-1.0842022e-19 3.1921229 3.6893488e+19
-2.6845648 1.0842022e-19 1.9443768
3.6893488e+19 3.1659906 -1.0842022e-19
-2.7520702 0 1.9113237
3.6893488e+19 3.3063915 -3.6893488e+19
-2.8713169 0 1.9162035
-3.6893488e+19 3.2989564 1.0842022e-19
-2.7938459 2 1.8754662
-0 3.1679089 2
-2.7532327 -1.0842022e-19 1.754261
-0 3.1506789 -0
-2.769773 -2 1.6559895
-0 3.2992914 -0
-2.8332536 0 1.5562114
-0 3.1484344 1.0842022e-19
-2.7682619 -3.6893488e+19 -1.3798732
-0 3.2349615 1.0842022e-19
-2.7699964 -1.0842022e-19 -1.6511642
-1.0842022e-19 3.2462127 -0
-2.834095 -1.0842022e-19 -1.7620064
-3.6893488e+19 3.2384257 -2
-2.771925 -3.6893488e+19 -1.8142393
1.0842022e-19 3.153986 -0
-2.7719996 -2 -1.8316535
0 3.1800404 0
-2.7288394 -1.0842022e-19 -1.883105
0 3.1491368 2
-2.7687347 2 -1.8990721
-0 3.1703734 -0
-2.7180755 -2 -1.9288119
1.0842022e-19 3.1261518 2
-2.7532592 0 -1.9347897
-3.6893488e+19 3.1372199 -0
-2.68116 -1.0842022e-19 -1.9595751
2 3.117187 0
-2.7444468 -3.6893488e+19 -1.9736494
3.6893488e+19 2.8333063 -2
-2.3711283 1.0842022e-19 -1.8440392
2 2.9149022 -2
-2.5293493 3.6893488e+19 -1.9008065
3.6893488e+19 2.8331461 -0
-2.37095 2 -1.8787864
3.6893488e+19 2.7989101 -3.6893488e+19
-2.2938001 2 -1.8714721
-3.6893488e+19 2.7654371 -2
-2.3216844 0 -1.8625973
2 2.739373 1.0842022e-19
-2.2310071 0 -1.8549424
1.0842022e-19 2.6841793 0
-2.2630918 -1.0842022e-19 -1.8447059
1.0842022e-19 2.6566696 0
-2.1497176 -0 -1.8395245
0 2.6194129 2
-2.1976929 2 -1.8335452
2 2.5932724 -3.6893488e+19
-2.087404 0 -1.825883
-2 2.5680506 -2
-2.1354468 0 -1.8231786
2 2.5530362 -3.6893488e+19
-2.0478556 1.0842022e-19 -1.8198379
3.6893488e+19 2.5254304 1.0842022e-19
-2.0837953 0 -1.812768
1.0842022e-19 2.5158527 -3.6893488e+19
-2.0113077 -3.6893488e+19 -1.811298
3.6893488e+19 2.4914293 -2
-2.0477824 -1.0842022e-19 -1.8069333
-2 2.4784327 1.0842022e-19
-1.985127 -0 -1.8064793
-0 2.4515772 -2
-2.023634 2 -1.8054471
-0 2.4384925 -2
-1.9654982 -3.6893488e+19 -1.8040364
1.0842022e-19 2.3632686 -1.0842022e-19
-1.994585 0 -1.7985981
-1.0842022e-19 2.3130672 -0
-1.960785 -1.0842022e-19 -1.7932969
-2 2.2775261 -3.6893488e+19
-1.9368556 0 -1.7908174
1.0842022e-19 2.2439711 -3.6893488e+19
-1.9162928 3.6893488e+19 -1.7874249
0 2.2181468 -3.6893488e+19
-1.8550718 1.0842022e-19 -1.789028
-2 2.1811786 3.6893488e+19
-1.8369038 1.0842022e-19 -1.7888455
2 2.1495495 -1.0842022e-19
-1.8213595 -3.6893488e+19 -1.7887211
-2 2.1170619 -1.0842022e-19
-1.8053935 -0 -1.7863971
2 3.2547851 3.6893488e+19
-2.8430884 -2 2.7504697
-3.6893488e+19 3.2675447 1.0842022e-19
-2.7979047 3.6893488e+19 2.754667
0 3.2673929 -3.6893488e+19
-2.7977352 -0 2.7427793
-3.6893488e+19 3.213752 2
-2.8122396 -2 2.648715
-0 3.2149515 2
-2.8130472 1.0842022e-19 2.6355202
3.6893488e+19 3.2238879 -3.6893488e+19
-2.7638311 0 2.6294334
2 3.2405744 -1.0842022e-19
-2.8302987 1.0842022e-19 2.6417937
2 3.2342222 -0
-2.7695847 -0 2.6231916
-0 3.2001538 0
-2.8030841 -2 2.5958126
-3.6893488e+19 3.2401123 1.0842022e-19
-2.7728641 -3.6893488e+19 2.6130736
-2 3.2442348 1.0842022e-19
-2.735786 1.0842022e-19 2.6058931
-3.6893488e+19 3.2228632 3.6893488e+19
-2.7865324 -2 2.5884161
0 3.2431493 1.0842022e-19
-2.7347188 1.0842022e-19 2.5905344
2 3.2460806 2
-2.7376001 -1.0842022e-19 2.5779321
-0 3.2730339 1.0842022e-19
-2.8308909 -3.6893488e+19 2.608129
2 3.2444639 1.0842022e-19
-2.736011 -3.6893488e+19 2.5623143
2 3.2135687 -1.0842022e-19
-2.7809002 -0 2.5401978
-0 3.1901793 -1.0842022e-19
-2.6826544 3.6893488e+19 2.5151055
-2 3.1885133 3.6893488e+19
-2.6810169 3.6893488e+19 2.5012531
2 3.2251015 -2
-2.7878885 3.6893488e+19 2.5191684
-3.6893488e+19 3.1904321 0
-2.6829031 -1.0842022e-19 2.4789498
1.0842022e-19 3.2261026 0
-2.7884953 0 2.5056207
-3.6893488e+19 3.1923926 3.6893488e+19
-2.68483 2 2.4552543
-3.6893488e+19 3.2406526 -2
-2.7731647 -3.6893488e+19 2.4657574
0 3.1599946 -1.0842022e-19
-2.7760451 0 2.3833973
-2 3.2506194 2
-2.7790587 2 2.4464371
-2 3.1613321 2
-2.7769458 -1.0842022e-19 2.3601627
1.0842022e-19 3.2438433 1.0842022e-19
-2.7749412 -0 2.4109511
-2 3.1610889 -0
-2.776782 3.6893488e+19 2.3355191
1.0842022e-19 3.2398598 1.0842022e-19
-2.7727234 -3.6893488e+19 2.3790162
-1.0842022e-19 3.2428055 -3.6893488e+19
-2.7743633 0 2.3525352
-2 3.1537519 -2
-2.771842 2 2.2816312
-3.6893488e+19 3.2420089 0
-2.7739201 -0 2.3232915
0 3.1930838 0
-2.7433629 -1.0842022e-19 2.2653444
-2 3.1556551 -1.0842022e-19
-2.7731235 3.6893488e+19 2.2198884
-3.6893488e+19 3.1942904 2
-2.6866953 3.6893488e+19 2.2010038
0 3.1674917 -0
-2.7529798 -3.6893488e+19 2.1556184
1.0842022e-19 3.1932282 -2
-2.6856511 0 2.1488512
0 3.1674416 3.6893488e+19
-2.7529495 -0 2.1067693
2 3.2720428 2
-2.7673922 -3.6893488e+19 2.1769493
0 3.1720321 2
-2.7557311 -2 2.0614002
3.6893488e+19 3.1954026 0
-2.6877885 0 2.0482502
-2 3.1619601 -0
-2.7492561 -2 2.0058727
3.6893488e+19 3.1945474 3.6893488e+19
-2.6869478 -0 1.9965531
-0 3.1679161 3.6893488e+19
-2.753237 0 1.9608158
-1.0842022e-19 3.1921229 3.6893488e+19
-2.6845648 1.0842022e-19 1.9443768
3.6893488e+19 3.1659906 -1.0842022e-19
-2.7520702 0 1.9113237
3.6893488e+19 3.164104 -3.6893488e+19
-2.750927 2 1.8496326
0 3.1903329 1.0842022e-19
-2.6828053 3.6893488e+19 1.8097991
-0 3.1679089 2
-2.7532327 -1.0842022e-19 1.754261
-0 3.1506789 -0
-2.769773 -2 1.6559895
-2 3.186496 -0
-2.7360277 1.0842022e-19 1.5071422
-0 3.1484344 1.0842022e-19
-2.7682619 -3.6893488e+19 -1.3798732
2 3.1862516 -1.0842022e-19
-2.7357554 0 -1.6359812
2 3.1502576 -1.0842022e-19
-2.7694893 -0 -1.7210256
0 3.1848421 3.6893488e+19
-2.7341859 -1.0842022e-19 -1.7934784
1.0842022e-19 3.153986 -0
-2.7719996 -2 -1.8316535
0 3.1800404 0
-2.7288394 -1.0842022e-19 -1.883105
0 3.1491368 2
-2.7687347 2 -1.8990721
-0 3.1703734 -0
-2.7180755 -2 -1.9288119
1.0842022e-19 3.1261518 2
-2.7532592 0 -1.9347897
-3.6893488e+19 3.1372199 -0
-2.68116 -1.0842022e-19 -1.9595751
0 2.9159639 -2
-2.5300641 1.0842022e-19 -1.8766794
3.6893488e+19 2.8333063 -2
-2.3711283 1.0842022e-19 -1.8440392
2 2.9149022 -2
-2.5293493 3.6893488e+19 -1.9008065
3.6893488e+19 2.8331461 -0
-2.37095 2 -1.8787864
3.6893488e+19 2.7989101 -3.6893488e+19
-2.2938001 2 -1.8714721
-3.6893488e+19 2.7654371 -2
-2.3216844 0 -1.8625973
2 2.739373 1.0842022e-19
-2.2310071 0 -1.8549424
1.0842022e-19 2.6841793 0
-2.2630918 -1.0842022e-19 -1.8447059
1.0842022e-19 2.6566696 0
-2.1497176 -0 -1.8395245
0 2.6194129 2
-2.1976929 2 -1.8335452
2 2.5932724 -3.6893488e+19
-2.087404 0 -1.825883
-2 2.5680506 -2
-2.1354468 0 -1.8231786
2 2.5530362 -3.6893488e+19
-2.0478556 1.0842022e-19 -1.8198379
3.6893488e+19 2.5254304 1.0842022e-19
-2.0837953 0 -1.812768
1.0842022e-19 2.5158527 -3.6893488e+19
-2.0113077 -3.6893488e+19 -1.811298
3.6893488e+19 2.4914293 -2
-2.0477824 -1.0842022e-19 -1.8069333
-2 2.4784327 1.0842022e-19
-1.985127 -0 -1.8064793
-0 2.4515772 -2
-2.023634 2 -1.8054471
-0 2.4384925 -2
-1.9654982 -3.6893488e+19 -1.8040364
1.0842022e-19 2.3632686 -1.0842022e-19
-1.994585 0 -1.7985981
-1.0842022e-19 2.3130672 -0
-1.960785 -1.0842022e-19 -1.7932969
-2 2.2775261 -3.6893488e+19
-1.9368556 0 -1.7908174
1.0842022e-19 2.2439711 -3.6893488e+19
-1.9162928 3.6893488e+19 -1.7874249
0 2.2181468 -3.6893488e+19
-1.8550718 1.0842022e-19 -1.789028
-2 2.1811786 3.6893488e+19
-1.8369038 1.0842022e-19 -1.7888455
2 2.1495495 -1.0842022e-19
-1.8213595 -3.6893488e+19 -1.7887211
-2 2.1170619 -1.0842022e-19
-1.8053935 -0 -1.7863971
3.6893488e+19 3.2549918 -3.6893488e+19
-2.8463438 -2 2.750895
-0 3.2673342 2
-2.8006904 -2 2.754653
-0 3.2675934 -3.6893488e+19
-2.8009818 -0 2.7435105
-0 3.2097752 0
-2.8122461 -1.0842022e-19 2.6456461
3.6893488e+19 3.2165799 2
-2.7623982 -1.0842022e-19 2.6378937
-3.6893488e+19 3.1880884 1.0842022e-19
-2.797518 0 2.6135683
0 3.2439198 -0
-2.8354344 2 2.644815
-0 3.2338378 -1.0842022e-19
-2.7721038 -3.6893488e+19 2.6231687
0 3.1996682 0
-2.805382 1.0842022e-19 2.5957456
1.0842022e-19 3.2524583 -1.0842022e-19
-2.7839582 -0 2.6243148
-1.0842022e-19 3.2560909 -0
-2.75456 1.0842022e-19 2.6039062
3.6893488e+19 3.2030747 -0
-2.7771349 3.6893488e+19 2.5609286
2 3.2459693 -1.0842022e-19
-2.7430043 2 2.5780709
-2 3.2440839 3.6893488e+19
-2.7411304 -3.6893488e+19 2.5622764
-1.0842022e-19 3.2554643 -0
-2.8125229 -2 2.5701008
1.0842022e-19 3.2419894 3.6893488e+19
-2.7390482 -2 2.5465007
2 3.1895213 0
-2.6868939 -0 2.5019937
1.0842022e-19 3.2702761 -1.0842022e-19
-2.8306427 1.0842022e-19 2.5564938
0 3.2472742 -1.0842022e-19
-2.7443013 2 2.5205564
-1.0842022e-19 3.2254562 -2
-2.7908251 -2 2.5054772
-0 3.249465 2
-2.7464793 -0 2.5071592
-0 3.2533021 -2
-2.8098776 -3.6893488e+19 2.5072126
3.6893488e+19 3.2508199 0
-2.8406775 -0 2.4994469
-2 3.2404127 -2
-2.7758014 2 2.4658711
3.6893488e+19 3.2342758 0
-2.8288851 0 2.4532611
1.0842022e-19 3.2677698 -2
-2.8011801 3.6893488e+19 2.4773371
-0 3.2348146 -3.6893488e+19
-2.8292508 0 2.4248803
-0 3.2375846 -1.0842022e-19
-2.7742109 -2 2.4060404
0 3.2310596 2
-2.8267007 1.0842022e-19 2.3929749
-2 3.2369847 -2
-2.7738736 -1.0842022e-19 2.377068
2 3.1585164 -2
-2.7774346 -3.6893488e+19 2.3094432
-3.6893488e+19 3.2400765 -3.6893488e+19
-2.7756124 2 2.3508401
1.0842022e-19 3.2491488 1.0842022e-19
-2.8389857 2 2.3484824
-2 3.2372401 1.0842022e-19
-2.7740173 -3.6893488e+19 2.3203926
0 3.2506564 -2
-2.8404551 0 2.3202798
3.6893488e+19 3.1909888 -2
-2.7460122 -1.0842022e-19 2.2642834
0 3.2503691 1.0842022e-19
-2.840065 -3.6893488e+19 2.2902703
-2 3.2875438 -3.6893488e+19
-2.8234215 2 2.3111727
-1.0842022e-19 3.2339294 -3.6893488e+19
-2.7310364 2 2.2415597
-2 3.226706 1.0842022e-19
-2.7915897 -3.6893488e+19 2.2135184
2 3.2345495 0
-2.731653 -1.0842022e-19 2.1863174
-3.6893488e+19 3.2835538 3.6893488e+19
-2.8468864 3.6893488e+19 2.2350695
-3.6893488e+19 3.2347524 -0
-2.7318547 3.6893488e+19 2.1306365
1.0842022e-19 3.2798567 -3.6893488e+19
-2.8423631 3.6893488e+19 2.1633191
-0 3.2370834 -1.0842022e-19
-2.7341716 0 2.0763717
-2 3.1645882 -0
-2.7535937 -2 2.0077105
-0 3.1950781 -3.6893488e+19
-2.6924174 -0 1.9970073
3.6893488e+19 3.1649544 -3.6893488e+19
-2.7538176 0 1.9594887
-3.6893488e+19 3.3084884 0
-2.8066444 3.6893488e+19 2.021426
-2 3.3041265 2
-2.8023086 -2 1.9476506
-2 3.1655667 -2
-2.7541921 -2 1.8506058
-2 3.2996576 2
-2.7978663 -2 1.8758419
-1.0842022e-19 3.1643784 1.0842022e-19
-2.7534654 -3.6893488e+19 1.7532712
1.0842022e-19 3.1498508 1.0842022e-19
-2.7715497 1.0842022e-19 1.6558051
-0 3.2988315 -3.6893488e+19
-2.8361175 -2 1.5560654
1.0842022e-19 3.1472828 2
-2.7698057 2 -1.3796126
0 3.2358999 -0
-2.7732635 -0 -1.6515677
3.6893488e+19 3.1496665 2
-2.7714245 1.0842022e-19 -1.7208948
-1.0842022e-19 3.239542 -3.6893488e+19
-2.7753117 1.0842022e-19 -1.8148109
0 3.1520603 -0
-2.7730501 -3.6893488e+19 -1.8308506
1.0842022e-19 3.1742511 1.0842022e-19
-2.7271862 -3.6893488e+19 -1.8814094
2 3.149523 3.6893488e+19
-2.771327 -0 -1.8993485
3.6893488e+19 3.1756291 -0
-2.7287362 3.6893488e+19 -1.9311802
2 3.1242216 0
-2.7541442 0 -1.9340043
2 3.1366959 1.0842022e-19
-2.6849451 -2 -1.9594448
-0 3.1154721 1.0842022e-19
-2.7464044 2 -1.9728022
-3.6893488e+19 2.8393328 1.0842022e-19
-2.3816726 -2 -1.8812742
1.0842022e-19 2.7952032 3.6893488e+19
-2.2934384 -3.6893488e+19 -1.868573
-0 2.7663 2
-2.3257787 0 -1.8635597
1.0842022e-19 2.7390563 -2
-2.2361326 0 -1.8549424
1.0842022e-19 2.6828787 -0
-2.2647815 -0 -1.8442225
3.6893488e+19 2.6564064 -0
-2.1539769 -0 -1.8395245
2 2.6154213 3.6893488e+19
-2.1970389 0 -1.8314564
2 2.5931714 -3.6893488e+19
-2.0911198 -0 -1.8259538
-3.6893488e+19 2.5663667 -0
-2.137028 1.0842022e-19 -1.8222866
-0 2.5527191 3.6893488e+19
-2.0509095 2 -1.8197601
3.6893488e+19 2.5253301 -0
-2.0868256 -3.6893488e+19 -1.8128492
3.6893488e+19 2.5162849 -2
-2.014693 -2 -1.8117218
0 2.4922285 -0
-2.0510843 -0 -1.8073745
0 2.4778817 -3.6893488e+19
-1.9875124 2 -1.8063877
3.6893488e+19 2.4507413 0
-2.0257077 -0 -1.8052567
-3.6893488e+19 2.4357944 1.0842022e-19
-1.9665947 1.0842022e-19 -1.80305
3.6893488e+19 3.2549918 -3.6893488e+19
-2.8463438 -2 2.750895
1.0842022e-19 3.2137079 -1.0842022e-19
-2.760783 0 2.6917117
-0 3.2675934 -3.6893488e+19
-2.8009818 -0 2.7435105
-0 3.2097752 0
-2.8122461 -1.0842022e-19 2.6456461
3.6893488e+19 3.2165799 2
-2.7623982 -1.0842022e-19 2.6378937
-3.6893488e+19 3.1880884 1.0842022e-19
-2.797518 0 2.6135683
-0 3.1884453 -0
-2.7977602 2 2.6004715
-0 3.2338378 -1.0842022e-19
-2.7721038 -3.6893488e+19 2.6231687
0 3.1996682 0
-2.805382 1.0842022e-19 2.5957456
-0 3.239161 1.0842022e-19
-2.7750976 1.0842022e-19 2.6126347
3.6893488e+19 3.2424114 -3.6893488e+19
-2.7394676 -0 2.590245
3.6893488e+19 3.2030747 -0
-2.7771349 3.6893488e+19 2.5609286
2 3.2459693 -1.0842022e-19
-2.7430043 2 2.5780709
-2 3.2440839 3.6893488e+19
-2.7411304 -3.6893488e+19 2.5622764
1.0842022e-19 3.2127855 -3.6893488e+19
-2.7830746 2 2.5399387
-2 3.1877339 2
-2.6851172 0 2.5138035
2 3.1895213 0
-2.6868939 -0 2.5019937
-0 3.2215838 -3.6893488e+19
-2.7884564 -0 2.5173886
3.6893488e+19 3.1890047 1.0842022e-19
-2.6863804 0 2.4777067
-1.0842022e-19 3.2254562 -2
-2.7908251 -2 2.5054772
-2 3.1898794 -0
-2.6872499 0 2.4529612
0 3.207715 3.6893488e+19
-2.7799733 -3.6893488e+19 2.4647813
3.6893488e+19 3.2508199 0
-2.8406775 -0 2.4994469
-2 3.2404127 -2
-2.7758014 2 2.4658711
-2 3.1579845 0
-2.7770736 -0 2.3818557
1.0842022e-19 3.2504659 0
-2.7817173 0 2.4464905
-2 3.1600556 -0
-2.7784801 -3.6893488e+19 2.3593631
0 3.1848421 -0
-2.7390985 -3.6893488e+19 2.3621185
2 3.1609313 -1.0842022e-19
-2.7790747 -3.6893488e+19 2.3356874
-2 3.1838171 1.0842022e-19
-2.737946 -3.6893488e+19 2.3359008
2 3.1585164 -2
-2.7774346 -3.6893488e+19 2.3094432
-0 3.1875353 -0
-2.7421279 -1.0842022e-19 2.3132262
-3.6893488e+19 3.157759 -0
-2.7769203 -2 2.2846782
-2 3.2372401 1.0842022e-19
-2.7740173 -3.6893488e+19 2.3203926
2 3.1552105 0
-2.7751896 2 2.2588818
3.6893488e+19 3.1909888 -2
-2.7460122 -1.0842022e-19 2.2642834
0 3.2503691 1.0842022e-19
-2.840065 -3.6893488e+19 2.2902703
-2 3.2875438 -3.6893488e+19
-2.8234215 2 2.3111727
-0 3.1946084 -1.0842022e-19
-2.6919506 -2 2.2016187
-3.6893488e+19 3.1661146 -0
-2.7545273 -0 2.1546032
-1.0842022e-19 3.1937892 3.6893488e+19
-2.6911364 3.6893488e+19 2.1496146
2 3.2248881 -3.6893488e+19
-2.7904775 -0 2.1561902
-3.6893488e+19 3.2347524 -0
-2.7318547 3.6893488e+19 2.1306365
-1.0842022e-19 3.1702626 3.6893488e+19
-2.7570646 2 2.0603421
-0 3.1975386 1.0842022e-19
-2.6948633 -3.6893488e+19 2.0498743
-2 3.1645882 -0
-2.7535937 -2 2.0077105
-0 3.1950781 -3.6893488e+19
-2.6924174 -0 1.9970073
3.6893488e+19 3.1649544 -3.6893488e+19
-2.7538176 0 1.9594887
1.0842022e-19 3.1911397 2
-2.6885026 -3.6893488e+19 1.94407
-2 3.3041265 2
-2.8023086 -2 1.9476506
-2 3.1655667 -2
-2.7541921 -2 1.8506058
2 3.1916854 -2
-2.689045 1.0842022e-19 1.8104868
-1.0842022e-19 3.1643784 1.0842022e-19
-2.7534654 -3.6893488e+19 1.7532712
1.0842022e-19 3.1498508 1.0842022e-19
-2.7715497 1.0842022e-19 1.6558051
-2 3.1863568 1.0842022e-19
-2.7408025 -3.6893488e+19 1.5071968
1.0842022e-19 3.1472828 2
-2.7698057 2 -1.3796126
0 3.1854508 2
-2.7397833 -0 -1.635831
3.6893488e+19 3.1496665 2
-2.7714245 1.0842022e-19 -1.7208948
2 3.1826584 1.0842022e-19
-2.7366426 -0 -1.7927552
0 3.1520603 -0
-2.7730501 -3.6893488e+19 -1.8308506
1.0842022e-19 3.1742511 1.0842022e-19
-2.7271862 -3.6893488e+19 -1.8814094
2 3.149523 3.6893488e+19
-2.771327 -0 -1.8993485
3.6893488e+19 3.1756291 -0
-2.7287362 3.6893488e+19 -1.9311802
2 3.1242216 0
-2.7541442 0 -1.9340043
2 3.1366959 1.0842022e-19
-2.6849451 -2 -1.9594448
-0 3.1154721 1.0842022e-19
-2.7464044 2 -1.9728022
-3.6893488e+19 2.8393328 1.0842022e-19
-2.3816726 -2 -1.8812742
1.0842022e-19 2.7952032 3.6893488e+19
-2.2934384 -3.6893488e+19 -1.868573
-0 2.7663 2
-2.3257787 0 -1.8635597
1.0842022e-19 2.7390563 -2
-2.2361326 0 -1.8549424
1.0842022e-19 2.6828787 -0
-2.2647815 -0 -1.8442225
3.6893488e+19 2.6564064 -0
-2.1539769 -0 -1.8395245
2 2.6154213 3.6893488e+19
-2.1970389 0 -1.8314564
2 2.5931714 -3.6893488e+19
-2.0911198 -0 -1.8259538
-3.6893488e+19 2.5663667 -0
-2.137028 1.0842022e-19 -1.8222866
-0 2.5527191 3.6893488e+19
-2.0509095 2 -1.8197601
3.6893488e+19 2.5253301 -0
-2.0868256 -3.6893488e+19 -1.8128492
3.6893488e+19 2.5162849 -2
-2.014693 -2 -1.8117218
0 2.4922285 -0
-2.0510843 -0 -1.8073745
0 2.4778817 -3.6893488e+19
-1.9875124 2 -1.8063877
3.6893488e+19 2.4507413 0
-2.0257077 -0 -1.8052567
-3.6893488e+19 2.4357944 1.0842022e-19
-1.9665947 1.0842022e-19 -1.80305
2 3.2546058 -2
-2.8487973 -1.0842022e-19 2.7507391
1.0842022e-19 3.2674148 2
-2.8038065 -2 2.7549183
-3.6893488e+19 3.2673953 0
-2.8037846 -0 2.7435105
-2 3.1888652 2
-2.800612 3.6893488e+19 2.6550128
-1.0842022e-19 3.2458727 -1.0842022e-19
-2.8396606 -1.0842022e-19 2.6923356
1.0842022e-19 3.2540534 -1.0842022e-19
-2.7886267 3.6893488e+19 2.6880684
-1.0842022e-19 3.2620988 2
-2.8590627 0 2.7014863
-0 3.2162936 0
-2.7648752 3.6893488e+19 2.6379428
2 3.1861019 0
-2.7987192 3.6893488e+19 2.6122429
-1.0842022e-19 3.2448149 3.6893488e+19
-2.8389361 2 2.645884
-0 3.2342777 1.0842022e-19
-2.7750909 1.0842022e-19 2.6237848
3.6893488e+19 3.2126462 -3.6893488e+19
-2.8169012 -2 2.6060421
-3.6893488e+19 3.2540617 2
-2.7886364 -3.6893488e+19 2.6269712
-1.0842022e-19 3.2566407 3.6893488e+19
-2.7579634 0 2.6048982
-3.6893488e+19 3.2457044 3.6893488e+19
-2.7482593 2 2.5781105
0 3.2195888 3.6893488e+19
-2.7899284 1.0842022e-19 2.5584655
-0 3.2449589 0
-2.74751 -1.0842022e-19 2.5630343
-1.0842022e-19 3.2564843 -1.0842022e-19
-2.8167117 -1.0842022e-19 2.5716376
-1.0842022e-19 3.2430468 -2
-2.7455878 -3.6893488e+19 2.5473325
-2 3.2518568 0
-2.753155 -1.0842022e-19 2.5389867
-2 3.246558 -2
-2.7491171 1.0842022e-19 2.5203438
3.6893488e+19 3.249469 1.0842022e-19
-2.7510216 -0 2.5073297
-0 3.2073467 -0
-2.7823701 -3.6893488e+19 2.4647813
-0 3.2083249 -2
-2.8139412 0 2.4567292
3.6893488e+19 3.2419314 3.6893488e+19
-2.7794385 -2 2.4676597
-0 3.2084846 -1.0842022e-19
-2.8140507 -0 2.4295051
-0 3.2531199 2
-2.7875664 3.6893488e+19 2.451556
-2 3.234117 -1.0842022e-19
-2.8316083 3.6893488e+19 2.424648
-2 3.2367451 -3.6893488e+19
-2.7764924 -3.6893488e+19 2.4056416
-2 3.2339845 -2
-2.8315175 -0 2.3957176
0 3.2370136 1.0842022e-19
-2.7766449 1.0842022e-19 2.3773696
-2 3.2109482 -2
-2.8157382 -1.0842022e-19 2.3494716
-2 3.2335742 0
-2.7746913 0 2.3464415
-1.0842022e-19 3.2503827 3.6893488e+19
-2.8430121 0 2.3499236
2 3.2366998 -2
-2.7764666 -1.0842022e-19 2.3202744
-2 3.2504618 3.6893488e+19
-2.8431206 0 2.3203175
-1.0842022e-19 3.2678394 1.0842022e-19
-2.8042891 -3.6893488e+19 2.3212688
2 3.250057 -0
-2.8425658 3.6893488e+19 2.2901678
-1.0842022e-19 3.1681051 -1.0842022e-19
-2.725004 -1.0842022e-19 2.2027979
-0 3.2441096 -1.0842022e-19
-2.7466562 0 2.2511146
-3.6893488e+19 3.2293332 0
-2.7959449 2 2.2164483
0 3.2347167 0
-2.7372148 -0 2.1867537
0 3.2840416 1.0842022e-19
-2.85074 -2 2.2362947
-0 3.2352829 -2
-2.7377839 -3.6893488e+19 2.1313024
3.6893488e+19 3.2780504 -2
-2.8433418 -2 2.1609821
-1.0842022e-19 3.2346752 -2
-2.7371731 -2 2.0749705
-2 3.1662023 1.0842022e-19
-2.7569673 -0 1.9602879
-2 3.3107557 3.6893488e+19
-2.8123574 -1.0842022e-19 2.0235999
2 3.3041852 -2
-2.8057528 -3.6893488e+19 1.947818
-2 3.2985978 3.6893488e+19
-2.8001368 1.0842022e-19 1.875479
1.0842022e-19 3.3047488 -1.0842022e-19
-2.8763094 3.6893488e+19 1.8138225
-2 3.1484885 2
-2.7729549 -2 1.655413
-2 3.299933 0
-2.8407502 -2 1.5568675
2 3.1454794 -2
-2.7708936 2 -1.3791395
-3.6893488e+19 3.1741562 -2
-2.7318785 -1.0842022e-19 -1.6324059
3.6893488e+19 3.150167 2
-2.7741046 -0 -1.721369
-1.0842022e-19 3.1777391 -1.0842022e-19
-2.735949 0 -1.7909708
2 3.1772132 -3.6893488e+19
-2.7353513 -0 -1.882425
-2 3.1482794 -0
-2.7728117 3.6893488e+19 -1.8990167
-2 3.1749835 -2
-2.7328184 1.0842022e-19 -1.9310395
-2 3.1250694 1.0842022e-19
-2.7569134 0 -1.934586
-2 3.1774511 2
-2.7356219 0 -1.9816905
1.0842022e-19 3.1150572 -3.6893488e+19
-2.7500551 -1.0842022e-19 -1.972748
-2 2.8377604 -1.0842022e-19
-2.3837254 -2 -1.8807627
2 2.7954338 -1.0842022e-19
-2.2969563 0 -1.8689229
-2 2.7641177 -3.6893488e+19
-2.3261375 -2 -1.8617953
-2 2.7397044 -1.0842022e-19
-2.2422283 -0 -1.8553979
1.0842022e-19 2.6816959 1.0842022e-19
-2.2665331 3.6893488e+19 -1.8437996
2 2.652632 -2
-2.154707 -1.0842022e-19 -1.8376713
3.6893488e+19 2.6148889 1.0842022e-19
-2.2005718 -0 -1.8313216
1.0842022e-19 2.5934305 0
-2.0952005 0 -1.8262373
3.6893488e+19 2.5657549 0
-2.1399002 3.6893488e+19 -1.8220636
-1.0842022e-19 2.5505872 3.6893488e+19
-2.0521364 -3.6893488e+19 -1.8185151
1.0842022e-19 2.5282037 3.6893488e+19
-2.0935311 3.6893488e+19 -1.8149626
-3.6893488e+19 2.5156274 -3.6893488e+19
-2.0169964 -2 -1.8113828
-2 2.4920702 -3.6893488e+19
-2.0538087 -0 -1.8074627
-1.0842022e-19 2.4744301 2
-1.9884377 0 -1.8051956
-1.0842022e-19 2.449903 -0
-2.0277743 -2 -1.8050663
-2 2.4359918 -0
-1.9691194 0 -1.8032473
2 2.3656781 -1.0842022e-19
-2.0004804 1.0842022e-19 -1.8000606
1.0842022e-19 2.3134494 -1.0842022e-19
-1.9647051 2 -1.7938024
-1.0842022e-19 2.2767987 -2
-1.9396003 1.0842022e-19 -1.7906772
3.6893488e+19 2.247767 -0
-1.9204791 2 -1.7889645
-3.6893488e+19 2.2108448 -3.6893488e+19
-1.8566099 2 -1.78668
-2 2.1801407 1.0842022e-19
-1.8411789 1.0842022e-19 -1.7886641
2 2.1480784 3.6893488e+19
-1.825065 -3.6893488e+19 -1.7883308
0 2.1180072 1.0842022e-19
-1.8099519 -3.6893488e+19 -1.7870234
2 3.2546058 -2
-2.8487973 -1.0842022e-19 2.7507391
0 3.2135406 -0
-2.7633111 -3.6893488e+19 2.691879
-3.6893488e+19 3.2673953 0
-2.8037846 -0 2.7435105
-2 3.1888652 2
-2.800612 3.6893488e+19 2.6550128
-1.0842022e-19 3.2458727 -1.0842022e-19
-2.8396606 -1.0842022e-19 2.6923356
1.0842022e-19 3.2540534 -1.0842022e-19
-2.7886267 3.6893488e+19 2.6880684
-2 3.2074816 1.0842022e-19
-2.8133638 2 2.6440244
-0 3.2162936 0
-2.7648752 3.6893488e+19 2.6379428
2 3.1861019 0
-2.7987192 3.6893488e+19 2.6122429
-2 3.1885476 -3.6893488e+19
-2.8003943 3.6893488e+19 2.6008666
-0 3.2342777 1.0842022e-19
-2.7750909 1.0842022e-19 2.6237848
-3.6893488e+19 3.1991501 -2
-2.8076568 -1.0842022e-19 2.5956559
1.0842022e-19 3.2378521 0
-2.7771213 3.6893488e+19 2.611932
-2 3.242089 1.0842022e-19
-2.7446253 -0 2.590245
-3.6893488e+19 3.2457044 3.6893488e+19
-2.7482593 2 2.5781105
0 3.2195888 3.6893488e+19
-2.7899284 1.0842022e-19 2.5584655
-0 3.2449589 0
-2.74751 -1.0842022e-19 2.5630343
-1.0842022e-19 3.2564843 -1.0842022e-19
-2.8167117 -1.0842022e-19 2.5716376
-3.6893488e+19 3.1865478 -1.0842022e-19
-2.6887977 3.6893488e+19 2.5132608
1.0842022e-19 3.1891437 0
-2.691407 -2 2.5019419
2 3.188417 3.6893488e+19
-2.6906765 -1.0842022e-19 2.4773793
3.6893488e+19 3.1900127 0
-2.6922805 -1.0842022e-19 2.4533949
-0 3.2073467 -0
-2.7823701 -3.6893488e+19 2.4647813
-0 3.2083249 -2
-2.8139412 0 2.4567292
3.6893488e+19 3.2419314 3.6893488e+19
-2.7794385 -2 2.4676597
-0 3.2084846 -1.0842022e-19
-2.8140507 -0 2.4295051
-0 3.2531199 2
-2.7875664 3.6893488e+19 2.451556
-1.0842022e-19 3.2086217 -1.0842022e-19
-2.8141446 1.0842022e-19 2.4022846
2 3.185627 -0
-2.7449102 3.6893488e+19 2.3630409
2 3.2103548 3.6893488e+19
-2.8153317 2 2.3763974
3.6893488e+19 3.1846635 -1.0842022e-19
-2.7438157 -1.0842022e-19 2.3368053
1.0842022e-19 3.1602423 3.6893488e+19
-2.7810059 1.0842022e-19 2.3110285
-3.6893488e+19 3.1881998 -1.0842022e-19
-2.7478333 -0 2.3139343
-3.6893488e+19 3.1567466 -3.6893488e+19
-2.7786114 -3.6893488e+19 2.2842252
-1.0842022e-19 3.1672354 1.0842022e-19
-2.724016 -2 2.2745631
-1.0842022e-19 3.1564405 1.0842022e-19
-2.7784019 -3.6893488e+19 2.2598996
3.6893488e+19 3.1677253 -0
-2.7245724 -0 2.2505271
2 3.250057 -0
-2.8425658 3.6893488e+19 2.2901678
-1.0842022e-19 3.1681051 -1.0842022e-19
-2.725004 -1.0842022e-19 2.2027979
2 3.1982803 -1.0842022e-19
-2.7005906 0 2.2056468
-1.0842022e-19 3.1769285 -1.0842022e-19
-2.7635896 3.6893488e+19 2.1654522
3.6893488e+19 3.194891 -0
-2.6971838 -0 2.1508689
0 3.2840416 1.0842022e-19
-2.85074 -2 2.2362947
-0 3.2352829 -2
-2.7377839 -3.6893488e+19 2.1313024
-1.0842022e-19 3.1681943 -0
-2.7581971 1.0842022e-19 2.0590634
0 3.1890392 -1.0842022e-19
-2.6913018 -3.6893488e+19 2.0443718
-2 3.1662023 1.0842022e-19
-2.7569673 -0 1.9602879
1.0842022e-19 3.1891847 -3.6893488e+19
-2.691448 3.6893488e+19 1.9433365
2 3.1937706 1.0842022e-19
-2.6960578 2 1.8942968
0 3.1966696 -0
-2.6989715 -0 1.8127027
-0 3.1629403 -1.0842022e-19
-2.7549531 -2 1.752929
-2 3.1484885 2
-2.7729549 -2 1.655413
0 3.1731679 -2
-2.7307556 1.0842022e-19 1.5032961
2 3.1454794 -2
-2.7708936 2 -1.3791395
-3.6893488e+19 3.1741562 -2
-2.7318785 -1.0842022e-19 -1.6324059
3.6893488e+19 3.150167 2
-2.7741046 -0 -1.721369
-1.0842022e-19 3.1777391 -1.0842022e-19
-2.735949 0 -1.7909708
2 3.1772132 -3.6893488e+19
-2.7353513 -0 -1.882425
-2 3.1482794 -0
-2.7728117 3.6893488e+19 -1.8990167
-2 3.1749835 -2
-2.7328184 1.0842022e-19 -1.9310395
-2 3.1250694 1.0842022e-19
-2.7569134 0 -1.934586
-1.0842022e-19 3.1359289 -1.0842022e-19
-2.6884489 -3.6893488e+19 -1.9591842
-2 3.0542536 3.6893488e+19
-2.6668127 -2 -1.9356474
-2 2.8377604 -1.0842022e-19
-2.3837254 -2 -1.8807627
2 2.7954338 -1.0842022e-19
-2.2969563 0 -1.8689229
-2 2.7641177 -3.6893488e+19
-2.3261375 -2 -1.8617953
-2 2.7397044 -1.0842022e-19
-2.2422283 -0 -1.8553979
1.0842022e-19 2.6816959 1.0842022e-19
-2.2665331 3.6893488e+19 -1.8437996
2 2.652632 -2
-2.154707 -1.0842022e-19 -1.8376713
3.6893488e+19 2.6148889 1.0842022e-19
-2.2005718 -0 -1.8313216
1.0842022e-19 2.5934305 0
-2.0952005 0 -1.8262373
3.6893488e+19 2.5657549 0
-2.1399002 3.6893488e+19 -1.8220636
-1.0842022e-19 2.5505872 3.6893488e+19
-2.0521364 -3.6893488e+19 -1.8185151
1.0842022e-19 2.5282037 3.6893488e+19
-2.0935311 3.6893488e+19 -1.8149626
-3.6893488e+19 2.5156274 -3.6893488e+19
-2.0169964 -2 -1.8113828
-2 2.4920702 -3.6893488e+19
-2.0538087 -0 -1.8074627
-1.0842022e-19 2.4744301 2
-1.9884377 0 -1.8051956
-1.0842022e-19 2.449903 -0
-2.0277743 -2 -1.8050663
-2 2.4359918 -0
-1.9691194 0 -1.8032473
2 2.3656781 -1.0842022e-19
-2.0004804 1.0842022e-19 -1.8000606
1.0842022e-19 2.3134494 -1.0842022e-19
-1.9647051 2 -1.7938024
-1.0842022e-19 2.2767987 -2
-1.9396003 1.0842022e-19 -1.7906772
3.6893488e+19 2.247767 -0
-1.9204791 2 -1.7889645
-3.6893488e+19 2.2108448 -3.6893488e+19
-1.8566099 2 -1.78668
-2 2.1801407 1.0842022e-19
-1.8411789 1.0842022e-19 -1.7886641
2 2.1480784 3.6893488e+19
-1.825065 -3.6893488e+19 -1.7883308
0 2.1180072 1.0842022e-19
-1.8099519 -3.6893488e+19 -1.7870234
-3.6893488e+19 3.2527511 -0
-2.8492167 -1.0842022e-19 2.7482741
-0 3.2674346 2
-2.8068578 -0 2.7551279
-1.0842022e-19 3.1925466 -0
-2.8057249 0 2.6724782
-1.0842022e-19 3.2684419 2
-2.8080137 -0 2.7458124
-3.6893488e+19 3.1912117 -1.0842022e-19
-2.8048027 -1.0842022e-19 2.6575451
-3.6893488e+19 3.2791448 1.0842022e-19
-2.8202944 -3.6893488e+19 2.7486119
1.0842022e-19 3.2019012 -0
-2.8121872 2 2.6534746
0 3.2613933 -0
-2.7999258 2 2.7010617
0 3.2134123 1.0842022e-19
-2.7658625 3.6893488e+19 2.6358337
-1.0842022e-19 3.2517798 3.6893488e+19
-2.8478746 -2 2.6686528
-2 3.2443695 2
-2.8415258 2 2.645884
-3.6893488e+19 3.2340341 -2
-2.7776933 -3.6893488e+19 2.6238759
0 3.1986008 2
-2.8099072 1.0842022e-19 2.5955441
0 3.2358022 -3.6893488e+19
-2.7787075 -0 2.6106806
3.6893488e+19 3.2589397 2
-2.763159 3.6893488e+19 2.6236522
2 3.256501 -0
-2.7606804 -0 2.6049395
-1.0842022e-19 3.2538171 2
-2.8163319 0 2.5989347
3.6893488e+19 3.2456758 -3.6893488e+19
-2.7518761 1.0842022e-19 2.5783086
2 3.2547202 -3.6893488e+19
-2.8174572 -3.6893488e+19 2.5849152
0 3.2448113 1.0842022e-19
-2.7514369 3.6893488e+19 2.563148
3.6893488e+19 3.2550812 -3.6893488e+19
-2.8179071 2 2.570138
-2 3.2503853 1.0842022e-19
-2.7544653 2 2.5374885
0 3.2453589 3.6893488e+19
-2.7517152 -0 2.5198693
2 3.2085309 -1.0842022e-19
-2.785733 1.0842022e-19 2.4935629
2 3.2497699 -2
-2.7539566 2 2.5076551
0 3.2071533 -3.6893488e+19
-2.7848744 -3.6893488e+19 2.464962
-1.0842022e-19 3.2058003 -2
-2.8148808 2 2.4546225
2 3.2284625 -0
-2.7744968 0 2.4551954
2 3.208806 -3.6893488e+19
-2.8169572 0 2.4301934
3.6893488e+19 3.2093549 1.0842022e-19
-2.8173366 -0 2.4032905
-2 3.2363815 3.6893488e+19
-2.7790401 -3.6893488e+19 2.4056416
0 3.2106462 3.6893488e+19
-2.8182285 2 2.3769748
3.6893488e+19 3.2365301 -1.0842022e-19
-2.7791252 0 2.3772769
-2 3.2127693 -3.6893488e+19
-2.8196952 0 2.3511684
1.0842022e-19 3.2368643 -3.6893488e+19
-2.7793169 -1.0842022e-19 2.3490591
-2 3.2124879 -1.0842022e-19
-2.8195009 1.0842022e-19 2.3234673
0 3.2324135 -2
-2.7767634 2 2.3176911
0 3.2125666 1.0842022e-19
-2.8195553 -1.0842022e-19 2.296056
0 3.1668441 -0
-2.728292 3.6893488e+19 2.2501855
2 3.2112668 -3.6893488e+19
-2.8186572 -2 2.2678695
-0 3.1667137 -0
-2.7281425 2 2.2016284
-2 3.2427852 2
-2.7504075 0 2.2506073
-0 3.2295697 3.6893488e+19
-2.7988434 2 2.2170575
1.0842022e-19 3.2337308 1.0842022e-19
-2.7416129 3.6893488e+19 2.1861539
3.6893488e+19 3.2826936 0
-2.8523207 -0 2.2343802
3.6893488e+19 3.2355671 -3.6893488e+19
-2.743479 3.6893488e+19 2.1317782
0 3.171402 -0
-2.7625961 -2 2.0616868
-3.6893488e+19 3.2501817 2
-2.7542584 -1.0842022e-19 2.0857115
-1.0842022e-19 3.2824502 -1.0842022e-19
-2.8520172 -2 2.1017137
-3.6893488e+19 3.1829596 0
-2.6900146 -2 1.9905982
-0 3.1660733 -0
-2.7592757 0 1.9603935
2 3.3090971 1.0842022e-19
-2.8141336 3.6893488e+19 2.0223196
-3.6893488e+19 3.3035145 2
-2.8084602 -1.0842022e-19 1.9475126
1.0842022e-19 3.3034303 -0
-2.8781645 -0 1.914995
3.6893488e+19 3.2983701 1.0842022e-19
-2.803232 2 1.8754662
-3.6893488e+19 3.3045311 -2
-2.8795366 -1.0842022e-19 1.813841
-0 3.1462986 3.6893488e+19
-2.7737753 0 1.6546983
0 3.2997091 -3.6893488e+19
-2.8438897 -2 1.5568675
1.0842022e-19 3.145153 -2
-2.7729838 1.0842022e-19 -1.3791492
2 3.1731486 -3.6893488e+19
-2.7355258 1.0842022e-19 -1.6321901
-1.0842022e-19 3.1459966 2
-2.7735667 2 -1.7192594
1.0842022e-19 3.1783509 1.0842022e-19
-2.7414951 1.0842022e-19 -1.7913324
3.6893488e+19 3.1431587 0
-2.7716062 -0 -1.8266546
-3.6893488e+19 3.178756 -1.0842022e-19
-2.74196 0 -1.8830026
1.0842022e-19 3.1426942 1.0842022e-19
-2.7712853 -0 -1.8970593
-2 3.1731346 -2
-2.7355099 3.6893488e+19 -1.9303865
-2 3.1233146 1.0842022e-19
-2.7578974 1.0842022e-19 -1.933888
-0 3.1756008 2
-2.7383397 -3.6893488e+19 -1.9808599
-2 3.115555 2
-2.7525368 0 -1.9732529
1.0842022e-19 2.8894188 -3.6893488e+19
-2.4468238 3.6893488e+19 -1.9008747
1.0842022e-19 2.7954199 2
-2.3002336 0 -1.8690729
3.6893488e+19 2.7647972 1.0842022e-19
-2.3300164 0 -1.8625973
3.6893488e+19 2.7381711 -3.6893488e+19
-2.2461255 -2 -1.8548285
1.0842022e-19 2.682775 0
-2.2696834 -3.6893488e+19 -1.8445246
3.6893488e+19 2.654542 3.6893488e+19
-2.1611338 -3.6893488e+19 -1.8388215
2 2.6154263 -2
-2.20543 2 -1.8317933
3.6893488e+19 2.5933242 -0
-2.0989184 3.6893488e+19 -1.8263081
2 2.5496638 3.6893488e+19
-2.0545466 -0 -1.8180482
0 2.503475 1.0842022e-19
-2.0659053 -2 -1.7982179
2 2.5143654 0
-2.0186732 -2 -1.81062
-1.0842022e-19 2.4914331 -2
-2.056236 -0 -1.8073745
-2 2.4741163 -1.0842022e-19
-1.9909209 0 -1.8051956
-0 2.4493003 -3.6893488e+19
-2.0299809 3.6893488e+19 -1.8049712
1.0842022e-19 2.4390793 3.6893488e+19
-1.9731169 -2 -1.8046283
-3.6893488e+19 3.2527511 -0
-2.8492167 -1.0842022e-19 2.7482741
-2 3.2146873 -2
-2.7665939 -1.0842022e-19 2.6933036
-1.0842022e-19 3.1925466 -0
-2.8057249 0 2.6724782
-1.0842022e-19 3.2684419 2
-2.8080137 -0 2.7458124
-3.6893488e+19 3.1912117 -1.0842022e-19
-2.8048027 -1.0842022e-19 2.6575451
-3.6893488e+19 3.2791448 1.0842022e-19
-2.8202944 -3.6893488e+19 2.7486119
1.0842022e-19 3.2019012 -0
-2.8121872 2 2.6534746
-3.6893488e+19 3.2539222 1.0842022e-19
-2.7913537 1.0842022e-19 2.68817
0 3.2134123 1.0842022e-19
-2.7658625 3.6893488e+19 2.6358337
-1.0842022e-19 3.2517798 3.6893488e+19
-2.8478746 -2 2.6686528
-2 3.2443695 2
-2.8415258 2 2.645884
-3.6893488e+19 3.2340341 -2
-2.7776933 -3.6893488e+19 2.6238759
0 3.1986008 2
-2.8099072 1.0842022e-19 2.5955441
0 3.2358022 -3.6893488e+19
-2.7787075 -0 2.6106806
3.6893488e+19 3.2589397 2
-2.763159 3.6893488e+19 2.6236522
-3.6893488e+19 3.2417636 -3.6893488e+19
-2.7497766 -0 2.590245
-1.0842022e-19 3.2538171 2
-2.8163319 0 2.5989347
3.6893488e+19 3.2456758 -3.6893488e+19
-2.7518761 1.0842022e-19 2.5783086
2 3.2188244 -0
-2.7921474 -1.0842022e-19 2.5582135
0 3.2448113 1.0842022e-19
-2.7514369 3.6893488e+19 2.563148
3.6893488e+19 3.2550812 -3.6893488e+19
-2.8179071 2 2.570138
-1.0842022e-19 3.1885831 1.0842022e-19
-2.6957297 -1.0842022e-19 2.5017869
0 3.1882472 -0
-2.6953881 -0 2.4775102
2 3.2085309 -1.0842022e-19
-2.785733 1.0842022e-19 2.4935629
-0 3.1904731 0
-2.6976504 1.0842022e-19 2.4541698
0 3.2071533 -3.6893488e+19
-2.7848744 -3.6893488e+19 2.464962
-1.0842022e-19 3.2058003 -2
-2.8148808 2 2.4546225
2 3.2284625 -0
-2.7744968 0 2.4551954
3.6893488e+19 3.1545231 2
-2.7794571 -3.6893488e+19 2.3792956
2 3.1572349 -1.0842022e-19
-2.7813303 -0 2.3575318
2 3.185451 2
-2.7496419 1.0842022e-19 2.3631656
0 3.1587543 1.0842022e-19
-2.7823801 0 2.3345087
-3.6893488e+19 3.1864324 -3.6893488e+19
-2.7503839 1.0842022e-19 2.338429
-2 3.1516943 -2
-2.7775028 0 2.3048222
-0 3.1848798 3.6893488e+19
-2.7489865 0 2.3117888
2 3.1519651 2
-2.7776899 -2 2.281137
0 3.1670437 -3.6893488e+19
-2.7285209 -1.0842022e-19 2.274642
-0 3.1538363 0
-2.7789826 -2 2.258467
0 3.1668441 -0
-2.728292 3.6893488e+19 2.2501855
-2 3.151505 2
-2.7773721 -2 2.2163289
-0 3.1667137 -0
-2.7281425 2 2.2016284
-3.6893488e+19 3.1959281 2
-2.7031944 -0 2.2035558
3.6893488e+19 3.1753013 2
-2.7650261 -1.0842022e-19 2.1642048
-3.6893488e+19 3.1905441 3.6893488e+19
-2.6977227 -2 2.1472149
3.6893488e+19 3.2826936 0
-2.8523207 -0 2.2343802
3.6893488e+19 3.2355671 -3.6893488e+19
-2.743479 3.6893488e+19 2.1317782
0 3.171402 -0
-2.7625961 -2 2.0616868
2 3.1970711 -2
-2.7043557 -0 2.0499556
-2 3.1783488 -1.0842022e-19
-2.7669251 -0 2.016695
-3.6893488e+19 3.1829596 0
-2.6900146 -2 1.9905982
-0 3.1660733 -0
-2.7592757 0 1.9603935
-3.6893488e+19 3.1865931 2
-2.6937072 -0 1.9423229
2 3.1900856 3.6893488e+19
-2.6972566 1.0842022e-19 1.8931932
1.0842022e-19 3.3034303 -0
-2.8781645 -0 1.914995
1.0842022e-19 3.1951325 2
-2.7023857 -1.0842022e-19 1.8121805
1.0842022e-19 3.1642461 3.6893488e+19
-2.758137 -0 1.7534378
-0 3.1462986 3.6893488e+19
-2.7737753 0 1.6546983
-0 3.1721008 2
-2.7343237 -2 1.5030682
1.0842022e-19 3.145153 -2
-2.7729838 1.0842022e-19 -1.3791492
2 3.1731486 -3.6893488e+19
-2.7355258 1.0842022e-19 -1.6321901
-1.0842022e-19 3.1459966 2
-2.7735667 2 -1.7192594
1.0842022e-19 3.1783509 1.0842022e-19
-2.7414951 1.0842022e-19 -1.7913324
3.6893488e+19 3.1431587 0
-2.7716062 -0 -1.8266546
-3.6893488e+19 3.178756 -1.0842022e-19
-2.74196 0 -1.8830026
1.0842022e-19 3.1426942 1.0842022e-19
-2.7712853 -0 -1.8970593
-2 3.1731346 -2
-2.7355099 3.6893488e+19 -1.9303865
-2 3.1233146 1.0842022e-19
-2.7578974 1.0842022e-19 -1.933888
-2 3.1344097 3.6893488e+19
-2.6910765 0 -1.9585166
-0 3.054275 -2
-2.6704051 1.0842022e-19 -1.9358277
-1.0842022e-19 2.8346276 3.6893488e+19
-2.383956 -2 -1.8796467
1.0842022e-19 2.7954199 2
-2.3002336 0 -1.8690729
3.6893488e+19 2.7647972 1.0842022e-19
-2.3300164 0 -1.8625973
3.6893488e+19 2.7381711 -3.6893488e+19
-2.2461255 -2 -1.8548285
1.0842022e-19 2.682775 0
-2.2696834 -3.6893488e+19 -1.8445246
3.6893488e+19 2.654542 3.6893488e+19
-2.1611338 -3.6893488e+19 -1.8388215
2 2.6154263 -2
-2.20543 2 -1.8317933
3.6893488e+19 2.5933242 -0
-2.0989184 3.6893488e+19 -1.8263081
2 2.5496638 3.6893488e+19
-2.0545466 -0 -1.8180482
0 2.503475 1.0842022e-19
-2.0659053 -2 -1.7982179
2 2.5143654 0
-2.0186732 -2 -1.81062
-1.0842022e-19 2.4914331 -2
-2.056236 -0 -1.8073745
-2 2.4741163 -1.0842022e-19
-1.9909209 0 -1.8051956
-0 2.4493003 -3.6893488e+19
-2.0299809 3.6893488e+19 -1.8049712
1.0842022e-19 2.4390793 3.6893488e+19
-1.9731169 -2 -1.8046283
0 3.2525218 -2
-2.8518636 -1.0842022e-19 2.7482741
-3.6893488e+19 3.264775 0
-2.8068111 -0 2.7527816
-0 3.187366 -3.6893488e+19
-2.8047128 2 2.667912
-3.6893488e+19 3.2683711 -1.0842022e-19
-2.8109779 -3.6893488e+19 2.7460561
2 3.1907823 -1.0842022e-19
-2.8070929 -3.6893488e+19 2.6575184
-2 3.2762928 -0
-2.8201573 -1.0842022e-19 2.7438905
-0 3.2615633 -3.6893488e+19
-2.8030891 -0 2.7016962
1.0842022e-19 3.212621 -3.6893488e+19
-2.7680333 3.6893488e+19 2.6354659
3.6893488e+19 3.2520435 0
-2.8511975 1.0842022e-19 2.6694722
-3.6893488e+19 3.2538204 3.6893488e+19
-2.7941172 -2 2.65767
-2 3.2442975 -0
-2.844377 -0 2.6461861
-3.6893488e+19 3.1961608 -3.6893488e+19
-2.8108401 1.0842022e-19 2.5939772
-3.6893488e+19 3.2574396 -3.6893488e+19
-2.7645078 -2 2.6217363
-3.6893488e+19 3.2563143 3.6893488e+19
-2.7633517 -1.0842022e-19 2.6049187
-3.6893488e+19 3.2551534 -1.0842022e-19
-2.8209326 -1.0842022e-19 2.6010594
-0 3.2579525 -1.0842022e-19
-2.7650347 0 2.5919361
0 3.2544968 -0
-2.8201065 -1.0842022e-19 2.5848958
2 3.2546363 -1.0842022e-19
-2.820282 -1.0842022e-19 2.5698416
2 3.2510324 -0
-2.7579246 -0 2.553174
-2 3.2109494 -3.6893488e+19
-2.7898915 -3.6893488e+19 2.5257297
-1.0842022e-19 3.2505326 2
-2.7574112 1.0842022e-19 2.5378501
2 3.2441573 0
-2.7538624 -1.0842022e-19 2.5193949
-3.6893488e+19 3.2078593 -2
-2.7879481 1.0842022e-19 2.4932444
-0 3.2067785 -2
-2.7872684 -3.6893488e+19 2.464962
3.6893488e+19 3.2053571 -2
-2.8172472 3.6893488e+19 2.4545932
-3.6893488e+19 3.2271767 0
-2.7764668 2 2.4543152
0 3.208976 -1.0842022e-19
-2.8197684 1.0842022e-19 2.4307439
3.6893488e+19 3.1589785 3.6893488e+19
-2.7849352 0 2.3593891
-0 3.2370896 2
-2.7822101 -1.0842022e-19 2.406539
-1.0842022e-19 3.213635 2
-2.8230145 3.6893488e+19 2.3797657
1.0842022e-19 3.2375975 2
-2.7825043 3.6893488e+19 2.3783901
-3.6893488e+19 3.2126429 -0
-2.8223233 3.6893488e+19 2.3513916
3.6893488e+19 3.2390985 1.0842022e-19
-2.7833741 3.6893488e+19 2.3509259
0 3.2123916 -0
-2.8221481 1.0842022e-19 2.3236938
-0 3.2315705 2
-2.7790124 -2 2.3173754
3.6893488e+19 3.2125878 1.0842022e-19
-2.8222849 -1.0842022e-19 2.2963388
1.0842022e-19 3.1668887 0
-2.7330742 3.6893488e+19 2.2504013
0 3.211319 1.0842022e-19
-2.8214009 2 2.2681434
-1.0842022e-19 3.1653209 -2
-2.7312574 0 2.200459
-0 3.2426369 1.0842022e-19
-2.7530813 0 2.2506995
3.6893488e+19 3.1732564 -3.6893488e+19
-2.7661862 -1.0842022e-19 2.1625514
1.0842022e-19 3.2332561 -1.0842022e-19
-2.7465241 -0 2.1860175
1.0842022e-19 3.2827449 2
-2.8556371 -3.6893488e+19 2.2348652
-3.6893488e+19 3.188411 1.0842022e-19
-2.700448 -3.6893488e+19 2.0949323
-0 3.1696866 3.6893488e+19
-2.7639413 2 2.0606728
-2 3.2830975 3.6893488e+19
-2.8560808 -0 2.102809
1.0842022e-19 3.1896882 -0
-2.7017601 1.0842022e-19 1.9945009
0 3.3159704 2
-2.8246455 -0 2.0285614
-2 3.3087726 -2
-2.8883748 1.0842022e-19 1.9902636
1.0842022e-19 3.3033419 2
-2.8116703 -3.6893488e+19 1.9475323
0 3.3091729 -2
-2.8888781 3.6893488e+19 1.9182554
-1.0842022e-19 3.298564 3.6893488e+19
-2.8067613 1.0842022e-19 1.8756318
-2 3.1654565 -1.0842022e-19
-2.761281 -0 1.7539188
0 3.1456437 -2
-2.7756448 -2 1.6545829
0 3.2989426 -2
-2.8464026 2 1.5565394
-0 3.1452663 2
-2.775382 -3.6893488e+19 -1.3793036
1.0842022e-19 3.2626512 -3.6893488e+19
-2.8043497 2 -1.6642265
-3.6893488e+19 3.1416531 0
-2.7728648 -3.6893488e+19 -1.7170515
-2 3.1761966 -3.6893488e+19
-2.7438598 -3.6893488e+19 -1.7906208
3.6893488e+19 3.1418574 -2
-2.7730069 2 -1.8261698
3.6893488e+19 3.1768119 1.0842022e-19
-2.7445729 -2 -1.8824995
