# .PCD v0.7 - Point Cloud Data file format
VERSION 0.7
FIELDS x y z
SIZE 4 4 4
TYPE F F F
COUNT 1 1 1
WIDTH 1712
HEIGHT 1
VIEWPOINT 0 0 0 1 0 0 0
POINTS 1712
DATA ascii
-1.0842022e-19 3.2165549 -2
2.8584588 3.6893488e+19 2.5202839
-2 3.2222142 0
2.921762 3.6893488e+19 2.5223372
1.0842022e-19 3.211565 -1.0842022e-19
2.9122503 -2 2.5018671
-1.0842022e-19 3.1393411 3.6893488e+19
2.7991347 -0 2.4038208
1.0842022e-19 3.1392617 3.6893488e+19
2.772094 -2 2.3875802
2 3.1452119 1.0842022e-19
2.8244107 1.0842022e-19 2.3894653
-1.0842022e-19 3.1396003 3.6893488e+19
2.7723308 2 2.3645999
2 3.1439352 -0
2.8233626 0 2.3641722
-0 3.1400082 2
2.7726159 3.6893488e+19 2.3416755
-2 3.1429534 -1.0842022e-19
2.8225567 -2 2.3393204
3.6893488e+19 3.1411901 1.0842022e-19
2.773442 3.6893488e+19 2.3193724
-3.6893488e+19 3.1346679 -0
2.8157556 -3.6893488e+19 2.3087637
0 3.1419723 2
2.7739887 -3.6893488e+19 2.2966526
-0 3.1350803 2
2.8160942 -2 2.2856934
-0 3.247932 3.6893488e+19
2.8480546 -2 2.3472152
-0 3.1330245 0
2.8144066 -1.0842022e-19 2.2609241
0 3.139657 2
2.7723703 -2 2.2470973
2 3.1318991 -0
2.8134828 1.0842022e-19 2.2240055
2 3.14306 2
2.774749 -0 2.2047625
-1.0842022e-19 3.131475 -0
2.8131347 2 2.1772671
-0 3.2127237 -2
2.9132853 0 2.2467239
3.6893488e+19 3.1314821 3.6893488e+19
2.7930965 1.0842022e-19 2.1276932
-1.0842022e-19 3.1348703 2
2.84375 1.0842022e-19 2.115984
-0 3.1309855 1.0842022e-19
2.7927151 -2 2.0815408
0 3.1348357 1.0842022e-19
2.843719 -1.0842022e-19 2.0688155
-2 3.1305573 3.6893488e+19
2.7923861 -1.0842022e-19 2.0356002
0 3.1376047 2
2.8461921 1.0842022e-19 2.0236664
-3.6893488e+19 3.1292357 -2
2.7913706 -2 1.9892175
2 3.1333408 2
2.8423839 -0 1.9737701
1.0842022e-19 3.1323273 -3.6893488e+19
2.7937458 -1.0842022e-19 1.945439
3.6893488e+19 3.1291704 2
2.838659 3.6893488e+19 1.9249725
2 3.1561048 1.0842022e-19
2.8627157 3.6893488e+19 1.887773
0 3.125828 -1.0842022e-19
2.7887523 1.0842022e-19 1.8295144
3.6893488e+19 3.1247933 -2
2.8347495 -3.6893488e+19 1.7877033
-1.0842022e-19 3.1277273 3.6893488e+19
2.7902117 3.6893488e+19 1.7305197
0 3.1261806 0
2.7629504 -1.0842022e-19 1.6381283
3.6893488e+19 3.1312616 -0
2.8129594 3.6893488e+19 1.45356
-0 3.1269231 1.0842022e-19
2.7634695 0 -1.4090273
-2 3.133599 -0
2.8148782 3.6893488e+19 -1.6337775
-2 3.1298597 -3.6893488e+19
2.765522 1.0842022e-19 -1.7195812
1.0842022e-19 3.1362648 -3.6893488e+19
2.8170662 -0 -1.7855108
-1.0842022e-19 3.1263473 0
2.763067 1.0842022e-19 -1.8227308
1.0842022e-19 3.1415126 -1.0842022e-19
2.8213739 0 -1.8785559
3.6893488e+19 3.1401591 -2
2.7727213 2 -1.8986046
1.0842022e-19 3.0653863 0
2.7588856 2 -1.8916073
3.6893488e+19 3.067874 0
2.6943882 -2 -1.9086595
2 3.0560176 -2
2.7511952 1.0842022e-19 -1.9243248
-0 3.0604308 0
2.6839826 0 -1.9416665
-0 2.8306804 3.6893488e+19
2.4622915 -1.0842022e-19 -1.8682985
-3.6893488e+19 2.7652736 -1.0842022e-19
2.4355011 0 -1.8401839
-0 2.7257991 3.6893488e+19
2.4249637 -1.0842022e-19 -1.8350892
-1.0842022e-19 2.6874051 -3.6893488e+19
2.3360627 1.0842022e-19 -1.8270152
-2 2.6412985 -1.0842022e-19
2.3494914 -1.0842022e-19 -1.8217446
-0 2.6294608 -2
2.2915435 1.0842022e-19 -1.8230004
-0 2.5910165 2
2.3045816 -3.6893488e+19 -1.8173704
2 2.586798 3.6893488e+19
2.2587652 -1.0842022e-19 -1.8209417
-3.6893488e+19 2.5494151 3.6893488e+19
2.2674251 2 -1.8122728
-2 2.543926 -0
2.2016528 -2 -1.8136508
0 2.5184228 0
2.2294879 -2 -1.8093762
-3.6893488e+19 2.5127141 -1.0842022e-19
2.153692 -0 -1.8094083
1.0842022e-19 2.4858193 -1.0842022e-19
2.1839132 -1.0842022e-19 -1.8067859
2 2.4797871 -1.0842022e-19
2.1186252 1.0842022e-19 -1.8078275
-1.0842022e-19 2.4477859 0
2.1499436 3.6893488e+19 -1.8063388
-3.6893488e+19 2.4385922 3.6893488e+19
2.0869749 -0 -1.8053417
-3.6893488e+19 3.2823763 0
2.8914456 3.6893488e+19 2.7779975
3.6893488e+19 3.2834034 2
2.8928692 0 2.7702076
-2 3.2805381 -2
2.8888972 -2 2.7587893
-2 3.2064741 1.0842022e-19
2.8719068 0 2.6580691
-0 3.2791207 2
2.8869324 -2 2.7305524
1.0842022e-19 3.2264109 1.0842022e-19
2.8302133 -2 2.6454909
1.0842022e-19 3.267211 -1.0842022e-19
2.9354136 3.6893488e+19 2.6942847
-2 3.2273695 -0
2.8308778 2 2.6316757
0 3.2672784 -1.0842022e-19
2.9355235 -0 2.6777291
2 3.2694263 0
2.9390237 0 2.6644051
1.0842022e-19 3.2652259 -3.6893488e+19
2.9704478 -3.6893488e+19 2.6549375
1.0842022e-19 3.2528353 0
2.8854749 3.6893488e+19 2.6198757
3.6893488e+19 3.2072628 1.0842022e-19
2.8485734 -0 2.5564451
-2 3.2162206 1.0842022e-19
2.9134827 1.0842022e-19 2.5620949
2 3.2355046 -1.0842022e-19
2.8701022 -3.6893488e+19 2.5605433
1.0842022e-19 3.2180352 -0
2.9150918 -1.0842022e-19 2.5487156
1.0842022e-19 3.2351892 0
2.8698618 3.6893488e+19 2.5455534
0 3.238292 -1.0842022e-19
2.872227 1.0842022e-19 2.5325933
0 3.2135208 3.6893488e+19
2.911088 1.0842022e-19 2.5026398
1.0842022e-19 3.1398187 3.6893488e+19
2.7971604 -0 2.4039109
2 3.2474754 -1.0842022e-19
2.8448136 3.6893488e+19 2.4948752
2 3.2249696 -3.6893488e+19
2.8869755 1.0842022e-19 2.4675622
1.0842022e-19 3.2473719 -2
2.8447418 2 2.4650316
0 3.209393 -0
2.8742847 -2 2.4242296
1.0842022e-19 3.2475078 -2
2.844836 0 2.4354558
2 3.2106745 -3.6893488e+19
2.8753288 0 2.3973727
2 3.2514694 -2
2.8486004 1.0842022e-19 2.4102314
3.6893488e+19 3.2091973 -3.6893488e+19
2.8741252 3.6893488e+19 2.3681922
-2 3.2491763 -2
2.8459926 -3.6893488e+19 2.3774426
-3.6893488e+19 3.2100022 -2
2.8747811 0 2.3409133
-2 3.251297 2
2.8483617 2 2.350147
3.6893488e+19 3.2091987 -1.0842022e-19
2.8741264 -1.0842022e-19 2.3124807
0 3.2501986 -2
2.8468387 3.6893488e+19 2.3188951
-3.6893488e+19 3.2096417 -3.6893488e+19
2.8744874 -1.0842022e-19 2.2849436
-1.0842022e-19 3.2362127 2
2.8370073 -3.6893488e+19 2.2810128
1.0842022e-19 3.1322882 -0
2.8114645 -1.0842022e-19 2.1777194
1.0842022e-19 3.212465 3.6893488e+19
2.9101517 2 2.2458677
-1.0842022e-19 3.1347215 -0
2.7932749 0 2.1305189
-0 3.2121663 3.6893488e+19
2.9098868 2 2.1889749
2 3.2201405 2
2.8583901 0 2.1587155
-3.6893488e+19 3.2138708 0
2.9113986 0 2.1338444
-0 3.2215207 -0
2.8594422 2 2.1035118
3.6893488e+19 3.1370006 -3.6893488e+19
2.8432236 1.0842022e-19 2.0229216
-1.0842022e-19 3.2270224 -0
2.8636363 -3.6893488e+19 2.0505986
2 3.1341591 0
2.8407037 0 1.9739866
-2 3.2262576 1.0842022e-19
2.8630533 -1.0842022e-19 1.9932107
1.0842022e-19 3.1567993 0
2.8607829 -2 1.9375035
0 3.145772 1.0842022e-19
2.8016987 3.6893488e+19 1.9048302
3.6893488e+19 3.131444 2
2.8382957 1.0842022e-19 1.879256
-0 3.20784 -1.0842022e-19
2.8490133 3.6893488e+19 1.8738933
-1.0842022e-19 3.1252589 0
2.8328104 -3.6893488e+19 1.7877157
-0 3.1279309 3.6893488e+19
2.7880983 3.6893488e+19 1.7304128
2 3.1557846 -0
2.7812603 -0 1.6488627
0 3.1646338 3.6893488e+19
2.8378177 2 1.4711407
1.0842022e-19 3.1280937 -3.6893488e+19
2.7620668 3.6893488e+19 -1.4093758
0 3.1336341 -1.0842022e-19
2.812561 -3.6893488e+19 -1.6336464
1.0842022e-19 3.1294091 -3.6893488e+19
2.7629786 -3.6893488e+19 -1.7191207
0 3.1283145 -1.0842022e-19
2.7622199 2 -1.8235831
2 3.1565735 -2
2.8312507 0 -1.8833584
-1.0842022e-19 3.1259618 2
2.7605894 2 -1.8930666
-2 3.158072 -2
2.8324716 -3.6893488e+19 -1.9330267
3.6893488e+19 3.0687246 0
2.6918335 -0 -1.9089391
0 3.0559118 -3.6893488e+19
2.7484756 0 -1.9240779
-1.0842022e-19 3.061245 -3.6893488e+19
2.6814647 2 -1.9419941
-3.6893488e+19 2.8305099 -2
2.4581709 2 -1.8679516
-0 2.7725539 -2
2.4441199 0 -1.8458527
3.6893488e+19 2.7238433 0
2.420243 -2 -1.8339819
3.6893488e+19 2.6895933 -3.6893488e+19
2.3351038 3.6893488e+19 -1.8278223
1.0842022e-19 2.6410706 -1.0842022e-19
2.3468332 -3.6893488e+19 -1.8214008
-0 2.6318233 -3.6893488e+19
2.2910655 -2 -1.8240335
3.6893488e+19 2.5924406 3.6893488e+19
2.3037043 -2 -1.8179487
-0 2.5872521 -3.6893488e+19
2.2570887 -2 -1.8210094
3.6893488e+19 2.5495365 -0
2.2656534 -0 -1.8121303
3.6893488e+19 2.5441043 -0
2.1983941 3.6893488e+19 -1.8135762
2 2.5179384 3.6893488e+19
2.2252593 1.0842022e-19 -1.8088292
3.6893488e+19 2.5132105 -2
2.151293 1.0842022e-19 -1.8095716
-1.0842022e-19 2.4888906 0
2.1835883 -1.0842022e-19 -1.8077221
2 2.4802682 2
2.1161106 1.0842022e-19 -1.8078275
-2 2.4485357 -1.0842022e-19
2.1477981 -0 -1.8064308
-3.6893488e+19 2.4378693 1.0842022e-19
2.0837898 1.0842022e-19 -1.8048642
2 2.4077559 3.6893488e+19
2.1116312 0 -1.8024892
-2 2.3701336 -3.6893488e+19
2.0065496 -1.0842022e-19 -1.8029702
2 2.3261638 -3.6893488e+19
1.9760729 -0 -1.8013599
3.6893488e+19 2.2893009 -2
1.9505223 -1.0842022e-19 -1.7988138
0 2.2597604 -0
1.9300469 -1.0842022e-19 -1.7967383
0 2.2032781 0
1.951002 -2 -1.7940702
2 2.1621547 3.6893488e+19
1.9327662 -2 -1.7917005
0 2.1314673 -2
1.9191581 -3.6893488e+19 -1.7913541
-0 2.1008701 2
1.9055902 1.0842022e-19 -1.7891706
-3.6893488e+19 3.2823763 0
2.8914456 3.6893488e+19 2.7779975
3.6893488e+19 3.2834034 2
2.8928692 0 2.7702076
3.6893488e+19 3.2337871 2
2.835326 0 2.6962814
-2 3.2064741 1.0842022e-19
2.8719068 0 2.6580691
-0 3.2791207 2
2.8869324 -2 2.7305524
1.0842022e-19 3.2264109 1.0842022e-19
2.8302133 -2 2.6454909
1.0842022e-19 3.267211 -1.0842022e-19
2.9354136 3.6893488e+19 2.6942847
-2 3.2273695 -0
2.8308778 2 2.6316757
-1.0842022e-19 3.212903 3.6893488e+19
2.8771446 -0 2.6203949
-0 3.2152562 -3.6893488e+19
2.8790617 -2 2.6078055
1.0842022e-19 3.2652259 -3.6893488e+19
2.9704478 -3.6893488e+19 2.6549375
1.0842022e-19 3.2528353 0
2.8854749 3.6893488e+19 2.6198757
3.6893488e+19 3.2072628 1.0842022e-19
2.8485734 -0 2.5564451
-2 3.2162206 1.0842022e-19
2.9134827 1.0842022e-19 2.5620949
2 3.2355046 -1.0842022e-19
2.8701022 -3.6893488e+19 2.5605433
1.0842022e-19 3.2180352 -0
2.9150918 -1.0842022e-19 2.5487156
1.0842022e-19 3.2351892 0
2.8698618 3.6893488e+19 2.5455534
0 3.238292 -1.0842022e-19
2.872227 1.0842022e-19 2.5325933
0 3.2135208 3.6893488e+19
2.911088 1.0842022e-19 2.5026398
1.0842022e-19 3.1398187 3.6893488e+19
2.7971604 -0 2.4039109
1.0842022e-19 3.1402619 0
2.7705011 -1.0842022e-19 2.388222
-1.0842022e-19 3.2117999 -2
2.8762457 1.0842022e-19 2.4545979
3.6893488e+19 3.1385176 2
2.7692921 -2 2.3632553
-3.6893488e+19 3.1455083 -0
2.8222356 3.6893488e+19 2.3652351
-3.6893488e+19 3.1408925 -3.6893488e+19
2.7709382 2 2.3421383
2 3.2106745 -3.6893488e+19
2.8753288 0 2.3973727
2 3.1413705 1.0842022e-19
2.7712696 1.0842022e-19 2.3192286
2 3.1358583 -0
2.8143733 -0 2.3093877
-3.6893488e+19 3.1420355 -2
2.7717304 1.0842022e-19 2.2964303
-2 3.1333592 -2
2.8123372 1.0842022e-19 2.2841122
-2 3.1394744 0
2.7699554 -2 2.2713387
-1.0842022e-19 3.1349063 -1.0842022e-19
2.8135977 3.6893488e+19 2.2619255
3.6893488e+19 3.142309 3.6893488e+19
2.77192 -1.0842022e-19 2.2500122
0 3.1353972 -0
2.8139975 -0 2.2278349
0 3.1426821 -2
2.7721784 0 2.2039113
1.0842022e-19 3.1322882 -0
2.8114645 -1.0842022e-19 2.1777194
-2 3.1322842 -3.6893488e+19
2.8390408 -0 2.1598957
-1.0842022e-19 3.1347215 -0
2.7932749 0 2.1305189
-2 3.1333795 2
2.8400123 -1.0842022e-19 2.1141415
1.0842022e-19 3.1316593 0
2.7909405 1.0842022e-19 2.0817945
-2 3.1365399 -2
2.8428152 3.6893488e+19 2.0698545
3.6893488e+19 3.1281092 -0
2.7882342 2 2.0334787
3.6893488e+19 3.1370006 -3.6893488e+19
2.8432236 1.0842022e-19 2.0229216
-1.0842022e-19 3.1285655 -3.6893488e+19
2.7885821 -1.0842022e-19 1.9885556
2 3.1341591 0
2.8407037 0 1.9739866
-3.6893488e+19 3.1454656 2
2.8014653 0 1.9519527
-2 3.1286416 1.0842022e-19
2.8358104 2 1.924525
2 3.1252491 -3.6893488e+19
2.7860539 3.6893488e+19 1.8968015
3.6893488e+19 3.131444 2
2.8382957 1.0842022e-19 1.879256
-0 3.1252997 -2
2.7860925 -1.0842022e-19 1.8290223
-1.0842022e-19 3.1252589 0
2.8328104 -3.6893488e+19 1.7877157
-0 3.1279309 3.6893488e+19
2.7880983 3.6893488e+19 1.7304128
3.6893488e+19 3.1351454 -1.0842022e-19
2.7669547 1.0842022e-19 1.6412913
2 3.1310046 0
2.8104188 2 1.453205
1.0842022e-19 3.1280937 -3.6893488e+19
2.7620668 3.6893488e+19 -1.4093758
0 3.1336341 -1.0842022e-19
2.812561 -3.6893488e+19 -1.6336464
1.0842022e-19 3.1294091 -3.6893488e+19
2.7629786 -3.6893488e+19 -1.7191207
0 3.1283145 -1.0842022e-19
2.7622199 2 -1.8235831
1.0842022e-19 3.0916421 3.6893488e+19
2.7783487 1.0842022e-19 -1.849121
1.0842022e-19 3.0675426 -2
2.6901946 -2 -1.866672
0 3.0653193 3.6893488e+19
2.7569025 3.6893488e+19 -1.8914256
3.6893488e+19 3.0687246 0
2.6918335 -0 -1.9089391
0 3.0559118 -3.6893488e+19
2.7484756 0 -1.9240779
-1.0842022e-19 3.061245 -3.6893488e+19
2.6814647 2 -1.9419941
-3.6893488e+19 2.8305099 -2
2.4581709 2 -1.8679516
-0 2.7725539 -2
2.4441199 0 -1.8458527
3.6893488e+19 2.7238433 0
2.420243 -2 -1.8339819
3.6893488e+19 2.6895933 -3.6893488e+19
2.3351038 3.6893488e+19 -1.8278223
1.0842022e-19 2.6410706 -1.0842022e-19
2.3468332 -3.6893488e+19 -1.8214008
-0 2.6318233 -3.6893488e+19
2.2910655 -2 -1.8240335
3.6893488e+19 2.5924406 3.6893488e+19
2.3037043 -2 -1.8179487
-0 2.5872521 -3.6893488e+19
2.2570887 -2 -1.8210094
3.6893488e+19 2.5495365 -0
2.2656534 -0 -1.8121303
3.6893488e+19 2.5441043 -0
2.1983941 3.6893488e+19 -1.8135762
2 2.5179384 3.6893488e+19
2.2252593 1.0842022e-19 -1.8088292
3.6893488e+19 2.5132105 -2
2.151293 1.0842022e-19 -1.8095716
-1.0842022e-19 2.4888906 0
2.1835883 -1.0842022e-19 -1.8077221
2 2.4802682 2
2.1161106 1.0842022e-19 -1.8078275
-2 2.4485357 -1.0842022e-19
2.1477981 -0 -1.8064308
-3.6893488e+19 2.4378693 1.0842022e-19
2.0837898 1.0842022e-19 -1.8048642
2 2.4077559 3.6893488e+19
2.1116312 0 -1.8024892
-2 2.3701336 -3.6893488e+19
2.0065496 -1.0842022e-19 -1.8029702
2 2.3261638 -3.6893488e+19
1.9760729 -0 -1.8013599
3.6893488e+19 2.2893009 -2
1.9505223 -1.0842022e-19 -1.7988138
0 2.2597604 -0
1.9300469 -1.0842022e-19 -1.7967383
0 2.2032781 0
1.951002 -2 -1.7940702
2 2.1621547 3.6893488e+19
1.9327662 -2 -1.7917005
0 2.1314673 -2
1.9191581 -3.6893488e+19 -1.7913541
-0 2.1008701 2
1.9055902 1.0842022e-19 -1.7891706
3.6893488e+19 3.2775776 1.0842022e-19
2.881537 1.0842022e-19 2.727464
3.6893488e+19 3.2248697 0
2.8263597 2 2.6438553
-3.6893488e+19 3.2676942 2
2.9329331 -1.0842022e-19 2.6946154
3.6893488e+19 3.2240844 1.0842022e-19
2.82582 0 2.6287065
-1.0842022e-19 3.2669218 -3.6893488e+19
2.9316835 -3.6893488e+19 2.6767044
0 3.2532396 -3.6893488e+19
2.8480835 0 2.6391394
-3.6893488e+19 3.2675309 2
2.9326689 2 2.6610525
-2 3.2680829 -0
2.9721568 3.6893488e+19 2.6588261
-2 3.2501912 -1.0842022e-19
2.878443 -2 2.6156437
-0 3.2088442 1.0842022e-19
2.8470273 1.0842022e-19 2.5571992
3.6893488e+19 3.2168458 0
2.9111123 0 2.5621517
-2 3.2184925 -1.0842022e-19
2.9125624 -1.0842022e-19 2.5486615
3.6893488e+19 3.2357879 2
2.8674049 -2 2.5456238
3.6893488e+19 3.2149916 3.6893488e+19
2.9094794 3.6893488e+19 2.5319741
-3.6893488e+19 3.238662 0
2.8695788 1.0842022e-19 2.5325263
-2 3.2354286 -2
2.8671331 -0 2.515933
-0 3.213774 2
2.9084072 1.0842022e-19 2.5024853
2 3.2408125 3.6893488e+19
2.8712051 -0 2.504025
-0 3.2463405 3.6893488e+19
2.8411157 2 2.4933
3.6893488e+19 3.2251008 1.0842022e-19
2.8841822 -2 2.4671941
0 3.2447963 -1.0842022e-19
2.8400543 -1.0842022e-19 2.4622052
1.0842022e-19 3.2297301 1.0842022e-19
2.8879256 -1.0842022e-19 2.4425392
-2 3.2465761 -1.0842022e-19
2.8412776 2 2.4342475
-2 3.2285769 2
2.8869932 -3.6893488e+19 2.4123762
0 3.2521529 -3.6893488e+19
2.8465898 2 2.4109745
-1.0842022e-19 3.2310042 -3.6893488e+19
2.8889558 2 2.3852675
-0 3.2503438 -1.0842022e-19
2.8441033 -1.0842022e-19 2.3782432
3.6893488e+19 3.1339693 -3.6893488e+19
2.8104901 -0 2.2842617
2 3.2508323 -2
2.8447747 -2 2.3491833
-1.0842022e-19 3.2300203 -1.0842022e-19
2.8881602 1.0842022e-19 2.3263025
0 3.2502334 -0
2.8439515 1.0842022e-19 2.3186512
-0 3.2271225 3.6893488e+19
2.8858171 -0 2.2954659
3.6893488e+19 3.2441714 -1.0842022e-19
2.8396249 -3.6893488e+19 2.2853544
3.6893488e+19 3.2292867 2
2.887567 -1.0842022e-19 2.2678375
2 3.212744 -2
2.9075 2 2.2455926
-1.0842022e-19 3.2286303 3.6893488e+19
2.8619916 -0 2.2229309
-3.6893488e+19 3.2129302 0
2.9076643 2 2.1891916
3.6893488e+19 3.2191489 3.6893488e+19
2.8548207 1.0842022e-19 2.1574478
-1.0842022e-19 3.134331 -2
2.8384483 -3.6893488e+19 2.0676584
0 3.2215521 -1.0842022e-19
2.8566382 2 2.1031837
3.6893488e+19 3.1263039 -3.6893488e+19
2.8313794 0 2.0150709
0 3.2269716 2
2.8607371 -1.0842022e-19 2.0502677
1.0842022e-19 3.1667047 -3.6893488e+19
2.8669569 3.6893488e+19 1.9926813
-3.6893488e+19 3.2297702 -0
2.8628538 2 1.9947609
1.0842022e-19 3.1665626 0
2.866832 2 1.9417814
3.6893488e+19 3.146575 -2
2.7999325 -1.0842022e-19 1.9049901
2 3.1269104 1.0842022e-19
2.8319137 2 1.8775719
2 3.1467454 3.6893488e+19
2.8000615 1.0842022e-19 1.8404663
1.0842022e-19 3.161413 -1.0842022e-19
2.8622971 2 1.8031859
-0 3.1228998 -2
2.7820268 3.6893488e+19 1.7271194
-2 3.1423502 -3.6893488e+19
2.7696471 -2 1.6438042
3.6893488e+19 3.1335828 1.0842022e-19
2.8101778 2 1.4543626
2 3.1331441 1.0842022e-19
2.809823 1.0842022e-19 -1.6333339
3.6893488e+19 3.1326189 3.6893488e+19
2.7629592 1.0842022e-19 -1.7207749
-0 3.1516328 3.6893488e+19
2.8247736 0 -1.7915411
3.6893488e+19 3.1288636 2
2.7603784 2 -1.8236916
-1.0842022e-19 3.1557605 2
2.8281114 3.6893488e+19 -1.8829502
-2 3.1277497 -1.0842022e-19
2.7596128 -0 -1.893617
0 3.1573479 -2
2.8293948 -3.6893488e+19 -1.9325076
-1.0842022e-19 3.0737395 3.6893488e+19
2.6949875 -1.0842022e-19 -1.911294
-0 3.0552237 -0
2.743628 3.6893488e+19 -1.9235017
0 3.0612905 -2
2.6778758 -3.6893488e+19 -1.9418484
-0 2.869962 -3.6893488e+19
2.5491633 -1.0842022e-19 -1.8774375
-3.6893488e+19 2.8364189 3.6893488e+19
2.4624157 -1.0842022e-19 -1.8720716
0 2.7698922 3.6893488e+19
2.4364874 -0 -1.8434633
-3.6893488e+19 2.7251921 1.0842022e-19
2.4184623 2 -1.8343343
-1.0842022e-19 2.6889801 -2
2.3320038 -1.0842022e-19 -1.827338
3.6893488e+19 2.6408384 0
2.3441789 2 -1.8210571
2 2.6320868 2
2.288975 0 -1.8239728
3.6893488e+19 2.5958056 2
2.3045223 2 -1.8196193
0 2.5907376 0
2.2577024 1.0842022e-19 -1.8228382
-3.6893488e+19 2.5520515 -2
2.2659917 -2 -1.8134832
-3.6893488e+19 2.5419486 -2
2.1916058 1.0842022e-19 -1.8120079
-0 2.5182488 -2
2.2224488 1.0842022e-19 -1.8088292
-3.6893488e+19 2.5137055 -0
2.148885 -1.0842022e-19 -1.8097348
-0 2.4896851 -2
2.1812248 -0 -1.8078072
2 2.4812121 1.0842022e-19
2.1139443 1.0842022e-19 -1.8080046
-0 2.4490554 2
2.1454458 -0 -1.8064308
-2 2.4373741 3.6893488e+19
2.0807893 0 -1.8044821
3.6893488e+19 3.2775776 1.0842022e-19
2.881537 1.0842022e-19 2.727464
3.6893488e+19 3.2248697 0
2.8263597 2 2.6438553
-3.6893488e+19 3.2676942 2
2.9329331 -1.0842022e-19 2.6946154
3.6893488e+19 3.2240844 1.0842022e-19
2.82582 0 2.6287065
-1.0842022e-19 3.2669218 -3.6893488e+19
2.9316835 -3.6893488e+19 2.6767044
0 3.2532396 -3.6893488e+19
2.8480835 0 2.6391394
-3.6893488e+19 3.2675309 2
2.9326689 2 2.6610525
-2 3.2680829 -0
2.9721568 3.6893488e+19 2.6588261
-2 3.2501912 -1.0842022e-19
2.878443 -2 2.6156437
-0 3.2088442 1.0842022e-19
2.8470273 1.0842022e-19 2.5571992
3.6893488e+19 3.2168458 0
2.9111123 0 2.5621517
-2 3.2184925 -1.0842022e-19
2.9125624 -1.0842022e-19 2.5486615
3.6893488e+19 3.2357879 2
2.8674049 -2 2.5456238
3.6893488e+19 3.2149916 3.6893488e+19
2.9094794 3.6893488e+19 2.5319741
-3.6893488e+19 3.238662 0
2.8695788 1.0842022e-19 2.5325263
-2 3.2354286 -2
2.8671331 -0 2.515933
-0 3.213774 2
2.9084072 1.0842022e-19 2.5024853
1.0842022e-19 3.1398585 -1.0842022e-19
2.7948527 -1.0842022e-19 2.4035504
-0 3.2463405 3.6893488e+19
2.8411157 2 2.4933
3.6893488e+19 3.2251008 1.0842022e-19
2.8841822 -2 2.4671941
0 3.2447963 -1.0842022e-19
2.8400543 -1.0842022e-19 2.4622052
2 3.1454108 2
2.8197422 1.0842022e-19 2.3647568
-3.6893488e+19 3.1415989 3.6893488e+19
2.7691309 1.0842022e-19 2.3424468
-1.0842022e-19 3.2090602 2
2.8712113 2 2.3955593
-1.0842022e-19 3.1412833 2
2.768914 -2 2.3188689
-0 3.2063107 0
2.868988 -0 2.3654888
2 3.1401532 3.6893488e+19
2.7681372 3.6893488e+19 2.2947402
3.6893488e+19 3.1339693 -3.6893488e+19
2.8104901 -0 2.2842617
2 3.2508323 -2
2.8447747 -2 2.3491833
-0 3.134074 0
2.810575 3.6893488e+19 2.2610812
1.0842022e-19 3.1395106 1.0842022e-19
2.7676957 1.0842022e-19 2.2460091
-2 3.1356337 2
2.8118362 -2 2.2276201
-0 3.1426539 1.0842022e-19
2.769856 1.0842022e-19 2.2034686
-0 3.1360197 1.0842022e-19
2.8121483 3.6893488e+19 2.1814353
-3.6893488e+19 3.1336691 3.6893488e+19
2.8378656 2 2.1609046
-3.6893488e+19 3.1356881 -2
2.7916987 -2 2.1310954
-1.0842022e-19 3.133738 -1.0842022e-19
2.8379261 -1.0842022e-19 2.1140602
0 3.1323895 -1.0842022e-19
2.7892039 2 2.0820987
-1.0842022e-19 3.134331 -2
2.8384483 -3.6893488e+19 2.0676584
-2 3.1243389 0
2.7831154 -1.0842022e-19 2.0303729
3.6893488e+19 3.1263039 -3.6893488e+19
2.8313794 0 2.0150709
-2 3.1269853 0
2.7851169 -0 1.9873235
2 3.1325176 3.6893488e+19
2.8368514 -3.6893488e+19 1.9727713
0 3.1261089 1.0842022e-19
2.7844539 2 1.9418766
1.0842022e-19 3.1665626 0
2.866832 2 1.9417814
-2 3.1238108 -2
2.7827158 -0 1.8960934
2 3.1269104 1.0842022e-19
2.8319137 2 1.8775719
0 3.1254396 2
2.7839477 3.6893488e+19 1.8288953
1.0842022e-19 3.133158 -2
2.8374152 1.0842022e-19 1.7909485
-0 3.1228998 -2
2.7820268 3.6893488e+19 1.7271194
-2 3.1423502 -3.6893488e+19
2.7696471 -2 1.6438042
3.6893488e+19 3.1335828 1.0842022e-19
2.8101778 2 1.4543626
2 3.1331441 1.0842022e-19
2.809823 1.0842022e-19 -1.6333339
3.6893488e+19 3.1326189 3.6893488e+19
2.7629592 1.0842022e-19 -1.7207749
1.0842022e-19 3.1369743 -1.0842022e-19
2.8129201 -0 -1.7854627
3.6893488e+19 3.1288636 2
2.7603784 2 -1.8236916
-1.0842022e-19 3.1557605 2
2.8281114 3.6893488e+19 -1.8829502
0 3.0783484 -0
2.7013223 -0 -1.8746701
3.6893488e+19 3.0656548 -1.0842022e-19
2.7552488 3.6893488e+19 -1.8914256
-1.0842022e-19 3.0737395 3.6893488e+19
2.6949875 -1.0842022e-19 -1.911294
-0 3.0552237 -0
2.743628 3.6893488e+19 -1.9235017
0 3.0612905 -2
2.6778758 -3.6893488e+19 -1.9418484
-0 2.869962 -3.6893488e+19
2.5491633 -1.0842022e-19 -1.8774375
-3.6893488e+19 2.8364189 3.6893488e+19
2.4624157 -1.0842022e-19 -1.8720716
0 2.7698922 3.6893488e+19
2.4364874 -0 -1.8434633
-3.6893488e+19 2.7251921 1.0842022e-19
2.4184623 2 -1.8343343
-1.0842022e-19 2.6889801 -2
2.3320038 -1.0842022e-19 -1.827338
3.6893488e+19 2.6408384 0
2.3441789 2 -1.8210571
2 2.6320868 2
2.288975 0 -1.8239728
3.6893488e+19 2.5958056 2
2.3045223 2 -1.8196193
0 2.5907376 0
2.2577024 1.0842022e-19 -1.8228382
-3.6893488e+19 2.5520515 -2
2.2659917 -2 -1.8134832
-3.6893488e+19 2.5419486 -2
2.1916058 1.0842022e-19 -1.8120079
-0 2.5182488 -2
2.2224488 1.0842022e-19 -1.8088292
-3.6893488e+19 2.5137055 -0
2.148885 -1.0842022e-19 -1.8097348
-0 2.4896851 -2
2.1812248 -0 -1.8078072
2 2.4812121 1.0842022e-19
2.1139443 1.0842022e-19 -1.8080046
-0 2.4490554 2
2.1454458 -0 -1.8064308
-2 2.4373741 3.6893488e+19
2.0807893 0 -1.8044821
1.0842022e-19 3.2784064 3.6893488e+19
2.8794174 0 2.7284603
-0 3.2236409 2
2.8227434 -1.0842022e-19 2.6424842
3.6893488e+19 3.2680197 -2
2.9301953 0 2.6946864
-1.0842022e-19 3.2230852 0
2.8223648 2 2.6275697
1.0842022e-19 3.2668614 -2
2.9283361 -2 2.676158
2 3.253845 -1.0842022e-19
2.8459446 2 2.6397202
-3.6893488e+19 3.2678561 -0
2.9299331 0 2.6611183
-2 3.2503228 3.6893488e+19
2.8756473 3.6893488e+19 2.6154754
3.6893488e+19 3.2077742 1.0842022e-19
2.8434796 3.6893488e+19 2.5701623
-1.0842022e-19 3.2081697 1.0842022e-19
2.8437765 -0 2.5564451
-0 3.2176089 3.6893488e+19
2.9088631 2 2.5623028
-2 3.2191629 0
2.852025 -3.6893488e+19 2.5494967
-3.6893488e+19 3.2187479 -1.0842022e-19
2.9098589 -3.6893488e+19 2.548481
0 3.2405546 -3.6893488e+19
2.8680754 -0 2.5482302
-3.6893488e+19 3.2181921 -0
2.909373 3.6893488e+19 2.5335889
-1.0842022e-19 3.2387965 3.6893488e+19
2.8667564 3.6893488e+19 2.5323253
-3.6893488e+19 3.2135236 3.6893488e+19
2.9052911 1.0842022e-19 2.5163984
-0 3.2358208 -0
2.8645236 -2 2.5158854
2 3.2136538 3.6893488e+19
2.9054048 -0 2.5021298
0 3.2373757 -2
2.8656902 -0 2.5019975
-2 3.2458453 3.6893488e+19
2.8378737 -1.0842022e-19 2.4923663
-3.6893488e+19 3.2268412 1.0842022e-19
2.8826864 -2 2.4684112
-2 3.2451222 -1.0842022e-19
2.8373809 2 2.4620955
-2 3.2268624 3.6893488e+19
2.8827033 0 2.4394302
3.6893488e+19 3.246639 -1.0842022e-19
2.8384144 -1.0842022e-19 2.4339132
3.6893488e+19 3.2296593 -2
2.8849478 -0 2.412873
-0 3.2528353 -0
2.8445687 3.6893488e+19 2.4117177
2 3.2136655 -1.0842022e-19
2.872112 -3.6893488e+19 2.3709879
1.0842022e-19 3.250701 0
2.84166 1.0842022e-19 2.3784435
-1.0842022e-19 3.2314363 3.6893488e+19
2.886374 2 2.3560431
0 3.2522955 3.6893488e+19
2.843833 -3.6893488e+19 2.3509054
-1.0842022e-19 3.2313654 0
2.8863173 1.0842022e-19 2.3268719
0 3.2440133 0
2.8366253 -3.6893488e+19 2.3142602
3.6893488e+19 3.2270477 -1.0842022e-19
2.8828518 3.6893488e+19 2.2951081
-2 3.2458539 0
2.8378797 1.0842022e-19 2.2860696
3.6893488e+19 3.2253935 -1.0842022e-19
2.8815243 3.6893488e+19 2.2653818
-1.0842022e-19 3.2155623 0
2.9070737 0 2.2480385
-0 3.2291613 3.6893488e+19
2.8595269 -0 2.2229886
-2 3.2137771 -2
2.9055126 2 2.1894896
1.0842022e-19 3.2285829 -3.6893488e+19
2.8590927 -3.6893488e+19 2.165231
-3.6893488e+19 3.2279844 -0
2.9179351 2 2.1446116
1.0842022e-19 3.2354052 -0
2.8642118 -1.0842022e-19 2.1132009
1.0842022e-19 3.128253 -1.0842022e-19
2.8307328 -3.6893488e+19 2.0161376
0 3.2301617 3.6893488e+19
2.8602774 -0 2.0519779
3.6893488e+19 3.1802046 -3.6893488e+19
2.8761578 -1.0842022e-19 2.0002556
-1.0842022e-19 3.1232045 -1.0842022e-19
2.7800248 2 1.9402072
2 3.1253088 1.0842022e-19
2.8281586 -3.6893488e+19 1.92259
3.6893488e+19 3.1886075 1.0842022e-19
2.8835051 -0 1.8982838
-1.0842022e-19 3.1475465 3.6893488e+19
2.7982893 1.0842022e-19 1.8406885
2 3.1395824 -3.6893488e+19
2.8406389 -1.0842022e-19 1.7935371
-0 3.1485171 -3.6893488e+19
2.7990174 -0 1.7424827
0 3.1336803 1.0842022e-19
2.7614434 0 1.6405005
1.0842022e-19 3.1521142 -0
2.8227143 3.6893488e+19 1.4640096
3.6893488e+19 3.1262608 -3.6893488e+19
2.7563875 -2 -1.4083178
3.6893488e+19 3.1307354 3.6893488e+19
2.805557 -0 -1.6323559
-2 3.1303294 -0
2.75916 2 -1.7192572
2 3.1565518 -0
2.8262758 1.0842022e-19 -1.793403
2 3.1297948 3.6893488e+19
2.7587957 2 -1.8240016
3.6893488e+19 3.1571748 -1.0842022e-19
2.8267758 3.6893488e+19 -1.8832729
0 3.1309571 0
2.7595878 0 -1.8947067
-3.6893488e+19 3.1590824 1.0842022e-19
2.8283069 1.0842022e-19 -1.9330916
0 3.0739708 -3.6893488e+19
2.6915133 -2 -1.9112645
-3.6893488e+19 3.0541835 -0
2.7382417 0 -1.9227282
-3.6893488e+19 3.0610373 2
2.6738877 3.6893488e+19 -1.9415208
-0 2.8703525 -0
2.5472243 -1.0842022e-19 -1.8774375
-1.0842022e-19 2.8376663 1.0842022e-19
2.4601781 3.6893488e+19 -1.8727655
1.0842022e-19 2.7705247 -3.6893488e+19
2.434216 -0 -1.8437444
0 2.7260818 2
2.4162714 -3.6893488e+19 -1.8344852
-0 2.689764 -1.0842022e-19
2.3299661 -3.6893488e+19 -1.8274994
-2 2.6411734 0
2.3420303 -1.0842022e-19 -1.8209997
-1.0842022e-19 2.6302443 -0
2.2853069 -2 -1.822818
2 2.5965462 1.0842022e-19
2.3030095 1.0842022e-19 -1.8198121
-2 2.5496571 -3.6893488e+19
2.2620111 0 -1.8117744
-1.0842022e-19 2.5427036 0
2.1892462 0 -1.8123066
2 2.5185573 -1.0842022e-19
2.2196367 1.0842022e-19 -1.8088292
1.0842022e-19 2.5146658 1.0842022e-19
2.147171 3.6893488e+19 -1.8102247
-2 2.4904764 1.0842022e-19
2.1788578 -1.0842022e-19 -1.8078923
-3.6893488e+19 2.4835522 3.6893488e+19
2.1128216 -1.0842022e-19 -1.8087132
0 2.4498 1.0842022e-19
2.1432915 -2 -1.8065228
-3.6893488e+19 2.4406018 -0
2.0805948 2 -1.8056283
-3.6893488e+19 2.4089255 -3.6893488e+19
2.1075521 3.6893488e+19 -1.8025881
2 2.3691549 1.0842022e-19
2.0015457 -3.6893488e+19 -1.8021802
-0 2.3253431 -3.6893488e+19
1.9716918 -2 -1.8005997
-1.0842022e-19 2.2902908 -0
1.947807 0 -1.7990949
3.6893488e+19 2.2597609 -0
1.9270035 0 -1.7964298
2 2.2011638 -2
1.9472419 1.0842022e-19 -1.7928939
-1.0842022e-19 2.1667106 -0
1.9321796 -0 -1.7931548
-2 2.1341455 2
1.9179426 1.0842022e-19 -1.7921361
3.6893488e+19 2.1048167 1.0842022e-19
1.9051205 -1.0842022e-19 -1.7906345
1.0842022e-19 3.2784064 3.6893488e+19
2.8794174 0 2.7284603
-0 3.2236409 2
2.8227434 -1.0842022e-19 2.6424842
3.6893488e+19 3.2680197 -2
2.9301953 0 2.6946864
-1.0842022e-19 3.2230852 0
2.8223648 2 2.6275697
1.0842022e-19 3.2668614 -2
2.9283361 -2 2.676158
2 3.253845 -1.0842022e-19
2.8459446 2 2.6397202
-3.6893488e+19 3.2678561 -0
2.9299331 0 2.6611183
-2 3.2191229 -3.6893488e+19
2.8519948 1.0842022e-19 2.5924635
3.6893488e+19 3.2077742 1.0842022e-19
2.8434796 3.6893488e+19 2.5701623
-1.0842022e-19 3.2081697 1.0842022e-19
2.8437765 -0 2.5564451
-0 3.2176089 3.6893488e+19
2.9088631 2 2.5623028
-2 3.2191629 0
2.852025 -3.6893488e+19 2.5494967
-3.6893488e+19 3.2187479 -1.0842022e-19
2.9098589 -3.6893488e+19 2.548481
3.6893488e+19 3.2187424 1.0842022e-19
2.8517094 -2 2.5349696
-3.6893488e+19 3.2181921 -0
2.909373 3.6893488e+19 2.5335889
-1.0842022e-19 3.2387965 3.6893488e+19
2.8667564 3.6893488e+19 2.5323253
-3.6893488e+19 3.2135236 3.6893488e+19
2.9052911 1.0842022e-19 2.5163984
-0 3.2358208 -0
2.8645236 -2 2.5158854
2 3.2136538 3.6893488e+19
2.9054048 -0 2.5021298
0 3.2373757 -2
2.8656902 -0 2.5019975
-2 3.2458453 3.6893488e+19
2.8378737 -1.0842022e-19 2.4923663
-3.6893488e+19 3.2268412 1.0842022e-19
2.8826864 -2 2.4684112
-2 3.140923 -0
2.7663786 1.0842022e-19 2.3648469
-1.0842022e-19 3.1498365 3.6893488e+19
2.8208866 1.0842022e-19 2.3684506
3.6893488e+19 3.1412146 -1.0842022e-19
2.7665772 -0 2.341804
3.6893488e+19 3.2296593 -2
2.8849478 -0 2.412873
-0 3.1402798 -3.6893488e+19
2.7659402 -0 2.3177662
2 3.2136655 -1.0842022e-19
2.872112 -3.6893488e+19 2.3709879
-2 3.1390297 3.6893488e+19
2.7650886 -2 2.2936282
1.0842022e-19 3.2165549 -0
2.8744309 -3.6893488e+19 2.3450375
-2 3.1381717 0
2.764504 3.6893488e+19 2.2699447
1.0842022e-19 3.1349132 2
2.8089099 -1.0842022e-19 2.2613757
2 3.1429865 -2
2.7677846 0 2.2499871
-3.6893488e+19 3.1372268 -2
2.8107667 -0 2.2290876
-3.6893488e+19 3.1397007 0
2.7655458 0 2.1996548
-3.6893488e+19 3.1370349 -2
2.8106127 -0 2.1821139
2 3.1399121 1.0842022e-19
2.8409274 -1.0842022e-19 2.1671109
-3.6893488e+19 3.1262834 -0
2.782335 -1.0842022e-19 2.1214361
3.6893488e+19 3.129519 -2
2.8318398 3.6893488e+19 2.1096439
-1.0842022e-19 3.1297278 2
2.7849195 0 2.0794621
-0 3.1291957 2
2.8315573 3.6893488e+19 2.0630541
-2 3.1261699 2
2.7822499 -0 2.0314665
1.0842022e-19 3.128253 -1.0842022e-19
2.8307328 -3.6893488e+19 2.0161376
-0 3.1247845 -3.6893488e+19
2.7812102 1.0842022e-19 1.9857054
3.6893488e+19 3.1802046 -3.6893488e+19
2.8761578 -1.0842022e-19 2.0002556
-1.0842022e-19 3.1232045 -1.0842022e-19
2.7800248 2 1.9402072
2 3.1253088 1.0842022e-19
2.8281586 -3.6893488e+19 1.92259
-2 3.1280022 2
2.8305137 -1.0842022e-19 1.8777945
0 3.1230602 2
2.7799165 -1.0842022e-19 1.8274033
2 3.1395824 -3.6893488e+19
2.8406389 -1.0842022e-19 1.7935371
-0 3.1253159 3.6893488e+19
2.7816091 -3.6893488e+19 1.7283655
0 3.1336803 1.0842022e-19
2.7614434 0 1.6405005
1.0842022e-19 3.1521142 -0
2.8227143 3.6893488e+19 1.4640096
3.6893488e+19 3.1262608 -3.6893488e+19
2.7563875 -2 -1.4083178
3.6893488e+19 3.1307354 3.6893488e+19
2.805557 -0 -1.6323559
-2 3.1303294 -0
2.75916 2 -1.7192572
2 3.1358168 -3.6893488e+19
2.8096349 0 -1.7848141
2 3.1297948 3.6893488e+19
2.7587957 2 -1.8240016
3.6893488e+19 3.1571748 -1.0842022e-19
2.8267758 3.6893488e+19 -1.8832729
3.6893488e+19 3.0807128 2
2.7007017 -3.6893488e+19 -1.8756213
-3.6893488e+19 3.0661328 0
2.7537107 -1.0842022e-19 -1.8914905
0 3.0739708 -3.6893488e+19
2.6915133 -2 -1.9112645
-3.6893488e+19 3.0541835 -0
2.7382417 0 -1.9227282
-3.6893488e+19 3.0610373 2
2.6738877 3.6893488e+19 -1.9415208
-0 2.8703525 -0
2.5472243 -1.0842022e-19 -1.8774375
-1.0842022e-19 2.8376663 1.0842022e-19
2.4601781 3.6893488e+19 -1.8727655
1.0842022e-19 2.7705247 -3.6893488e+19
2.434216 -0 -1.8437444
0 2.7260818 2
2.4162714 -3.6893488e+19 -1.8344852
-0 2.689764 -1.0842022e-19
2.3299661 -3.6893488e+19 -1.8274994
-2 2.6411734 0
2.3420303 -1.0842022e-19 -1.8209997
-1.0842022e-19 2.6302443 -0
2.2853069 -2 -1.822818
2 2.5965462 1.0842022e-19
2.3030095 1.0842022e-19 -1.8198121
-2 2.5496571 -3.6893488e+19
2.2620111 0 -1.8117744
-1.0842022e-19 2.5427036 0
2.1892462 0 -1.8123066
2 2.5185573 -1.0842022e-19
2.2196367 1.0842022e-19 -1.8088292
1.0842022e-19 2.5146658 1.0842022e-19
2.147171 3.6893488e+19 -1.8102247
-2 2.4904764 1.0842022e-19
2.1788578 -1.0842022e-19 -1.8078923
-3.6893488e+19 2.4835522 3.6893488e+19
2.1128216 -1.0842022e-19 -1.8087132
0 2.4498 1.0842022e-19
2.1432915 -2 -1.8065228
-3.6893488e+19 2.4406018 -0
2.0805948 2 -1.8056283
-3.6893488e+19 2.4089255 -3.6893488e+19
2.1075521 3.6893488e+19 -1.8025881
2 2.3691549 1.0842022e-19
2.0015457 -3.6893488e+19 -1.8021802
-0 2.3253431 -3.6893488e+19
1.9716918 -2 -1.8005997
-1.0842022e-19 2.2902908 -0
1.947807 0 -1.7990949
3.6893488e+19 2.2597609 -0
1.9270035 0 -1.7964298
2 2.2011638 -2
1.9472419 1.0842022e-19 -1.7928939
-1.0842022e-19 2.1667106 -0
1.9321796 -0 -1.7931548
-2 2.1341455 2
1.9179426 1.0842022e-19 -1.7921361
3.6893488e+19 2.1048167 1.0842022e-19
1.9051205 -1.0842022e-19 -1.7906345
0 3.2677019 2
2.9264321 0 2.6936941
0 3.2212949 3.6893488e+19
2.8183916 -0 2.6258066
-1.0842022e-19 3.2671409 1.0842022e-19
2.9255388 -2 2.676158
-2 3.2547259 -1.0842022e-19
2.8441694 1.0842022e-19 2.6407256
3.6893488e+19 3.2655358 0
2.922982 0 2.6571302
0 3.2495196 2
2.87182 2 2.6142964
1.0842022e-19 3.2101879 -2
2.8425431 1.0842022e-19 2.5715356
-0 3.2140582 1.0842022e-19
2.8454242 -3.6893488e+19 2.5600798
-2 3.2183411 1.0842022e-19
2.9065843 2 2.5624352
3.6893488e+19 3.2199411 0
2.8498032 1.0842022e-19 2.5497
-3.6893488e+19 3.2187157 0
2.9069095 3.6893488e+19 2.5481203
1.0842022e-19 3.2408609 -1.0842022e-19
2.8653748 3.6893488e+19 2.5481246
1.0842022e-19 3.2190676 -2
2.9072146 0 2.5337951
-0 3.2140245 2
2.9028368 -2 2.516382
-3.6893488e+19 3.2366741 -0
2.8622584 -2 2.5160918
0 3.2134151 -3.6893488e+19
2.9023075 -2 2.5017126
-2 3.237911 1.0842022e-19
2.8631792 3.6893488e+19 2.5020275
-0 3.2462568 2
2.8352551 3.6893488e+19 2.4923372
1.0842022e-19 3.2277448 1.0842022e-19
2.8805087 -3.6893488e+19 2.4688075
3.6893488e+19 3.2474458 2
2.8360584 3.6893488e+19 2.4638517
-0 3.2278817 -1.0842022e-19
2.8806176 2 2.4399085
2 3.2493482 -0
2.8373435 0 2.4358928
2 3.2442307 -2
2.8936391 3.6893488e+19 2.4249704
1.0842022e-19 3.142837 3.6893488e+19
2.765388 -3.6893488e+19 2.3195641
0 3.234098 -1.0842022e-19
2.8855686 -3.6893488e+19 2.3869309
2 3.2516315 -1.0842022e-19
2.8399882 1.0842022e-19 2.3795109
0 3.2334449 1.0842022e-19
2.8850486 1.0842022e-19 2.3571544
2 3.2528296 0
2.8416071 -2 2.351336
-2 3.2319276 0
2.8838403 -3.6893488e+19 2.326911
0 3.2453086 2
2.8346145 2 2.3148046
0 3.2275186 3.6893488e+19
2.8803284 2 2.2950902
-1.0842022e-19 3.2458222 -3.6893488e+19
2.8349614 -1.0842022e-19 2.2857971
-1.0842022e-19 3.2255728 -2
2.8787787 0 2.2652042
1.0842022e-19 3.2188408 1.0842022e-19
2.9070179 -2 2.2504866
-0 3.2335777 2
2.8599536 1.0842022e-19 2.2268813
3.6893488e+19 3.2297535 -2
2.8571069 0 2.1658397
-2 3.2235765 -0
2.9111292 -3.6893488e+19 2.1405265
3.6893488e+19 3.238075 0
2.8633013 -3.6893488e+19 2.1148412
0 3.2079105 3.6893488e+19
2.8975289 1.0842022e-19 2.0718172
-1.0842022e-19 3.2339389 1.0842022e-19
2.8602226 -3.6893488e+19 2.0540557
-2 3.1292403 -0
2.8292325 1.0842022e-19 1.9703575
-2 3.1217842 2
2.7767396 1.0842022e-19 1.939298
-2 3.1254792 -1.0842022e-19
2.8259673 2 1.9224716
1.0842022e-19 3.1276207 -1.0842022e-19
2.7810838 -3.6893488e+19 1.8972925
-3.6893488e+19 3.189538 -0
2.8815792 3.6893488e+19 1.898429
-0 3.1257389 -2
2.7796831 1.0842022e-19 1.8286573
-3.6893488e+19 3.1397691 -0
2.8383729 -0 1.7934257
2 3.1238678 -3.6893488e+19
2.7782903 1.0842022e-19 1.7272619
2 3.1339622 1.0842022e-19
2.7593925 2 1.6404788
-1.0842022e-19 3.1482675 2
2.8172076 -2 1.4617406
1.0842022e-19 3.1230721 -2
2.7520354 2 -1.4068367
1.0842022e-19 3.1311634 2
2.8035846 1.0842022e-19 -1.6323661
-0 3.1338353 -3.6893488e+19
2.7593067 -3.6893488e+19 -1.7210817
-1.0842022e-19 3.1575873 2
2.8246305 2 -1.7936553
-3.6893488e+19 3.1296883 2
2.7565053 1.0842022e-19 -1.8237691
2 3.1584432 2
2.8253121 2 -1.8835481
0 3.1296086 0
2.7564514 -2 -1.8940663
0 3.1589017 -1.0842022e-19
2.8256772 2 -1.9328191
-2 3.0723054 -1.0842022e-19
2.6854784 1.0842022e-19 -1.9102932
-2 3.0552566 -0
2.7362547 -3.6893488e+19 -1.923156
3.6893488e+19 3.0618761 1.0842022e-19
2.671387 -0 -1.9418666
3.6893488e+19 2.8699863 0
2.5446825 -2 -1.8771782
3.6893488e+19 2.8321099 -3.6893488e+19
2.4487255 -3.6893488e+19 -1.868472
-1.0842022e-19 2.77017 3.6893488e+19
2.4303639 3.6893488e+19 -1.8432291
-2 2.7291446 0
2.4159632 -1.0842022e-19 -1.8355925
0 2.6894929 -3.6893488e+19
2.3271387 3.6893488e+19 -1.8271766
3.6893488e+19 2.6387582 0
2.3374953 3.6893488e+19 -1.8195674
0 2.5965986 1.0842022e-19
2.300895 2 -1.8196193
-1.0842022e-19 2.5270066 2
2.1623828 -0 -1.7855191
3.6893488e+19 2.5509143 2
2.2612348 -0 -1.812344
0 2.5185211 -2
2.2162259 3.6893488e+19 -1.8085947
-0 2.5156255 0
2.1454396 1.0842022e-19 -1.8107145
-3.6893488e+19 2.4912648 -2
2.1764851 -0 -1.8079774
-1.0842022e-19 2.4868264 0
2.1123719 3.6893488e+19 -1.8097762
1.0842022e-19 2.4491718 -1.0842022e-19
2.1399424 -3.6893488e+19 -1.8060626
2 2.440567 3.6893488e+19
2.0779383 -2 -1.8054372
-2 2.4105334 1.0842022e-19
2.1063993 3.6893488e+19 -1.8030831
0 3.2677019 2
2.9264321 0 2.6936941
0 3.2212949 3.6893488e+19
2.8183916 -0 2.6258066
-1.0842022e-19 3.2671409 1.0842022e-19
2.9255388 -2 2.676158
-2 3.2547259 -1.0842022e-19
2.8441694 1.0842022e-19 2.6407256
3.6893488e+19 3.2655358 0
2.922982 0 2.6571302
0 3.2201309 2
2.8499444 -3.6893488e+19 2.5928633
1.0842022e-19 3.2101879 -2
2.8425431 1.0842022e-19 2.5715356
-0 3.2140582 1.0842022e-19
2.8454242 -3.6893488e+19 2.5600798
-2 3.2183411 1.0842022e-19
2.9065843 2 2.5624352
3.6893488e+19 3.2199411 0
2.8498032 1.0842022e-19 2.5497
-3.6893488e+19 3.2187157 0
2.9069095 3.6893488e+19 2.5481203
-2 3.2183025 3.6893488e+19
2.8485835 0 2.5344238
1.0842022e-19 3.2190676 -2
2.9072146 0 2.5337951
-0 3.2140245 2
2.9028368 -2 2.516382
-3.6893488e+19 3.2366741 -0
2.8622584 -2 2.5160918
0 3.2134151 -3.6893488e+19
2.9023075 -2 2.5017126
-2 3.237911 1.0842022e-19
2.8631792 3.6893488e+19 2.5020275
2 3.1442533 2
2.7663448 3.6893488e+19 2.3911393
1.0842022e-19 3.2277448 1.0842022e-19
2.8805087 -3.6893488e+19 2.4688075
1.0842022e-19 3.1430364 1.0842022e-19
2.7655227 -2 2.3664932
0 3.1482348 -1.0842022e-19
2.8171813 -3.6893488e+19 2.3665903
-0 3.1408556 -3.6893488e+19
2.7640493 -1.0842022e-19 2.341187
2 3.2442307 -2
2.8936391 3.6893488e+19 2.4249704
1.0842022e-19 3.142837 3.6893488e+19
2.765388 -3.6893488e+19 2.3195641
0 3.234098 -1.0842022e-19
2.8855686 -3.6893488e+19 2.3869309
2 3.2516315 -1.0842022e-19
2.8399882 1.0842022e-19 2.3795109
0 3.2334449 1.0842022e-19
2.8850486 1.0842022e-19 2.3571544
1.0842022e-19 3.1433265 2
2.7657187 -2 2.2732863
0 3.1368215 -3.6893488e+19
2.8080909 -1.0842022e-19 2.2623966
0 3.2453086 2
2.8346145 2 2.3148046
0 3.2275186 3.6893488e+19
2.8803284 2 2.2950902
-1.0842022e-19 3.1379499 -3.6893488e+19
2.7620864 -0 2.197237
-0 3.1436114 0
2.8134992 0 2.1889966
2 3.139642 1.0842022e-19
2.8382626 -3.6893488e+19 2.1663465
3.6893488e+19 3.1260965 1.0842022e-19
2.7799494 -3.6893488e+19 2.1208882
1.0842022e-19 3.1285496 -1.0842022e-19
2.7817752 0 2.0781183
0 3.1315186 -2
2.8312101 -3.6893488e+19 2.0646124
0 3.1260996 -1.0842022e-19
2.7799516 -0 2.0311384
-0 3.1290858 -2
2.8290982 0 2.0164196
-0 3.121815 1.0842022e-19
2.7767625 0 1.9836091
-2 3.1292403 -0
2.8292325 1.0842022e-19 1.9703575
-2 3.1217842 2
2.7767396 1.0842022e-19 1.939298
-2 3.1254792 -1.0842022e-19
2.8259673 2 1.9224716
1.0842022e-19 3.1276207 -1.0842022e-19
2.7810838 -3.6893488e+19 1.8972925
1.0842022e-19 3.127918 3.6893488e+19
2.8280845 2 1.8776203
-0 3.1257389 -2
2.7796831 1.0842022e-19 1.8286573
-3.6893488e+19 3.1397691 -0
2.8383729 -0 1.7934257
2 3.1238678 -3.6893488e+19
2.7782903 1.0842022e-19 1.7272619
2 3.1339622 1.0842022e-19
2.7593925 2 1.6404788
2 3.1296868 -2
2.8024085 -0 1.4518621
1.0842022e-19 3.1230721 -2
2.7520354 2 -1.4068367
1.0842022e-19 3.1311634 2
2.8035846 1.0842022e-19 -1.6323661
-0 3.1338353 -3.6893488e+19
2.7593067 -3.6893488e+19 -1.7210817
2 3.1347985 0
2.8064799 3.6893488e+19 -1.7842255
-0 3.1007366 -3.6893488e+19
2.7238927 0 -1.8086127
2 3.1584432 2
2.8253121 2 -1.8835481
-2 3.0804443 3.6893488e+19
2.6964753 -0 -1.8754079
0 3.0644326 3.6893488e+19
2.7504356 1.0842022e-19 -1.8905822
-2 3.0723054 -1.0842022e-19
2.6854784 1.0842022e-19 -1.9102932
-2 3.0552566 -0
2.7362547 -3.6893488e+19 -1.923156
3.6893488e+19 3.0618761 1.0842022e-19
2.671387 -0 -1.9418666
3.6893488e+19 2.8699863 0
2.5446825 -2 -1.8771782
3.6893488e+19 2.8321099 -3.6893488e+19
2.4487255 -3.6893488e+19 -1.868472
-1.0842022e-19 2.77017 3.6893488e+19
2.4303639 3.6893488e+19 -1.8432291
-2 2.7291446 0
2.4159632 -1.0842022e-19 -1.8355925
0 2.6894929 -3.6893488e+19
2.3271387 3.6893488e+19 -1.8271766
3.6893488e+19 2.6387582 0
2.3374953 3.6893488e+19 -1.8195674
0 2.5965986 1.0842022e-19
2.300895 2 -1.8196193
-1.0842022e-19 2.5270066 2
2.1623828 -0 -1.7855191
3.6893488e+19 2.5509143 2
2.2612348 -0 -1.812344
0 2.5185211 -2
2.2162259 3.6893488e+19 -1.8085947
-0 2.5156255 0
2.1454396 1.0842022e-19 -1.8107145
-3.6893488e+19 2.4912648 -2
2.1764851 -0 -1.8079774
-1.0842022e-19 2.4868264 0
2.1123719 3.6893488e+19 -1.8097762
1.0842022e-19 2.4491718 -1.0842022e-19
2.1399424 -3.6893488e+19 -1.8060626
2 2.440567 3.6893488e+19
2.0779383 -2 -1.8054372
-2 2.4105334 1.0842022e-19
2.1063993 3.6893488e+19 -1.8030831
1.0842022e-19 3.2095275 -1.0842022e-19
2.8632114 -0 2.6878989
0 3.2769909 2
2.8710201 -3.6893488e+19 2.7082469
0 3.2152698 3.6893488e+19
2.8677502 -3.6893488e+19 2.6351726
2 3.2785275 -0
2.8730783 -0 2.6937997
-3.6893488e+19 3.2568748 -1.0842022e-19
2.8440754 2 2.6436746
-2 3.2294345 -0
2.8789461 0 2.6171622
-1.0842022e-19 3.2450924 -3.6893488e+19
2.8655729 0 2.6107173
1.0842022e-19 3.2152641 -3.6893488e+19
2.8435478 3.6893488e+19 2.5747666
-3.6893488e+19 3.2461078 -3.6893488e+19
2.8663228 -0 2.5811734
-2 3.2187021 -3.6893488e+19
2.9039812 -1.0842022e-19 2.5623217
-3.6893488e+19 3.2414184 3.6893488e+19
2.8628602 1.0842022e-19 2.5630927
3.6893488e+19 3.2191906 -1.0842022e-19
2.9044023 1.0842022e-19 2.5480843
-2 3.2398868 -3.6893488e+19
2.8617291 2 2.5472441
-0 3.2437308 -2
2.8645675 -1.0842022e-19 2.5346196
-0 3.2147784 1.0842022e-19
2.9005995 1.0842022e-19 2.5165126
-3.6893488e+19 3.2419159 -0
2.8632276 3.6893488e+19 2.5186968
-1.0842022e-19 3.2147095 1.0842022e-19
2.9005401 -0 2.5021298
-0 3.2386472 -2
2.8608139 3.6893488e+19 2.5021627
1.0842022e-19 3.2467828 -1.0842022e-19
2.8327119 3.6893488e+19 2.4924247
1.0842022e-19 3.2281551 -2
2.8779347 -2 2.4687226
-0 3.2470891 -0
2.8329172 -3.6893488e+19 2.4631107
-0 3.2272518 1.0842022e-19
2.8772209 3.6893488e+19 2.4388721
-3.6893488e+19 3.1437645 0
2.7637174 3.6893488e+19 2.3434236
3.6893488e+19 3.2387297 -1.0842022e-19
2.8862929 2 2.4198036
-0 3.2508645 -0
2.8360248 -2 2.4077859
0 3.2335887 -3.6893488e+19
2.8822293 -3.6893488e+19 2.3861222
3.6893488e+19 3.251514 0
2.8368948 -3.6893488e+19 2.3789992
-2 3.2339187 3.6893488e+19
2.8824904 3.6893488e+19 2.3571329
-1.0842022e-19 3.2534068 -0
2.8394301 -0 2.3518281
-1.0842022e-19 3.233443 3.6893488e+19
2.8821144 1.0842022e-19 2.3275983
-2 3.2448883 3.6893488e+19
2.8314433 -3.6893488e+19 2.3142602
-3.6893488e+19 3.2281311 -0
2.8779159 -0 2.2951617
1.0842022e-19 3.2471464 0
2.8329556 -3.6893488e+19 2.2863078
0 3.2252846 1.0842022e-19
2.8756659 3.6893488e+19 2.2647679
3.6893488e+19 3.2196016 -0
2.9047565 -1.0842022e-19 2.2506089
-2 3.2315307 -2
2.8555591 3.6893488e+19 2.2244015
3.6893488e+19 3.2181573 1.0842022e-19
2.9035118 3.6893488e+19 2.1926324
3.6893488e+19 3.231508 2
2.8555424 -3.6893488e+19 2.166955
-1.0842022e-19 3.2146537 -0
2.900492 3.6893488e+19 2.1327345
-1.0842022e-19 3.2382565 -1.0842022e-19
2.8605254 -0 2.1146226
3.6893488e+19 3.1302326 -1.0842022e-19
2.827728 -2 2.0169227
-0 3.2344093 -3.6893488e+19
2.8576846 -3.6893488e+19 2.0540557
-0 3.1301293 -0
2.8276391 -0 1.9706239
-0 3.2145081 -2
2.8429897 2 1.9862797
-0 3.1294625 -1.0842022e-19
2.8270643 -3.6893488e+19 1.9241037
1.0842022e-19 3.1240897 -1.0842022e-19
2.7762253 0 1.8957736
-0 3.1298099 -0
2.8273637 -2 1.8781139
-3.6893488e+19 3.1660857 -2
2.807235 -3.6893488e+19 1.850307
2 3.1313155 2
2.8286614 0 1.7895861
1.0842022e-19 3.1263125 -1.0842022e-19
2.7778666 -3.6893488e+19 1.7285258
-2 3.1263888 3.6893488e+19
2.7520802 3.6893488e+19 1.6375867
2 3.1285415 -3.6893488e+19
2.7991998 0 1.4510441
-2 3.1215341 -1.0842022e-19
2.7476578 -1.0842022e-19 -1.4060526
-0 3.1315958 1.0842022e-19
2.7555676 1.0842022e-19 -1.7195983
-2 3.1549308 0
2.8200583 -3.6893488e+19 -1.7923819
0 3.1288085 0
2.7537007 1.0842022e-19 -1.8231337
-2 3.1515164 -0
2.8173594 3.6893488e+19 -1.8811469
-0 3.1289656 -2
2.7538059 1.0842022e-19 -1.8936957
-3.6893488e+19 3.1563344 1.0842022e-19
2.8211677 -2 -1.9314826
2 3.0654514 -2
2.6725366 -0 -1.9067461
1.0842022e-19 3.0553129 -1.0842022e-19
2.7326398 2 -1.923008
-3.6893488e+19 3.062151 3.6893488e+19
2.6681161 -0 -1.9418666
3.6893488e+19 2.8356593 -0
2.4496045 0 -1.8708574
-3.6893488e+19 2.7739928 -2
2.4331291 1.0842022e-19 -1.846087
-1.0842022e-19 2.730032 -3.6893488e+19
2.4137466 -0 -1.8357435
-3.6893488e+19 2.5269258 -1.0842022e-19
2.1589606 3.6893488e+19 -1.7522684
-3.6893488e+19 2.6457314 -0
2.3410869 1.0842022e-19 -1.8228332
-0 2.526464 -2
2.1582785 0 -1.7685473
0 2.5953879 2
2.2976949 -0 -1.8187197
3.6893488e+19 2.5275099 1.0842022e-19
2.1598232 -3.6893488e+19 -1.7856545
-2 2.5512555 1.0842022e-19
2.2596567 -0 -1.812344
2 2.5264363 1.0842022e-19
2.1582377 1.0842022e-19 -1.8015522
1.0842022e-19 2.51791 -2
2.2118311 1.0842022e-19 -1.8079695
-2 2.515533 3.6893488e+19
2.1421359 -2 -1.8104695
1.0842022e-19 2.4920509 -0
2.1741059 3.6893488e+19 -1.8080626
-2 2.4875331 -0
2.1099913 3.6893488e+19 -1.8098648
-2 2.449681 2
2.1375868 -3.6893488e+19 -1.8060626
1.0842022e-19 2.4409952 1.0842022e-19
2.075628 -2 -1.8054372
-2 2.3728709 0
1.9997243 -2 -1.8036473
2 2.3245087 -3.6893488e+19
1.9673343 0 -1.7998396
-2 2.2882233 3.6893488e+19
1.9430329 2 -1.7975492
-3.6893488e+19 2.259284 0
1.9236513 3.6893488e+19 -1.7958125
-0 2.2076228 -0
1.9472159 -2 -1.7949106
-2 2.1644988 -3.6893488e+19
1.9286313 -2 -1.7918823
-0 2.1372719 -2
1.9168977 2 -1.7931135
1.0842022e-19 2.1029305 -3.6893488e+19
1.9020979 -0 -1.7893797
1.0842022e-19 3.2095275 -1.0842022e-19
2.8632114 -0 2.6878989
0 3.2769909 2
2.8710201 -3.6893488e+19 2.7082469
0 3.2152698 3.6893488e+19
2.8677502 -3.6893488e+19 2.6351726
3.6893488e+19 3.2222345 0
2.8162713 -3.6893488e+19 2.626224
-3.6893488e+19 3.2568748 -1.0842022e-19
2.8440754 2 2.6436746
-2 3.2294345 -0
2.8789461 0 2.6171622
-1.0842022e-19 3.2181604 1.0842022e-19
2.8456867 1.0842022e-19 2.591095
1.0842022e-19 3.2152641 -3.6893488e+19
2.8435478 3.6893488e+19 2.5747666
-0 3.2137272 3.6893488e+19
2.8424132 -0 2.5595579
-2 3.2187021 -3.6893488e+19
2.9039812 -1.0842022e-19 2.5623217
-0 3.214947 0
2.8433139 0 2.5462272
3.6893488e+19 3.2191906 -1.0842022e-19
2.9044023 1.0842022e-19 2.5480843
3.6893488e+19 3.2194543 3.6893488e+19
2.846642 -2 2.5348463
-0 3.2437308 -2
2.8645675 -1.0842022e-19 2.5346196
-0 3.2147784 1.0842022e-19
2.9005995 1.0842022e-19 2.5165126
-3.6893488e+19 3.2419159 -0
2.8632276 3.6893488e+19 2.5186968
-1.0842022e-19 3.2147095 1.0842022e-19
2.9005401 -0 2.5021298
-0 3.2386472 -2
2.8608139 3.6893488e+19 2.5021627
-2 3.1461017 3.6893488e+19
2.7652826 -0 2.392627
3.6893488e+19 3.2015893 2
2.8569372 -3.6893488e+19 2.4426808
-3.6893488e+19 3.1426759 0
2.7629883 -0 2.3658347
-3.6893488e+19 3.1460481 0
2.8130374 -0 2.3641987
-3.6893488e+19 3.1437645 0
2.7637174 3.6893488e+19 2.3434236
3.6893488e+19 3.2387297 -1.0842022e-19
2.8862929 2 2.4198036
-2 3.1453955 -1.0842022e-19
2.7648096 1.0842022e-19 2.3213623
0 3.2335887 -3.6893488e+19
2.8822293 -3.6893488e+19 2.3861222
-1.0842022e-19 3.141844 1.0842022e-19
2.7624311 3.6893488e+19 2.2952294
-2 3.2339187 3.6893488e+19
2.8824904 3.6893488e+19 2.3571329
1.0842022e-19 3.141547 2
2.7622321 -0 2.2718103
0 3.1361229 -2
2.8051922 -0 2.2616506
0 3.1423826 -1.0842022e-19
2.7627916 1.0842022e-19 2.2483358
2 3.1393983 3.6893488e+19
2.8077812 -3.6893488e+19 2.2307696
-0 3.1376121 2
2.7595968 -0 2.1964538
-1.0842022e-19 3.1381915 -2
2.8068273 -2 2.1825016
3.6893488e+19 3.2196016 -0
2.9047565 -1.0842022e-19 2.2506089
-0 3.1287448 -3.6893488e+19
2.7796626 0 2.1231375
3.6893488e+19 3.132647 2
2.8298092 0 2.1117845
0 3.1292689 -1.0842022e-19
2.7800496 1.0842022e-19 2.0784225
