# .PCD v0.7 - Point Cloud Data file format
VERSION 0.7
FIELDS x y z
SIZE 4 4 4
TYPE F F F
COUNT 1 1 1
WIDTH 1697
HEIGHT 1
VIEWPOINT 0 0 0 1 0 0 0
POINTS 1697
DATA ascii
1.4888042 -1.0842022e-19 -1.8808348
-1.0842022e-19 2.7507312 1.0842022e-19
1.8662266 3.6893488e+19 -1.8772671
1.0842022e-19 2.7028542 1.0842022e-19
1.4478351 1.0842022e-19 -1.8671324
-0 2.6663425 3.6893488e+19
1.8252798 1.0842022e-19 -1.8596913
0 2.6325746 -0
1.4171325 -2 -1.8509991
-0 2.6125104 -2
1.7993841 -0 -1.849712
-1.0842022e-19 2.5892599 -3.6893488e+19
1.3982099 3.6893488e+19 -1.8444438
3.6893488e+19 2.5680437 -2
1.7779936 3.6893488e+19 -1.8400315
1.0842022e-19 2.5518298 -2
1.3818581 2 -1.8371874
-3.6893488e+19 2.5326841 3.6893488e+19
1.7609841 1.0842022e-19 -1.8320417
-0 2.5166705 3.6893488e+19
1.3579968 -2 -1.8274653
-0 2.5048063 1.0842022e-19
1.7451471 2 -1.8259891
2 2.477514 -0
1.333608 -0 -1.8197182
-0 2.4675248 2
-1.5524487 2 -1.8222837
2 2.4279284 -1.0842022e-19
-1.5374199 -2 -1.8176539
3.6893488e+19 2.3632448 0
-1.5128694 3.6893488e+19 -1.8090868
2 2.3152981 -2
-1.4893423 3.6893488e+19 -1.8026918
-0 2.2800715 -3.6893488e+19
-1.4626019 -1.0842022e-19 -1.7988052
-3.6893488e+19 2.2529325 -2
1.6183444 -1.0842022e-19 -1.7967063
3.6893488e+19 2.2070065 -3.6893488e+19
1.594841 2 -1.7932868
1.0842022e-19 2.1661358 0
1.5751804 -0 -1.7902856
-1.0842022e-19 2.1376076 3.6893488e+19
1.561457 -2 -1.7902396
3.6893488e+19 3.1352615 -3.6893488e+19
-1.8962257 2 2.6101785
-3.6893488e+19 3.1051934 -2
1.9177861 0 2.5768993
-0 3.1404502 2
-1.8981951 -0 2.6035638
-0 3.1045651 0
1.9174894 2 2.5659242
3.6893488e+19 3.137059 -2
-1.8969079 1.0842022e-19 2.5891607
-0 3.1115501 -1.0842022e-19
1.9207889 1.0842022e-19 2.5615771
3.6893488e+19 3.1354704 -3.6893488e+19
-1.896305 0 2.5765195
-2 3.0982001 0
1.9144827 -3.6893488e+19 2.5399222
1.0842022e-19 3.1352036 3.6893488e+19
-1.8962038 0 2.565083
-2 3.1383255 0
1.9334371 -2 2.5620472
-2 3.0780578 2
-1.8740283 0 2.5088215
3.6893488e+19 3.1304569 -2
1.92972 -3.6893488e+19 2.544697
-1.0842022e-19 3.0791147 2
-1.8748306 0 2.5001307
-3.6893488e+19 3.1029553 2
1.916729 3.6893488e+19 2.5131943
-1.0842022e-19 3.0807717 3.6893488e+19
-1.8755442 -3.6893488e+19 2.4836891
0 3.0994391 2
1.9150679 1.0842022e-19 2.5004976
3.6893488e+19 3.1355538 -1.0842022e-19
2.1209381 -2 2.5212111
-3.6893488e+19 3.1276054 0
1.6649618 -3.6893488e+19 2.5097241
-2 3.136939 -2
2.1222708 3.6893488e+19 2.5110559
0 3.1224375 3.6893488e+19
1.662704 2 2.4909773
-3.6893488e+19 3.1245725 2
2.1103733 2 2.483932
-3.6893488e+19 3.115355 3.6893488e+19
1.65961 3.6893488e+19 2.4607375
-2 3.1241212 -2
2.1099389 -2 2.4619253
2 3.0903778 -0
1.6486983 -1.0842022e-19 2.4098039
-0 3.0898914 3.6893488e+19
1.6484859 -3.6893488e+19 2.3898513
1.0842022e-19 3.0905635 0
1.6487795 -1.0842022e-19 2.3712595
2 3.1176069 1.0842022e-19
2.1036716 1.0842022e-19 2.3910012
-0 3.0906928 -3.6893488e+19
1.6488359 2 2.3520634
-3.6893488e+19 3.1208782 -1.0842022e-19
2.1068189 -2 2.3734121
-2 3.090836 3.6893488e+19
1.6488986 -3.6893488e+19 2.3329048
-2 3.0899293 -0
-1.87902 -3.6893488e+19 2.3224871
2 3.0821023 2
1.9068784 2 2.3057168
-3.6893488e+19 3.0830607 -2
-1.876413 -2 2.2971437
-0 3.086025 -2
1.9087313 2 2.2903488
2 3.0972631 0
-1.8818035 -0 2.2902148
1.0842022e-19 3.0893466 -1.0842022e-19
1.9103004 1.0842022e-19 2.2740772
-1.0842022e-19 3.0992486 0
-1.8825572 0 2.2721951
1.0842022e-19 3.0925004 -3.6893488e+19
1.9117901 -1.0842022e-19 2.2573357
2 3.100193 -0
-1.8829155 2 2.2532215
0 3.0858078 -1.0842022e-19
1.9086287 3.6893488e+19 2.2168334
1.0842022e-19 3.0809157 -0
-1.8755988 -1.0842022e-19 2.1913695
0 3.0842593 3.6893488e+19
1.9078972 1.0842022e-19 2.1771264
1.0842022e-19 3.0840592 2
-1.876792 0 2.1580505
3.6893488e+19 3.089889 2
1.9105567 1.0842022e-19 2.1461687
0 3.0845094 2
-1.8769628 -3.6893488e+19 2.1210849
0 3.0893989 -0
1.9103251 -0 2.1075392
-1.0842022e-19 3.0938046 0
2.0807717 1.0842022e-19 2.0933917
0 3.0775514 -1.0842022e-19
1.6430949 0 2.0582428
2 3.0984619 1.0842022e-19
2.0852523 0 2.0589755
-3.6893488e+19 3.0791442 -2
1.6437908 -0 2.022913
0 3.0979335 -3.6893488e+19
2.0847437 3.6893488e+19 2.0195208
-2 3.2050321 1.0842022e-19
1.6987866 1.0842022e-19 2.076426
-3.6893488e+19 3.1099167 -0
2.0962729 1.0842022e-19 1.9885019
-3.6893488e+19 3.080724 1.0842022e-19
1.6444811 3.6893488e+19 1.9502954
-0 3.1028726 1.0842022e-19
2.0894959 -2 1.9443516
-2 3.0781796 -1.0842022e-19
1.6433694 2 1.9121095
1.0842022e-19 3.1019509 3.6893488e+19
2.088609 1.0842022e-19 1.9044758
-3.6893488e+19 3.0846777 1.0842022e-19
1.6462083 1.0842022e-19 1.8779576
-3.6893488e+19 3.0986099 2
2.0853949 -0 1.8530751
0 3.084913 -1.0842022e-19
1.6463109 -2 1.8063583
-1.0842022e-19 3.0987759 -1.0842022e-19
2.0855544 0 1.7752098
-0 3.0863817 2
1.6469526 2 1.714185
2 3.0788693 -0
-1.8746443 2 1.6360747
1.0842022e-19 3.0876951 3.6893488e+19
1.9095203 -0 1.50372
-1.0842022e-19 3.0848119 1.0842022e-19
-1.8770777 -2 -1.1744212
-0 3.0914109 -3.6893488e+19
1.9112755 -0 -1.5496086
0 3.0804603 -0
-1.8754259 -2 -1.6582243
2 3.0928612 -0
1.9119606 -0 -1.7407334
-3.6893488e+19 3.0830588 -1.0842022e-19
-1.8764123 3.6893488e+19 -1.7790688
-1.0842022e-19 3.0919209 -2
1.9115164 3.6893488e+19 -1.8213526
1.0842022e-19 3.0763958 1.0842022e-19
-1.8727666 3.6893488e+19 -1.8488343
-1.0842022e-19 3.0891843 -2
1.9102237 -0 -1.88526
3.6893488e+19 3.0765576 2
-1.8728895 3.6893488e+19 -1.8984326
-2 3.0869317 -3.6893488e+19
1.9091597 -1.0842022e-19 -1.9219854
1.0842022e-19 3.0322127 3.6893488e+19
-1.8392273 -0 -1.9097975
-2 3.0419645 -1.0842022e-19
1.8879181 -0 -1.9316554
2 3.0261433 -1.0842022e-19
-1.83462 2 -1.9372135
-3.6893488e+19 2.9123867 2
1.8198031 -1.0842022e-19 -1.9013374
0 2.8611574 3.6893488e+19
1.9237332 -2 -1.8928335
0 2.8190475 -1.0842022e-19
1.5143799 1.0842022e-19 -1.884874
0 2.8001685 -0
1.8943948 -2 -1.8855286
-2 2.7733171 2
1.4888042 -1.0842022e-19 -1.8808348
-1.0842022e-19 2.7507312 1.0842022e-19
1.8662266 3.6893488e+19 -1.8772671
1.0842022e-19 2.7028542 1.0842022e-19
1.4478351 1.0842022e-19 -1.8671324
-0 2.6663425 3.6893488e+19
1.8252798 1.0842022e-19 -1.8596913
0 2.6325746 -0
1.4171325 -2 -1.8509991
-0 2.6125104 -2
1.7993841 -0 -1.849712
-1.0842022e-19 2.5892599 -3.6893488e+19
1.3982099 3.6893488e+19 -1.8444438
3.6893488e+19 2.5680437 -2
1.7779936 3.6893488e+19 -1.8400315
1.0842022e-19 2.5518298 -2
1.3818581 2 -1.8371874
-3.6893488e+19 2.5326841 3.6893488e+19
1.7609841 1.0842022e-19 -1.8320417
-0 2.5166705 3.6893488e+19
1.3579968 -2 -1.8274653
-0 2.5048063 1.0842022e-19
1.7451471 2 -1.8259891
2 2.477514 -0
1.333608 -0 -1.8197182
-0 2.4675248 2
-1.5524487 2 -1.8222837
2 2.4279284 -1.0842022e-19
-1.5374199 -2 -1.8176539
3.6893488e+19 2.3632448 0
-1.5128694 3.6893488e+19 -1.8090868
2 2.3152981 -2
-1.4893423 3.6893488e+19 -1.8026918
-0 2.2800715 -3.6893488e+19
-1.4626019 -1.0842022e-19 -1.7988052
-3.6893488e+19 2.2529325 -2
1.6183444 -1.0842022e-19 -1.7967063
3.6893488e+19 2.2070065 -3.6893488e+19
1.594841 2 -1.7932868
1.0842022e-19 2.1661358 0
1.5751804 -0 -1.7902856
-1.0842022e-19 2.1376076 3.6893488e+19
1.561457 -2 -1.7902396
-0 3.1362705 0
-1.912799 1.0842022e-19 2.6111455
-2 3.1380687 -3.6893488e+19
1.9170474 1.0842022e-19 2.6071293
1.0842022e-19 3.1398153 2
-1.9142929 -3.6893488e+19 2.6030118
2 3.1353579 -2
1.9158804 1.0842022e-19 2.5933356
-0 3.1386509 -2
-1.9138021 -1.0842022e-19 2.5905778
-3.6893488e+19 3.1130731 3.6893488e+19
1.9062879 -1.0842022e-19 2.5628664
0 3.1352313 2
-1.9123609 -3.6893488e+19 2.5763381
0 3.137526 -3.6893488e+19
1.9168137 -1.0842022e-19 2.5726423
3.6893488e+19 3.1360965 -0
-1.9127256 2 2.565834
-0 3.1387217 -2
1.9173285 -0 2.5623426
-3.6893488e+19 3.0782201 -0
-1.8883328 -1.0842022e-19 2.5089664
-1.0842022e-19 3.1308837 1.0842022e-19
1.9139546 1.0842022e-19 2.545006
1.0842022e-19 3.0791852 1.0842022e-19
-1.8887396 -1.0842022e-19 2.5002005
-3.6893488e+19 3.1330159 -1.0842022e-19
1.9148724 3.6893488e+19 2.535589
-2 3.1240182 2
-1.9076351 2 2.5234823
1.0842022e-19 3.1267395 3.6893488e+19
1.9121706 -3.6893488e+19 2.5200479
-1.0842022e-19 3.1224985 -1.0842022e-19
1.5756321 1.0842022e-19 2.5062079
1.0842022e-19 3.122412 0
1.5755855 -3.6893488e+19 2.4909365
-2 3.1252463 -0
2.0952487 -3.6893488e+19 2.4847276
-0 3.1153913 -0
1.571804 -2 2.4607763
-1.0842022e-19 3.1233463 -0
2.0935006 0 2.4608977
-0 3.1157839 -1.0842022e-19
1.5720155 2 2.4403858
-0 3.1459625 2
2.1143088 3.6893488e+19 2.4661996
-2 3.1153235 -2
1.5717676 -3.6893488e+19 2.4190156
3.6893488e+19 3.0904446 0
1.5583675 3.6893488e+19 2.3711245
-0 3.1176944 -0
2.0883005 1.0842022e-19 2.3910341
1.0842022e-19 3.0904498 -0
1.5583702 -1.0842022e-19 2.3518071
-1.0842022e-19 3.1165707 3.6893488e+19
2.0872667 -2 2.3690183
1.0842022e-19 3.0919578 0
1.5591825 -0 2.3339956
3.6893488e+19 3.122232 -1.0842022e-19
-1.9068822 -2 2.3531554
-0 3.0818164 -2
1.8928331 0 2.3054311
1.0842022e-19 3.1220028 3.6893488e+19
-1.9067856 3.6893488e+19 2.331908
-1.0842022e-19 3.1142507 1.0842022e-19
1.9067948 2 2.3147144
1.0842022e-19 3.0987318 -1.0842022e-19
-1.8969777 -0 2.2914612
-0 3.1147025 -0
1.9069892 1.0842022e-19 2.2945344
1.0842022e-19 3.0975158 -2
-1.8964652 -1.0842022e-19 2.2708621
0 3.0904419 -1.0842022e-19
1.896546 2 2.2557702
-0 3.1276734 -3.6893488e+19
-1.9091755 -2 2.2731102
-0 3.0898783 -3.6893488e+19
1.8963034 0 2.2224574
-3.6893488e+19 3.1316066 0
-1.9108334 -1.0842022e-19 2.2545068
3.6893488e+19 3.0863702 2
1.8947934 2 2.1797922
0 3.1301372 2
-1.9102139 3.6893488e+19 2.2143648
-0 3.0905061 -1.0842022e-19
1.8965737 -3.6893488e+19 2.1468585
3.6893488e+19 3.129925 3.6893488e+19
-1.9101245 -0 2.1714942
2 3.0901408 -0
1.8964164 0 2.1082945
3.6893488e+19 3.0929546 -0
2.0655384 -3.6893488e+19 2.0924897
2 3.0770569 -1.0842022e-19
1.5511566 -2 2.0577729
1.0842022e-19 3.0977056 3.6893488e+19
2.0699096 3.6893488e+19 2.0582573
3.6893488e+19 3.0777447 -1.0842022e-19
1.5515271 -1.0842022e-19 2.0217485
-3.6893488e+19 3.0979557 1.0842022e-19
2.0701399 1.0842022e-19 2.0194967
1.0842022e-19 3.1794086 2
1.6062845 2 2.0580399
3.6893488e+19 3.0985322 3.6893488e+19
2.0706701 2 1.9809222
-2 3.1054609 2
1.5664555 -0 1.9652736
-0 3.1018045 2
2.0736809 -1.0842022e-19 1.9437335
0 3.1020792 1.0842022e-19
1.564634 -1.0842022e-19 1.9239124
2 3.103502 -3.6893488e+19
2.0752425 0 1.9051328
0 3.0845578 0
1.5551968 3.6893488e+19 1.8779098
-1.0842022e-19 3.0998178 -1.0842022e-19
2.0718529 3.6893488e+19 1.8538301
1.0842022e-19 3.0830119 3.6893488e+19
1.5543641 1.0842022e-19 1.8053263
-1.0842022e-19 3.0984864 0
2.0706282 -0 1.775062
0 3.0864804 -1.0842022e-19
1.5562322 0 1.7142447
2 3.2251065 -1.0842022e-19
-1.95024 -3.6893488e+19 1.6965953
1.0842022e-19 3.2197967 -2
1.9522278 1.0842022e-19 1.5540603
-1.0842022e-19 3.2216487 0
-1.9487828 1.0842022e-19 -1.2457229
-3.6893488e+19 3.0893431 -0
1.8960731 0 -1.5485383
-3.6893488e+19 3.1768086 3.6893488e+19
-1.9298843 -1.0842022e-19 -1.7043694
-0 3.0892005 2
1.8960117 2 -1.7381456
-3.6893488e+19 3.1744332 2
-1.9288832 3.6893488e+19 -1.8213503
3.6893488e+19 3.0910716 -1.0842022e-19
1.8968171 -1.0842022e-19 -1.8208504
2 3.1754735 -0
-1.9293215 -3.6893488e+19 -1.8958992
3.6893488e+19 3.0880539 0
1.8955182 -1.0842022e-19 -1.8847992
-2 3.1735883 -3.6893488e+19
-1.928527 3.6893488e+19 -1.9425493
-3.6893488e+19 3.0893919 -3.6893488e+19
1.8960941 0 -1.9232285
-0 3.0789924 3.6893488e+19
-1.8886583 -0 -1.9362979
0 3.0417366 2
1.8755804 2 -1.9315001
0 3.0272489 -0
-1.8587005 -2 -1.9379753
3.6893488e+19 2.9102952 -0
1.801615 -1.0842022e-19 -1.9005587
-2 2.862397 -3.6893488e+19
1.9167132 3.6893488e+19 -1.8933017
0 2.8171797 2
1.4208367 3.6893488e+19 -1.8840824
-3.6893488e+19 2.8002145 -1.0842022e-19
1.8881075 -2 -1.8855286
0 2.7728221 -3.6893488e+19
1.3969451 -0 -1.8805959
1.0842022e-19 2.7522645 -3.6893488e+19
1.8570981 0 -1.8780257
-1.0842022e-19 2.7029853 2
1.3689833 -0 -1.8671991
1.0842022e-19 2.6652863 -1.0842022e-19
1.8160439 1.0842022e-19 -1.8590598
-2 2.6319566 2
1.3307264 0 -1.850631
0 2.6114466 -2
1.791276 -1.0842022e-19 -1.849018
-1.0842022e-19 2.5891402 -3.6893488e+19
1.3076649 3.6893488e+19 -1.8443632
3.6893488e+19 2.568217 0
1.7713892 -0 -1.8401155
3.6893488e+19 2.5513361 -3.6893488e+19
1.2873031 1.0842022e-19 -1.8368373
-3.6893488e+19 2.5323548 -3.6893488e+19
1.7548915 -2 -1.8317686
3.6893488e+19 2.5170476 0
1.2688351 3.6893488e+19 -1.8277488
1.0842022e-19 2.5048456 -3.6893488e+19
1.7344729 2 -1.8259891
-2 2.4785156 -3.6893488e+19
1.253867 -0 -1.8201239
2 2.4677427 0
-1.5721365 1.0842022e-19 -1.8223886
-0 3.1362705 0
-1.912799 1.0842022e-19 2.6111455
2 3.1039107 -2
1.9023438 1.0842022e-19 2.5756946
1.0842022e-19 3.1398153 2
-1.9142929 -3.6893488e+19 2.6030118
-1.0842022e-19 3.1030972 -1.0842022e-19
1.9019936 0 2.5645931
-0 3.1386509 -2
-1.9138021 -1.0842022e-19 2.5905778
-3.6893488e+19 3.1130731 3.6893488e+19
1.9062879 -1.0842022e-19 2.5628664
-2 3.0766747 -1.0842022e-19
-1.8876815 -2 2.5267336
-3.6893488e+19 3.0993574 -0
1.9003838 3.6893488e+19 2.5408645
1.0842022e-19 3.0786488 -0
-1.8885134 1.0842022e-19 2.5188408
-0 3.1387217 -2
1.9173285 -0 2.5623426
-3.6893488e+19 3.0782201 -0
-1.8883328 -1.0842022e-19 2.5089664
-2 3.1040785 3.6893488e+19
1.9024161 -1.0842022e-19 2.5242445
1.0842022e-19 3.0791852 1.0842022e-19
-1.8887396 -1.0842022e-19 2.5002005
3.6893488e+19 3.1031351 2
1.90201 -1.0842022e-19 2.5133088
0 3.0801048 1.0842022e-19
-1.8891271 -0 2.4827454
1.0842022e-19 3.1267395 3.6893488e+19
1.9121706 -3.6893488e+19 2.5200479
-1.0842022e-19 3.1224985 -1.0842022e-19
1.5756321 1.0842022e-19 2.5062079
1.0842022e-19 3.122412 0
1.5755855 -3.6893488e+19 2.4909365
-2 3.1252463 -0
2.0952487 -3.6893488e+19 2.4847276
-0 3.1153913 -0
1.571804 -2 2.4607763
-1.0842022e-19 3.1233463 -0
2.0935006 0 2.4608977
0 3.0888686 2
1.5575186 3.6893488e+19 2.4079809
-0 3.1459625 2
2.1143088 3.6893488e+19 2.4661996
3.6893488e+19 3.0897417 3.6893488e+19
1.5579889 -2 2.3896739
3.6893488e+19 3.0904446 0
1.5583675 3.6893488e+19 2.3711245
-0 3.1176944 -0
2.0883005 1.0842022e-19 2.3910341
1.0842022e-19 3.0904498 -0
1.5583702 -1.0842022e-19 2.3518071
-1.0842022e-19 3.1165707 3.6893488e+19
2.0872667 -2 2.3690183
1.0842022e-19 3.0919578 0
1.5591825 -0 2.3339956
-1.0842022e-19 3.0830512 -1.0842022e-19
-1.8903689 0 2.3159828
-0 3.0818164 -2
1.8928331 0 2.3054311
2 3.0820456 -2
-1.889945 -3.6893488e+19 2.2962573
-0 3.0846522 -1.0842022e-19
1.8940538 3.6893488e+19 2.2891412
1.0842022e-19 3.0987318 -1.0842022e-19
-1.8969777 -0 2.2914612
-1.0842022e-19 3.089931 2
1.8963262 1.0842022e-19 2.274529
1.0842022e-19 3.0975158 -2
-1.8964652 -1.0842022e-19 2.2708621
0 3.0904419 -1.0842022e-19
1.896546 2 2.2557702
1.0842022e-19 3.099859 0
-1.8974528 -1.0842022e-19 2.2529964
-0 3.0898783 -3.6893488e+19
1.8963034 0 2.2224574
-3.6893488e+19 3.1316066 0
-1.9108334 -1.0842022e-19 2.2545068
3.6893488e+19 3.0863702 2
1.8947934 2 2.1797922
0 3.1301372 2
-1.9102139 3.6893488e+19 2.2143648
-0 3.0905061 -1.0842022e-19
1.8965737 -3.6893488e+19 2.1468585
3.6893488e+19 3.129925 3.6893488e+19
-1.9101245 -0 2.1714942
2 3.0901408 -0
1.8964164 0 2.1082945
3.6893488e+19 3.0929546 -0
2.0655384 -3.6893488e+19 2.0924897
2 3.0770569 -1.0842022e-19
1.5511566 -2 2.0577729
1.0842022e-19 3.0977056 3.6893488e+19
2.0699096 3.6893488e+19 2.0582573
3.6893488e+19 3.0777447 -1.0842022e-19
1.5515271 -1.0842022e-19 2.0217485
-3.6893488e+19 3.0979557 1.0842022e-19
2.0701399 1.0842022e-19 2.0194967
1.0842022e-19 3.1794086 2
1.6062845 2 2.0580399
3.6893488e+19 3.0985322 3.6893488e+19
2.0706701 2 1.9809222
0 3.079355 -2
1.5523944 0 1.9494634
-0 3.1018045 2
2.0736809 -1.0842022e-19 1.9437335
-0 3.0783405 -2
1.5518481 2 1.9121866
2 3.103502 -3.6893488e+19
2.0752425 0 1.9051328
0 3.0845578 0
1.5551968 3.6893488e+19 1.8779098
-1.0842022e-19 3.0998178 -1.0842022e-19
2.0718529 3.6893488e+19 1.8538301
1.0842022e-19 3.0830119 3.6893488e+19
1.5543641 1.0842022e-19 1.8053263
-1.0842022e-19 3.0984864 0
2.0706282 -0 1.775062
0 3.0864804 -1.0842022e-19
1.5562322 0 1.7142447
-0 3.0811281 3.6893488e+19
-1.8895584 -3.6893488e+19 1.6370182
-2 3.0877199 2
1.8953744 -0 1.50372
2 3.0857897 1.0842022e-19
-1.8915231 -1.0842022e-19 -1.174942
-3.6893488e+19 3.0893431 -0
1.8960731 0 -1.5485383
0 3.0816882 0
-1.8897945 -2 -1.6588227
-0 3.0892005 2
1.8960117 2 -1.7381456
1.0842022e-19 3.0825999 -0
-1.8901787 3.6893488e+19 -1.7788665
3.6893488e+19 3.0910716 -1.0842022e-19
1.8968171 -1.0842022e-19 -1.8208504
3.6893488e+19 3.0765305 3.6893488e+19
-1.8876207 -3.6893488e+19 -1.8489413
3.6893488e+19 3.0880539 0
1.8955182 -1.0842022e-19 -1.8847992
-1.0842022e-19 3.07638 -1.0842022e-19
-1.8875573 0 -1.8983617
-3.6893488e+19 3.0893919 -3.6893488e+19
1.8960941 0 -1.9232285
3.6893488e+19 3.0322566 -2
-1.8629217 1.0842022e-19 -1.909833
0 3.0417366 2
1.8755804 2 -1.9315001
0 3.0272489 -0
-1.8587005 -2 -1.9379753
3.6893488e+19 2.9102952 -0
1.801615 -1.0842022e-19 -1.9005587
-2 2.862397 -3.6893488e+19
1.9167132 3.6893488e+19 -1.8933017
0 2.8171797 2
1.4208367 3.6893488e+19 -1.8840824
-3.6893488e+19 2.8002145 -1.0842022e-19
1.8881075 -2 -1.8855286
0 2.7728221 -3.6893488e+19
1.3969451 -0 -1.8805959
1.0842022e-19 2.7522645 -3.6893488e+19
1.8570981 0 -1.8780257
-1.0842022e-19 2.7029853 2
1.3689833 -0 -1.8671991
1.0842022e-19 2.6652863 -1.0842022e-19
1.8160439 1.0842022e-19 -1.8590598
-2 2.6319566 2
1.3307264 0 -1.850631
0 2.6114466 -2
1.791276 -1.0842022e-19 -1.849018
-1.0842022e-19 2.5891402 -3.6893488e+19
1.3076649 3.6893488e+19 -1.8443632
3.6893488e+19 2.568217 0
1.7713892 -0 -1.8401155
3.6893488e+19 2.5513361 -3.6893488e+19
1.2873031 1.0842022e-19 -1.8368373
-3.6893488e+19 2.5323548 -3.6893488e+19
1.7548915 -2 -1.8317686
3.6893488e+19 2.5170476 0
1.2688351 3.6893488e+19 -1.8277488
1.0842022e-19 2.5048456 -3.6893488e+19
1.7344729 2 -1.8259891
-2 2.4785156 -3.6893488e+19
1.253867 -0 -1.8201239
2 2.4677427 0
-1.5721365 1.0842022e-19 -1.8223886
1.0842022e-19 3.1362123 -0
-1.9289054 -2 2.6111169
-2 3.1367245 -3.6893488e+19
1.9003181 1.0842022e-19 2.6058686
-0 3.139452 -1.0842022e-19
-1.9304061 -3.6893488e+19 2.6027083
-0 3.1355054 -3.6893488e+19
1.8998443 -3.6893488e+19 2.5934441
1.0842022e-19 3.1383178 1.0842022e-19
-1.9298807 0 2.5903106
1.0842022e-19 3.1344454 2
1.8994323 2 2.5812612
-1.0842022e-19 3.1364257 1.0842022e-19
-1.9290043 -0 2.5773737
3.6893488e+19 3.1374295 3.6893488e+19
1.9005922 3.6893488e+19 2.5725405
-0 3.1352117 3.6893488e+19
-1.9284419 0 2.5651331
0 3.1394522 -0
1.9013784 -0 2.5629086
2 3.1307559 -0
-1.9263778 3.6893488e+19 2.5504389
-2 3.1279953 3.6893488e+19
1.8969252 -3.6893488e+19 2.5427492
-2 3.1300731 -1.0842022e-19
-1.9260615 -3.6893488e+19 2.5388992
-3.6893488e+19 3.1329186 -0
1.8988389 2 2.5354974
3.6893488e+19 3.129338 0
-1.925721 1.0842022e-19 2.5273921
-1.0842022e-19 3.1267338 0
1.8964349 3.6893488e+19 2.520026
-0 3.080934 0
2.0406237 1.0842022e-19 2.46544
-3.6893488e+19 3.1225629 -1.0842022e-19
1.4025476 -2 2.5062501
-1.0842022e-19 3.081454 -0
2.0410802 3.6893488e+19 2.4471095
-0 3.1234014 3.6893488e+19
1.4028909 3.6893488e+19 2.4922373
2 3.1318321 0
2.0853219 3.6893488e+19 2.4931626
-2 3.1165361 1.0842022e-19
1.40008 -2 2.4622166
-3.6893488e+19 3.1240795 2
2.0785136 3.6893488e+19 2.461735
1.0842022e-19 3.1153851 -3.6893488e+19
1.3996085 -0 2.4399021
3.6893488e+19 3.1461132 -3.6893488e+19
2.0978632 -1.0842022e-19 2.4663086
-3.6893488e+19 3.1152954 -1.0842022e-19
1.3995719 2 2.4189804
-0 3.1398962 2
2.0924037 -0 2.4367633
-0 3.0903852 -3.6893488e+19
1.3893722 2 2.371057
-3.6893488e+19 3.1174698 2
2.0727091 3.6893488e+19 2.390738
-2 3.091754 3.6893488e+19
1.3899328 3.6893488e+19 2.3531523
0 3.1449218 2
2.096817 -0 2.3975003
-2 3.093015 -1.0842022e-19
1.390449 1.0842022e-19 2.3350258
-1.0842022e-19 3.1206851 2
-1.9217128 -3.6893488e+19 2.3517132
2 3.1142404 -1.0842022e-19
1.8915787 -3.6893488e+19 2.3352542
1.0842022e-19 3.1212931 1.0842022e-19
-1.9219943 3.6893488e+19 2.3312986
-0 3.1156106 -0
1.8921113 0 2.3158684
-0 3.1221628 3.6893488e+19
-1.9223973 3.6893488e+19 2.3110669
-3.6893488e+19 3.1154106 -0
1.8920336 2 2.2950866
-0 3.1267462 -1.0842022e-19
-1.9245204 0 2.2936664
-3.6893488e+19 3.0896869 3.6893488e+19
1.8820349 1.0842022e-19 2.2551861
0 3.1248775 -0
-1.9236547 1.0842022e-19 2.2711079
-2 3.09043 -0
1.8823237 -2 2.2231927
1.0842022e-19 3.1005125 -3.6893488e+19
-1.9123681 -3.6893488e+19 2.2175717
-3.6893488e+19 3.0879185 -0
1.8813475 -2 2.1817417
2 3.1285524 1.0842022e-19
-1.9253571 -1.0842022e-19 2.2124622
3.6893488e+19 3.0877869 0
1.8812964 0 2.1436632
-0 3.1293678 0
-1.9257349 2 2.1709065
2 3.0923145 -0
1.8830562 -1.0842022e-19 2.1105599
0 3.0935967 2
2.0517437 -3.6893488e+19 2.0930805
3.6893488e+19 3.0757179 2
1.3833667 2 2.0565107
1.0842022e-19 3.0970712 2
2.054795 0 2.0576499
3.6893488e+19 3.0775912 -0
1.3841337 -3.6893488e+19 2.0216191
-0 3.0972588 -2
2.0549598 -1.0842022e-19 2.0189173
3.6893488e+19 3.0973051 0
2.0550005 -3.6893488e+19 1.9800754
-0 3.1036525 -2
1.3948046 2 1.9641768
-1.0842022e-19 3.1026669 -3.6893488e+19
2.0597091 -0 1.9441799
-1.0842022e-19 3.1032374 1.0842022e-19
1.3946347 -0 1.9244833
2 3.1019943 1.0842022e-19
2.0591185 -1.0842022e-19 1.9044484
3.6893488e+19 3.0797491 3.6893488e+19
1.3850173 3.6893488e+19 1.8760704
1.0842022e-19 3.1012106 -0
2.0584302 3.6893488e+19 1.8547075
-2 3.081327 2
1.3856634 -2 1.8044126
-2 3.1026559 -1.0842022e-19
2.0596995 0 1.7768352
1.0842022e-19 3.0851705 3.6893488e+19
1.3872371 0 1.7134091
3.6893488e+19 3.2244787 -0
-1.9697931 -1.0842022e-19 1.6963497
2 3.0868366 2
1.880927 0 1.5033748
-2 3.2209899 -3.6893488e+19
-1.968177 -2 -1.2453973
-1.0842022e-19 3.0911465 3.6893488e+19
1.8826022 3.6893488e+19 -1.5494488
3.6893488e+19 3.0832884 -2
-1.9043894 -0 -1.6596005
2 3.0900667 2
1.8821825 -0 -1.7387377
3.6893488e+19 3.1733096 3.6893488e+19
-1.94609 -2 -1.8208445
-2 3.0905633 0
1.8823756 1.0842022e-19 -1.8205456
-1.0842022e-19 3.1755676 0
-1.947136 2 -1.8959421
1.0842022e-19 3.0874207 -2
1.8811539 -3.6893488e+19 -1.8845377
0 3.1733706 1.0842022e-19
-1.9461182 0 -1.9424642
-3.6893488e+19 3.0892272 -1.0842022e-19
1.8818562 -3.6893488e+19 -1.9231328
2 3.0769396 -3.6893488e+19
-1.9014484 1.0842022e-19 -1.9351488
3.6893488e+19 3.0409131 -3.6893488e+19
1.8511534 -2 -1.9309757
-1.0842022e-19 3.0267918 0
-1.8782185 -1.0842022e-19 -1.9376791
1.0842022e-19 2.9151287 -2
1.7863587 -2 -1.9023222
-1.0842022e-19 2.8601439 -3.6893488e+19
1.9081377 -2 -1.8923899
-2 2.8156216 2
1.2542328 2 -1.8834229
3.6893488e+19 2.8008194 -1.0842022e-19
1.8820885 0 -1.8857818
-2 2.7741342 1.0842022e-19
1.2244911 3.6893488e+19 -1.8812231
0 2.7527997 -3.6893488e+19
1.8470066 -3.6893488e+19 -1.8782784
1.0842022e-19 2.7029889 3.6893488e+19
1.1854783 -0 -1.8671991
1.0842022e-19 2.6650982 2
1.8072679 -3.6893488e+19 -1.8589194
2 2.6317103 1.0842022e-19
1.156293 -0 -1.8504837
-0 2.6108773 1.0842022e-19
1.7834598 1.0842022e-19 -1.8486325
-1.0842022e-19 2.5908871 -2
1.1395777 -2 -1.8454914
-0 2.5681393 -3.6893488e+19
1.7646936 3.6893488e+19 -1.8400315
-3.6893488e+19 2.5503421 -3.6893488e+19
1.120953 -2 -1.8361369
-0 2.5320234 0
1.7476708 -0 -1.8314956
1.0842022e-19 2.5169253 -3.6893488e+19
1.0935875 -3.6893488e+19 -1.8276542
-3.6893488e+19 2.505007 1.0842022e-19
1.7239453 1.0842022e-19 -1.8260871
-0 2.4792655 3.6893488e+19
1.0712374 -1.0842022e-19 -1.8204281
-3.6893488e+19 2.4677088 1.0842022e-19
-1.5916572 1.0842022e-19 -1.8223886
2 2.4283662 -0
-1.5734323 -1.0842022e-19 -1.8178775
-0 2.3619552 -2
-1.5426687 0 -1.8084586
-0 2.3147597 -3.6893488e+19
-1.5208063 3.6893488e+19 -1.8024129
-3.6893488e+19 2.2817614 3.6893488e+19
-1.5055206 -0 -1.7998781
3.6893488e+19 2.2507937 3.6893488e+19
1.595245 3.6893488e+19 -1.7952031
1.0842022e-19 2.2056708 -1.0842022e-19
1.5750831 2 -1.7927445
1.0842022e-19 2.1677301 -1.0842022e-19
1.5584235 1.0842022e-19 -1.790869
0 2.1299112 1.0842022e-19
1.5418174 -2 -1.7869098
1.0842022e-19 3.1362123 -0
-1.9289054 -2 2.6111169
2 3.1019249 3.6893488e+19
1.8867917 3.6893488e+19 2.5738454
-0 3.139452 -1.0842022e-19
-1.9304061 -3.6893488e+19 2.6027083
1.0842022e-19 3.1044931 3.6893488e+19
1.88779 -0 2.5658154
1.0842022e-19 3.1383178 1.0842022e-19
-1.9298807 0 2.5903106
-1.0842022e-19 3.1128225 -2
1.8910276 2 2.5626297
-2 3.0769567 0
-1.9014565 -1.0842022e-19 2.5269926
0 3.0994115 -3.6893488e+19
1.8858147 2 2.54089
3.6893488e+19 3.0782578 3.6893488e+19
-1.9020591 0 2.5185404
0 3.1394522 -0
1.9013784 -0 2.5629086
0 3.0785031 3.6893488e+19
-1.9021727 0 2.5092084
-0 3.1032741 -3.6893488e+19
1.8873161 -1.0842022e-19 2.5236032
-0 3.0792842 0
-1.9025346 -3.6893488e+19 2.5002937
-2 3.0999031 -0
1.8860059 1.0842022e-19 2.5108817
0 3.0795586 -3.6893488e+19
-1.9026616 1.0842022e-19 2.4819815
-1.0842022e-19 3.1267338 0
1.8964349 3.6893488e+19 2.520026
-0 3.080934 0
2.0406237 1.0842022e-19 2.46544
-3.6893488e+19 3.1225629 -1.0842022e-19
1.4025476 -2 2.5062501
-1.0842022e-19 3.081454 -0
2.0410802 3.6893488e+19 2.4471095
-0 3.1234014 3.6893488e+19
1.4028909 3.6893488e+19 2.4922373
2 3.0852237 2
2.0443907 3.6893488e+19 2.4329646
-2 3.1165361 1.0842022e-19
1.40008 -2 2.4622166
-3.6893488e+19 3.1240795 2
2.0785136 3.6893488e+19 2.461735
3.6893488e+19 3.088593 0
1.3886385 0 2.4076462
3.6893488e+19 3.1461132 -3.6893488e+19
2.0978632 -1.0842022e-19 2.4663086
1.0842022e-19 3.0891566 -1.0842022e-19
1.3888692 2 2.3889999
-0 3.1398962 2
2.0924037 -0 2.4367633
-0 3.0903852 -3.6893488e+19
1.3893722 2 2.371057
-3.6893488e+19 3.1174698 2
2.0727091 3.6893488e+19 2.390738
-2 3.091754 3.6893488e+19
1.3899328 3.6893488e+19 2.3531523
-0 3.1169341 -1.0842022e-19
2.0722384 -1.0842022e-19 2.3693299
-2 3.093015 -1.0842022e-19
1.390449 1.0842022e-19 2.3350258
-2 3.0835545 0
-1.9045128 -1.0842022e-19 2.316483
-1.0842022e-19 3.0834835 2
1.8796237 3.6893488e+19 2.3069451
1.0842022e-19 3.0827978 -3.6893488e+19
-1.904162 -0 2.2969499
-3.6893488e+19 3.0839601 -0
1.8798089 -1.0842022e-19 2.2885239
-0 3.0974948 0
-1.9109703 -2 2.2904484
1.0842022e-19 3.0888038 3.6893488e+19
1.8816916 -2 2.2736001
-0 3.088599 -3.6893488e+19
-1.9068494 3.6893488e+19 2.2639313
-3.6893488e+19 3.0896869 3.6893488e+19
1.8820349 1.0842022e-19 2.2551861
0 3.1248775 -0
-1.9236547 1.0842022e-19 2.2711079
-2 3.09043 -0
1.8823237 -2 2.2231927
1.0842022e-19 3.1005125 -3.6893488e+19
-1.9123681 -3.6893488e+19 2.2175717
-3.6893488e+19 3.0879185 -0
1.8813475 -2 2.1817417
-3.6893488e+19 3.0991502 -2
-1.9117371 -3.6893488e+19 2.1765428
3.6893488e+19 3.0877869 0
1.8812964 0 2.1436632
-0 3.1293678 0
-1.9257349 2 2.1709065
2 3.0923145 -0
1.8830562 -1.0842022e-19 2.1105599
0 3.0935967 2
2.0517437 -3.6893488e+19 2.0930805
3.6893488e+19 3.0757179 2
1.3833667 2 2.0565107
1.0842022e-19 3.0970712 2
2.054795 0 2.0576499
3.6893488e+19 3.0775912 -0
1.3841337 -3.6893488e+19 2.0216191
-0 3.0972588 -2
2.0549598 -1.0842022e-19 2.0189173
3.6893488e+19 3.0973051 0
2.0550005 -3.6893488e+19 1.9800754
-1.0842022e-19 3.0777023 2
1.3841792 -3.6893488e+19 1.9484609
-1.0842022e-19 3.1026669 -3.6893488e+19
2.0597091 -0 1.9441799
-2 3.077281 3.6893488e+19
1.3840067 -3.6893488e+19 1.911662
2 3.1019943 1.0842022e-19
2.0591185 -1.0842022e-19 1.9044484
3.6893488e+19 3.0797491 3.6893488e+19
1.3850173 3.6893488e+19 1.8760704
1.0842022e-19 3.1012106 -0
2.0584302 3.6893488e+19 1.8547075
-2 3.081327 2
1.3856634 -2 1.8044126
-2 3.1026559 -1.0842022e-19
2.0596995 0 1.7768352
1.0842022e-19 3.0851705 3.6893488e+19
1.3872371 0 1.7134091
1.0842022e-19 3.080261 2
-1.902987 1.0842022e-19 1.6366693
2 3.0868366 2
1.880927 0 1.5033748
-1.0842022e-19 3.0819232 0
-1.9037571 -3.6893488e+19 -1.1729401
-1.0842022e-19 3.0911465 3.6893488e+19
1.8826022 3.6893488e+19 -1.5494488
3.6893488e+19 3.0832884 -2
-1.9043894 -0 -1.6596005
2 3.0900667 2
1.8821825 -0 -1.7387377
2 3.0804207 1.0842022e-19
-1.903061 2 -1.7778695
-2 3.0905633 0
1.8823756 1.0842022e-19 -1.8205456
-1.0842022e-19 3.0764756 2
-1.9012336 1.0842022e-19 -1.84892
1.0842022e-19 3.0874207 -2
1.8811539 -3.6893488e+19 -1.8845377
0 3.0771685 0
-1.9015545 0 -1.8987308
-3.6893488e+19 3.0892272 -1.0842022e-19
1.8818562 -3.6893488e+19 -1.9231328
1.0842022e-19 3.0326734 3.6893488e+19
-1.8809429 2 -1.9100804
3.6893488e+19 3.0409131 -3.6893488e+19
1.8511534 -2 -1.9309757
-1.0842022e-19 3.0267918 0
-1.8782185 -1.0842022e-19 -1.9376791
1.0842022e-19 2.9151287 -2
1.7863587 -2 -1.9023222
-1.0842022e-19 2.8601439 -3.6893488e+19
1.9081377 -2 -1.8923899
-2 2.8156216 2
1.2542328 2 -1.8834229
3.6893488e+19 2.8008194 -1.0842022e-19
1.8820885 0 -1.8857818
-2 2.7741342 1.0842022e-19
1.2244911 3.6893488e+19 -1.8812231
0 2.7527997 -3.6893488e+19
1.8470066 -3.6893488e+19 -1.8782784
1.0842022e-19 2.7029889 3.6893488e+19
1.1854783 -0 -1.8671991
1.0842022e-19 2.6650982 2
1.8072679 -3.6893488e+19 -1.8589194
2 2.6317103 1.0842022e-19
1.156293 -0 -1.8504837
-0 2.6108773 1.0842022e-19
1.7834598 1.0842022e-19 -1.8486325
-1.0842022e-19 2.5908871 -2
1.1395777 -2 -1.8454914
-0 2.5681393 -3.6893488e+19
1.7646936 3.6893488e+19 -1.8400315
-3.6893488e+19 2.5503421 -3.6893488e+19
1.120953 -2 -1.8361369
-0 2.5320234 0
1.7476708 -0 -1.8314956
1.0842022e-19 2.5169253 -3.6893488e+19
1.0935875 -3.6893488e+19 -1.8276542
-3.6893488e+19 2.505007 1.0842022e-19
1.7239453 1.0842022e-19 -1.8260871
-0 2.4792655 3.6893488e+19
1.0712374 -1.0842022e-19 -1.8204281
-3.6893488e+19 2.4677088 1.0842022e-19
-1.5916572 1.0842022e-19 -1.8223886
2 2.4283662 -0
-1.5734323 -1.0842022e-19 -1.8178775
-0 2.3619552 -2
-1.5426687 0 -1.8084586
-0 2.3147597 -3.6893488e+19
-1.5208063 3.6893488e+19 -1.8024129
-3.6893488e+19 2.2817614 3.6893488e+19
-1.5055206 -0 -1.7998781
3.6893488e+19 2.2507937 3.6893488e+19
1.595245 3.6893488e+19 -1.7952031
1.0842022e-19 2.2056708 -1.0842022e-19
1.5750831 2 -1.7927445
1.0842022e-19 2.1677301 -1.0842022e-19
1.5584235 1.0842022e-19 -1.790869
0 2.1299112 1.0842022e-19
1.5418174 -2 -1.7869098
-0 3.1356342 -3.6893488e+19
-1.9448057 -1.0842022e-19 2.610605
1.0842022e-19 3.1342816 -0
1.8832633 -2 2.6035991
-0 3.1385682 -2
-1.9462879 -0 2.6019359
-3.6893488e+19 3.1355896 -3.6893488e+19
1.8837169 -3.6893488e+19 2.5934985
-0 3.1377988 -0
-1.9458992 -0 2.5898826
0 3.1359041 1.0842022e-19
1.883826 -3.6893488e+19 2.5824978
-2 3.1359673 -1.0842022e-19
-1.9449741 2 2.5770113
1.0842022e-19 3.138921 -2
1.8848722 -2 2.5737627
1.0842022e-19 3.0776198 -3.6893488e+19
-1.9154993 -1.0842022e-19 2.5180395
0 3.1355855 -0
1.8837155 -1.0842022e-19 2.5597832
-1.0842022e-19 3.129745 1.0842022e-19
-1.9418309 -2 2.549665
3.6893488e+19 3.1270366 3.6893488e+19
1.8807509 -2 2.5419891
-3.6893488e+19 3.1300123 0
-1.9419659 1.0842022e-19 2.5388761
1.0842022e-19 3.1344161 -1.0842022e-19
1.88331 2 2.5365965
1.0842022e-19 3.1298304 3.6893488e+19
-1.9418739 2 2.5277741
-1.0842022e-19 3.1268795 -0
1.8806964 1.0842022e-19 2.5201142
0 3.1291769 2
2.0670614 -2 2.5166078
1.0842022e-19 3.1225941 -1.0842022e-19
-1.3193095 -2 2.5062714
2 3.1261849 2
2.0645597 1.0842022e-19 2.5036886
0 3.1282427 -0
-1.3222553 -1.0842022e-19 2.4986188
3.6893488e+19 3.131824 -3.6893488e+19
2.0692749 -1.0842022e-19 2.493083
-1.0842022e-19 3.1166599 -2
-1.3162148 -2 2.4623723
-1.0842022e-19 3.1241937 -2
2.0628946 -3.6893488e+19 2.4618111
-1.0842022e-19 3.1151998 3.6893488e+19
-1.3154534 3.6893488e+19 2.4396789
-3.6893488e+19 3.1457672 -3.6893488e+19
2.080934 1.0842022e-19 2.4658363
-1.0842022e-19 3.116533 -3.6893488e+19
-1.3161486 -2 2.4203994
-2 3.1450813 1.0842022e-19
2.0803607 -3.6893488e+19 2.4425097
1.0842022e-19 3.0906951 2
-1.3026741 -3.6893488e+19 2.3713944
-2 3.1184494 -1.0842022e-19
2.0580914 1.0842022e-19 2.3917248
-1.0842022e-19 3.0916612 0
-1.303178 3.6893488e+19 2.3530562
-1.0842022e-19 3.11745 2
2.0572557 2 2.3697975
1.0842022e-19 3.0905027 -0
-1.3025737 -3.6893488e+19 2.3325715
-0 3.117461 -2
-1.9356254 -2 2.3486817
0 3.1128967 -0
1.8758473 -3.6893488e+19 2.3339972
-1.0842022e-19 3.1217291 3.6893488e+19
-1.9377816 1.0842022e-19 2.3317142
1.0842022e-19 3.1196086 0
1.878175 -1.0842022e-19 2.319303
-3.6893488e+19 3.1223507 -1.0842022e-19
-1.9380956 -2 2.3112485
1.0842022e-19 3.124696 -0
1.8799392 1.0842022e-19 2.3025668
1.0842022e-19 3.0875463 2
-1.9205139 1.0842022e-19 2.2631316
0 3.0888054 -2
1.8599857 -3.6893488e+19 2.2545083
0 3.1254077 0
-1.9396398 -2 2.2715127
-2 3.0906684 -3.6893488e+19
1.8612779 -3.6893488e+19 2.2234955
3.6893488e+19 3.0830538 1.0842022e-19
-1.9182445 -1.0842022e-19 2.1943178
3.6893488e+19 3.0916762 -2
1.8619769 -2 2.1865163
2 3.1286159 0
-1.9412605 3.6893488e+19 2.2125764
1.0842022e-19 3.1290634 2
1.8814538 3.6893488e+19 2.1917408
1.0842022e-19 3.0929275 2
1.8628447 3.6893488e+19 2.1111839
-2 3.1441963 1.0842022e-19
2.0796206 -0 2.1435492
-1.0842022e-19 3.1737673 -0
-1.3459966 -0 2.148778
-0 3.1436725 -3.6893488e+19
2.0791824 2 2.0989091
-2 3.213846 -0
-1.3668978 -3.6893488e+19 2.1345932
-0 3.1448433 3.6893488e+19
2.0801616 -1.0842022e-19 2.0557239
-1.0842022e-19 3.0764842 2
-1.2952631 1.0842022e-19 1.9842044
0 3.1457152 -3.6893488e+19
2.0808904 3.6893488e+19 2.0121083
0 3.1030283 -3.6893488e+19
-1.3091058 2 1.9637985
-3.6893488e+19 3.0961354 -1.0842022e-19
2.0394328 0 1.940557
-3.6893488e+19 3.1035812 -0
-1.3093942 1.0842022e-19 1.9246531
-3.6893488e+19 3.1005149 -1.0842022e-19
2.0430949 -3.6893488e+19 1.9037777
0 3.0802805 3.6893488e+19
-1.2972428 -2 1.8762734
-3.6893488e+19 3.1005421 -3.6893488e+19
2.0431175 -2 1.8542382
0 3.0807962 -0
-1.2975117 0 1.8041251
-0 3.1016133 -0
2.0440133 0 1.776365
-1.0842022e-19 3.0835769 -2
-1.2989619 -3.6893488e+19 1.7123942
-2 3.2250032 1.0842022e-19
-1.9899513 -0 1.6965824
-3.6893488e+19 3.0902934 0
1.8610179 -0 1.5046844
-2 3.2241385 -2
-1.9895144 2 -1.2470574
1.0842022e-19 3.0914483 -0
1.8618188 -1.0842022e-19 -1.5495926
3.6893488e+19 3.0800138 -1.0842022e-19
-1.9167087 1.0842022e-19 -1.6580449
1.0842022e-19 3.0911493 -3.6893488e+19
1.8616114 2 -1.7394834
2 3.171371 -0
-1.9628584 -0 -1.8199631
-1.0842022e-19 3.0921457 -0
1.8623025 -0 -1.8214422
-1.0842022e-19 3.0782609 1.0842022e-19
-1.9158233 -0 -1.8501623
3.6893488e+19 3.0891275 2
1.8602092 -2 -1.8852102
-0 3.0783288 -3.6893488e+19
-1.9158576 -2 -1.8992701
0 3.0763206 -0
-1.9148431 3.6893488e+19 -1.9348129
-1.0842022e-19 3.0404935 -3.6893488e+19
1.826478 0 -1.9307039
1.0842022e-19 3.0252097 -1.0842022e-19
-1.889024 -3.6893488e+19 -1.936621
1.0842022e-19 2.9144671 -0
1.7687312 3.6893488e+19 -1.9020703
-0 2.8613789 -1.0842022e-19
1.9010895 -0 -1.8928581
-2 2.8164332 2
-1.1650214 -0 -1.8837658
1.0842022e-19 2.8007994 2
1.8757617 1.0842022e-19 -1.8857536
0 2.773885 0
-1.1428323 3.6893488e+19 -1.8811036
0 2.7519631 -1.0842022e-19
1.8356874 2 -1.877836
-3.6893488e+19 2.7034879 1.0842022e-19
-1.1114961 0 -1.8674659
1.0842022e-19 2.6668997 2
1.7993023 -2 -1.8599017
-1.0842022e-19 2.6297159 -3.6893488e+19
-1.0730236 -3.6893488e+19 -1.8493054
0 2.6119237 -3.6893488e+19
1.7763172 2 -1.8492494
2 2.591012 -0
-1.0528393 -3.6893488e+19 -1.845572
2 2.5683084 0
1.7580822 -0 -1.8401155
0 2.549969 3.6893488e+19
-1.0314351 -3.6893488e+19 -1.8358743
-3.6893488e+19 2.5319386 1.0842022e-19
1.7357526 1.0842022e-19 -1.8314047
-2 2.5191653 3.6893488e+19
-1.015371 3.6893488e+19 -1.8293549
1.0842022e-19 2.5036764 2
1.7121201 -3.6893488e+19 -1.8250096
-3.6893488e+19 2.479017 -0
-0.99990481 -3.6893488e+19 -1.8203267
0 2.467175 -2
-1.6109966 -0 -1.8221788
-0 3.1356342 -3.6893488e+19
-1.9448057 -1.0842022e-19 2.610605
-3.6893488e+19 3.1018546 1.0842022e-19
1.8690364 -3.6893488e+19 2.5737612
-0 3.1385682 -2
-1.9462879 -0 2.6019359
2 3.1046059 -2
1.8709445 2 2.565897
-0 3.1377988 -0
-1.9458992 -0 2.5898826
-2 3.1129971 0
1.8758823 1.0842022e-19 2.5627613
-2 3.1359673 -1.0842022e-19
-1.9449741 2 2.5770113
3.6893488e+19 3.1000748 3.6893488e+19
1.8678019 0 2.5414248
1.0842022e-19 3.0776198 -3.6893488e+19
-1.9154993 -1.0842022e-19 2.5180395
0 3.1355855 -0
1.8837155 -1.0842022e-19 2.5597832
1.0842022e-19 3.0782626 -1.0842022e-19
-1.9158241 0 2.5090392
2 3.1034181 1.0842022e-19
1.8701208 1.0842022e-19 2.5236983
-1.0842022e-19 3.0778465 1.0842022e-19
-1.915614 -2 2.4984417
1.0842022e-19 3.1344161 -1.0842022e-19
1.88331 2 2.5365965
1.0842022e-19 3.0794096 2
-1.9164035 2 2.4818017
-1.0842022e-19 3.1268795 -0
1.8806964 1.0842022e-19 2.5201142
0 3.0825789 -1.0842022e-19
2.0280969 -0 2.4676876
1.0842022e-19 3.1225941 -1.0842022e-19
-1.3193095 -2 2.5062714
-2 3.081562 -3.6893488e+19
2.0272467 -0 2.4471924
0 3.1282427 -0
-1.3222553 -1.0842022e-19 2.4986188
2 3.0851166 1.0842022e-19
2.0302191 0 2.4327657
-1.0842022e-19 3.1166599 -2
-1.3162148 -2 2.4623723
0 3.086688 2
2.031533 1.0842022e-19 2.4155235
-1.0842022e-19 3.1151998 3.6893488e+19
-1.3154534 3.6893488e+19 2.4396789
-3.6893488e+19 3.1457672 -3.6893488e+19
2.080934 1.0842022e-19 2.4658363
-3.6893488e+19 3.0888164 1.0842022e-19
-1.3016944 2 2.3886096
-2 3.1450813 1.0842022e-19
2.0803607 -3.6893488e+19 2.4425097
1.0842022e-19 3.0906951 2
-1.3026741 -3.6893488e+19 2.3713944
2 3.0803981 2
2.0262735 -1.0842022e-19 2.3512695
-1.0842022e-19 3.0916612 0
-1.303178 3.6893488e+19 2.3530562
-1.0842022e-19 3.11745 2
2.0572557 2 2.3697975
1.0842022e-19 3.0905027 -0
-1.3025737 -3.6893488e+19 2.3325715
3.6893488e+19 3.0797751 2
-1.9165882 -1.0842022e-19 2.3129218
-2 3.0819826 -3.6893488e+19
1.8552537 2 2.3055453
3.6893488e+19 3.083982 2
-1.9187133 -2 2.2980301
1.0842022e-19 3.0846326 1.0842022e-19
1.8570917 2 2.2890875
-3.6893488e+19 3.1223507 -1.0842022e-19
-1.9380956 -2 2.3112485
0 3.0868037 2
1.8585974 -0 2.2719686
1.0842022e-19 3.0875463 2
-1.9205139 1.0842022e-19 2.2631316
0 3.0888054 -2
1.8599857 -3.6893488e+19 2.2545083
3.6893488e+19 3.0834744 3.6893488e+19
-1.9184569 -3.6893488e+19 2.2323694
-2 3.0906684 -3.6893488e+19
1.8612779 -3.6893488e+19 2.2234955
3.6893488e+19 3.0830538 1.0842022e-19
-1.9182445 -1.0842022e-19 2.1943178
3.6893488e+19 3.0916762 -2
1.8619769 -2 2.1865163
-0 3.1018944 3.6893488e+19
-1.9277619 -1.0842022e-19 2.1799293
1.0842022e-19 3.0905182 1.0842022e-19
1.8611737 -0 2.1468222
1.0842022e-19 3.0929275 2
1.8628447 3.6893488e+19 2.1111839
-2 3.1441963 1.0842022e-19
2.0796206 -0 2.1435492
-2 3.0766227 3.6893488e+19
-1.2953353 0 2.0573621
-0 3.098927 2
2.0417671 3.6893488e+19 2.0592515
3.6893488e+19 3.0772793 3.6893488e+19
-1.2956777 -1.0842022e-19 2.0213604
-0 3.1448433 3.6893488e+19
2.0801616 -1.0842022e-19 2.0557239
-1.0842022e-19 3.0764842 2
-1.2952631 1.0842022e-19 1.9842044
-0 3.0919595 -1.0842022e-19
2.0359409 -1.0842022e-19 1.9765024
-0 3.0793889 1.0842022e-19
-1.2967778 -1.0842022e-19 1.9494822
-3.6893488e+19 3.0961354 -1.0842022e-19
2.0394328 0 1.940557
-3.6893488e+19 3.0809669 1.0842022e-19
-1.2976009 1.0842022e-19 1.9134827
-3.6893488e+19 3.1005149 -1.0842022e-19
2.0430949 -3.6893488e+19 1.9037777
0 3.0802805 3.6893488e+19
-1.2972428 -2 1.8762734
-3.6893488e+19 3.1005421 -3.6893488e+19
2.0431175 -2 1.8542382
0 3.0807962 -0
-1.2975117 0 1.8041251
-0 3.1016133 -0
2.0440133 0 1.776365
-1.0842022e-19 3.0835769 -2
-1.2989619 -3.6893488e+19 1.7123942
0 3.0785482 -2
-1.9159683 -2 1.6359712
-3.6893488e+19 3.0902934 0
1.8610179 -0 1.5046844
2 3.0818033 -3.6893488e+19
-1.9176127 2 -1.1728914
1.0842022e-19 3.0914483 -0
1.8618188 -1.0842022e-19 -1.5495926
3.6893488e+19 3.0800138 -1.0842022e-19
-1.9167087 1.0842022e-19 -1.6580449
1.0842022e-19 3.0911493 -3.6893488e+19
1.8616114 2 -1.7394834
0 3.0781147 1.0842022e-19
-1.9157494 3.6893488e+19 -1.7768146
-1.0842022e-19 3.0921457 -0
1.8623025 -0 -1.8214422
-1.0842022e-19 3.0782609 1.0842022e-19
-1.9158233 -0 -1.8501623
3.6893488e+19 3.0891275 2
1.8602092 -2 -1.8852102
-0 3.0783288 -3.6893488e+19
-1.9158576 -2 -1.8992701
-1.0842022e-19 3.0329006 -2
-1.8929092 -2 -1.9102218
-1.0842022e-19 3.0404935 -3.6893488e+19
1.826478 0 -1.9307039
1.0842022e-19 3.0252097 -1.0842022e-19
-1.889024 -3.6893488e+19 -1.936621
1.0842022e-19 2.9144671 -0
1.7687312 3.6893488e+19 -1.9020703
-0 2.8613789 -1.0842022e-19
1.9010895 -0 -1.8928581
-2 2.8164332 2
-1.1650214 -0 -1.8837658
1.0842022e-19 2.8007994 2
1.8757617 1.0842022e-19 -1.8857536
0 2.773885 0
-1.1428323 3.6893488e+19 -1.8811036
0 2.7519631 -1.0842022e-19
1.8356874 2 -1.877836
-3.6893488e+19 2.7034879 1.0842022e-19
-1.1114961 0 -1.8674659
1.0842022e-19 2.6668997 2
1.7993023 -2 -1.8599017
-1.0842022e-19 2.6297159 -3.6893488e+19
-1.0730236 -3.6893488e+19 -1.8493054
0 2.6119237 -3.6893488e+19
1.7763172 2 -1.8492494
2 2.591012 -0
-1.0528393 -3.6893488e+19 -1.845572
2 2.5683084 0
1.7580822 -0 -1.8401155
0 2.549969 3.6893488e+19
-1.0314351 -3.6893488e+19 -1.8358743
-3.6893488e+19 2.5319386 1.0842022e-19
1.7357526 1.0842022e-19 -1.8314047
-2 2.5191653 3.6893488e+19
-1.015371 3.6893488e+19 -1.8293549
1.0842022e-19 2.5036764 2
1.7121201 -3.6893488e+19 -1.8250096
-3.6893488e+19 2.479017 -0
-0.99990481 -3.6893488e+19 -1.8203267
0 2.467175 -2
-1.6109966 -0 -1.8221788
0 3.1364527 -3.6893488e+19
-1.9614244 -2 2.6114013
-2 3.1333885 -0
1.8587754 3.6893488e+19 2.6027586
-2 3.1385956 2
-1.9625969 0 2.6019912
-3.6893488e+19 3.1360066 2
1.8603718 1.0842022e-19 2.5938518
-2 3.1376433 0
-1.9620759 -2 2.5897756
2 3.1356192 -3.6893488e+19
1.8601354 2 2.5822349
-0 3.1347425 0
-1.9604889 3.6893488e+19 2.5760016
-2 3.1335886 -1.0842022e-19
1.8588973 -3.6893488e+19 2.5693066
-1.0842022e-19 3.1358824 3.6893488e+19
-1.9611125 2 2.5657339
0 3.1321752 -0
1.8580354 1.0842022e-19 2.5570271
-2 3.1294978 3.6893488e+19
-1.9576195 -2 2.5494957
0 3.1272101 0
1.855008 -3.6893488e+19 2.5421078
2 3.1321275 -1.0842022e-19
-1.9590582 -2 2.5405087
2 3.1342216 -3.6893488e+19
1.8592832 0 2.5364363
0 3.1304736 1.0842022e-19
-1.9581534 -2 2.5282683
0 3.1326816 -2
1.8583442 2 2.5242579
-2 3.1308873 -2
2.0524957 -2 2.5177748
-0 3.1223762 0
-1.5483342 -2 2.5061231
-3.6893488e+19 3.1253424 3.6893488e+19
2.0480921 -2 2.5030866
2 3.1294429 3.6893488e+19
-1.5516236 3.6893488e+19 2.500102
-0 3.131043 1.0842022e-19
2.0526195 -3.6893488e+19 2.4920087
-1.0842022e-19 3.1256626 -2
2.0483463 1.0842022e-19 2.4635623
-3.6893488e+19 3.1168971 -2
-1.5457838 -2 2.441725
1.0842022e-19 3.1456349 -0
2.064208 3.6893488e+19 2.4656181
1.0842022e-19 3.1165619 1.0842022e-19
-1.5456277 -0 2.420435
-2 3.1148722 -1.0842022e-19
2.0397768 -0 2.4086196
3.6893488e+19 3.0926437 2
-1.5344943 1.0842022e-19 2.3735211
-2 3.1189318 2
2.0430009 3.6893488e+19 2.3921852
3.6893488e+19 3.0864835 1.0842022e-19
-1.5316268 -2 2.3477077
-3.6893488e+19 3.116446 1.0842022e-19
2.0410268 2 2.3687379
-1.0842022e-19 3.0908418 3.6893488e+19
-1.5336555 -3.6893488e+19 2.3329048
-3.6893488e+19 3.1192591 0
-1.9520181 1.0842022e-19 2.3504183
2 3.0818453 -3.6893488e+19
1.8273462 2 2.3054025
-3.6893488e+19 3.0833013 0
-1.932346 -3.6893488e+19 2.2974484
-1.0842022e-19 3.1256857 1.0842022e-19
1.8540785 2 2.3245358
-2 3.1250267 -0
1.8536767 -2 2.3028176
2 3.0871131 1.0842022e-19
-1.9344313 -1.0842022e-19 2.2628164
3.6893488e+19 3.0836635 -0
-1.932544 0 2.2326846
1.0842022e-19 3.0919318 0
1.8334967 0 2.2252262
2 3.1364026 3.6893488e+19
-1.9613971 -3.6893488e+19 2.2577665
-2 3.0910091 1.0842022e-19
1.8329341 2 2.1856411
-2 3.1284897 2
-1.9570681 -1.0842022e-19 2.2124622
0 3.1379647 1.0842022e-19
1.8615657 3.6893488e+19 2.2020898
3.6893488e+19 3.1284328 2
-1.9570369 -3.6893488e+19 2.1699383
0 3.1378093 0
1.8614709 -1.0842022e-19 2.1584332
-3.6893488e+19 3.1444669 3.6893488e+19
2.0632806 -0 2.1437669
0 3.1882398 -2
-1.5789924 -2 2.1623993
1.0842022e-19 3.1435692 -1.0842022e-19
2.0625675 1.0842022e-19 2.0987711
-3.6893488e+19 3.1884398 -1.0842022e-19
-1.5790856 3.6893488e+19 2.1135304
3.6893488e+19 3.1147184 0
2.0396547 -0 2.0323608
3.6893488e+19 3.0754521 2
-1.5264919 -1.0842022e-19 1.9834653
-3.6893488e+19 3.0888865 -1.0842022e-19
2.0191393 -0 1.9744371
-3.6893488e+19 3.0797927 -3.6893488e+19
-1.5285124 1.0842022e-19 1.9497281
1.0842022e-19 3.0953083 -0
2.0242393 0 1.9400762
-0 3.0814335 -0
-1.5292761 3.6893488e+19 1.9137141
-1.0842022e-19 3.0972545 -2
2.025785 2 1.9023271
2 3.0807784 -3.6893488e+19
-1.5289711 -2 1.8764645
-2 3.1001208 -1.0842022e-19
2.0280614 2 1.8539321
-0 3.0801692 -0
-1.5286876 3.6893488e+19 1.8037866
-0 3.1003494 0
2.0282431 2 1.7758008
3.6893488e+19 3.0817626 1.0842022e-19
-1.5294293 -1.0842022e-19 1.7112403
1.0842022e-19 3.2258995 -2
-2.0103598 3.6893488e+19 1.6969702
-2 3.0829692 3.6893488e+19
1.8280317 2 1.5018865
-2 3.224004 -1.0842022e-19
-2.0093229 -2 -1.2470086
-1.0842022e-19 3.0835617 -3.6893488e+19
1.8283929 1.0842022e-19 -1.5455509
1.0842022e-19 3.220618 -1.0842022e-19
-2.0074704 -0 -1.7254002
3.6893488e+19 3.0903552 -0
1.8325353 1.0842022e-19 -1.7389132
-0 3.1705852 -0
-1.980098 2 -1.8196163
-1.0842022e-19 3.0927262 0
1.8339812 -1.0842022e-19 -1.8217651
3.6893488e+19 3.076328 -2
-1.9285308 0 -1.8488557
0 3.0922067 -3.6893488e+19
1.8336642 -2 -1.8864305
3.6893488e+19 3.0742109 -0
-1.9273726 1.0842022e-19 -1.8974106
-3.6893488e+19 3.0920451 0
1.8335658 -2 -1.9245511
3.6893488e+19 3.0765734 -2
-1.928665 0 -1.934972
3.6893488e+19 3.0405715 -1.0842022e-19
1.8021791 -3.6893488e+19 -1.9307426
-0 3.024749 2
-1.9003125 -2 -1.9363247
3.6893488e+19 2.9139273 -2
1.7511983 3.6893488e+19 -1.9018642
-2 2.8562522 -2
1.8914654 2 -1.8908128
1.0842022e-19 2.8208003 0
-1.3993266 1.0842022e-19 -1.8856127
-0 2.8004031 -1.0842022e-19
1.8635763 -1.0842022e-19 -1.8855567
3.6893488e+19 2.770951 -3.6893488e+19
-1.3761226 0 -1.8797001
-0 2.7529311 3.6893488e+19
1.8258747 0 -1.8783101
1.0842022e-19 2.7021134 -1.0842022e-19
-1.3354503 -2 -1.8667322
-0 2.6665816 -1.0842022e-19
1.7904218 1.0842022e-19 -1.8596913
0 2.6287165 -0
-1.3012854 -3.6893488e+19 -1.8487163
-0 2.6122208 2
1.7688355 0 -1.8494036
-2 2.590636 0
-1.2835598 -2 -1.8453302
-1.0842022e-19 2.5682263 1.0842022e-19
1.7513657 3.6893488e+19 -1.8400315
1.0842022e-19 2.5489709 0
-1.2641654 2 -1.8351741
-1.0842022e-19 2.5324736 -3.6893488e+19
1.7243369 -2 -1.8317686
0 2.5190394 1.0842022e-19
-1.2502328 0 -1.8292605
-0 2.4969838 1.0842022e-19
1.6973491 -1.0842022e-19 -1.8208958
2 2.4800091 2
-1.2234353 -3.6893488e+19 -1.8207324
1.0842022e-19 2.4668863 -0
-1.6277144 -1.0842022e-19 -1.8220739
-1.0842022e-19 2.4285436 -0
-1.609452 -1.0842022e-19 -1.8179893
-1.0842022e-19 2.3611517 1.0842022e-19
-1.5725826 -1.0842022e-19 -1.8080815
-0 2.3144603 -3.6893488e+19
-1.5470381 3.6893488e+19 -1.8022734
-0 2.2794929 1.0842022e-19
-1.5279078 2 -1.7984987
-3.6893488e+19 2.2511084 -1.0842022e-19
1.5744271 -0 -1.7953701
-1.0842022e-19 2.2097247 -3.6893488e+19
1.5575536 -3.6893488e+19 -1.7941905
3.6893488e+19 2.1693139 -3.6893488e+19
1.5415068 -2 -1.7914523
-1.0842022e-19 2.1324573 3.6893488e+19
1.5268713 -0 -1.7879504
0 3.1364527 -3.6893488e+19
-1.9614244 -2 2.6114013
1.0842022e-19 3.1033046 3.6893488e+19
1.8404313 -3.6893488e+19 2.575078
-2 3.1385956 2
-1.9625969 0 2.6019912
2 3.1043808 -0
1.8410876 -2 2.5656796
-2 3.1376433 0
-1.9620759 -2 2.5897756
1.0842022e-19 3.1114283 0
1.8453848 -0 2.5613928
-0 3.1347425 0
-1.9604889 3.6893488e+19 2.5760016
3.6893488e+19 3.0995429 0
1.8381376 -1.0842022e-19 2.5409663
-1.0842022e-19 3.0777445 -1.0842022e-19
-1.9293058 -2 2.5181646
0 3.1321752 -0
1.8580354 1.0842022e-19 2.5570271
1.0842022e-19 3.078265 -1.0842022e-19
-1.9295905 3.6893488e+19 2.5090632
-0 3.0976393 -1.0842022e-19
1.8369769 3.6893488e+19 2.5192087
-2 3.0783706 0
-1.9296484 -3.6893488e+19 2.4992814
2 3.1342216 -3.6893488e+19
1.8592832 0 2.5364363
0 3.079412 -2
-1.930218 -1.0842022e-19 2.4818466
0 3.1326816 -2
1.8583442 2 2.5242579
3.6893488e+19 3.0845907 -0
2.0157275 -0 2.470454
-0 3.1223762 0
-1.5483342 -2 2.5061231
-0 3.0816371 2
2.013382 -1.0842022e-19 2.4472339
2 3.1294429 3.6893488e+19
-1.5516236 3.6893488e+19 2.500102
2 3.0802619 1.0842022e-19
2.0122898 0 2.4264395
3.6893488e+19 3.0860851 -0
2.0169144 2 2.4147241
-3.6893488e+19 3.1168971 -2
-1.5457838 -2 2.441725
1.0842022e-19 3.1456349 -0
2.064208 3.6893488e+19 2.4656181
2 3.0888145 -3.6893488e+19
-1.5327117 2 2.3886096
-2 3.1148722 -1.0842022e-19
2.0397768 -0 2.4086196
3.6893488e+19 3.0926437 2
-1.5344943 1.0842022e-19 2.3735211
-0 3.0806587 0
2.012605 2 2.3514998
3.6893488e+19 3.0864835 1.0842022e-19
-1.5316268 -2 2.3477077
-3.6893488e+19 3.116446 1.0842022e-19
2.0410268 2 2.3687379
-1.0842022e-19 3.0908418 3.6893488e+19
-1.5336555 -3.6893488e+19 2.3329048
0 3.0777619 -2
-1.9293152 0 2.3110383
2 3.0818453 -3.6893488e+19
1.8273462 2 2.3054025
-3.6893488e+19 3.0833013 0
-1.932346 -3.6893488e+19 2.2974484
-1.0842022e-19 3.083967 -3.6893488e+19
1.82864 1.0842022e-19 2.2884972
-2 3.1250267 -0
1.8536767 -2 2.3028176
