# .PCD v0.7 - Point Cloud Data file format
VERSION 0.7
FIELDS x y z
SIZE 4 4 4
TYPE F F F
COUNT 1 1 1
WIDTH 1691
HEIGHT 1
VIEWPOINT 0 0 0 1 0 0 0
POINTS 1691
DATA ascii
2.1895669 0 2.3490517
-0 3.2322145 2
1.6413516 -3.6893488e+19 2.3404465
3.6893488e+19 3.1173477 -2
2.0901766 0 2.2488902
0 3.1160717 -1.0842022e-19
1.5896132 -1.0842022e-19 2.2257774
-2 3.1196396 1.0842022e-19
2.0922992 3.6893488e+19 2.2104366
-0 3.1179528 -0
1.5907161 2 2.1869295
2 3.1200178 2
2.0926492 2 2.1693356
2 3.119132 3.6893488e+19
1.5914074 0 2.1469553
-3.6893488e+19 3.1218412 2
2.0943379 -2 2.1296666
3.6893488e+19 3.1244776 -0
2.2653894 0 2.1121702
-0 3.114439 0
1.9548897 -3.6893488e+19 2.0808988
-0 3.1187818 0
2.261353 -2 2.0652385
-3.6893488e+19 3.1163833 -3.6893488e+19
1.9559827 3.6893488e+19 2.0416536
2 3.1203401 -3.6893488e+19
2.2624571 0 2.0249953
1.0842022e-19 3.1065168 -1.0842022e-19
1.9504356 -0 1.9939287
-3.6893488e+19 3.1147583 3.6893488e+19
2.2585015 3.6893488e+19 1.9799283
0 3.1023698 -0
1.9481041 3.6893488e+19 1.9517
3.6893488e+19 3.116436 1.0842022e-19
2.2596905 -0 1.9399058
-2 3.1047277 -2
1.9494299 2 1.9134225
-0 3.1127753 -3.6893488e+19
2.2570961 3.6893488e+19 1.8973494
-1.0842022e-19 3.1066949 1.0842022e-19
1.9505359 -2 1.8739796
-2 3.113764 0
2.257797 -3.6893488e+19 1.8390064
2 3.1016192 1.0842022e-19
1.9476823 1.0842022e-19 1.7919319
-1.0842022e-19 3.1129613 -2
2.2572279 3.6893488e+19 1.7572234
-1.0842022e-19 3.0975242 2
1.5787396 -2 1.56934
3.6893488e+19 3.1293337 2
2.1012762 -0 1.2966285
3.6893488e+19 3.1010575 -3.6893488e+19
1.580811 3.6893488e+19 -1.4839361
-1.0842022e-19 3.1361589 1.0842022e-19
2.1075966 -2 -1.6507185
0 3.1015739 0
1.5811138 -0 -1.7154174
-1.0842022e-19 3.1124873 -3.6893488e+19
2.0856757 -2 -1.7767525
0 3.1033542 1.0842022e-19
1.5821575 -2 -1.8121008
2 3.1189022 -0
2.0916162 -1.0842022e-19 -1.8618834
1.0842022e-19 3.103461 -1.0842022e-19
1.5822201 1.0842022e-19 -1.8830154
3.6893488e+19 3.1381149 0
2.1094079 2 -1.9180005
-0 3.1015828 0
1.5811191 3.6893488e+19 -1.9215562
-1.0842022e-19 3.1409321 3.6893488e+19
2.1120167 -3.6893488e+19 -1.9629329
-3.6893488e+19 3.0403242 -0
1.5452056 -0 -1.924088
1.0842022e-19 3.0423589 -0
2.0207343 -2 -1.9419547
2 3.0364327 -3.6893488e+19
1.542924 -3.6893488e+19 -1.9537534
-1.0842022e-19 3.0309875 -3.6893488e+19
2.0102041 2 -1.965941
-0 2.8483841 3.6893488e+19
1.8208635 -1.0842022e-19 -1.903221
-0 2.804225 1.0842022e-19
1.965602 2 -1.8927836
1.0842022e-19 2.7691927 -0
1.7763416 -0 -1.8834668
2 2.7324498 -1.0842022e-19
1.9209542 -0 -1.8767741
-2 2.6782186 -0
1.7407469 2 -1.8613087
0 2.6439211 -1.0842022e-19
1.8895844 -2 -1.8541797
-3.6893488e+19 2.6097412 0
1.7022486 0 -1.8437022
0 2.5863686 3.6893488e+19
1.8633819 -0 -1.8396391
2 2.5636034 -2
1.6763095 0 -1.8332618
-1.0842022e-19 2.5408959 -3.6893488e+19
1.8311558 -3.6893488e+19 -1.8270197
1.0842022e-19 2.5257151 0
1.6550086 -2 -1.8236028
1.0842022e-19 2.5118282 1.0842022e-19
1.8105557 1.0842022e-19 -1.8216121
-2 2.4993458 0
1.6403675 -3.6893488e+19 -1.8188971
-3.6893488e+19 2.4747381 -0
1.7932217 3.6893488e+19 -1.8166614
-0 2.4604778 -3.6893488e+19
1.6294415 2 -1.8167839
-2 2.4103081 0
1.2405474 -0 -1.813153
-3.6893488e+19 2.357543 2
1.2096133 -3.6893488e+19 -1.8091924
1.0842022e-19 2.3103402 2
1.1819401 2 -1.8025026
-1.0842022e-19 2.277833 -1.0842022e-19
1.1628824 -1.0842022e-19 -1.7997538
-2 2.2462771 3.6893488e+19
1.675854 -3.6893488e+19 -1.7959541
3.6893488e+19 2.2019522 -1.0842022e-19
1.6601475 -1.0842022e-19 -1.7937416
1.0842022e-19 2.1670413 -2
1.647777 -3.6893488e+19 -1.7928175
2 2.1302898 0
1.6347543 0 -1.7891338
-2 3.1922538 -2
2.1403773 -0 2.6405909
1.0842022e-19 3.2050252 -3.6893488e+19
1.4690319 -0 2.6313481
-2 3.2713947 -3.6893488e+19
1.5056392 0 2.6891236
-2 3.2686477 -1.0842022e-19
2.2242706 2 2.6775358
2 3.2700839 3.6893488e+19
1.5050082 0 2.6713474
0 3.2639873 1.0842022e-19
2.216043 -1.0842022e-19 2.6548119
-1.0842022e-19 3.2387688 -2
1.4852749 -1.0842022e-19 2.6171248
-0 3.2636886 -3.6893488e+19
2.2155156 1.0842022e-19 2.6391082
-2 3.229156 -2
1.4806477 -2 2.5960915
-0 3.2551565 3.6893488e+19
2.2004533 2 2.6118004
2 3.1963422 0
1.9816334 -3.6893488e+19 2.5533063
-3.6893488e+19 3.2347479 -3.6893488e+19
2.0015643 -3.6893488e+19 2.5655055
-1.0842022e-19 3.2136626 -1.0842022e-19
2.3185036 3.6893488e+19 2.5460777
3.6893488e+19 3.2281256 0
1.9981277 2 2.5475199
-1.0842022e-19 3.211272 -3.6893488e+19
2.3168614 0 2.5313282
-1.0842022e-19 3.226315 3.6893488e+19
1.9971881 -2 2.5327964
3.6893488e+19 3.2074661 1.0842022e-19
2.3142471 3.6893488e+19 2.5159233
2 3.2302909 2
1.9992514 1.0842022e-19 2.5214751
-2 3.2080672 1.0842022e-19
2.3146601 -0 2.4802928
0 3.2065263 -0
1.9869184 -1.0842022e-19 2.464221
-1.0842022e-19 3.2056921 -3.6893488e+19
2.3130283 -1.0842022e-19 2.4518812
-2 3.2103305 2
1.9888928 -0 2.4420147
1.0842022e-19 3.2250402 -2
1.4786664 3.6893488e+19 2.4424701
3.6893488e+19 3.2161999 1.0842022e-19
2.1615145 3.6893488e+19 2.421701
1.0842022e-19 3.227216 -0
1.4797138 1.0842022e-19 2.417541
-1.0842022e-19 3.2180448 -1.0842022e-19
2.1631429 -1.0842022e-19 2.3969176
-3.6893488e+19 3.2293401 1.0842022e-19
1.4807364 0 2.3923652
-1.0842022e-19 3.1158423 -0
1.4261028 -1.0842022e-19 2.2788613
1.0842022e-19 3.2235994 3.6893488e+19
2.168046 -2 2.3482063
0 3.2330904 0
1.4825416 -3.6893488e+19 2.3410618
-1.0842022e-19 3.2235799 -0
2.1680288 2 2.3215322
-0 3.2370822 2
1.4844631 2 2.3165238
-2 3.2213905 -2
2.1660962 3.6893488e+19 2.2935457
-0 3.2281528 3.6893488e+19
1.4801648 -0 2.2838912
3.6893488e+19 3.2181797 0
2.1632621 -0 2.26525
2 3.227422 -0
1.479813 2 2.2567015
-3.6893488e+19 3.123019 0
2.0792639 -3.6893488e+19 2.130811
0 3.1204324 0
2.2544611 -0 2.1081734
2 3.2192488 1.0842022e-19
1.993521 -3.6893488e+19 2.1760237
-3.6893488e+19 3.2127647 -3.6893488e+19
2.3178868 -0 2.145483
2 3.213995 -0
1.9907944 1.0842022e-19 2.1193221
-3.6893488e+19 3.2081044 3.6893488e+19
2.3146856 -1.0842022e-19 2.0900843
-0 3.1073606 -1.0842022e-19
1.9354556 -1.0842022e-19 1.9944837
1.0842022e-19 3.2072766 -3.6893488e+19
2.3141167 3.6893488e+19 2.0381799
2 3.2169247 -0
1.9923148 -0 2.0172479
-2 3.2044029 -2
2.3121428 3.6893488e+19 1.9854393
3.6893488e+19 3.2172482 1.0842022e-19
1.9924828 -0 1.9652407
1.0842022e-19 3.234437 2
2.3327742 -2 1.9467186
-2 3.1038234 2
1.93362 0 1.8719528
-3.6893488e+19 3.2027576 2
2.3110127 -3.6893488e+19 1.8831497
-2 3.1022446 1.0842022e-19
1.9328007 0 1.7922136
0 3.1137319 -3.6893488e+19
2.2497163 0 1.7574729
-1.0842022e-19 3.1016791 0
1.9325072 -3.6893488e+19 1.6768698
-2 3.1110895 -2
1.4238149 3.6893488e+19 1.5769242
-3.6893488e+19 3.1275194 -2
2.0832362 0 1.2957816
-2 3.109623 0
1.4231091 -2 -1.4896418
0 3.1313818 -2
2.0866454 -1.0842022e-19 -1.6488311
0 3.1111703 3.6893488e+19
1.4238538 -1.0842022e-19 -1.7212954
-2 3.1400609 2
2.0943067 -0 -1.7882711
0 3.1057944 -2
1.421266 -3.6893488e+19 -1.8133912
-1.0842022e-19 3.1421061 0
2.096112 1.0842022e-19 -1.8758725
-1.0842022e-19 3.1040576 0
1.4204301 -3.6893488e+19 -1.8832387
-3.6893488e+19 3.1408253 3.6893488e+19
2.0949814 -2 -1.9191478
-1.0842022e-19 3.1027415 -2
1.4197965 -3.6893488e+19 -1.9221201
-3.6893488e+19 3.144079 -0
2.0978534 -2 -1.9646143
-1.0842022e-19 3.0477591 -3.6893488e+19
1.39333 1.0842022e-19 -1.9285446
2 3.1403909 -0
2.0945978 -2 -2.0062807
2 3.0372782 1.0842022e-19
1.3882849 -3.6893488e+19 -1.954353
-1.0842022e-19 3.0303447 -1.0842022e-19
1.9974602 -2 -1.965414
2 2.8475428 -2
1.8053604 2 -1.902837
-1.0842022e-19 2.7998829 -0
1.9559985 2 -1.8907126
1.0842022e-19 2.7679703 3.6893488e+19
1.7640656 -2 -1.8828486
3.6893488e+19 2.7323148 0
1.9156582 -2 -1.8767087
-1.0842022e-19 2.6787562 -1.0842022e-19
1.722507 -3.6893488e+19 -1.8615837
1.0842022e-19 2.6458771 2
1.8859699 -3.6893488e+19 -1.8552635
0 2.6096497 0
1.6866435 -1.0842022e-19 -1.8436264
-3.6893488e+19 2.5866959 -0
1.8562865 3.6893488e+19 -1.8397975
1.0842022e-19 2.562387 -0
1.6621161 -1.0842022e-19 -1.832435
-3.6893488e+19 2.540344 0
1.8244461 -1.0842022e-19 -1.826589
-3.6893488e+19 2.5254912 3.6893488e+19
1.6429688 0 -1.8234236
0 2.5107739 -0
1.8041333 0 -1.8207743
3.6893488e+19 2.5004418 -3.6893488e+19
1.629969 1.0842022e-19 -1.8194766
2 2.4750979 -1.0842022e-19
1.7881794 3.6893488e+19 -1.8167614
1.0842022e-19 2.4600229 -1.0842022e-19
1.6137331 -3.6893488e+19 -1.8165768
-2 3.1922538 -2
2.1403773 -0 2.6405909
1.0842022e-19 3.2050252 -3.6893488e+19
1.4690319 -0 2.6313481
-2 3.2713947 -3.6893488e+19
1.5056392 0 2.6891236
-2 3.2686477 -1.0842022e-19
2.2242706 2 2.6775358
-1.0842022e-19 3.2609282 2
1.5006011 2 2.657064
0 3.2639873 1.0842022e-19
2.216043 -1.0842022e-19 2.6548119
-1.0842022e-19 3.2387688 -2
1.4852749 -1.0842022e-19 2.6171248
-0 3.2636886 -3.6893488e+19
2.2155156 1.0842022e-19 2.6391082
-2 3.229156 -2
1.4806477 -2 2.5960915
-0 3.2551565 3.6893488e+19
2.2004533 2 2.6118004
2 3.1963422 0
1.9816334 -3.6893488e+19 2.5533063
-2 3.2012064 1.0842022e-19
1.9841578 1.0842022e-19 2.5436747
-1.0842022e-19 3.2136626 -1.0842022e-19
2.3185036 3.6893488e+19 2.5460777
-2 3.2002873 -3.6893488e+19
1.9836807 -1.0842022e-19 2.5301971
-1.0842022e-19 3.211272 -3.6893488e+19
2.3168614 0 2.5313282
0 3.2018769 -3.6893488e+19
1.9845055 -2 2.5182869
3.6893488e+19 3.2074661 1.0842022e-19
2.3142471 3.6893488e+19 2.5159233
-3.6893488e+19 3.211611 0
1.9895574 2 2.5109167
-2 3.2080672 1.0842022e-19
2.3146601 -0 2.4802928
0 3.2065263 -0
1.9869184 -1.0842022e-19 2.464221
-1.0842022e-19 3.2056921 -3.6893488e+19
2.3130283 -1.0842022e-19 2.4518812
-2 3.2103305 2
1.9888928 -0 2.4420147
-3.6893488e+19 3.1159024 3.6893488e+19
1.4261317 1.0842022e-19 2.3408153
3.6893488e+19 3.2161999 1.0842022e-19
2.1615145 3.6893488e+19 2.421701
-1.0842022e-19 3.1166255 1.0842022e-19
1.4264798 1.0842022e-19 2.3207798
-1.0842022e-19 3.2180448 -1.0842022e-19
2.1631429 -1.0842022e-19 2.3969176
3.6893488e+19 3.1167097 -1.0842022e-19
1.4265202 3.6893488e+19 2.3001711
-1.0842022e-19 3.1158423 -0
1.4261028 -1.0842022e-19 2.2788613
1.0842022e-19 3.1347024 1.0842022e-19
2.0895767 -1.0842022e-19 2.2828462
0 3.1082633 -2
1.4224544 1.0842022e-19 2.252934
-1.0842022e-19 3.2235799 -0
2.1680288 2 2.3215322
-0 3.2370822 2
1.4844631 2 2.3165238
3.6893488e+19 3.1195095 2
2.0761659 2 2.2102041
0 3.1173017 -2
1.4268051 -2 2.1861522
3.6893488e+19 3.2181797 0
2.1632621 -0 2.26525
0 3.1189482 3.6893488e+19
1.4275978 1.0842022e-19 2.146754
-3.6893488e+19 3.123019 0
2.0792639 -3.6893488e+19 2.130811
0 3.1204324 0
2.2544611 -0 2.1081734
3.6893488e+19 3.1053667 3.6893488e+19
1.9344208 3.6893488e+19 2.0726321
-1.0842022e-19 3.1197703 -2
2.2540061 -1.0842022e-19 2.066009
1.0842022e-19 3.1059666 3.6893488e+19
1.9347321 -3.6893488e+19 2.0333354
-3.6893488e+19 3.1186233 1.0842022e-19
2.2532184 0 2.0236561
-0 3.1073606 -1.0842022e-19
1.9354556 -1.0842022e-19 1.9944837
1.0842022e-19 3.2072766 -3.6893488e+19
2.3141167 3.6893488e+19 2.0381799
2 3.2169247 -0
1.9923148 -0 2.0172479
2 3.1185451 3.6893488e+19
2.2531645 0 1.9409539
3.6893488e+19 3.1017005 2
1.9325182 0 1.9120131
-1.0842022e-19 3.114666 2
2.2505 -3.6893488e+19 1.8980824
-2 3.1038234 2
1.93362 0 1.8719528
-3.6893488e+19 3.2027576 2
2.3110127 -3.6893488e+19 1.8831497
-2 3.1022446 1.0842022e-19
1.9328007 0 1.7922136
0 3.1137319 -3.6893488e+19
2.2497163 0 1.7574729
-1.0842022e-19 3.1016791 0
1.9325072 -3.6893488e+19 1.6768698
-2 3.1110895 -2
1.4238149 3.6893488e+19 1.5769242
-3.6893488e+19 3.1275194 -2
2.0832362 0 1.2957816
-2 3.109623 0
1.4231091 -2 -1.4896418
-3.6893488e+19 3.110445 2
2.0681648 1.0842022e-19 -1.6406609
0 3.1111703 3.6893488e+19
1.4238538 -1.0842022e-19 -1.7212954
-0 3.1109514 -2
2.0686116 -1.0842022e-19 -1.7760864
0 3.1057944 -2
1.421266 -3.6893488e+19 -1.8133912
0 3.1176171 -3.6893488e+19
2.0744953 -3.6893488e+19 -1.8610221
-1.0842022e-19 3.1040576 0
1.4204301 -3.6893488e+19 -1.8832387
-3.6893488e+19 3.1408253 3.6893488e+19
2.0949814 -2 -1.9191478
-1.0842022e-19 3.1027415 -2
1.4197965 -3.6893488e+19 -1.9221201
-3.6893488e+19 3.144079 -0
2.0978534 -2 -1.9646143
-1.0842022e-19 3.0477591 -3.6893488e+19
1.39333 1.0842022e-19 -1.9285446
-3.6893488e+19 3.0424345 0
2.008132 3.6893488e+19 -1.9419752
2 3.0372782 1.0842022e-19
1.3882849 -3.6893488e+19 -1.954353
-1.0842022e-19 3.0303447 -1.0842022e-19
1.9974602 -2 -1.965414
2 2.8475428 -2
1.8053604 2 -1.902837
-1.0842022e-19 2.7998829 -0
1.9559985 2 -1.8907126
1.0842022e-19 2.7679703 3.6893488e+19
1.7640656 -2 -1.8828486
3.6893488e+19 2.7323148 0
1.9156582 -2 -1.8767087
-1.0842022e-19 2.6787562 -1.0842022e-19
1.722507 -3.6893488e+19 -1.8615837
1.0842022e-19 2.6458771 2
1.8859699 -3.6893488e+19 -1.8552635
0 2.6096497 0
1.6866435 -1.0842022e-19 -1.8436264
-3.6893488e+19 2.5866959 -0
1.8562865 3.6893488e+19 -1.8397975
1.0842022e-19 2.562387 -0
1.6621161 -1.0842022e-19 -1.832435
-3.6893488e+19 2.540344 0
1.8244461 -1.0842022e-19 -1.826589
-3.6893488e+19 2.5254912 3.6893488e+19
1.6429688 0 -1.8234236
0 2.5107739 -0
1.8041333 0 -1.8207743
3.6893488e+19 2.5004418 -3.6893488e+19
1.629969 1.0842022e-19 -1.8194766
2 2.4750979 -1.0842022e-19
1.7881794 3.6893488e+19 -1.8167614
1.0842022e-19 2.4600229 -1.0842022e-19
1.6137331 -3.6893488e+19 -1.8165768
0 3.1984417 0
2.126981 -0 2.6591494
-0 3.1984723 -3.6893488e+19
2.1270065 1.0842022e-19 2.6460271
-3.6893488e+19 3.2013876 -1.0842022e-19
-1.2961146 2 2.6414566
-2 3.2038329 3.6893488e+19
-1.2970415 3.6893488e+19 2.6303484
-0 3.2035363 2
2.1312637 -3.6893488e+19 2.6240168
2 3.2688529 3.6893488e+19
-1.3288366 -3.6893488e+19 2.68501
-0 3.2697875 2
2.2035921 3.6893488e+19 2.6792891
-3.6893488e+19 3.2706976 3.6893488e+19
-1.3302352 1.0842022e-19 2.6723044
3.6893488e+19 3.2389846 -0
-1.310367 -3.6893488e+19 2.6172862
-2 3.2635722 2
2.1931424 3.6893488e+19 2.6388817
-0 3.2341695 -1.0842022e-19
-1.3085417 -2 2.5997121
-1.0842022e-19 3.2553 -3.6893488e+19
2.1792343 -2 2.6119528
-2 3.1963477 -1.0842022e-19
1.9629021 1.0842022e-19 2.5532856
-3.6893488e+19 3.2337084 2
1.9807227 2 2.5648034
-2 3.2093673 -3.6893488e+19
2.3058531 -1.0842022e-19 2.5432699
0 3.2281647 -1.0842022e-19
1.9780782 2 2.5475199
-1.0842022e-19 3.210974 -1.0842022e-19
2.3069229 3.6893488e+19 2.5310841
-0 3.2258286 1.0842022e-19
1.9769641 -3.6893488e+19 2.5324845
-2 3.2092934 -0
2.305804 -0 2.5169263
-2 3.2161953 0
1.9723692 1.0842022e-19 2.5134864
1.0842022e-19 3.1968193 -1.0842022e-19
2.2974985 -2 2.4938474
0 3.2081997 -3.6893488e+19
2.3050756 1.0842022e-19 2.4803252
2 3.2065945 -3.6893488e+19
1.9677895 -2 2.4642525
-3.6893488e+19 3.2074311 -3.6893488e+19
2.304564 3.6893488e+19 2.4535053
2 3.2261894 -1.0842022e-19
-1.3055165 1.0842022e-19 2.4435399
2 3.1928842 -1.0842022e-19
2.122309 -0 2.4005542
2 3.2281797 -3.6893488e+19
-1.306271 1.0842022e-19 2.4183836
2 3.2161558 -0
2.1418722 3.6893488e+19 2.3952599
-2 3.1153734 1.0842022e-19
-1.2635078 -3.6893488e+19 2.2990768
1.0842022e-19 3.2280102 1.0842022e-19
2.1518376 3.6893488e+19 2.3783343
-0 3.2328753 2
-1.3080511 -3.6893488e+19 2.3680685
-3.6893488e+19 3.2245052 -0
2.1488912 -3.6893488e+19 2.3488231
-1.0842022e-19 3.2351143 2
-1.3088999 3.6893488e+19 2.3424904
-2 3.2235534 -0
2.1480911 -2 2.3214688
3.6893488e+19 3.2382355 3.6893488e+19
-1.310083 3.6893488e+19 2.3172727
1.0842022e-19 3.2232928 1.0842022e-19
2.147872 2 2.2946887
2 3.2261279 0
-1.3054932 1.0842022e-19 2.2826886
0 3.2178411 -3.6893488e+19
2.1432889 0 2.2650208
0 3.2287323 1.0842022e-19
-1.3064805 -1.0842022e-19 2.2574055
3.6893488e+19 3.2160983 0
2.141824 -3.6893488e+19 2.2257674
-1.0842022e-19 3.2200978 -1.0842022e-19
1.9742305 2 2.17676
-1.0842022e-19 3.2120588 1.0842022e-19
2.3076453 -3.6893488e+19 2.1447921
-1.0842022e-19 3.2140951 2
1.9713674 -0 2.1193717
0 3.1187363 -1.0842022e-19
2.2410195 -3.6893488e+19 2.023679
2 3.106672 -2
1.9201279 -2 1.9939927
-1.0842022e-19 3.2075956 1.0842022e-19
2.3046737 0 2.0383172
3.6893488e+19 3.220896 1.0842022e-19
1.9746113 1.0842022e-19 2.0194991
-1.0842022e-19 3.2003639 -2
2.2998586 3.6893488e+19 1.9832948
3.6893488e+19 3.2179732 3.6893488e+19
1.9732171 -1.0842022e-19 1.9655571
2 3.2392764 -1.0842022e-19
2.325767 -1.0842022e-19 1.9486398
1.0842022e-19 3.1032903 3.6893488e+19
1.9185148 1.0842022e-19 1.8715605
-3.6893488e+19 3.112716 -3.6893488e+19
2.2330029 -0 1.8382924
1.0842022e-19 3.1027732 2
1.9182682 -2 1.7924507
-1.0842022e-19 3.1144974 3.6893488e+19
2.2353752 -1.0842022e-19 1.7577223
1.0842022e-19 3.1472487 3.6893488e+19
1.9394825 -1.0842022e-19 1.6997718
-3.6893488e+19 3.1065588 -3.6893488e+19
-1.2601663 -2 1.5743903
3.6893488e+19 3.1027799 -0
-1.2587337 0 -1.4850814
-0 3.1326525 3.6893488e+19
2.0716755 2 -1.6493061
0 3.1162331 -0
-1.2638336 -3.6893488e+19 -1.7243971
0 3.1051075 2
-1.2596161 -2 -1.8130273
2 3.1392598 0
2.07723 -3.6893488e+19 -1.8748822
2 3.1026835 1.0842022e-19
-1.2586973 -1.0842022e-19 -1.8827214
-0 3.1042726 -0
-1.2592996 -2 -1.9228669
0 3.1416085 -3.6893488e+19
2.0792041 1.0842022e-19 -1.9632387
-0 3.0477283 0
-1.2257291 0 -1.9285259
-2 3.1372342 2
2.0755272 0 -2.0041728
-3.6893488e+19 3.0379028 -1.0842022e-19
-1.2182797 -0 -1.9547971
1.0842022e-19 3.0305402 0
1.9858352 0 -1.9655339
-3.6893488e+19 2.8445768 1.0842022e-19
1.7893587 -1.0842022e-19 -1.9015204
-3.6893488e+19 2.8018768 -1.0842022e-19
1.9509939 -1.0842022e-19 -1.8916168
1.0842022e-19 2.7688651 -0
1.7532451 -2 -1.8832814
1.0842022e-19 2.7305572 0
1.9099809 -1.0842022e-19 -1.876219
2 2.6769216 2
1.7036361 1.0842022e-19 -1.8605522
2 2.6462133 1.0842022e-19
1.8819022 1.0842022e-19 -1.8554081
2 2.6099281 1.0842022e-19
1.671681 2 -1.8437779
1.0842022e-19 2.5872674 1.0842022e-19
1.8495574 0 -1.8401144
-2 2.5617898 -1.0842022e-19
1.6487197 0 -1.8320217
3.6893488e+19 2.5407808 -3.6893488e+19
1.8186059 -1.0842022e-19 -1.8268474
-2 2.5241449 -3.6893488e+19
1.6307635 2 -1.8224378
-1.0842022e-19 2.5109556 -3.6893488e+19
1.7987479 -3.6893488e+19 -1.8208673
0 2.5010841 -3.6893488e+19
1.6145276 1.0842022e-19 -1.8199594
3.6893488e+19 2.4756989 -3.6893488e+19
1.7833635 -2 -1.8169614
-3.6893488e+19 2.4603088 -0
1.5945613 1.0842022e-19 -1.8166804
3.6893488e+19 2.410064 -3.6893488e+19
-0.95272464 1.0842022e-19 -1.8130392
1.0842022e-19 2.3585386 1.0842022e-19
-0.94295841 0 -1.8097035
3.6893488e+19 2.3096008 1.0842022e-19
-0.92986524 1.0842022e-19 -1.802078
-1.0842022e-19 2.2793176 2
-0.91838533 1.0842022e-19 -1.8006859
0 2.2474864 -2
1.6656166 -2 -1.7962923
0 2.2021589 1.0842022e-19
1.6505269 -1.0842022e-19 -1.7937416
-1.0842022e-19 2.1696746 0
1.6397127 0 -1.7938001
0 2.1294894 2
1.6263347 2 -1.7887135
0 3.1984417 0
2.126981 -0 2.6591494
-0 3.1984723 -3.6893488e+19
2.1270065 1.0842022e-19 2.6460271
-3.6893488e+19 3.2013876 -1.0842022e-19
-1.2961146 2 2.6414566
-2 3.2038329 3.6893488e+19
-1.2970415 3.6893488e+19 2.6303484
-0 3.2035363 2
2.1312637 -3.6893488e+19 2.6240168
-2 3.2161241 3.6893488e+19
-1.3017009 -1.0842022e-19 2.6270995
-3.6893488e+19 3.2047882 -2
2.1323161 -0 2.6118321
-3.6893488e+19 3.2706976 3.6893488e+19
-1.3302352 1.0842022e-19 2.6723044
3.6893488e+19 3.2389846 -0
-1.310367 -3.6893488e+19 2.6172862
-2 3.2635722 2
2.1931424 3.6893488e+19 2.6388817
-0 3.2341695 -1.0842022e-19
-1.3085417 -2 2.5997121
-1.0842022e-19 3.2553 -3.6893488e+19
2.1792343 -2 2.6119528
-2 3.1963477 -1.0842022e-19
1.9629021 1.0842022e-19 2.5532856
3.6893488e+19 3.2010584 -3.6893488e+19
1.9651489 2 2.5435543
-2 3.2093673 -3.6893488e+19
2.3058531 -1.0842022e-19 2.5432699
-0 3.1978858 3.6893488e+19
1.9636357 1.0842022e-19 2.5286801
-1.0842022e-19 3.210974 -1.0842022e-19
2.3069229 3.6893488e+19 2.5310841
0 3.2044783 2
1.9667802 -0 2.5198095
-2 3.2092934 -0
2.305804 -0 2.5169263
-2 3.2161953 0
1.9723692 1.0842022e-19 2.5134864
1.0842022e-19 3.1968193 -1.0842022e-19
2.2974985 -2 2.4938474
0 3.2081997 -3.6893488e+19
2.3050756 1.0842022e-19 2.4803252
2 3.2065945 -3.6893488e+19
1.9677895 -2 2.4642525
-3.6893488e+19 3.2074311 -3.6893488e+19
2.304564 3.6893488e+19 2.4535053
-2 3.1169584 3.6893488e+19
-1.2641087 2 2.3417983
2 3.1928842 -1.0842022e-19
2.122309 -0 2.4005542
-2 3.1150417 -0
-1.2633821 0 2.3193936
2 3.2161558 -0
2.1418722 3.6893488e+19 2.3952599
-2 3.1153734 1.0842022e-19
-1.2635078 -3.6893488e+19 2.2990768
1.0842022e-19 3.2280102 1.0842022e-19
2.1518376 3.6893488e+19 2.3783343
-0 3.1140697 2
-1.2630136 -1.0842022e-19 2.2775097
2 3.1286347 -0
2.0682979 1.0842022e-19 2.2783458
-0 3.1130264 -0
-1.2626181 -0 2.2562964
-2 3.2235534 -0
2.1480911 -2 2.3214688
3.6893488e+19 3.117913 -3.6893488e+19
-1.2644705 3.6893488e+19 2.2281659
-2 3.1185348 -0
2.0598075 -1.0842022e-19 2.2089255
3.6893488e+19 3.1201069 -0
-1.2653022 0 2.1894829
-0 3.1150835 1.0842022e-19
2.0569062 -0 2.1636221
0 3.2287323 1.0842022e-19
-1.3064805 -1.0842022e-19 2.2574055
0 3.1166873 -2
2.0582542 -2 2.124294
3.6893488e+19 3.1048656 -1.0842022e-19
1.9192662 -2 2.0721507
-3.6893488e+19 3.1183906 -3.6893488e+19
2.2405593 -1.0842022e-19 2.0647602
0 3.106838 3.6893488e+19
1.920207 -2 2.0340059
0 3.1187363 -1.0842022e-19
2.2410195 -3.6893488e+19 2.023679
2 3.106672 -2
1.9201279 -2 1.9939927
2 3.1201842 -3.6893488e+19
2.2429476 -0 1.9832418
2 3.1015878 2
1.9177028 -3.6893488e+19 1.9512175
-1.0842022e-19 3.1188445 0
2.241164 -3.6893488e+19 1.9410666
-2 3.100168 -2
1.9170256 -1.0842022e-19 1.9112939
0 3.1136885 2
2.2342978 0 1.8976527
1.0842022e-19 3.1032903 3.6893488e+19
1.9185148 1.0842022e-19 1.8715605
-3.6893488e+19 3.112716 -3.6893488e+19
2.2330029 -0 1.8382924
1.0842022e-19 3.1027732 2
1.9182682 -2 1.7924507
-1.0842022e-19 3.1144974 3.6893488e+19
2.2353752 -1.0842022e-19 1.7577223
2 3.1026137 1.0842022e-19
1.9181921 1.0842022e-19 1.6773254
-3.6893488e+19 3.1065588 -3.6893488e+19
-1.2601663 -2 1.5743903
3.6893488e+19 3.1027799 -0
-1.2587337 0 -1.4850814
-2 3.108093 -0
2.0510297 1.0842022e-19 -1.6397233
0 3.1162331 -0
-1.2638336 -3.6893488e+19 -1.7243971
0 3.1051075 2
-1.2596161 -2 -1.8130273
-3.6893488e+19 3.1099622 3.6893488e+19
2.0526011 0 -1.856075
2 3.1026835 1.0842022e-19
-1.2586973 -1.0842022e-19 -1.8827214
-0 3.1042726 -0
-1.2592996 -2 -1.9228669
0 3.1416085 -3.6893488e+19
2.0792041 1.0842022e-19 -1.9632387
-0 3.0477283 0
-1.2257291 0 -1.9285259
-3.6893488e+19 3.0413532 -3.6893488e+19
1.9949251 -2 -1.9412384
-3.6893488e+19 3.0379028 -1.0842022e-19
-1.2182797 -0 -1.9547971
1.0842022e-19 3.0305402 0
1.9858352 0 -1.9655339
-3.6893488e+19 2.8445768 1.0842022e-19
1.7893587 -1.0842022e-19 -1.9015204
-3.6893488e+19 2.8018768 -1.0842022e-19
1.9509939 -1.0842022e-19 -1.8916168
1.0842022e-19 2.7688651 -0
1.7532451 -2 -1.8832814
1.0842022e-19 2.7305572 0
1.9099809 -1.0842022e-19 -1.876219
2 2.6769216 2
1.7036361 1.0842022e-19 -1.8605522
2 2.6462133 1.0842022e-19
1.8819022 1.0842022e-19 -1.8554081
2 2.6099281 1.0842022e-19
1.671681 2 -1.8437779
1.0842022e-19 2.5872674 1.0842022e-19
1.8495574 0 -1.8401144
-2 2.5617898 -1.0842022e-19
1.6487197 0 -1.8320217
3.6893488e+19 2.5407808 -3.6893488e+19
1.8186059 -1.0842022e-19 -1.8268474
-2 2.5241449 -3.6893488e+19
1.6307635 2 -1.8224378
-1.0842022e-19 2.5109556 -3.6893488e+19
1.7987479 -3.6893488e+19 -1.8208673
0 2.5010841 -3.6893488e+19
1.6145276 1.0842022e-19 -1.8199594
3.6893488e+19 2.4756989 -3.6893488e+19
1.7833635 -2 -1.8169614
-3.6893488e+19 2.4603088 -0
1.5945613 1.0842022e-19 -1.8166804
3.6893488e+19 2.410064 -3.6893488e+19
-0.95272464 1.0842022e-19 -1.8130392
1.0842022e-19 2.3585386 1.0842022e-19
-0.94295841 0 -1.8097035
3.6893488e+19 2.3096008 1.0842022e-19
-0.92986524 1.0842022e-19 -1.802078
-1.0842022e-19 2.2793176 2
-0.91838533 1.0842022e-19 -1.8006859
0 2.2474864 -2
1.6656166 -2 -1.7962923
0 2.2021589 1.0842022e-19
1.6505269 -1.0842022e-19 -1.7937416
-1.0842022e-19 2.1696746 0
1.6397127 0 -1.7938001
0 2.1294894 2
1.6263347 2 -1.7887135
0 3.2047708 3.6893488e+19
2.1131921 1.0842022e-19 2.6648684
1.0842022e-19 3.1979229 2
2.1077232 -1.0842022e-19 2.6454887
0 3.2033527 0
2.1120596 1.0842022e-19 2.6238153
-1.0842022e-19 3.2690659 -3.6893488e+19
-1.606424 -3.6893488e+19 2.6853569
2 3.2695177 1.0842022e-19
2.1804881 -2 2.678802
2 3.2680757 0
2.178185 1.0842022e-19 2.6609683
-1.0842022e-19 3.239289 1.0842022e-19
-1.5854192 -0 2.617517
3.6893488e+19 3.2669995 2
2.176466 3.6893488e+19 2.6438854
0 3.2333982 1.0842022e-19
-1.5828857 -1.0842022e-19 2.5991569
-3.6893488e+19 3.2274001 1.0842022e-19
2.3077888 -1.0842022e-19 2.5821657
0 3.196104 2
1.9440745 2 2.5530972
-2 3.2342687 0
1.9606779 0 2.5651445
-2 3.2283237 3.6893488e+19
1.9580915 3.6893488e+19 2.5475967
3.6893488e+19 3.2103338 2
2.2967858 -0 2.5306334
-0 3.2235157 1.0842022e-19
1.9559999 -1.0842022e-19 2.5310905
-3.6893488e+19 3.2102859 0
2.2967551 2 2.5174458
-0 3.218117 -3.6893488e+19
1.9536511 -1.0842022e-19 2.5145526
-3.6893488e+19 3.2263067 -1.0842022e-19
1.957214 1.0842022e-19 2.5056441
1.0842022e-19 3.2068455 3.6893488e+19
1.9487475 -2 2.464473
0 3.2074676 2
2.2949378 2 2.453444
-2 3.2292907 0
-1.5811194 -3.6893488e+19 2.4464309
-0 3.1216421 -3.6893488e+19
2.0468032 3.6893488e+19 2.3360763
-0 3.2281771 2
-1.5806404 1.0842022e-19 2.4183836
-3.6893488e+19 3.2031202 1.0842022e-19
2.1118741 0 2.3841555
-0 3.2371724 0
-1.5845089 3.6893488e+19 2.3987777
-1.0842022e-19 3.2168305 -3.6893488e+19
2.1228232 -2 2.3694363
0 3.2330906 -1.0842022e-19
-1.5827534 0 2.3682346
-1.0842022e-19 3.2228284 0
2.1276135 -3.6893488e+19 2.3475437
-3.6893488e+19 3.234956 -2
-1.5835557 -0 2.3423805
0 3.2200096 2
2.1253622 3.6893488e+19 2.3190203
0 3.2377346 -2
-1.5847505 0 2.3169489
-0 3.1180553 2
2.0439389 1.0842022e-19 2.208267
1.0842022e-19 3.2263746 -1.0842022e-19
-1.5798652 -3.6893488e+19 2.2828364
-1.0842022e-19 3.2157245 1.0842022e-19
2.1219401 -1.0842022e-19 2.2637863
-3.6893488e+19 3.2456288 2
-1.5881456 0 2.2664921
3.6893488e+19 3.2156625 2
2.1218905 -0 2.2252588
3.6893488e+19 3.2159863 2
2.3004301 -1.0842022e-19 2.2003686
-2 3.2216611 -3.6893488e+19
1.9551929 -3.6893488e+19 2.1781471
1.0842022e-19 3.2124069 -3.6893488e+19
2.2981222 -0 2.1450047
1.0842022e-19 3.2188411 0
1.9539661 3.6893488e+19 2.123121
-2 3.1205266 0
2.227771 2 2.0249491
1.0842022e-19 3.1021109 -3.6893488e+19
1.9031833 2 1.9908545
1.0842022e-19 3.2055151 -1.0842022e-19
2.293679 3.6893488e+19 2.0369446
0 3.2212434 -3.6893488e+19
1.9550111 3.6893488e+19 2.0196776
-3.6893488e+19 3.1992774 3.6893488e+19
2.2896576 -1.0842022e-19 1.9826821
2 3.1003504 3.6893488e+19
1.9024175 -3.6893488e+19 1.9113657
0 3.2012672 -1.0842022e-19
2.2909403 2 1.9331692
1.0842022e-19 3.2050049 2
1.9479468 -1.0842022e-19 1.9087615
-1.0842022e-19 3.1144445 2
2.2199285 1.0842022e-19 1.8392628
-0 3.1053295 3.6893488e+19
1.9045837 2 1.7936516
-1.0842022e-19 3.1125822 3.6893488e+19
2.2175272 1.0842022e-19 1.7569966
0 3.1463413 -2
1.9224255 -1.0842022e-19 1.6993005
0 3.2418051 1.0842022e-19
-1.5865011 -1.0842022e-19 1.6375111
-0 3.104059 -3.6893488e+19
2.0327609 -3.6893488e+19 1.2851244
2 3.1053717 3.6893488e+19
-1.5278279 -2 -1.4868097
-3.6893488e+19 3.1313305 2
2.0545409 0 -1.6487703
1.0842022e-19 3.1264493 3.6893488e+19
-1.5368923 2 -1.7306581
2 3.1110821 -3.6893488e+19
2.0383697 1.0842022e-19 -1.7760996
3.6893488e+19 3.1269774 -2
-1.5371194 0 -1.8246084
1.0842022e-19 3.1394057 0
2.0609899 -3.6893488e+19 -1.8749423
-0 3.1036501 -2
-1.5270875 -3.6893488e+19 -1.8830858
-3.6893488e+19 3.1056762 2
-1.5279589 1.0842022e-19 -1.9235529
2 3.1388535 -0
2.0605488 3.6893488e+19 -1.9617102
-3.6893488e+19 3.1079652 0
-1.5289433 -3.6893488e+19 -1.9646467
-1.0842022e-19 3.1371303 3.6893488e+19
2.0591726 -3.6893488e+19 -2.0040703
3.6893488e+19 3.0384321 1.0842022e-19
-1.498081 -0 -1.9551747
-1.0842022e-19 3.0307648 -1.0842022e-19
1.9742264 -0 -1.9656775
0 2.8432927 -2
1.7743471 -2 -1.9009444
-3.6893488e+19 2.8034964 3.6893488e+19
1.9456699 -3.6893488e+19 -1.892346
2 2.7680745 3.6893488e+19
1.733248 0 -1.8828796
3.6893488e+19 2.729044 2
1.9044243 2 -1.8757946
1.0842022e-19 2.6768289 3.6893488e+19
1.685689 2 -1.8604834
-1.0842022e-19 2.6450555 3.6893488e+19
1.8773499 3.6893488e+19 -1.8546855
-3.6893488e+19 2.6099548 -0
1.6565959 2 -1.8437779
-3.6893488e+19 2.5841103 2
1.8404073 -0 -1.838055
-1.0842022e-19 2.5619376 -1.0842022e-19
1.6357063 -0 -1.8321043
2 2.5410914 0
1.8126721 -3.6893488e+19 -1.8270197
-0 2.5250366 -2
1.6143056 -3.6893488e+19 -1.823065
1.0842022e-19 2.5108876 -2
1.7931991 0 -1.8207743
-1.0842022e-19 2.4964845 -1.0842022e-19
1.5909922 -1.0842022e-19 -1.8177384
3.6893488e+19 2.4760489 2
1.7784588 -3.6893488e+19 -1.8170614
-0 2.4595976 0
1.5749449 3.6893488e+19 -1.8163699
0 3.2047708 3.6893488e+19
2.1131921 1.0842022e-19 2.6648684
1.0842022e-19 3.1979229 2
2.1077232 -1.0842022e-19 2.6454887
0 3.2033527 0
2.1120596 1.0842022e-19 2.6238153
-1.0842022e-19 3.2690659 -3.6893488e+19
-1.606424 -3.6893488e+19 2.6853569
0 3.2024922 -2
2.1113722 -0 2.609957
2 3.2680757 0
2.178185 1.0842022e-19 2.6609683
-1.0842022e-19 3.239289 1.0842022e-19
-1.5854192 -0 2.617517
3.6893488e+19 3.2669995 2
2.176466 3.6893488e+19 2.6438854
0 3.2333982 1.0842022e-19
-1.5828857 -1.0842022e-19 2.5991569
-3.6893488e+19 3.2274001 1.0842022e-19
2.3077888 -1.0842022e-19 2.5821657
0 3.196104 2
1.9440745 2 2.5530972
1.0842022e-19 3.2004755 3.6893488e+19
1.9459763 0 2.543153
-1.0842022e-19 3.1961288 2
1.9440854 2 2.5275662
3.6893488e+19 3.2103338 2
2.2967858 -0 2.5306334
-3.6893488e+19 3.2043884 -3.6893488e+19
1.9476786 -2 2.5197361
-3.6893488e+19 3.2102859 0
2.2967551 2 2.5174458
-0 3.218117 -3.6893488e+19
1.9536511 -1.0842022e-19 2.5145526
-3.6893488e+19 3.2263067 -1.0842022e-19
1.957214 1.0842022e-19 2.5056441
1.0842022e-19 3.2068455 3.6893488e+19
1.9487475 -2 2.464473
0 3.2074676 2
2.2949378 2 2.453444
-3.6893488e+19 3.1186326 -2
-1.5335307 -1.0842022e-19 2.3433595
-0 3.1216421 -3.6893488e+19
2.0468032 3.6893488e+19 2.3360763
-1.0842022e-19 3.1152573 0
-1.5320792 0 2.3195839
-1.0842022e-19 3.1208081 3.6893488e+19
2.0461373 -1.0842022e-19 2.3143711
0 3.116926 3.6893488e+19
-1.5327967 -0 2.3003492
-2 3.1214454 2
2.0466464 -2 2.2939513
0 3.1130102 0
-1.5311128 0 2.2767036
1.0842022e-19 3.1200762 2
2.0455527 1.0842022e-19 2.2720177
0 3.1152658 3.6893488e+19
-1.5320828 2 2.2578788
0 3.2200096 2
2.1253622 3.6893488e+19 2.3190203
-1.0842022e-19 3.1170077 -3.6893488e+19
-1.5328319 -0 2.2269919
-0 3.1180553 2
2.0439389 1.0842022e-19 2.208267
1.0842022e-19 3.2263746 -1.0842022e-19
-1.5798652 -3.6893488e+19 2.2828364
-1.0842022e-19 3.1179967 0
2.0438921 -1.0842022e-19 2.1668668
1.0842022e-19 3.2280438 1.0842022e-19
-1.5805831 -1.0842022e-19 2.2570367
-1.0842022e-19 3.112874 -2
2.0398009 1.0842022e-19 2.1203523
-3.6893488e+19 3.1192567 -2
2.2261336 -1.0842022e-19 2.1068811
0 3.1072936 -2
1.9054381 0 2.0743308
2 3.1163857 3.6893488e+19
2.2224314 -2 2.0629799
-3.6893488e+19 3.109298 3.6893488e+19
1.9063102 1.0842022e-19 2.0359428
-2 3.1205266 0
2.227771 2 2.0249491
1.0842022e-19 3.1021109 -3.6893488e+19
1.9031833 2 1.9908545
-1.0842022e-19 3.1194854 -2
2.2264283 -0 1.9827516
-1.0842022e-19 3.0998969 -2
1.9022202 2 1.950235
-1.0842022e-19 3.1195152 1.0842022e-19
2.2264669 -2 1.941373
2 3.1003504 3.6893488e+19
1.9024175 -3.6893488e+19 1.9113657
3.6893488e+19 3.1150119 -3.6893488e+19
2.22066 0 1.8981583
-0 3.0999749 1.0842022e-19
1.9022542 -3.6893488e+19 1.8692284
-1.0842022e-19 3.1144445 2
2.2199285 1.0842022e-19 1.8392628
-0 3.1053295 3.6893488e+19
1.9045837 2 1.7936516
-1.0842022e-19 3.1125822 3.6893488e+19
2.2175272 1.0842022e-19 1.7569966
-3.6893488e+19 3.1060448 0
1.9048949 -2 1.6790375
-3.6893488e+19 3.1061194 1.0842022e-19
-1.5281495 3.6893488e+19 1.5741457
-0 3.104059 -3.6893488e+19
2.0327609 -3.6893488e+19 1.2851244
2 3.1053717 3.6893488e+19
-1.5278279 -2 -1.4868097
1.0842022e-19 3.108547 0
2.0363452 0 -1.6398816
1.0842022e-19 3.1264493 3.6893488e+19
-1.5368923 2 -1.7306581
2 3.1110821 -3.6893488e+19
2.0383697 1.0842022e-19 -1.7760996
2 3.1058242 -3.6893488e+19
-1.5280224 -2 -1.8134078
2 3.1097922 3.6893488e+19
2.0373397 -3.6893488e+19 -1.8559347
0 3.0746896 -1.0842022e-19
-1.5146329 -2 -1.8693749
-1.0842022e-19 3.0746596 -3.6893488e+19
-1.5146201 -1.0842022e-19 -1.9084182
2 3.1388535 -0
2.0605488 3.6893488e+19 -1.9617102
-2 3.0463839 3.6893488e+19
-1.5024601 -0 -1.9277207
0 3.0422969 0
1.9834361 -0 -1.9418319
3.6893488e+19 3.0384321 1.0842022e-19
-1.498081 -0 -1.9551747
-1.0842022e-19 3.0307648 -1.0842022e-19
1.9742264 -0 -1.9656775
0 2.8432927 -2
1.7743471 -2 -1.9009444
-3.6893488e+19 2.8034964 3.6893488e+19
1.9456699 -3.6893488e+19 -1.892346
2 2.7680745 3.6893488e+19
1.733248 0 -1.8828796
3.6893488e+19 2.729044 2
1.9044243 2 -1.8757946
1.0842022e-19 2.6768289 3.6893488e+19
1.685689 2 -1.8604834
-1.0842022e-19 2.6450555 3.6893488e+19
1.8773499 3.6893488e+19 -1.8546855
-3.6893488e+19 2.6099548 -0
1.6565959 2 -1.8437779
-3.6893488e+19 2.5841103 2
1.8404073 -0 -1.838055
-1.0842022e-19 2.5619376 -1.0842022e-19
1.6357063 -0 -1.8321043
2 2.5410914 0
1.8126721 -3.6893488e+19 -1.8270197
-0 2.5250366 -2
1.6143056 -3.6893488e+19 -1.823065
1.0842022e-19 2.5108876 -2
1.7931991 0 -1.8207743
-1.0842022e-19 2.4964845 -1.0842022e-19
1.5909922 -1.0842022e-19 -1.8177384
3.6893488e+19 2.4760489 2
1.7784588 -3.6893488e+19 -1.8170614
-0 2.4595976 0
1.5749449 3.6893488e+19 -1.8163699
-3.6893488e+19 3.1924014 3.6893488e+19
2.084729 -1.0842022e-19 2.640564
-1.0842022e-19 3.1998482 3.6893488e+19
2.0903633 2 2.6339889
1.0842022e-19 3.2798884 1.0842022e-19
2.1735373 -2 2.7115092
1.0842022e-19 3.269078 -3.6893488e+19
-1.705935 0 2.6853819
1.0842022e-19 3.2027335 -1.0842022e-19
2.0925462 3.6893488e+19 2.6101031
0 3.2688611 -1.0842022e-19
2.1568501 3.6893488e+19 2.6621196
1.0842022e-19 3.2398667 -2
-1.6874563 0 2.6179554
-3.6893488e+19 3.2673097 2
2.1545029 -1.0842022e-19 2.6442928
-0 3.23862 1.0842022e-19
-1.6869793 -3.6893488e+19 2.6029329
3.6893488e+19 3.2279196 2
1.9378728 1.0842022e-19 2.5746918
-0 3.2213035 1.0842022e-19
2.29392 3.6893488e+19 2.5642924
-2 3.2344248 3.6893488e+19
1.94043 -1.0842022e-19 2.5652246
0 3.2214382 1.0842022e-19
2.294004 -2 2.550849
0 3.2286959 -3.6893488e+19
1.9381778 -0 2.5478079
-3.6893488e+19 3.222219 3.6893488e+19
1.9356319 3.6893488e+19 2.5303018
3.6893488e+19 3.2108133 -3.6893488e+19
2.2873778 1.0842022e-19 2.5176966
2 3.2189221 1.0842022e-19
1.9343358 -1.0842022e-19 2.5149896
0 3.2247601 1.0842022e-19
1.9366307 -0 2.5047965
2 3.2036843 -3.6893488e+19
1.9283457 -0 2.4612279
-0 3.207377 -0
2.2852349 1.0842022e-19 2.4532602
-3.6893488e+19 3.2292538 1.0842022e-19
-1.6833951 -0 2.4464021
2 3.1214724 -1.0842022e-19
2.0310626 -3.6893488e+19 2.3358798
1.0842022e-19 3.2289169 1.0842022e-19
-1.6832662 2 2.4190359
-1.0842022e-19 3.1208553 -2
2.0305958 -1.0842022e-19 2.3143711
-0 3.235239 -3.6893488e+19
-1.6856854 1.0842022e-19 2.3972001
1.0842022e-19 3.2152126 -2
2.1019881 -1.0842022e-19 2.368109
-3.6893488e+19 3.2337689 0
-1.685123 1.0842022e-19 2.3687563
3.6893488e+19 3.2166407 0
2.1030688 2 2.342952
-3.6893488e+19 3.2361019 -3.6893488e+19
-1.6860156 2 2.3431938
1.0842022e-19 3.216337 0
2.102839 -3.6893488e+19 2.3164871
-2 3.2376661 2
-1.6866143 2 2.3169084
0 3.2157297 -2
2.1023793 -3.6893488e+19 2.2899036
-3.6893488e+19 3.2280827 -3.6893488e+19
-1.6829469 2 2.2838542
1.0842022e-19 3.2163444 3.6893488e+19
2.1028445 -3.6893488e+19 2.2641037
0 3.2447188 0
-1.6893131 -3.6893488e+19 2.2660058
2 3.2133231 -1.0842022e-19
2.1005585 -1.0842022e-19 2.222811
-3.6893488e+19 3.2150567 -1.0842022e-19
2.2900243 2 2.1993771
1.0842022e-19 3.2212877 -3.6893488e+19
1.9352657 1.0842022e-19 2.1777792
3.6893488e+19 3.2018316 3.6893488e+19
2.2817767 1.0842022e-19 2.135891
-1.0842022e-19 3.2214937 -0
1.9353467 -0 2.1252067
2 3.2028909 0
2.2824373 2 2.0859976
-3.6893488e+19 3.2263274 3.6893488e+19
1.9372469 2 2.0758004
3.6893488e+19 3.2055786 3.6893488e+19
2.2841134 1.0842022e-19 2.0369251
0 3.2201202 -1.0842022e-19
1.9348067 -3.6893488e+19 2.0190165
-3.6893488e+19 3.1994019 2
2.2802615 0 1.9826983
-3.6893488e+19 3.0989687 3.6893488e+19
1.8871815 -3.6893488e+19 1.9107186
-3.6893488e+19 3.1981528 0
2.2794826 -1.0842022e-19 1.9318674
1.0842022e-19 3.1006234 1.0842022e-19
1.8878319 3.6893488e+19 1.8696643
-3.6893488e+19 3.1891873 0
2.2738914 0 1.8790759
-2 3.1137478 3.6893488e+19
2.2036898 1.0842022e-19 1.7573935
1.0842022e-19 3.1358404 2
1.9016759 2 1.694007
3.6893488e+19 3.2448301 -2
-1.6893556 2 1.6383587
-2 3.1065075 2
2.0197401 2 1.2862114
2 3.1081486 -2
-1.6370519 -1.0842022e-19 -1.4886631
1.0842022e-19 3.1400881 2
2.0451477 -2 -1.6521674
1.0842022e-19 3.0980716 -3.6893488e+19
-1.6331958 0 -1.713273
3.6893488e+19 3.1384077 -2
2.0438762 -0 -1.7875136
-1.0842022e-19 3.1092255 0
-1.6374642 2 -1.8152112
1.0842022e-19 3.1093075 -1.0842022e-19
2.0218585 -1.0842022e-19 -1.8555943
-2 3.1040518 2
-1.6354843 -3.6893488e+19 -1.8832387
-1.0842022e-19 3.1390169 1.0842022e-19
2.0443373 -1.0842022e-19 -1.9182974
2 3.1037354 2
-1.6353632 2 -1.9226079
-3.6893488e+19 3.1347537 2
2.0411117 -1.0842022e-19 -1.9594514
-1.0842022e-19 3.105088 3.6893488e+19
-1.6358808 -1.0842022e-19 -1.962924
-1.0842022e-19 3.1381776 -2
2.0437021 -3.6893488e+19 -2.0047252
0 3.0388033 3.6893488e+19
-1.5960315 0 -1.9554412
1.0842022e-19 3.030863 1.0842022e-19
1.9625061 2 -1.9657254
1.0842022e-19 2.8471839 2
1.7614799 -0 -1.902645
2 2.800947 -3.6893488e+19
1.9376801 -3.6893488e+19 -1.8911209
3.6893488e+19 2.7690904 -0
1.7115618 -0 -1.8833741
-1.0842022e-19 2.7297652 -0
1.8995985 -1.0842022e-19 -1.8759578
-0 2.676733 2
1.6677511 2 -1.8604146
-1.0842022e-19 2.6447647 -2
1.8711879 0 -1.8544688
-1.0842022e-19 2.6114745 3.6893488e+19
1.6420976 1.0842022e-19 -1.8446866
1.0842022e-19 2.5844283 2
1.8335602 3.6893488e+19 -1.8382134
2 2.5619588 -0
1.6202654 -0 -1.8321043
-2 2.5411518 0
1.8065717 -3.6893488e+19 -1.8270197
-2 2.5254285 3.6893488e+19
1.591545 2 -1.823334
-2 2.5110657 -1.0842022e-19
1.787809 -3.6893488e+19 -1.8208673
-3.6893488e+19 2.4965181 3.6893488e+19
1.570184 -1.0842022e-19 -1.8177384
2 2.4781318 -2
1.7740891 -3.6893488e+19 -1.8178617
1.0842022e-19 2.4596288 3.6893488e+19
1.5556825 3.6893488e+19 -1.8163699
3.6893488e+19 2.4070764 -0
-1.2807751 1.0842022e-19 -1.8116724
-2 2.3575404 -2
-1.2618192 -3.6893488e+19 -1.8091924
-1.0842022e-19 2.3105853 -0
-1.2377021 -2 -1.8026441
0 2.2780781 1.0842022e-19
-1.2128232 -2 -1.7999091
2 2.2491703 2
1.6556493 2 -1.7967997
0 2.20333 -1.0842022e-19
1.6413555 -3.6893488e+19 -1.7941072
-2 2.1678967 1.0842022e-19
1.630307 2 -1.793014
-1.0842022e-19 2.1277001 1.0842022e-19
1.610546 3.6893488e+19 -1.7878728
-3.6893488e+19 3.1924014 3.6893488e+19
2.084729 -1.0842022e-19 2.640564
-1.0842022e-19 3.1998482 3.6893488e+19
2.0903633 2 2.6339889
-3.6893488e+19 3.2022178 -1.0842022e-19
2.0921562 -2 2.6228321
1.0842022e-19 3.269078 -3.6893488e+19
-1.705935 0 2.6853819
1.0842022e-19 3.2027335 -1.0842022e-19
2.0925462 3.6893488e+19 2.6101031
0 3.2688611 -1.0842022e-19
2.1568501 3.6893488e+19 2.6621196
1.0842022e-19 3.2398667 -2
-1.6874563 0 2.6179554
-3.6893488e+19 3.2673097 2
2.1545029 -1.0842022e-19 2.6442928
-0 3.23862 1.0842022e-19
-1.6869793 -3.6893488e+19 2.6029329
-3.6893488e+19 3.1966269 -1.0842022e-19
1.9255714 3.6893488e+19 2.553432
-0 3.2213035 1.0842022e-19
2.29392 3.6893488e+19 2.5642924
-0 3.197484 -3.6893488e+19
1.9259083 3.6893488e+19 2.5411866
0 3.2214382 1.0842022e-19
2.294004 -2 2.550849
2 3.1949861 -0
1.9249264 3.6893488e+19 2.5268364
0 3.2053156 -3.6893488e+19
1.9289869 0 2.5202682
3.6893488e+19 3.2108133 -3.6893488e+19
2.2873778 1.0842022e-19 2.5176966
2 3.2189221 1.0842022e-19
1.9343358 -1.0842022e-19 2.5149896
0 3.2247601 1.0842022e-19
1.9366307 -0 2.5047965
2 3.2036843 -3.6893488e+19
1.9283457 -0 2.4612279
-0 3.207377 -0
2.2852349 1.0842022e-19 2.4532602
-1.0842022e-19 3.1156173 -3.6893488e+19
-1.63991 -2 2.340555
2 3.1214724 -1.0842022e-19
2.0310626 -3.6893488e+19 2.3358798
0 3.1200368 -0
-1.6416012 2 2.3237696
-1.0842022e-19 3.1208553 -2
2.0305958 -1.0842022e-19 2.3143711
2 3.1183515 -0
-1.6409563 1.0842022e-19 2.3015199
3.6893488e+19 3.1221452 -3.6893488e+19
2.0315716 -2 2.2944674
0 3.1150589 0
-1.6396964 2 2.2782686
3.6893488e+19 3.1193461 1.0842022e-19
2.029454 -1.0842022e-19 2.2714465
-3.6893488e+19 3.1167865 2
-1.6403575 1.0842022e-19 2.2589557
-2 3.1203821 -3.6893488e+19
2.0302377 -0 2.2513659
-2 3.2376661 2
-1.6866143 2 2.3169084
-1.0842022e-19 3.1186624 2
2.0289366 2 2.2089643
1.0842022e-19 3.1161115 1.0842022e-19
-1.6400992 -1.0842022e-19 2.184746
0 3.1203167 0
2.0301883 0 2.1694415
1.0842022e-19 3.1121764 1.0842022e-19
-1.6385933 -3.6893488e+19 2.139478
-0 3.1121726 1.0842022e-19
2.0240264 0 2.1195893
3.6893488e+19 3.1314933 -2
2.2258229 -3.6893488e+19 2.1186309
2 3.1065068 -1.0842022e-19
1.8901447 -1.0842022e-19 2.0735946
-1.0842022e-19 3.1309907 -3.6893488e+19
2.2251961 3.6893488e+19 2.0753887
2 3.1054223 1.0842022e-19
1.8897184 0 2.0328391
-2 3.1173046 1.0842022e-19
2.2081261 -3.6893488e+19 2.0225015
3.6893488e+19 3.1038513 -3.6893488e+19
1.8891008 0 1.9920287
1.0842022e-19 3.1200292 0
2.2115242 -2 1.9830457
2 3.1004515 3.6893488e+19
1.8877643 0 1.9505388
2 3.1212735 -2
2.2130761 -0 1.9422437
-3.6893488e+19 3.0989687 3.6893488e+19
1.8871815 -3.6893488e+19 1.9107186
3.6893488e+19 3.1158664 0
2.2063322 -2 1.8984742
1.0842022e-19 3.1006234 1.0842022e-19
1.8878319 3.6893488e+19 1.8696643
1.0842022e-19 3.1152368 -2
2.2055466 -2 1.8396839
-2 3.1137478 3.6893488e+19
2.2036898 1.0842022e-19 1.7573935
1.0842022e-19 3.0983841 0
1.8869517 1.0842022e-19 1.6751734
-3.6893488e+19 3.0988965 -0
-1.6335115 -3.6893488e+19 1.5701089
-2 3.1065075 2
2.0197401 2 1.2862114
2 3.1081486 -2
-1.6370519 -1.0842022e-19 -1.4886631
-1.0842022e-19 3.1077809 2
2.0207036 3.6893488e+19 -1.639565
1.0842022e-19 3.0980716 -3.6893488e+19
-1.6331958 0 -1.713273
-2 3.1109095 -2
2.0230706 3.6893488e+19 -1.7760081
-1.0842022e-19 3.1092255 0
-1.6374642 2 -1.8152112
1.0842022e-19 3.1093075 -1.0842022e-19
2.0218585 -1.0842022e-19 -1.8555943
-3.6893488e+19 3.0741231 -0
-1.6230632 -0 -1.8689517
2 3.1099663 1.0842022e-19
2.022357 -2 -1.9057294
-2 3.0735312 -2
-1.6226101 0 -1.9078696
-3.6893488e+19 3.1347537 2
2.0411117 -1.0842022e-19 -1.9594514
3.6893488e+19 3.0381675 -2
-1.5955449 0 -1.922796
-3.6893488e+19 3.0449226 -2
1.9731438 3.6893488e+19 -1.9435307
0 3.0388033 3.6893488e+19
-1.5960315 0 -1.9554412
1.0842022e-19 3.030863 1.0842022e-19
1.9625061 2 -1.9657254
1.0842022e-19 2.8471839 2
1.7614799 -0 -1.902645
2 2.800947 -3.6893488e+19
1.9376801 -3.6893488e+19 -1.8911209
3.6893488e+19 2.7690904 -0
1.7115618 -0 -1.8833741
-1.0842022e-19 2.7297652 -0
1.8995985 -1.0842022e-19 -1.8759578
-0 2.676733 2
1.6677511 2 -1.8604146
-1.0842022e-19 2.6447647 -2
1.8711879 0 -1.8544688
-1.0842022e-19 2.6114745 3.6893488e+19
1.6420976 1.0842022e-19 -1.8446866
1.0842022e-19 2.5844283 2
1.8335602 3.6893488e+19 -1.8382134
2 2.5619588 -0
1.6202654 -0 -1.8321043
-2 2.5411518 0
1.8065717 -3.6893488e+19 -1.8270197
-2 2.5254285 3.6893488e+19
1.591545 2 -1.823334
-2 2.5110657 -1.0842022e-19
1.787809 -3.6893488e+19 -1.8208673
-3.6893488e+19 2.4965181 3.6893488e+19
1.570184 -1.0842022e-19 -1.8177384
2 2.4781318 -2
1.7740891 -3.6893488e+19 -1.8178617
1.0842022e-19 2.4596288 3.6893488e+19
1.5556825 3.6893488e+19 -1.8163699
3.6893488e+19 2.4070764 -0
-1.2807751 1.0842022e-19 -1.8116724
-2 2.3575404 -2
-1.2618192 -3.6893488e+19 -1.8091924
-1.0842022e-19 2.3105853 -0
-1.2377021 -2 -1.8026441
0 2.2780781 1.0842022e-19
-1.2128232 -2 -1.7999091
2 2.2491703 2
1.6556493 2 -1.7967997
0 2.20333 -1.0842022e-19
1.6413555 -3.6893488e+19 -1.7941072
-2 2.1678967 1.0842022e-19
1.630307 2 -1.793014
-1.0842022e-19 2.1277001 1.0842022e-19
1.610546 3.6893488e+19 -1.7878728
-0 3.1933694 1.0842022e-19
2.0668309 -2 2.6413713
2 3.2000551 -1.0842022e-19
2.0716083 -2 2.634119
-3.6893488e+19 3.2206378 2
-1.7545203 2 2.6444468
-2 3.1992757 0
2.0710516 -3.6893488e+19 2.6203618
-1.0842022e-19 3.2022061 0
2.0731456 -1.0842022e-19 2.6096404
-2 3.2698438 -2
2.1356597 -2 2.6635764
3.6893488e+19 3.2456005 -1.0842022e-19
-1.76139 0 2.6222694
-2 3.2705042 -1.0842022e-19
2.1366036 0 2.648957
-1.0842022e-19 3.2713666 -3.6893488e+19
-1.774361 2 2.6420269
-0 3.2657247 -0
2.3202212 0 2.6196213
3.6893488e+19 3.226655 2
1.9173779 -3.6893488e+19 2.5738127
-0 3.2232733 -3.6893488e+19
2.2851675 1.0842022e-19 2.5655427
2 3.2344236 0
1.9201059 -0 2.5652046
-2 3.2229176 0
2.2849534 -3.6893488e+19 2.5517325
0 3.2292807 -0
1.9182999 3.6893488e+19 2.5481536
-2 3.220288 -1.0842022e-19
2.2833688 2 2.5365849
-3.6893488e+19 3.2228658 0
1.9160475 1.0842022e-19 2.5306687
-1.0842022e-19 3.2107208 -1.0842022e-19
2.2776041 3.6893488e+19 2.5175891
3.6893488e+19 3.2239313 2
1.9164215 0 2.5178041
0 3.2230859 -1.0842022e-19
1.9161246 0 2.5038826
1.0842022e-19 3.1994627 2
2.2708206 -3.6893488e+19 2.4708726
2 3.203619 -2
1.9092888 0 2.4611335
1.0842022e-19 3.2049329 0
2.2741168 2 2.4507475
0 3.2309351 -2
1.9188808 2 2.4616678
2 3.2281895 2
-1.7565985 -0 2.4454191
-2 3.1212068 -0
2.0152636 -0 2.3355994
-0 3.2311442 -1.0842022e-19
-1.7574116 2 2.4209929
3.6893488e+19 3.1203723 1.0842022e-19
2.0146673 3.6893488e+19 2.3139238
0 3.2325253 -2
-1.7577916 3.6893488e+19 2.3949862
-2 3.218251 -0
2.0846112 -2 2.3704686
2 3.2329822 -0
-1.7579174 -2 2.3681633
3.6893488e+19 3.2168834 2
2.0836339 1.0842022e-19 2.3430891
0 3.2387075 -2
-1.759493 1.0842022e-19 2.3450398
-3.6893488e+19 3.2169218 -1.0842022e-19
2.0836613 0 2.3168461
-3.6893488e+19 3.2368782 0
-1.7589897 -3.6893488e+19 2.3164022
-3.6893488e+19 3.1161544 -1.0842022e-19
2.0116532 -2 2.2057872
0 3.2399781 -3.6893488e+19
-1.7598426 2 2.2909224
3.6893488e+19 3.2172413 -3.6893488e+19
2.0838895 0 2.26458
-2 3.2450833 0
-1.7612478 -1.0842022e-19 2.266207
-1.0842022e-19 3.2162452 -0
2.0831778 -1.0842022e-19 2.2257357
-1.0842022e-19 3.221029 2
2.2838154 1.0842022e-19 2.2050567
-3.6893488e+19 3.218509 1.0842022e-19
1.9145175 0 2.1752312
-2 3.2009888 -0
2.2717402 -2 2.1350937
1.0842022e-19 3.2197127 -0
1.9149401 1.0842022e-19 2.1237667
3.6893488e+19 3.2028573 -0
2.272866 -3.6893488e+19 2.0859051
-3.6893488e+19 3.2306328 -3.6893488e+19
1.9187747 -0 2.0787251
-0 3.2037706 -3.6893488e+19
2.2734163 -2 2.0357289
-1.0842022e-19 3.2198052 3.6893488e+19
1.9149727 -1.0842022e-19 2.01882
3.6893488e+19 3.2162485 -0
2.2809348 -1.0842022e-19 1.9913728
0 3.0994899 -1.0842022e-19
1.8704475 2 1.9109488
-0 3.1967788 -1.0842022e-19
2.2692034 3.6893488e+19 1.9312733
1.0842022e-19 3.0987706 0
1.8699424 -3.6893488e+19 1.8683566
1.0842022e-19 3.1852565 -2
2.2622607 1.0842022e-19 1.8778949
1.0842022e-19 3.0956287 2
1.8677359 0 1.7890261
-3.6893488e+19 3.1827462 0
2.2607484 1.0842022e-19 1.7824752
-1.0842022e-19 3.1006858 0
1.8712876 1.0842022e-19 1.6763201
-2 3.2452581 -0
-1.7612958 3.6893488e+19 1.638481
2 3.1031477 0
2.0023587 -2 1.2846727
3.6893488e+19 3.0972984 3.6893488e+19
-1.6911541 2 -1.4814372
-3.6893488e+19 3.1044836 2
2.0033133 1.0842022e-19 -1.6382622
-2 3.0947213 1.0842022e-19
-1.6897358 3.6893488e+19 -1.7112243
3.6893488e+19 3.1358948 -2
2.0257595 2 -1.7864428
-0 3.1064067 -1.0842022e-19
-1.6961673 -1.0842022e-19 -1.8137221
-1.0842022e-19 3.1089761 3.6893488e+19
2.0065236 3.6893488e+19 -1.855354
2 3.1018271 0
-1.6936468 -2 -1.882404
-1.0842022e-19 3.1368792 -0
2.026463 -1.0842022e-19 -1.9173524
-2 3.1031039 -0
-1.6943495 1.0842022e-19 -1.9223031
3.6893488e+19 3.1348002 0
2.0249774 -1.0842022e-19 -1.9594514
-3.6893488e+19 3.1043005 -0
-1.6950082 -2 -1.9624559
-1.0842022e-19 3.1361969 3.6893488e+19
2.0259755 0 -2.0033951
1.0842022e-19 3.0421693 -3.6893488e+19
-1.6608108 2 -1.9578396
-1.0842022e-19 3.0326118 2
1.9519539 3.6893488e+19 -1.9670426
-2 2.8444598 2
1.741915 -0 -1.9014381
-2 2.8026249 2
1.9323447 -3.6893488e+19 -1.8918793
-2 2.7660508 -1.0842022e-19
1.6868482 -0 -1.8818595
-0 2.7251351 1.0842022e-19
1.8931447 -1.0842022e-19 -1.8744345
-1.0842022e-19 2.6768837 -1.0842022e-19
1.6499007 2 -1.8604834
2 2.6448441 0
1.8629106 0 -1.8544688
3.6893488e+19 2.611372 -2
1.6268961 0 -1.8446109
-2 2.5843711 1.0842022e-19
1.8264731 0 -1.8381343
2 2.5627251 -2
1.5946275 -2 -1.8326004
1.0842022e-19 2.5412104 -2
1.8004668 -3.6893488e+19 -1.8270197
1.0842022e-19 2.525321 -1.0842022e-19
1.5683585 -0 -1.8232443
2 2.5112424 -1.0842022e-19
1.7824098 -2 -1.8209604
3.6893488e+19 2.4975436 1.0842022e-19
1.549713 -1.0842022e-19 -1.8181247
3.6893488e+19 2.4809563 -2
1.7698984 3.6893488e+19 -1.8189621
-3.6893488e+19 2.459408 -3.6893488e+19
1.5363216 1.0842022e-19 -1.8162664
-0 3.1933694 1.0842022e-19
2.0668309 -2 2.6413713
2 3.2000551 -1.0842022e-19
2.0716083 -2 2.634119
