# .PCD v0.7 - Point Cloud Data file format
VERSION 0.7
FIELDS x y z
SIZE 4 4 4
TYPE F F F
COUNT 1 1 1
WIDTH 1734
HEIGHT 1
VIEWPOINT 0 0 0 1 0 0 0
POINTS 1734
DATA ascii
2.8473454 -2 2.5466235
2 3.0532107 3.6893488e+19
2.7630761 -0 2.4537058
-0 3.1277313 3.6893488e+19
2.8766932 -1.0842022e-19 2.533648
0 3.0554049 0
2.7649798 -2 2.4378972
1.0842022e-19 3.0433426 -2
2.7925363 2 2.4217842
-2 3.0535383 0
2.7633605 2 2.4162934
-1.0842022e-19 3.045157 3.6893488e+19
2.7943459 3.6893488e+19 2.4055429
3.6893488e+19 3.0536654 1.0842022e-19
2.7634706 -3.6893488e+19 2.3975694
2 3.0493953 1.0842022e-19
2.7985725 -2 2.3922899
1.0842022e-19 3.050173 -2
2.7604403 -0 2.3743556
1.0842022e-19 3.1333861 -0
2.832639 -3.6893488e+19 2.454376
2 3.0501721 1.0842022e-19
2.7993472 1.0842022e-19 2.3551679
1.0842022e-19 3.0533867 -0
2.7632287 0 2.3407955
-1.0842022e-19 3.0481663 -1.0842022e-19
2.7973468 0 2.3339036
1.0842022e-19 3.0527411 0
2.7626686 3.6893488e+19 2.3213794
-3.6893488e+19 3.0396976 2
2.7111866 1.0842022e-19 2.2948334
-1.0842022e-19 3.1237431 0
2.8446281 -1.0842022e-19 2.3775258
-1.0842022e-19 3.0360625 3.6893488e+19
2.7053995 3.6893488e+19 2.2737358
-2 3.1992004 0
2.9142072 2 2.4258232
-0 3.0454319 -2
2.720315 2 2.2647614
-0 3.202915 0
2.9176323 -1.0842022e-19 2.4012263
-2 3.0422866 0
2.7153082 2 2.2384462
2 3.1227775 1.0842022e-19
2.8437376 -3.6893488e+19 2.3071284
-1.0842022e-19 3.1455703 3.6893488e+19
2.8148656 -1.0842022e-19 2.3065691
-3.6893488e+19 3.0587175 -3.6893488e+19
2.784668 -2 2.2204721
0 3.0390658 2
2.7101805 0 2.1630976
-3.6893488e+19 3.0572836 2
2.7833459 0 2.1802897
-3.6893488e+19 3.0304246 -1.0842022e-19
2.6964242 1.0842022e-19 2.1168687
-2 3.058239 0
2.7842269 0 2.1435468
1.0842022e-19 3.0306244 -0
2.6967421 3.6893488e+19 2.0832682
-1.0842022e-19 3.0569713 1.0842022e-19
2.7830579 -2 2.1040423
-1.0842022e-19 3.0342505 2
2.7432513 -3.6893488e+19 2.0398376
3.6893488e+19 3.0582535 1.0842022e-19
2.8074064 1.0842022e-19 2.0529368
0 3.0284617 -2
2.7332058 -2 1.9999737
-3.6893488e+19 3.0483916 2
2.7975717 -0 2.0059528
-3.6893488e+19 3.0288124 -2
2.7338147 -3.6893488e+19 1.9663155
-1.0842022e-19 3.0489872 2
2.7981656 2 1.9691222
0 3.0301242 -2
2.7360907 0 1.9332148
0 3.047668 -3.6893488e+19
2.7968497 -0 1.9310069
-0 3.032311 3.6893488e+19
2.7398856 1.0842022e-19 1.900285
2 3.0422239 -2
2.7914207 -3.6893488e+19 1.8912377
-3.6893488e+19 3.0342844 0
2.7433102 -2 1.8584864
2 3.0366518 0
2.7858641 3.6893488e+19 1.8306032
2 3.0335217 -2
2.7419863 3.6893488e+19 1.788897
1.0842022e-19 3.0345597 0
2.7837777 -2 1.7581441
3.6893488e+19 3.0347228 3.6893488e+19
2.7440708 1.0842022e-19 1.6906778
0 3.0304437 -0
2.6964543 -0 1.6112231
-3.6893488e+19 3.0480068 3.6893488e+19
2.7747917 2 1.470734
-3.6893488e+19 3.0330617 3.6893488e+19
2.7006226 -2 -1.258782
-3.6893488e+19 3.0494239 3.6893488e+19
2.7760985 -2 -1.5582858
2 3.0377278 -1.0842022e-19
2.7080505 -2 -1.6551508
1.0842022e-19 3.0480173 3.6893488e+19
2.7748013 2 -1.7376477
1.0842022e-19 3.0354407 -2
2.7044094 3.6893488e+19 -1.7705067
2 3.0482702 -2
2.7750344 1.0842022e-19 -1.8172017
2 3.0414131 3.6893488e+19
2.7139173 0 -1.8435344
1.0842022e-19 3.0457284 1.0842022e-19
2.7726908 0 -1.8816246
0 3.0393302 -1.0842022e-19
2.7106013 -0 -1.8932449
1.0842022e-19 2.9943326 -3.6893488e+19
2.7058232 -1.0842022e-19 -1.8903897
-3.6893488e+19 2.969022 -3.6893488e+19
2.6233315 1.0842022e-19 -1.8942888
2 2.9666462 2
2.6802938 1.0842022e-19 -1.9112234
-0 2.9307187 -3.6893488e+19
2.5928428 2 -1.9083956
-1.0842022e-19 2.84302 -0
2.5662982 -1.0842022e-19 -1.8896128
-0 2.8026123 2
2.5517807 3.6893488e+19 -1.8844379
-3.6893488e+19 2.7851927 3.6893488e+19
2.4948864 1.0842022e-19 -1.8822858
1.0842022e-19 2.7360554 2
2.4847195 -1.0842022e-19 -1.8713063
-3.6893488e+19 2.7027171 -2
2.3927929 -0 -1.8626035
-0 2.6518991 -2
2.4007945 -3.6893488e+19 -1.853799
-2 2.6233401 2
2.3239229 -3.6893488e+19 -1.8437288
1.0842022e-19 2.5859866 2
2.3350632 0 -1.8373057
1.0842022e-19 2.5763831 3.6893488e+19
2.2831812 -0 -1.8361602
0 2.5439897 1.0842022e-19
2.2931817 2 -1.8291916
-2 2.5344875 2
2.2436626 -2 -1.8264519
-2 2.5060363 -0
2.2553327 1.0842022e-19 -1.8188902
1.0842022e-19 2.5010786 1.0842022e-19
2.185689 -1.0842022e-19 -1.8181685
-3.6893488e+19 2.4649711 1.0842022e-19
2.2136934 -3.6893488e+19 -1.8156577
1.0842022e-19 2.450237 1.0842022e-19
2.1406412 -2 -1.8119949
1.0842022e-19 2.4156804 -1.0842022e-19
2.1645379 2 -1.8085173
-0 2.4113684 -0
2.1069174 -0 -1.8084787
-0 2.3702259 1.0842022e-19
2.044692 2 -1.8049046
1.0842022e-19 2.3237522 -1.0842022e-19
2.0076997 -2 -1.8020339
-1.0842022e-19 2.2824376 2
1.9748144 -2 -1.7967004
-2 2.2527046 0
1.9511477 2 -1.7941272
0 2.1902649 0
1.9695275 -0 -1.7920389
1.0842022e-19 2.152215 -2
1.9505547 0 -1.7905277
-2 2.1212988 -2
1.9351392 -1.0842022e-19 -1.7897974
-3.6893488e+19 3.154083 -0
2.8191957 -2 2.6554189
3.6893488e+19 3.1277807 -3.6893488e+19
2.8459578 0 2.6316242
3.6893488e+19 3.1295688 0
2.8475955 2 2.6211965
0 3.1291757 -1.0842022e-19
2.8472352 2 2.6086261
0 3.1290393 -3.6893488e+19
2.8471103 3.6893488e+19 2.5963521
-0 3.1609969 2
2.8246572 1.0842022e-19 2.6107082
-3.6893488e+19 3.1272106 -1.0842022e-19
2.8454359 0 2.5826323
-0 3.140126 0
2.8081708 -2 2.5802259
1.0842022e-19 3.1301279 2
2.8481073 0 2.5730939
1.0842022e-19 3.1557012 1.0842022e-19
2.8204739 -1.0842022e-19 2.5807912
2 3.1624036 -1.0842022e-19
2.8257682 -1.0842022e-19 2.5734656
-2 3.1297722 -1.0842022e-19
2.8477817 -3.6893488e+19 2.5486913
-3.6893488e+19 3.1234674 -2
2.8700051 3.6893488e+19 2.542047
-2 3.1448092 0
2.8400993 3.6893488e+19 2.5450504
1.0842022e-19 3.1278913 1.0842022e-19
2.874388 2 2.5333996
0 3.1457253 0
2.8408883 -2 2.5333798
-2 3.1318357 2
2.8782959 -2 2.5241556
3.6893488e+19 3.1355369 -3.6893488e+19
2.8321116 -3.6893488e+19 2.5140769
3.6893488e+19 3.1296253 -3.6893488e+19
2.8761058 0 2.510462
-0 3.0561376 -0
2.763715 1.0842022e-19 2.4003534
-0 3.0496738 0
2.7968957 -1.0842022e-19 2.3921449
3.6893488e+19 3.1362028 -3.6893488e+19
2.8326852 3.6893488e+19 2.481102
1.0842022e-19 3.1329098 -1.0842022e-19
2.8298485 2 2.4532988
-1.0842022e-19 3.0527833 1.0842022e-19
2.7999763 2 2.3577921
2 3.0531321 1.0842022e-19
2.761126 -3.6893488e+19 2.3401246
3.6893488e+19 3.1385269 1.0842022e-19
2.8346875 0 2.4119809
0 3.0389881 2
2.7065585 1.0842022e-19 2.2938063
-3.6893488e+19 3.1235149 -0
2.8420515 -2 2.3768423
0 3.1438489 3.6893488e+19
2.8111115 -1.0842022e-19 2.3764868
0 3.1982999 2
2.9105368 -0 2.424459
-3.6893488e+19 3.0453913 -2
2.7166748 -1.0842022e-19 2.2644508
-2 3.2022438 -0
2.9141486 2 2.4001508
-1.0842022e-19 3.1462722 -1.0842022e-19
2.8130257 -2 2.330766
1.0842022e-19 3.1239612 1.0842022e-19
2.8424602 -1.0842022e-19 2.3077338
1.0842022e-19 3.1455176 1.0842022e-19
2.8124297 -1.0842022e-19 2.3062105
1.0842022e-19 3.1250169 0
2.8434269 -2 2.2854114
1.0842022e-19 3.042407 -0
2.7119598 0 2.1674395
2 3.0305707 -3.6893488e+19
2.6932602 -2 2.1166792
1.0842022e-19 3.1087978 -0
2.8285739 -3.6893488e+19 2.2075477
-2 3.1406951 -2
2.8086202 -0 2.2135069
1.0842022e-19 3.0582194 -0
2.7822561 -0 2.1050549
-2 3.1063213 3.6893488e+19
2.853018 2 2.1442204
-3.6893488e+19 3.1524179 -2
2.8466535 -0 2.1598642
-1.0842022e-19 3.1532028 3.6893488e+19
2.8473296 -3.6893488e+19 2.1115441
-3.6893488e+19 3.1725767 3.6893488e+19
2.9186592 -3.6893488e+19 2.1120048
0 3.1517608 -3.6893488e+19
2.8460872 1.0842022e-19 2.0613523
-1.0842022e-19 3.1722322 -0
2.9183178 3.6893488e+19 2.0590441
3.6893488e+19 3.1535103 3.6893488e+19
2.8475945 -0 2.013617
-0 3.1708593 -1.0842022e-19
2.9169576 2 2.0055852
-2 3.1522863 2
2.8465402 -3.6893488e+19 1.9639105
2 3.0421841 -3.6893488e+19
2.7894752 -2 1.8910351
3.6893488e+19 3.1536534 3.6893488e+19
2.8477178 -0 1.9155755
-0 3.0394883 0
2.7868047 -2 1.832368
-1.0842022e-19 3.1534228 -0
2.8475192 -0 1.8579456
2 3.0343418 -2
2.7817056 -3.6893488e+19 1.7578694
-1.0842022e-19 3.1534309 -2
2.8475261 -1.0842022e-19 1.7599354
-2 3.0346 2
2.6996262 0 1.6144758
2 3.2369425 -0
2.9459243 -3.6893488e+19 1.5551227
0 3.031321 3.6893488e+19
2.6944456 -3.6893488e+19 -1.2578214
2 3.221483 -1.0842022e-19
2.931767 1.0842022e-19 -1.6441307
-3.6893488e+19 3.039305 2
2.7070594 3.6893488e+19 -1.6558397
0 3.0788894 3.6893488e+19
2.8011849 1.0842022e-19 -1.7559755
1.0842022e-19 3.0359983 1.0842022e-19
2.7018352 -2 -1.7706399
-1.0842022e-19 3.0788269 0
2.8011279 -1.0842022e-19 -1.8366376
1.0842022e-19 3.0402915 -0
2.7086177 2 -1.8424677
-1.0842022e-19 3.0448625 1.0842022e-19
2.7700245 2 -1.8810816
1.0842022e-19 3.067899 -3.6893488e+19
2.7511165 1.0842022e-19 -1.907226
-2 2.9897583 2
2.698503 1.0842022e-19 -1.8889236
1.0842022e-19 2.9622471 -2
2.6151409 -2 -1.8920571
-2 2.9659011 2
2.6766555 3.6893488e+19 -1.9107727
2 2.9349406 0
2.5935709 -2 -1.9097824
2 2.8420134 -2
2.5632033 1.0842022e-19 -1.8890359
3.6893488e+19 2.8031178 -3.6893488e+19
2.5503075 -2 -1.8844875
-0 2.7847703 0
2.4906175 -3.6893488e+19 -1.8819405
2 2.7359047 2
2.4814 2 -1.8709102
-1.0842022e-19 2.7023125 -3.6893488e+19
2.3896339 -3.6893488e+19 -1.8621229
-0 2.6502979 2
2.3965869 1.0842022e-19 -1.8525915
-0 2.6254807 -3.6893488e+19
2.3234489 -0 -1.8447343
3.6893488e+19 2.5875409 3.6893488e+19
2.3344116 -2 -1.8380107
3.6893488e+19 2.5770957 0
2.281769 -0 -1.8363822
2 2.5439253 1.0842022e-19
2.2912004 1.0842022e-19 -1.8288817
-2 2.5345805 1.0842022e-19
2.2402906 0 -1.8262901
0 2.505923 -1.0842022e-19
2.2535503 -2 -1.8185525
-1.0842022e-19 2.5012481 -1.0842022e-19
2.1828637 2 -1.8180807
1.0842022e-19 2.4635682 -1.0842022e-19
2.2092705 -2 -1.8148355
0 2.4509749 -2
2.1384816 1.0842022e-19 -1.8120898
-1.0842022e-19 2.4157751 -0
2.1619205 1.0842022e-19 -1.8083208
-0 2.4132042 2
2.1059451 3.6893488e+19 -1.8090893
-3.6893488e+19 3.154083 -0
2.8191957 -2 2.6554189
3.6893488e+19 3.1277807 -3.6893488e+19
2.8459578 0 2.6316242
3.6893488e+19 3.1295688 0
2.8475955 2 2.6211965
0 3.1291757 -1.0842022e-19
2.8472352 2 2.6086261
0 3.1290393 -3.6893488e+19
2.8471103 3.6893488e+19 2.5963521
3.6893488e+19 3.0415595 -0
2.7106209 1.0842022e-19 2.5058849
-3.6893488e+19 3.1272106 -1.0842022e-19
2.8454359 0 2.5826323
3.6893488e+19 3.0411401 -0
2.7099583 -3.6893488e+19 2.4928768
1.0842022e-19 3.1301279 2
2.8481073 0 2.5730939
-3.6893488e+19 3.0448735 1.0842022e-19
2.7158568 0 2.4808547
2 3.041539 3.6893488e+19
2.7105885 3.6893488e+19 2.4573328
-2 3.1297722 -1.0842022e-19
2.8477817 -3.6893488e+19 2.5486913
-3.6893488e+19 3.1234674 -2
2.8700051 3.6893488e+19 2.542047
1.0842022e-19 3.0525637 3.6893488e+19
2.7606363 -1.0842022e-19 2.4522259
1.0842022e-19 3.1278913 1.0842022e-19
2.874388 2 2.5333996
-3.6893488e+19 3.055382 -3.6893488e+19
2.7630641 2 2.4373701
2 3.0436964 1.0842022e-19
2.7909737 -2 2.4217443
-3.6893488e+19 3.0549874 2
2.7627244 -2 2.4178081
1.0842022e-19 3.0444062 2
2.7916768 2 2.4039857
-0 3.0561376 -0
2.763715 1.0842022e-19 2.4003534
-0 3.0496738 0
2.7968957 -1.0842022e-19 2.3921449
0 3.0462508 3.6893488e+19
2.7551982 -3.6893488e+19 2.3690464
-1.0842022e-19 3.0420454 2
2.7515757 0 2.3457313
-1.0842022e-19 3.0527833 1.0842022e-19
2.7999763 2 2.3577921
2 3.0531321 1.0842022e-19
2.761126 -3.6893488e+19 2.3401246
0 3.0543087 0
2.7621396 0 2.3226786
0 3.0389881 2
2.7065585 1.0842022e-19 2.2938063
-3.6893488e+19 3.1235149 -0
2.8420515 -2 2.3768423
3.6893488e+19 3.0386703 -2
2.7060564 1.0842022e-19 2.2759449
1.0842022e-19 3.0548744 3.6893488e+19
2.7791929 3.6893488e+19 2.288661
-3.6893488e+19 3.0453913 -2
2.7166748 -1.0842022e-19 2.2644508
-2 3.2022438 -0
2.9141486 2 2.4001508
-1.0842022e-19 3.1462722 -1.0842022e-19
2.8130257 -2 2.330766
1.0842022e-19 3.1239612 1.0842022e-19
2.8424602 -1.0842022e-19 2.3077338
1.0842022e-19 3.1455176 1.0842022e-19
2.8124297 -1.0842022e-19 2.3062105
1.0842022e-19 3.1250169 0
2.8434269 -2 2.2854114
1.0842022e-19 3.042407 -0
2.7119598 0 2.1674395
2 3.0305707 -3.6893488e+19
2.6932602 -2 2.1166792
1.0842022e-19 3.0606785 -1.0842022e-19
2.784508 0 2.1461849
-0 3.0305095 2
2.6931636 3.6893488e+19 2.0827866
1.0842022e-19 3.0582194 -0
2.7822561 -0 2.1050549
-2 3.1063213 3.6893488e+19
2.853018 2 2.1442204
2 3.0314491 3.6893488e+19
2.7348955 -0 2.0366569
1.0842022e-19 3.0312417 2
2.7345381 -1.0842022e-19 2.0021839
0 3.04864 -1.0842022e-19
2.7958713 -3.6893488e+19 2.0058329
-0 3.0306475 3.6893488e+19
2.7335145 0 1.9674933
-0 3.048173 2
2.7954087 2 1.9682416
3.6893488e+19 3.0290356 1.0842022e-19
2.7307374 0 1.9322966
2 3.0464039 -2
2.7936559 -2 1.9300041
-3.6893488e+19 3.0325441 -0
2.7367823 3.6893488e+19 1.9002392
2 3.0421841 -3.6893488e+19
2.7894752 -2 1.8910351
2 3.0344052 -3.6893488e+19
2.7399883 -0 1.8583217
-0 3.0394883 0
2.7868047 -2 1.832368
-1.0842022e-19 3.0351911 0
2.7413425 -0 1.7896758
2 3.0343418 -2
2.7817056 -3.6893488e+19 1.7578694
2 3.0358772 -3.6893488e+19
2.7425244 -1.0842022e-19 1.6912345
-2 3.0346 2
2.6996262 0 1.6144758
0 3.0487347 3.6893488e+19
2.7735703 -1.0842022e-19 1.4710072
0 3.031321 3.6893488e+19
2.6944456 -3.6893488e+19 -1.2578214
-2 3.0489316 -0
2.7737508 1.0842022e-19 -1.5577648
-3.6893488e+19 3.039305 2
2.7070594 3.6893488e+19 -1.6558397
1.0842022e-19 3.0483756 3.6893488e+19
2.7732415 2 -1.7376477
1.0842022e-19 3.0359983 1.0842022e-19
2.7018352 -2 -1.7706399
3.6893488e+19 3.0484016 3.6893488e+19
2.7732654 1.0842022e-19 -1.8170555
1.0842022e-19 3.0402915 -0
2.7086177 2 -1.8424677
-1.0842022e-19 3.0448625 1.0842022e-19
2.7700245 2 -1.8810816
3.6893488e+19 3.0360568 -0
2.7019274 -0 -1.8914775
-2 2.9897583 2
2.698503 1.0842022e-19 -1.8889236
1.0842022e-19 2.9622471 -2
2.6151409 -2 -1.8920571
-2 2.9659011 2
2.6766555 3.6893488e+19 -1.9107727
2 2.9349406 0
2.5935709 -2 -1.9097824
2 2.8420134 -2
2.5632033 1.0842022e-19 -1.8890359
3.6893488e+19 2.8031178 -3.6893488e+19
2.5503075 -2 -1.8844875
-0 2.7847703 0
2.4906175 -3.6893488e+19 -1.8819405
2 2.7359047 2
2.4814 2 -1.8709102
-1.0842022e-19 2.7023125 -3.6893488e+19
2.3896339 -3.6893488e+19 -1.8621229
-0 2.6502979 2
2.3965869 1.0842022e-19 -1.8525915
-0 2.6254807 -3.6893488e+19
2.3234489 -0 -1.8447343
3.6893488e+19 2.5875409 3.6893488e+19
2.3344116 -2 -1.8380107
3.6893488e+19 2.5770957 0
2.281769 -0 -1.8363822
2 2.5439253 1.0842022e-19
2.2912004 1.0842022e-19 -1.8288817
-2 2.5345805 1.0842022e-19
2.2402906 0 -1.8262901
0 2.505923 -1.0842022e-19
2.2535503 -2 -1.8185525
-1.0842022e-19 2.5012481 -1.0842022e-19
2.1828637 2 -1.8180807
1.0842022e-19 2.4635682 -1.0842022e-19
2.2092705 -2 -1.8148355
0 2.4509749 -2
2.1384816 1.0842022e-19 -1.8120898
-1.0842022e-19 2.4157751 -0
2.1619205 1.0842022e-19 -1.8083208
-0 2.4132042 2
2.1059451 3.6893488e+19 -1.8090893
0 3.1535642 -2
2.8163481 0 2.6544819
-2 3.1282594 -3.6893488e+19
2.8440058 3.6893488e+19 2.6316521
2 3.130022 0
2.8456089 2 2.6211965
-3.6893488e+19 3.1304348 -2
2.8459842 -3.6893488e+19 2.6093879
2 3.1288512 -1.0842022e-19
2.8445439 0 2.5957675
2 3.1614201 0
2.8225064 1.0842022e-19 2.6107082
-0 3.1288884 -2
2.8445778 -1.0842022e-19 2.5837131
-2 3.1406703 0
2.806241 0 2.5803468
-1.0842022e-19 3.1280959 -3.6893488e+19
2.843857 -1.0842022e-19 2.5709834
-0 3.1584914 0
2.8202107 2 2.5827239
1.0842022e-19 3.1607101 -0
2.8219497 -2 2.571806
-3.6893488e+19 3.1280134 3.6893488e+19
2.8437822 -2 2.5469534
1.0842022e-19 3.1456776 3.6893488e+19
2.8383963 3.6893488e+19 2.5453675
-1.0842022e-19 3.1469917 -3.6893488e+19
2.8395202 -1.0842022e-19 2.533968
-0 3.1346822 -2
2.8786132 -2 2.5258429
-0 3.1360266 -2
2.8301425 -3.6893488e+19 2.5141158
2 3.1339126 -0
2.8778558 -2 2.5130634
-0 3.1314847 3.6893488e+19
2.8754663 2 2.4985564
2 3.1363237 1.0842022e-19
2.8303967 3.6893488e+19 2.4807127
3.6893488e+19 3.1329126 -0
2.8274794 0 2.4527938
0 3.0532446 3.6893488e+19
2.7593446 1.0842022e-19 2.3398693
1.0842022e-19 3.1364248 -1.0842022e-19
2.830483 -0 2.409292
-3.6893488e+19 3.1415987 -0
2.8069687 2 2.3977184
-1.0842022e-19 3.1273241 0
2.8431554 -0 2.3802314
-0 3.1445434 1.0842022e-19
2.8092771 -3.6893488e+19 2.3767629
3.6893488e+19 3.0572748 -3.6893488e+19
2.7794492 -3.6893488e+19 2.2905867
-0 3.048763 1.0842022e-19
2.7183924 2 2.2671943
-1.0842022e-19 3.1455507 1.0842022e-19
2.8100667 -2 2.3298242
-1.0842022e-19 3.1395323 1.0842022e-19
2.8542581 3.6893488e+19 2.3201652
-2 3.1453741 2
2.8099282 -1.0842022e-19 2.3057847
-0 3.1251528 -1.0842022e-19
2.8411806 -2 2.2851744
-1.0842022e-19 3.0446796 1.0842022e-19
2.7119906 -3.6893488e+19 2.1702511
3.6893488e+19 3.0436716 -0
2.7670779 1.0842022e-19 2.1602449
-0 3.146383 -0
2.810719 1.0842022e-19 2.2587512
0 3.1083467 3.6893488e+19
2.8258963 1.0842022e-19 2.2064276
2 3.0306242 -1.0842022e-19
2.6899545 -1.0842022e-19 2.0825801
2 3.106446 0
2.8508227 -3.6893488e+19 2.1438491
-2 3.03231 0
2.7328818 0 2.0372114
-3.6893488e+19 3.1023917 -3.6893488e+19
2.8468323 -2 2.0954175
-3.6893488e+19 3.0315573 3.6893488e+19
2.7315943 -1.0842022e-19 2.0021839
3.6893488e+19 3.1732628 -3.6893488e+19
2.9165852 3.6893488e+19 2.1121247
1.0842022e-19 3.1519823 1.0842022e-19
2.8437884 -0 2.0611744
-0 3.1729739 0
2.916301 -1.0842022e-19 2.0591874
1.0842022e-19 3.1537051 1.0842022e-19
2.8452618 2 2.0134485
-1.0842022e-19 3.1705344 -1.0842022e-19
2.9138999 3.6893488e+19 2.0050583
-3.6893488e+19 3.0313106 0
2.7311723 2 1.8994155
0 3.0429261 -3.6893488e+19
2.7883046 1.0842022e-19 1.8912108
3.6893488e+19 3.0338628 -2
2.7355375 -2 1.8576155
-2 3.039638 1.0842022e-19
2.7850688 0 1.8322077
2 3.0351954 2
2.7378168 3.6893488e+19 1.7894936
-3.6893488e+19 3.0347931 -3.6893488e+19
2.7803001 1.0842022e-19 1.7579087
3.6893488e+19 3.0349915 0
2.7374682 -1.0842022e-19 1.6904281
-2 3.0358531 -2
2.6981525 1.0842022e-19 1.6152829
1.0842022e-19 3.0482948 3.6893488e+19
2.7712824 2 1.4704187
-2 3.0307086 -0
2.6900871 2 -1.2573961
-0 3.2235537 1.0842022e-19
2.9306707 -2 -1.644591
-3.6893488e+19 3.0284598 3.6893488e+19
2.6865616 1.0842022e-19 -1.6498435
-2 3.0475655 -3.6893488e+19
2.7706192 3.6893488e+19 -1.7367198
0 3.0300672 -3.6893488e+19
2.6890812 -1.0842022e-19 -1.7674729
-1.0842022e-19 3.0483596 1.0842022e-19
2.7713416 -3.6893488e+19 -1.8167994
-1.0842022e-19 3.0397758 1.0842022e-19
2.7043025 2 -1.8418581
-1.0842022e-19 3.0454421 3.6893488e+19
2.7686882 -1.0842022e-19 -1.8811826
0 3.0375147 3.6893488e+19
2.7007573 0 -1.8920523
-0 2.9893196 0
2.695009 -0 -1.8886336
0 2.9641187 1.0842022e-19
2.613816 1.0842022e-19 -1.8924856
2 2.9658322 -1.0842022e-19
2.6736484 3.6893488e+19 -1.9105572
-3.6893488e+19 2.9277141 -3.6893488e+19
2.585279 -3.6893488e+19 -1.9069661
0 2.845434 -3.6893488e+19
2.5641527 -3.6893488e+19 -1.8902589
3.6893488e+19 2.8060298 2
2.5512018 2 -1.8856044
-1.0842022e-19 2.7869837 2
2.490876 -3.6893488e+19 -1.8828169
-1.0842022e-19 2.7372043 -3.6893488e+19
2.4795179 -3.6893488e+19 -1.8712497
0 2.706377 -2
2.3903084 -1.0842022e-19 -1.8639853
3.6893488e+19 2.6509271 -2
2.3946018 3.6893488e+19 -1.8526551
1.0842022e-19 2.6260171 2
2.3215821 -3.6893488e+19 -1.8448013
-1.0842022e-19 2.5879769 -0
2.3326449 -2 -1.8380107
0 2.5783801 2
2.2808414 -2 -1.836974
0 2.5444169 2
2.289772 -3.6893488e+19 -1.8289591
-0 2.5347855 -0
2.2371159 -3.6893488e+19 -1.8262091
-2 2.5054712 0
2.251441 0 -1.8179617
3.6893488e+19 2.5017593 2
2.1806257 -2 -1.8182564
1.0842022e-19 2.4643905 1.0842022e-19
2.2070642 1.0842022e-19 -1.814927
-1.0842022e-19 2.4510236 -3.6893488e+19
2.13573 2 -1.8119001
2 2.4158659 0
2.1593051 0 -1.8081242
-2 2.4136682 1.0842022e-19
2.1037827 3.6893488e+19 -1.8090893
3.6893488e+19 2.3726106 0
2.0420842 2 -1.8056897
-1.0842022e-19 2.3246524 -2
2.0044904 -1.0842022e-19 -1.8021599
1.0842022e-19 2.2839437 -1.0842022e-19
1.9725794 3.6893488e+19 -1.7972597
0 2.2536874 -3.6893488e+19
1.9488618 3.6893488e+19 -1.7944344
-3.6893488e+19 2.1922915 1.0842022e-19
1.967657 -0 -1.7923737
3.6893488e+19 2.1519349 0
1.9477969 -0 -1.7899843
2 2.1209421 -2
1.9325449 -0 -1.7892131
0 3.1535642 -2
2.8163481 0 2.6544819
-2 3.1282594 -3.6893488e+19
2.8440058 3.6893488e+19 2.6316521
2 3.130022 0
2.8456089 2 2.6211965
-3.6893488e+19 3.1304348 -2
2.8459842 -3.6893488e+19 2.6093879
-0 3.0491927 -1.0842022e-19
2.772099 0 2.5230653
2 3.1614201 0
2.8225064 1.0842022e-19 2.6107082
-2 3.0473592 2
2.7704318 -3.6893488e+19 2.5119047
-3.6893488e+19 3.0411828 -3.6893488e+19
2.7065082 -0 2.4924424
-1.0842022e-19 3.1280959 -3.6893488e+19
2.843857 -1.0842022e-19 2.5709834
1.0842022e-19 3.0454917 0
2.7132635 -1.0842022e-19 2.4813669
0 3.0416675 -3.6893488e+19
2.7072678 -2 2.4570637
-3.6893488e+19 3.1280134 3.6893488e+19
2.8437822 -2 2.5469534
1.0842022e-19 3.1456776 3.6893488e+19
2.8383963 3.6893488e+19 2.5453675
-2 3.0534 -2
2.7594776 -3.6893488e+19 2.4340439
-1.0842022e-19 3.0434668 -2
2.788837 3.6893488e+19 2.420871
-3.6893488e+19 3.0534849 2
2.7595503 -1.0842022e-19 2.4152834
0 3.04426 -1.0842022e-19
2.7896175 -1.0842022e-19 2.403264
-2 3.0477583 -3.6893488e+19
2.7930608 -3.6893488e+19 2.3891356
2 3.0486314 -2
2.7553992 3.6893488e+19 2.3715949
2 3.0428574 -2
2.7504611 -1.0842022e-19 2.3463035
0 3.0532446 3.6893488e+19
2.7593446 1.0842022e-19 2.3398693
3.6893488e+19 3.0545647 2
2.7604737 -2 2.3225877
-3.6893488e+19 3.0421748 -0
2.7080636 -0 2.2967408
-1.0842022e-19 3.1273241 0
2.8431554 -0 2.3802314
1.0842022e-19 3.0431316 -2
2.7095633 2 2.2799213
3.6893488e+19 3.0572748 -3.6893488e+19
2.7794492 -3.6893488e+19 2.2905867
-0 3.048763 1.0842022e-19
2.7183924 2 2.2671943
-0 3.0483065 -2
2.7176764 0 2.2474773
-1.0842022e-19 3.1395323 1.0842022e-19
2.8542581 3.6893488e+19 2.3201652
-1.0842022e-19 3.0481822 2
2.7174819 1.0842022e-19 2.2112322
0 3.0395341 -1.0842022e-19
2.763315 2 2.1901817
-1.0842022e-19 3.0446796 1.0842022e-19
2.7119906 -3.6893488e+19 2.1702511
3.6893488e+19 3.0436716 -0
2.7670779 1.0842022e-19 2.1602449
-3.6893488e+19 3.029844 -2
2.6887317 -0 2.1153536
-3.6893488e+19 3.044281 -0
2.7676322 1.0842022e-19 2.1248271
2 3.0306242 -1.0842022e-19
2.6899545 -1.0842022e-19 2.0825801
0 3.0527427 2
2.7979665 3.6893488e+19 2.0845106
-2 3.03231 0
2.7328818 0 2.0372114
0 3.0494785 2
2.7947538 3.6893488e+19 2.0435514
-3.6893488e+19 3.0315573 3.6893488e+19
2.7315943 -1.0842022e-19 2.0021839
0 3.0489419 -3.6893488e+19
2.7942255 -0 2.0057611
-2 3.0329432 0
2.7339649 -0 1.9690264
2 3.0473256 0
2.792635 -2 1.9673405
3.6893488e+19 3.0293202 2
2.7277677 -3.6893488e+19 1.9322778
1.0842022e-19 3.045666 -2
2.7910013 -3.6893488e+19 1.9293243
-3.6893488e+19 3.0313106 0
2.7311723 2 1.8994155
0 3.0429261 -3.6893488e+19
2.7883046 1.0842022e-19 1.8912108
3.6893488e+19 3.0338628 -2
2.7355375 -2 1.8576155
-2 3.039638 1.0842022e-19
2.7850688 0 1.8322077
2 3.0351954 2
2.7378168 3.6893488e+19 1.7894936
-3.6893488e+19 3.0347931 -3.6893488e+19
2.7803001 1.0842022e-19 1.7579087
3.6893488e+19 3.0349915 0
2.7374682 -1.0842022e-19 1.6904281
-2 3.0358531 -2
2.6981525 1.0842022e-19 1.6152829
1.0842022e-19 3.0482948 3.6893488e+19
2.7712824 2 1.4704187
-2 3.0307086 -0
2.6900871 2 -1.2573961
-3.6893488e+19 3.0465007 -0
2.7696509 2 -1.5560623
-3.6893488e+19 3.0284598 3.6893488e+19
2.6865616 1.0842022e-19 -1.6498435
-2 3.0475655 -3.6893488e+19
2.7706192 3.6893488e+19 -1.7367198
0 3.0300672 -3.6893488e+19
2.6890812 -1.0842022e-19 -1.7674729
-1.0842022e-19 3.0483596 1.0842022e-19
2.7713416 -3.6893488e+19 -1.8167994
-1.0842022e-19 3.0397758 1.0842022e-19
2.7043025 2 -1.8418581
-1.0842022e-19 3.0454421 3.6893488e+19
2.7686882 -1.0842022e-19 -1.8811826
0 3.0375147 3.6893488e+19
2.7007573 0 -1.8920523
-0 2.9893196 0
2.695009 -0 -1.8886336
0 2.9641187 1.0842022e-19
2.613816 1.0842022e-19 -1.8924856
2 2.9658322 -1.0842022e-19
2.6736484 3.6893488e+19 -1.9105572
-3.6893488e+19 2.9277141 -3.6893488e+19
2.585279 -3.6893488e+19 -1.9069661
0 2.845434 -3.6893488e+19
2.5641527 -3.6893488e+19 -1.8902589
3.6893488e+19 2.8060298 2
2.5512018 2 -1.8856044
-1.0842022e-19 2.7869837 2
2.490876 -3.6893488e+19 -1.8828169
-1.0842022e-19 2.7372043 -3.6893488e+19
2.4795179 -3.6893488e+19 -1.8712497
0 2.706377 -2
2.3903084 -1.0842022e-19 -1.8639853
3.6893488e+19 2.6509271 -2
2.3946018 3.6893488e+19 -1.8526551
1.0842022e-19 2.6260171 2
2.3215821 -3.6893488e+19 -1.8448013
-1.0842022e-19 2.5879769 -0
2.3326449 -2 -1.8380107
0 2.5783801 2
2.2808414 -2 -1.836974
0 2.5444169 2
2.289772 -3.6893488e+19 -1.8289591
-0 2.5347855 -0
2.2371159 -3.6893488e+19 -1.8262091
-2 2.5054712 0
2.251441 0 -1.8179617
3.6893488e+19 2.5017593 2
2.1806257 -2 -1.8182564
1.0842022e-19 2.4643905 1.0842022e-19
2.2070642 1.0842022e-19 -1.814927
-1.0842022e-19 2.4510236 -3.6893488e+19
2.13573 2 -1.8119001
2 2.4158659 0
2.1593051 0 -1.8081242
-2 2.4136682 1.0842022e-19
2.1037827 3.6893488e+19 -1.8090893
3.6893488e+19 2.3726106 0
2.0420842 2 -1.8056897
-1.0842022e-19 2.3246524 -2
2.0044904 -1.0842022e-19 -1.8021599
1.0842022e-19 2.2839437 -1.0842022e-19
1.9725794 3.6893488e+19 -1.7972597
0 2.2536874 -3.6893488e+19
1.9488618 3.6893488e+19 -1.7944344
-3.6893488e+19 2.1922915 1.0842022e-19
1.967657 -0 -1.7923737
3.6893488e+19 2.1519349 0
1.9477969 -0 -1.7899843
2 2.1209421 -2
1.9325449 -0 -1.7892131
2 3.1539764 -1.0842022e-19
2.8142362 0 2.6544819
1.0842022e-19 3.1332605 2
2.8461378 -3.6893488e+19 2.6362398
-0 3.1301112 -3.6893488e+19
2.8432934 3.6893488e+19 2.6208439
1.0842022e-19 3.1300786 -2
2.8432639 2 2.6086261
-3.6893488e+19 3.1942134 1.0842022e-19
2.845535 -2 2.6529272
3.6893488e+19 3.1273763 -3.6893488e+19
2.8408234 2 2.5940135
-2 3.1913471 -1.0842022e-19
2.8433053 2 2.6365516
0 3.1293657 3.6893488e+19
2.8426201 -2 2.5837376
0 3.141041 -2
2.8041742 -2 2.5803225
0 3.1282368 -3.6893488e+19
2.8416004 -1.0842022e-19 2.5707226
-2 3.159996 3.6893488e+19
2.8189187 3.6893488e+19 2.5836086
-3.6893488e+19 3.1565452 -2
2.8162344 2 2.5682178
2 3.0878997 -2
2.8303761 3.6893488e+19 2.5135541
-0 3.1464305 -1.0842022e-19
2.8365903 -2 2.5455999
-1.0842022e-19 3.0911281 -1.0842022e-19
2.8335328 -3.6893488e+19 2.5051713
3.6893488e+19 3.1459301 3.6893488e+19
2.8361654 2 2.5328932
-1.0842022e-19 3.1372242 -0
2.8287737 1.0842022e-19 2.5146403
1.0842022e-19 3.1357651 -1.0842022e-19
2.8771758 -0 2.513994
3.6893488e+19 3.0542345 -1.0842022e-19
2.758311 0 2.3969758
3.6893488e+19 3.1277244 -3.6893488e+19
2.8693142 -2 2.4930091
-2 3.136555 2
2.8282056 2 2.4804649
2 3.0477707 2
2.7911408 -0 2.3697884
-3.6893488e+19 3.0440104 1.0842022e-19
2.7492609 -3.6893488e+19 2.3472798
-2 3.0534399 0
2.7576365 3.6893488e+19 2.3397095
3.6893488e+19 3.136827 -2
2.8284364 -3.6893488e+19 2.4092617
-0 3.1419699 -2
2.8048968 2 2.3976891
-1.0842022e-19 3.1292429 -2
2.8425093 1.0842022e-19 2.3817124
-1.0842022e-19 3.0444441 3.6893488e+19
2.7080715 1.0842022e-19 2.2808878
1.0842022e-19 3.0479386 -2
2.7135077 -2 2.2661848
0 3.0563607 3.6893488e+19
2.7766864 -1.0842022e-19 2.2704275
-2 3.1472013 -2
2.8089662 -3.6893488e+19 2.3308625
-2 3.1383212 -2
2.8507082 -0 2.3187916
0 3.1481857 -3.6893488e+19
2.8097317 -1.0842022e-19 2.3076448
-1.0842022e-19 3.0456941 3.6893488e+19
2.7670531 2 2.1990147
-3.6893488e+19 3.0346768 -2
2.6928763 0 2.1555717
2 3.0413795 0
2.7631564 -2 2.1565607
-1.0842022e-19 3.1503019 -1.0842022e-19
2.811378 3.6893488e+19 2.2610426
-3.6893488e+19 3.1090839 -2
2.8243029 -0 2.206825
-1.0842022e-19 3.0302715 -0
2.686023 3.6893488e+19 2.0818233
3.6893488e+19 3.1055305 -0
2.8476145 -3.6893488e+19 2.142334
0 3.2313411 -1.0842022e-19
2.9086838 -3.6893488e+19 2.2391522
-3.6893488e+19 3.1029842 -2
2.845125 3.6893488e+19 2.0955548
1.0842022e-19 3.2321289 0
2.9093528 -1.0842022e-19 2.1813498
2 3.0482318 2
2.7915916 -3.6893488e+19 2.0048265
-1.0842022e-19 3.0307012 -0
2.7266603 1.0842022e-19 1.9670489
-2 3.2394931 3.6893488e+19
2.9785945 1.0842022e-19 2.1073534
-3.6893488e+19 3.0335121 -1.0842022e-19
2.7314336 3.6893488e+19 1.9348074
-1.0842022e-19 3.0466065 3.6893488e+19
2.7900026 2 1.9296643
-1.0842022e-19 3.0309055 -2
2.7270072 2 1.8990341
3.6893488e+19 3.0422075 -3.6893488e+19
2.7857013 -2 1.8906838
-1.0842022e-19 3.0319362 -2
2.7287574 -2 1.8557794
0 3.0397012 -1.0842022e-19
2.7832508 2 1.831987
-1.0842022e-19 3.0335863 1.0842022e-19
2.7315595 3.6893488e+19 1.7883834
-2 3.0369554 -2
2.7805662 -1.0842022e-19 1.758746
-3.6893488e+19 3.2414026 2
2.9172268 -1.0842022e-19 1.788992
-0 3.1916976 -3.6893488e+19
2.8435779 -0 1.6854519
-1.0842022e-19 3.1882107 -2
2.8408656 2 -1.331471
3.6893488e+19 3.0469663 3.6893488e+19
2.7682021 1.0842022e-19 -1.5561318
-2 3.1888964 0
2.8413992 -1.0842022e-19 -1.7359357
-3.6893488e+19 3.0478613 1.0842022e-19
2.7690105 -2 -1.7366745
-2 3.0307026 2
2.6866937 3.6893488e+19 -1.7676505
1.0842022e-19 3.0472612 3.6893488e+19
2.7684684 -0 -1.8158669
2 3.0389364 1.0842022e-19
2.6995029 -0 -1.8410091
0 3.0701928 0
2.7891788 1.0842022e-19 -1.892004
1.0842022e-19 3.0446208 3.6893488e+19
2.7083461 -0 -1.8954146
2 2.9819863 -2
2.6853008 0 -1.8863943
-2 2.963836 0
2.6107986 1.0842022e-19 -1.8922535
-2 2.9662137 0
2.6710563 2 -1.9104984
0 2.9302464 -3.6893488e+19
2.5846703 0 -1.9077343
1.0842022e-19 2.8466971 3.6893488e+19
2.5631158 -1.0842022e-19 -1.8906051
3.6893488e+19 2.810909 -0
2.5539865 1.0842022e-19 -1.8875898
3.6893488e+19 2.7877634 -0
2.4886525 1.0842022e-19 -1.8830295
0 2.7372692 3.6893488e+19
2.4764199 0 -1.8709668
0 2.7078047 1.0842022e-19
2.3887002 3.6893488e+19 -1.864466
2 2.6520021 3.6893488e+19
2.3930514 0 -1.8529729
2 2.6252882 0
2.3186395 -2 -1.844131
2 2.5884109 0
2.3308761 -2 -1.8380107
-2 2.5809262 0
2.2809739 0 -1.8383799
0 2.5453546 -2
2.2887783 -2 -1.8293464
3.6893488e+19 2.5348737 -1.0842022e-19
2.2337456 1.0842022e-19 -1.8260473
-0 2.5059111 -2
2.2502131 2 -1.8180461
-2 2.5020399 -1.0842022e-19
2.1779904 -2 -1.8182564
-2 2.4656575 2
2.2052896 1.0842022e-19 -1.815201
-2 2.4515264 -1.0842022e-19
2.1333697 2 -1.8119001
-3.6893488e+19 2.4195287 2
2.160188 -3.6893488e+19 -1.8095002
2 2.4141295 -3.6893488e+19
2.1016176 3.6893488e+19 -1.8090893
2 3.1539764 -1.0842022e-19
2.8142362 0 2.6544819
1.0842022e-19 3.1332605 2
2.8461378 -3.6893488e+19 2.6362398
-0 3.1301112 -3.6893488e+19
2.8432934 3.6893488e+19 2.6208439
1.0842022e-19 3.1300786 -2
2.8432639 2 2.6086261
-3.6893488e+19 3.1942134 1.0842022e-19
2.845535 -2 2.6529272
3.6893488e+19 3.0489619 -1.0842022e-19
2.7700043 0 2.5225315
-2 3.1913471 -1.0842022e-19
2.8433053 2 2.6365516
-2 3.0479352 0
2.7690773 2 2.5121014
2 3.0419662 2
2.7042165 -3.6893488e+19 2.493263
-0 3.0467784 -2
2.7680323 -0 2.5016508
1.0842022e-19 3.0457363 -1.0842022e-19
2.7100816 -2 2.4812737
-2 3.0419652 -3.6893488e+19
2.704215 -2 2.4570637
2 3.0878997 -2
2.8303761 3.6893488e+19 2.5135541
-0 3.1464305 -1.0842022e-19
2.8365903 -2 2.5455999
-1.0842022e-19 3.0911281 -1.0842022e-19
2.8335328 -3.6893488e+19 2.5051713
-2 3.0510418 2
2.7556005 0 2.4301908
-1.0842022e-19 3.0526867 -2
2.7569969 2 2.4137299
0 3.0434723 -0
2.786938 1.0842022e-19 2.401669
3.6893488e+19 3.0542345 -1.0842022e-19
2.758311 0 2.3969758
-2 3.0451961 2
2.7886236 -1.0842022e-19 2.3852925
-1.0842022e-19 3.0529509 -0
2.7572212 -0 2.37655
2 3.0477707 2
2.7911408 -0 2.3697884
-3.6893488e+19 3.0440104 1.0842022e-19
2.7492609 -3.6893488e+19 2.3472798
-2 3.0534399 0
2.7576365 3.6893488e+19 2.3397095
-1.0842022e-19 3.0541618 -3.6893488e+19
2.7582493 2 2.3218024
0 3.0457129 0
2.7100453 -3.6893488e+19 2.3000274
2 3.0412726 3.6893488e+19
2.7630599 1.0842022e-19 2.2931693
-1.0842022e-19 3.0444441 3.6893488e+19
2.7080715 1.0842022e-19 2.2808878
1.0842022e-19 3.0479386 -2
2.7135077 -2 2.2661848
0 3.0563607 3.6893488e+19
2.7766864 -1.0842022e-19 2.2704275
-3.6893488e+19 3.0478284 2
2.7133367 -2 2.2461731
-2 3.1383212 -2
2.8507082 -0 2.3187916
0 3.0472977 -2
2.7125106 0 2.2093945
-1.0842022e-19 3.0456941 3.6893488e+19
2.7670531 2 2.1990147
-3.6893488e+19 3.0346768 -2
2.6928763 0 2.1555717
2 3.0413795 0
2.7631564 -2 2.1565607
-3.6893488e+19 3.0310302 1.0842022e-19
2.6872034 2 2.1165278
-3.6893488e+19 3.0441186 -2
2.7656302 -1.0842022e-19 2.1241765
-1.0842022e-19 3.0302715 -0
2.686023 3.6893488e+19 2.0818233
-3.6893488e+19 3.0530751 -0
2.7963271 0 2.0844488
-3.6893488e+19 3.0311315 0
2.7273912 3.6893488e+19 2.0356939
-3.6893488e+19 3.1029842 -2
2.845125 3.6893488e+19 2.0955548
-2 3.0297742 3.6893488e+19
2.7250862 2 2.0003078
2 3.0482318 2
2.7915916 -3.6893488e+19 2.0048265
-1.0842022e-19 3.0307012 -0
2.7266603 1.0842022e-19 1.9670489
-2 3.0474827 -1.0842022e-19
2.7908592 3.6893488e+19 1.9671767
-3.6893488e+19 3.0335121 -1.0842022e-19
2.7314336 3.6893488e+19 1.9348074
-1.0842022e-19 3.0466065 3.6893488e+19
2.7900026 2 1.9296643
-1.0842022e-19 3.0309055 -2
2.7270072 2 1.8990341
3.6893488e+19 3.0422075 -3.6893488e+19
2.7857013 -2 1.8906838
-1.0842022e-19 3.0319362 -2
2.7287574 -2 1.8557794
0 3.0397012 -1.0842022e-19
2.7832508 2 1.831987
-1.0842022e-19 3.0335863 1.0842022e-19
2.7315595 3.6893488e+19 1.7883834
-2 3.0369554 -2
2.7805662 -1.0842022e-19 1.758746
-1.0842022e-19 3.0353379 3.6893488e+19
2.734534 -1.0842022e-19 1.6904473
2 3.0332911 0
2.6907206 -3.6893488e+19 1.6128861
-2 3.0308497 2
2.6869226 -2 -1.2573274
3.6893488e+19 3.0469663 3.6893488e+19
2.7682021 1.0842022e-19 -1.5561318
2 3.029356 -3.6893488e+19
2.6845984 1.0842022e-19 -1.6501722
-3.6893488e+19 3.0478613 1.0842022e-19
2.7690105 -2 -1.7366745
-2 3.0307026 2
2.6866937 3.6893488e+19 -1.7676505
1.0842022e-19 3.0472612 3.6893488e+19
2.7684684 -0 -1.8158669
2 3.0389364 1.0842022e-19
2.6995029 -0 -1.8410091
-3.6893488e+19 3.0458493 -1.0842022e-19
2.7671933 -0 -1.8812078
1.0842022e-19 3.0446208 3.6893488e+19
2.7083461 -0 -1.8954146
2 2.9819863 -2
2.6853008 0 -1.8863943
-2 2.963836 0
2.6107986 1.0842022e-19 -1.8922535
-2 2.9662137 0
2.6710563 2 -1.9104984
0 2.9302464 -3.6893488e+19
2.5846703 0 -1.9077343
1.0842022e-19 2.8466971 3.6893488e+19
2.5631158 -1.0842022e-19 -1.8906051
3.6893488e+19 2.810909 -0
2.5539865 1.0842022e-19 -1.8875898
3.6893488e+19 2.7877634 -0
2.4886525 1.0842022e-19 -1.8830295
0 2.7372692 3.6893488e+19
2.4764199 0 -1.8709668
0 2.7078047 1.0842022e-19
2.3887002 3.6893488e+19 -1.864466
2 2.6520021 3.6893488e+19
2.3930514 0 -1.8529729
2 2.6252882 0
2.3186395 -2 -1.844131
2 2.5884109 0
2.3308761 -2 -1.8380107
-2 2.5809262 0
2.2809739 0 -1.8383799
0 2.5453546 -2
2.2887783 -2 -1.8293464
3.6893488e+19 2.5348737 -1.0842022e-19
2.2337456 1.0842022e-19 -1.8260473
-0 2.5059111 -2
2.2502131 2 -1.8180461
-2 2.5020399 -1.0842022e-19
2.1779904 -2 -1.8182564
-2 2.4656575 2
2.2052896 1.0842022e-19 -1.815201
-2 2.4515264 -1.0842022e-19
2.1333697 2 -1.8119001
-3.6893488e+19 2.4195287 2
2.160188 -3.6893488e+19 -1.8095002
2 2.4141295 -3.6893488e+19
2.1016176 3.6893488e+19 -1.8090893
1.0842022e-19 3.148736 -1.0842022e-19
2.8077612 -1.0842022e-19 2.6488304
0 3.1351292 -1.0842022e-19
2.845403 -3.6893488e+19 2.6376665
2 3.1322846 -0
2.8428519 -3.6893488e+19 2.6225255
0 3.1265118 -3.6893488e+19
2.8376744 -3.6893488e+19 2.6048427
1.0842022e-19 3.1277928 -2
2.8388233 -1.0842022e-19 2.5939879
-2 3.1911089 -2
2.8404665 2 2.6359518
2 3.1295328 1.0842022e-19
2.840384 3.6893488e+19 2.583492
1.0842022e-19 3.1423242 3.6893488e+19
2.8028123 -0 2.5810709
-3.6893488e+19 3.0488076 -3.6893488e+19
2.7679856 -1.0842022e-19 2.5030735
-3.6893488e+19 3.1553416 -3.6893488e+19
2.8128598 -2 2.5794873
-2 3.0499036 -0
2.7689686 1.0842022e-19 2.4890168
3.6893488e+19 3.157531 3.6893488e+19
2.8145497 -0 2.5686662
-3.6893488e+19 3.0526149 -1.0842022e-19
2.7714002 -0 2.4743249
-0 3.0883582 -2
2.8286345 -2 2.5135756
-3.6893488e+19 3.1468692 -2
2.8345156 -2 2.5455999
2 3.0925057 -1.0842022e-19
2.8326628 2 2.5058756
0 3.1517105 -2
2.8385961 1.0842022e-19 2.536706
1.0842022e-19 3.1369987 -1.0842022e-19
2.8261957 -2 2.5141935
3.6893488e+19 3.1358957 -2
2.8748059 1.0842022e-19 2.5137472
0 3.1386096 0
2.8275537 -2 2.5032551
-3.6893488e+19 3.1272881 -2
2.8664458 -0 2.4918127
3.6893488e+19 3.137439 -1.0842022e-19
2.8265669 -0 2.4810312
0 3.0477607 -1.0842022e-19
2.7892036 -3.6893488e+19 2.3693049
-2 3.0443358 -2
2.7461834 -3.6893488e+19 2.3472798
-1.0842022e-19 3.0470674 -3.6893488e+19
2.7885303 -1.0842022e-19 2.3496895
0 3.1370265 1.0842022e-19
2.8262193 1.0842022e-19 2.4090202
-2 3.1453784 2
2.8051698 -3.6893488e+19 2.4007409
-0 3.1325507 -1.0842022e-19
2.8430905 -2 2.3845887
-3.6893488e+19 3.0463941 1.0842022e-19
2.7075393 -2 2.2824616
2 3.1257312 -3.6893488e+19
2.8369744 -3.6893488e+19 2.3544869
-0 3.0478926 -1.0842022e-19
2.7098522 1.0842022e-19 2.2658744
0 3.0567498 0
2.7751086 -0 2.2704525
-1.0842022e-19 3.1462111 2
2.8058126 3.6893488e+19 2.3297036
0 3.137785 -2
2.8477848 0 2.317977
3.6893488e+19 3.1474569 -3.6893488e+19
2.8067739 -1.0842022e-19 2.3067708
0 3.1368921 -3.6893488e+19
2.8469839 -1.0842022e-19 2.2934041
-1.0842022e-19 3.0351107 2
2.6901212 2 2.1557784
-2 3.0422626 -0
2.7621157 -1.0842022e-19 2.1573133
3.6893488e+19 3.151202 0
2.8096647 -2 2.2613645
-3.6893488e+19 3.1095636 2
2.8224747 -1.0842022e-19 2.2068973
-0 3.0301194 1.0842022e-19
2.6824162 1.0842022e-19 2.0813074
0 3.1047494 -1.0842022e-19
2.8445547 3.6893488e+19 2.1409736
-3.6893488e+19 3.230695 0
2.9051714 -0 2.2379558
-3.6893488e+19 3.1032097 0
2.8430595 -0 2.0953352
2 3.0305729 0
2.7229822 -3.6893488e+19 2.0007446
-0 3.0300913 1.0842022e-19
2.7221704 2 1.9663378
-1.0842022e-19 3.2405667 -0
2.976469 -0 2.107681
1.0842022e-19 3.0313225 0
2.7242458 -0 1.9331772
-0 3.2401612 3.6893488e+19
2.9760752 -2 2.0465283
-3.6893488e+19 3.2682061 1.0842022e-19
2.9521348 -0 2.0342784
1.0842022e-19 3.0417652 3.6893488e+19
2.7833805 -2 1.8902919
-1.0842022e-19 3.2572737 2
2.9337051 2 1.9603591
3.6893488e+19 3.0400705 0
2.7817347 2 1.831987
1.0842022e-19 3.03462 -3.6893488e+19
2.7298045 3.6893488e+19 1.7887976
0 3.0408912 -1.0842022e-19
2.7825315 -3.6893488e+19 1.7604077
2 3.2420619 -3.6893488e+19
2.914752 -1.0842022e-19 1.7890304
-2 3.0283597 -1.0842022e-19
2.6796997 3.6893488e+19 1.6085085
2 3.0307555 2
2.683398 1.0842022e-19 -1.2571491
-2 3.0487702 -3.6893488e+19
2.767952 0 -1.5570178
3.6893488e+19 3.0480411 0
2.7672982 -2 -1.7365388
2 3.0407529 0
2.6988308 1.0842022e-19 -1.7726083
2 3.0474117 2
2.7667336 -3.6893488e+19 -1.8157389
1.0842022e-19 3.0369558 1.0842022e-19
2.6929693 0 -1.8393112
3.6893488e+19 3.0465684 2
2.7659774 -0 -1.881372
0 3.0430543 -3.6893488e+19
2.7023833 1.0842022e-19 -1.894495
-0 2.9790199 0
2.6796091 -3.6893488e+19 -1.8853953
1.0842022e-19 2.9647725 1.0842022e-19
2.608731 2 -1.8923963
2 2.9645405 2
2.6666231 -3.6893488e+19 -1.9097341
3.6893488e+19 2.9303329 -2
2.582149 2 -1.9076062
-0 2.8479028 -3.6893488e+19
2.5620165 -2 -1.8909281
-0 2.8122039 2
2.553232 1.0842022e-19 -1.8879869
0 2.7898073 -3.6893488e+19
2.488549 -1.0842022e-19 -1.8838261
-1.0842022e-19 2.7374413 2
2.4734335 -3.6893488e+19 -1.8707403
2 2.7070465 -0
2.3852382 -1.0842022e-19 -1.8638051
0 2.6465673 1.0842022e-19
2.3851709 -1.0842022e-19 -1.8496044
-1.0842022e-19 2.6259334 -3.6893488e+19
2.316869 3.6893488e+19 -1.8442651
-0 2.5889544 0
2.3292139 2 -1.8380812
3.6893488e+19 2.5811777 -3.6893488e+19
2.279145 -0 -1.8383058
2 2.5460675 0
2.2875593 2 -1.8295789
-0 2.535763 1.0842022e-19
2.2317317 -2 -1.8264519
1.0842022e-19 2.5063496 3.6893488e+19
2.2479653 2 -1.8181305
-0 2.5030074 -2
2.176513 1.0842022e-19 -1.8187838
-3.6893488e+19 2.4666991 -1.0842022e-19
2.2032874 -3.6893488e+19 -1.8153837
-2 2.4524848 -3.6893488e+19
2.1313932 1.0842022e-19 -1.8120898
2 2.4182734 0
2.1562533 3.6893488e+19 -1.8087139
2 2.4141295 0
2.0990641 0 -1.8088858
0 2.3761506 -3.6893488e+19
2.0403287 -1.0842022e-19 -1.8070356
3.6893488e+19 2.329247 2
2.0041268 -0 -1.804302
0 2.2847528 3.6893488e+19
1.9697843 2 -1.7973995
0 2.2535126 -1.0842022e-19
1.9456717 -1.0842022e-19 -1.7939736
3.6893488e+19 2.1938674 2
1.9655559 -1.0842022e-19 -1.792541
-2 2.1534061 -0
1.9459066 -1.0842022e-19 -1.7901654
2 2.1333618 0
1.9361725 2 -1.7942778
1.0842022e-19 3.148736 -1.0842022e-19
2.8077612 -1.0842022e-19 2.6488304
0 3.1351292 -1.0842022e-19
2.845403 -3.6893488e+19 2.6376665
2 3.1322846 -0
2.8428519 -3.6893488e+19 2.6225255
0 3.1265118 -3.6893488e+19
2.8376744 -3.6893488e+19 2.6048427
1.0842022e-19 3.1277928 -2
2.8388233 -1.0842022e-19 2.5939879
-2 3.1911089 -2
2.8404665 2 2.6359518
-1.0842022e-19 3.0468602 2
2.7662392 1.0842022e-19 2.5108485
3.6893488e+19 3.0455232 2
2.7061946 2 2.4987669
-3.6893488e+19 3.0488076 -3.6893488e+19
2.7679856 -1.0842022e-19 2.5030735
-2 3.0466661 2
2.7079592 -3.6893488e+19 2.4822981
-2 3.0499036 -0
2.7689686 1.0842022e-19 2.4890168
0 3.042835 -1.0842022e-19
2.7020447 2 2.4579608
-3.6893488e+19 3.0526149 -1.0842022e-19
2.7714002 -0 2.4743249
-0 3.0883582 -2
2.8286345 -2 2.5135756
-3.6893488e+19 3.1468692 -2
2.8345156 -2 2.5455999
2 3.0925057 -1.0842022e-19
2.8326628 2 2.5058756
-1.0842022e-19 3.0518866 -0
2.754456 2 2.4309208
2 3.0523391 0
2.7548375 3.6893488e+19 2.4127977
3.6893488e+19 3.1358957 -2
2.8748059 1.0842022e-19 2.5137472
2 3.0521791 3.6893488e+19
2.7547026 -0 2.3938577
-2 3.0459619 2
2.7874568 -0 2.3858001
1.0842022e-19 3.060128 1.0842022e-19
2.7614026 -1.0842022e-19 2.3850443
0 3.0477607 -1.0842022e-19
2.7892036 -3.6893488e+19 2.3693049
-2 3.0443358 -2
2.7461834 -3.6893488e+19 2.3472798
-1.0842022e-19 3.0470674 -3.6893488e+19
2.7885303 -1.0842022e-19 2.3496895
0 3.1370265 1.0842022e-19
2.8262193 1.0842022e-19 2.4090202
-3.6893488e+19 3.0386875 1.0842022e-19
2.6956427 -2 2.292603
3.6893488e+19 3.0405958 2
2.7606208 -3.6893488e+19 2.2921438
-3.6893488e+19 3.0463941 1.0842022e-19
2.7075393 -2 2.2824616
2 3.1257312 -3.6893488e+19
2.8369744 -3.6893488e+19 2.3544869
-0 3.0478926 -1.0842022e-19
2.7098522 1.0842022e-19 2.2658744
0 3.0567498 0
2.7751086 -0 2.2704525
-3.6893488e+19 3.0478692 -3.6893488e+19
2.7098162 -2 2.2457385
0 3.137785 -2
2.8477848 0 2.317977
-2 3.0478022 -3.6893488e+19
2.7097127 0 2.2097082
2 3.0482867 -1.0842022e-19
2.7675183 3.6893488e+19 2.2024186
-1.0842022e-19 3.0351107 2
2.6901212 2 2.1557784
-2 3.0422626 -0
2.7621157 -1.0842022e-19 2.1573133
-1.0842022e-19 3.0351815 -2
2.6902304 2 2.1215653
-0 3.0434413 2
2.7631729 0 2.1228757
-0 3.0301194 1.0842022e-19
2.6824162 1.0842022e-19 2.0813074
-2 3.0511889 1.0842022e-19
2.7925336 -2 2.081944
-0 3.0309253 1.0842022e-19
2.7235763 0 2.0351686
-0 3.0504978 2
2.7918622 2 2.0437984
2 3.0305729 0
2.7229822 -3.6893488e+19 2.0007446
-0 3.0300913 1.0842022e-19
2.7221704 2 1.9663378
1.0842022e-19 3.0492384 -1.0842022e-19
2.7906389 -3.6893488e+19 1.9681801
1.0842022e-19 3.0313225 0
2.7242458 -0 1.9331772
1.0842022e-19 3.0460858 -2
2.7875769 0 1.9291204
-1.0842022e-19 3.0324829 -0
2.726202 -0 1.8997053
1.0842022e-19 3.0417652 3.6893488e+19
2.7833805 -2 1.8902919
2 3.0335438 -0
2.7279904 -0 1.8568387
3.6893488e+19 3.0400705 0
2.7817347 2 1.831987
1.0842022e-19 3.03462 -3.6893488e+19
2.7298045 3.6893488e+19 1.7887976
0 3.0408912 -1.0842022e-19
2.7825315 -3.6893488e+19 1.7604077
-3.6893488e+19 3.0354521 3.6893488e+19
2.7312076 2 1.690313
-2 3.0283597 -1.0842022e-19
2.6796997 3.6893488e+19 1.6085085
2 3.0307555 2
2.683398 1.0842022e-19 -1.2571491
-2 3.0487702 -3.6893488e+19
2.767952 0 -1.5570178
3.6893488e+19 3.0480411 0
2.7672982 -2 -1.7365388
2 3.0407529 0
2.6988308 1.0842022e-19 -1.7726083
2 3.0474117 2
2.7667336 -3.6893488e+19 -1.8157389
1.0842022e-19 3.0369558 1.0842022e-19
2.6929693 0 -1.8393112
3.6893488e+19 3.0465684 2
2.7659774 -0 -1.881372
0 3.0430543 -3.6893488e+19
2.7023833 1.0842022e-19 -1.894495
-0 2.9790199 0
2.6796091 -3.6893488e+19 -1.8853953
1.0842022e-19 2.9647725 1.0842022e-19
2.608731 2 -1.8923963
2 2.9645405 2
2.6666231 -3.6893488e+19 -1.9097341
3.6893488e+19 2.9303329 -2
2.582149 2 -1.9076062
-0 2.8479028 -3.6893488e+19
2.5620165 -2 -1.8909281
-0 2.8122039 2
2.553232 1.0842022e-19 -1.8879869
0 2.7898073 -3.6893488e+19
2.488549 -1.0842022e-19 -1.8838261
-1.0842022e-19 2.7374413 2
2.4734335 -3.6893488e+19 -1.8707403
2 2.7070465 -0
2.3852382 -1.0842022e-19 -1.8638051
0 2.6465673 1.0842022e-19
2.3851709 -1.0842022e-19 -1.8496044
-1.0842022e-19 2.6259334 -3.6893488e+19
2.316869 3.6893488e+19 -1.8442651
-0 2.5889544 0
2.3292139 2 -1.8380812
3.6893488e+19 2.5811777 -3.6893488e+19
2.279145 -0 -1.8383058
2 2.5460675 0
2.2875593 2 -1.8295789
-0 2.535763 1.0842022e-19
2.2317317 -2 -1.8264519
1.0842022e-19 2.5063496 3.6893488e+19
2.2479653 2 -1.8181305
-0 2.5030074 -2
2.176513 1.0842022e-19 -1.8187838
-3.6893488e+19 2.4666991 -1.0842022e-19
2.2032874 -3.6893488e+19 -1.8153837
-2 2.4524848 -3.6893488e+19
2.1313932 1.0842022e-19 -1.8120898
2 2.4182734 0
2.1562533 3.6893488e+19 -1.8087139
2 2.4141295 0
2.0990641 0 -1.8088858
0 2.3761506 -3.6893488e+19
2.0403287 -1.0842022e-19 -1.8070356
3.6893488e+19 2.329247 2
2.0041268 -0 -1.804302
0 2.2847528 3.6893488e+19
1.9697843 2 -1.7973995
0 2.2535126 -1.0842022e-19
1.9456717 -1.0842022e-19 -1.7939736
3.6893488e+19 2.1938674 2
1.9655559 -1.0842022e-19 -1.792541
-2 2.1534061 -0
1.9459066 -1.0842022e-19 -1.7901654
2 2.1333618 0
1.9361725 2 -1.7942778
2 3.1501033 -0
2.8064146 -0 2.649796
-1.0842022e-19 3.1357741 0
2.8435609 1.0842022e-19 2.6378624
-0 3.1617889 -2
2.8153639 0 2.6485302
-1.0842022e-19 3.1335955 0
2.8416207 -2 2.6233664
-3.6893488e+19 3.1270914 3.6893488e+19
2.8358283 -3.6893488e+19 2.604974
-2 3.1280947 -2
2.8367217 -0 2.5938609
3.6893488e+19 3.0408895 3.6893488e+19
2.695549 1.0842022e-19 2.5042603
-3.6893488e+19 3.1426327 1.0842022e-19
2.8006935 -2 2.5809984
1.0842022e-19 3.0497458 3.6893488e+19
2.7669461 1.0842022e-19 2.5035715
0 3.0501142 2
2.7672741 3.6893488e+19 2.4887881
-3.6893488e+19 3.0531936 -1.0842022e-19
2.7700167 -2 2.4746768
-1.0842022e-19 3.1175642 -1.0842022e-19
2.8546283 3.6893488e+19 2.5359645
-2 3.1473053 2
2.8324387 -2 2.5455999
3.6893488e+19 3.1200027 3.6893488e+19
2.856981 0 2.5260682
-3.6893488e+19 3.1510422 2
2.8355656 -1.0842022e-19 2.5359149
3.6893488e+19 3.1253457 -1.0842022e-19
2.8621359 -3.6893488e+19 2.518121
-0 3.1374238 -2
2.8241704 -2 2.5141935
2 3.1391506 0
2.8256154 1.0842022e-19 2.5033295
-2 3.1277103 0
2.8644176 3.6893488e+19 2.4917402
1.0842022e-19 3.1348968 -3.6893488e+19
2.8220558 -1.0842022e-19 2.4773502
1.0842022e-19 3.1273346 -3.6893488e+19
2.8640547 3.6893488e+19 2.4674065
-3.6893488e+19 3.0445449 1.0842022e-19
2.7429116 0 2.3471453
1.0842022e-19 3.0476112 0
2.7871373 1.0842022e-19 2.3498864
-2 3.1392007 1.0842022e-19
2.8256574 3.6893488e+19 2.4347618
-2 3.0491352 -2
2.7886076 3.6893488e+19 2.3328469
-0 3.1373372 1.0842022e-19
2.8240981 2 2.4088993
1.0842022e-19 3.0394127 -2
2.6932869 -3.6893488e+19 2.2930431
3.6893488e+19 3.1345296 0
2.8424525 1.0842022e-19 2.3861268
-1.0842022e-19 3.0459962 -2
2.7033708 1.0842022e-19 2.2817991
1.0842022e-19 3.1273627 1.0842022e-19
2.8360698 -3.6893488e+19 2.3556104
3.6893488e+19 3.0440414 0
2.7003767 0 2.2621734
-0 3.0567107 1.0842022e-19
2.773149 -2 2.2701023
1.0842022e-19 3.0473847 3.6893488e+19
2.7054975 -2 2.2444346
0 3.1385226 1.0842022e-19
2.8460085 -0 2.3182096
0 3.1348701 3.6893488e+19
2.8427556 2 2.2915299
1.0842022e-19 3.0361538 2
2.6882954 -1.0842022e-19 2.1568534
3.6893488e+19 3.1511981 2
2.8072531 -1.0842022e-19 2.2610993
3.6893488e+19 3.1109238 2
2.8214297 -0 2.2080898
-3.6893488e+19 3.0302846 0
2.679306 0 2.0811698
1.0842022e-19 3.0476575 -2
2.7650862 1.0842022e-19 2.0912721
3.6893488e+19 3.1034288 0
2.8409905 -0 2.1390254
3.6893488e+19 3.0291331 0
2.7171202 -3.6893488e+19 2.0330381
-1.0842022e-19 3.1196482 0
2.8566391 -0 2.11095
3.6893488e+19 3.2766633 -1.0842022e-19
2.9629869 2 2.243959
-3.6893488e+19 3.1198652 1.0842022e-19
2.8568485 3.6893488e+19 2.0652328
0 3.0305719 -2
2.7195277 -2 1.9664711
2 3.0488582 1.0842022e-19
2.7883403 -2 1.9676272
-2 3.2768493 -0
2.9632983 -0 2.1101336
1.0842022e-19 3.2438765 -3.6893488e+19
2.976495 2 2.048398
-3.6893488e+19 3.0296235 0
2.717941 -2 1.8980273
1.0842022e-19 3.0420504 -3.6893488e+19
2.7817719 -2 1.8902514
1.0842022e-19 3.0335383 2
2.7244921 2 1.8565798
1.0842022e-19 3.1572492 1.0842022e-19
2.8929167 3.6893488e+19 1.8951175
-3.6893488e+19 3.0409217 2
2.7806833 -2 1.7602507
3.6893488e+19 3.2434385 -3.6893488e+19
2.9128764 -2 1.7893088
-0 3.025984 0
2.6727188 3.6893488e+19 1.6062829
2 3.0397863 -0
2.7580764 3.6893488e+19 1.4633769
-0 3.0473211 -1.0842022e-19
2.7647867 -1.0842022e-19 -1.5559233
-3.6893488e+19 3.0508735 -1.0842022e-19
2.7108414 -0 -1.6614132
-2 3.0486465 -0
2.7659671 3.6893488e+19 -1.7367425
-3.6893488e+19 3.0509665 0
2.710984 -0 -1.77764
3.6893488e+19 3.0676253 -0
2.7828691 -2 -1.8284646
3.6893488e+19 3.0348811 3.6893488e+19
2.6863461 -3.6893488e+19 -1.8375479
2 3.0469723 3.6893488e+19
2.7644761 2 -1.8813972
-3.6893488e+19 3.0483372 -1.0842022e-19
2.7069566 -2 -1.896952
-3.6893488e+19 2.9802647 -2
2.6777117 -1.0842022e-19 -1.8855886
0 3.0482996 2
