# .PCD v0.7 - Point Cloud Data file format
VERSION 0.7
FIELDS x y z
SIZE 4 4 4
TYPE F F F
COUNT 1 1 1
WIDTH 1691
HEIGHT 1
VIEWPOINT 0 0 0 1 0 0 0
POINTS 1691
DATA ascii
2 3.1160574 3.6893488e+19
-1.7960272 -3.6893488e+19 2.3928382
-3.6893488e+19 3.1163015 2
1.9765348 -3.6893488e+19 2.3829522
2 3.1141779 -1.0842022e-19
1.9752214 -3.6893488e+19 2.3600769
-2 3.1011326 -1.0842022e-19
1.6818036 -0 2.3171451
2 3.2205551 2
-2.0901048 -3.6893488e+19 2.412132
-3.6893488e+19 3.032413 -3.6893488e+19
1.6462231 0 2.2282801
3.6893488e+19 3.1027708 2
1.6826518 -3.6893488e+19 2.2788346
-2 2.9772868 1.0842022e-19
-1.9224852 -2 2.1141796
1.0842022e-19 3.1012003 0
1.6818386 0 2.2578309
0 3.1023636 -1.0842022e-19
-2.004679 -2 2.248044
-3.6893488e+19 3.1014786 2
1.6819828 2 2.2265568
1.0842022e-19 2.9770656 0
-1.9224052 1.0842022e-19 2.0603302
1.0842022e-19 3.1026125 3.6893488e+19
1.6825697 -0 2.1885073
-3.6893488e+19 3.1079307 1.0842022e-19
-2.008703 -3.6893488e+19 2.1754575
1.0842022e-19 3.1055069 -1.0842022e-19
1.6840683 0 2.1522307
3.6893488e+19 3.1009121 -2
-2.0036299 -0 2.1277428
2 2.9851255 1.0842022e-19
1.6255901 -0 1.9972618
-2 3.1426201 -0
1.9928112 -0 2.1285176
-3.6893488e+19 3.0953455 3.6893488e+19
-1.7863504 -0 2.0634027
-3.6893488e+19 3.1430559 -1.0842022e-19
1.9930807 -3.6893488e+19 2.0849276
3.6893488e+19 3.0982201 2
-1.7876934 2 2.0270536
-0 3.1119366 1.0842022e-19
1.9738353 -2 2.0179067
-1.0842022e-19 2.9135783 2
-1.6932297 -0 1.8914129
3.6893488e+19 3.1062407 0
1.9703128 -2 1.9738501
2 2.9136291 -3.6893488e+19
-1.6932533 2 1.8616446
1.0842022e-19 3.010139 -2
1.9108797 -3.6893488e+19 1.8843915
-2 2.9167829 1.0842022e-19
-1.6947269 -1.0842022e-19 1.8169131
-0 3.141988 1.0842022e-19
1.9924203 1.0842022e-19 1.9087121
-0 2.9231668 0
-1.6977096 -1.0842022e-19 1.7726136
-2 3.1430779 1.0842022e-19
1.9930943 2 1.855522
1.0842022e-19 2.9189093 -1.0842022e-19
-1.6957203 -1.0842022e-19 1.6987764
-1.0842022e-19 3.1426814 1.0842022e-19
1.9928491 2 1.7675985
-0 3.0839686 3.6893488e+19
-1.9913838 -1.0842022e-19 1.5619481
-2 3.016866 1.0842022e-19
1.6381735 -2 1.2410901
-0 3.0852818 -0
-1.9923329 -1.0842022e-19 -1.473649
0 2.9867876 2
1.6260203 -0 -1.5646827
2 2.9316649 -0
-1.905998 -1.0842022e-19 -1.6323789
0 2.9896922 2
1.6267723 0 -1.7046701
-3.6893488e+19 2.9365573 3.6893488e+19
-1.9077661 3.6893488e+19 -1.7313902
-2 2.9953218 0
1.6282297 0 -1.7837702
-1.0842022e-19 2.9331257 2
-1.906526 0 -1.7881596
-1.0842022e-19 2.9944284 -3.6893488e+19
1.6279984 2 -1.8386691
-0 2.9277396 0
-1.9045795 0 -1.833928
-1.0842022e-19 2.9826429 -1.0842022e-19
1.6248947 1.0842022e-19 -1.8812277
-3.6893488e+19 2.9238946 1.0842022e-19
-1.90319 -0 -1.8772188
3.6893488e+19 2.9429264 2
1.604331 -2 -1.8951684
-3.6893488e+19 2.9182847 2
-1.9011626 -2 -1.8989232
-3.6893488e+19 2.854768 -0
1.5586859 -3.6893488e+19 -1.8860976
1.0842022e-19 2.838362 -1.0842022e-19
1.8342558 -1.0842022e-19 -1.8893646
-2 2.8218551 -2
-1.6503752 -3.6893488e+19 -1.8914812
-3.6893488e+19 2.7513039 -3.6893488e+19
-1.6098256 0 -1.8740681
1.0842022e-19 2.6920986 0
1.7617053 -1.0842022e-19 -1.8566084
3.6893488e+19 2.6547461 1.0842022e-19
-1.5641031 2 -1.8482416
2 2.6191313 0
1.7282848 0 -1.8390794
1.0842022e-19 2.5903585 2
-1.5340203 -0 -1.8318129
1.0842022e-19 2.5591691 -1.0842022e-19
1.6912018 -2 -1.82166
0 2.5433359 -1.0842022e-19
-1.5120506 3.6893488e+19 -1.8197029
1.0842022e-19 2.5261376 -3.6893488e+19
1.6707739 2 -1.816165
3.6893488e+19 2.5112913 1.0842022e-19
-1.494158 -0 -1.813117
0 2.4912391 1.0842022e-19
1.6519004 2 -1.8088584
2 2.4697442 -2
-1.4694711 1.0842022e-19 -1.8073097
-3.6893488e+19 2.4489 -1.0842022e-19
1.6388084 1.0842022e-19 -1.8056579
-0 2.3865712 -0
-1.6397017 -2 -1.802447
1.0842022e-19 2.3361282 -1.0842022e-19
-1.6179446 -0 -1.7983351
2 2.2944517 3.6893488e+19
-1.587822 1.0842022e-19 -1.7935851
-3.6893488e+19 2.2607763 -2
-1.5634823 -1.0842022e-19 -1.7891909
0 2.226182 3.6893488e+19
1.5222445 -0 -1.788514
2 2.187665 -1.0842022e-19
1.5103343 -1.0842022e-19 -1.7878914
1.0842022e-19 2.1551352 -3.6893488e+19
1.5002754 3.6893488e+19 -1.7875118
3.6893488e+19 2.118794 0
1.4780762 -2 -1.7836696
0 3.0886617 -3.6893488e+19
-1.9947757 3.6893488e+19 2.5638525
3.6893488e+19 3.1701918 -0
1.7175598 -0 2.6328592
-0 3.0886514 3.6893488e+19
-1.9947684 0 2.553901
0 3.180614 2
1.7229561 2 2.6297457
2 3.0881655 1.0842022e-19
-1.9944172 1.0842022e-19 2.543566
-3.6893488e+19 3.0479522 3.6893488e+19
1.6542687 0 2.5040555
2 3.0310643 2
1.6455247 1.0842022e-19 2.4629462
0 3.2882235 0
-2.1666408 3.6893488e+19 2.7168274
3.6893488e+19 3.1756394 2
1.7203804 1.0842022e-19 2.5881858
-0 3.2968192 0
-2.1790664 -1.0842022e-19 2.7135274
-1.0842022e-19 3.0315981 1.0842022e-19
1.6458012 2 2.4311759
2 3.0909066 3.6893488e+19
-1.9963983 -2 2.5063229
2 3.0293241 0
1.6446238 -1.0842022e-19 2.4115679
-3.6893488e+19 3.0901463 -0
-1.9958489 -3.6893488e+19 2.4918716
3.6893488e+19 3.0293067 -0
1.6446147 0 2.3954558
-1.0842022e-19 3.0514612 3.6893488e+19
1.9364351 2 2.4184585
-1.0842022e-19 3.0275905 -1.0842022e-19
-1.7546942 -0 2.3771086
2 3.1310773 -2
1.9856726 -3.6893488e+19 2.5035448
3.6893488e+19 3.033649 1.0842022e-19
-1.7575248 2 2.3690798
0 3.1311395 2
1.9857111 1.0842022e-19 2.4853406
0 3.0330374 0
-1.7572391 0 2.3520999
-2 3.0525501 2
1.9371085 -1.0842022e-19 2.36797
-3.6893488e+19 3.0323172 -3.6893488e+19
-1.7569026 -1.0842022e-19 2.3350928
-2 3.0319526 0
-1.7567323 0 2.318603
0 3.0750945 -3.6893488e+19
1.9510506 -1.0842022e-19 2.3583403
0 3.0295911 -3.6893488e+19
-1.7556288 -3.6893488e+19 2.300046
0 3.0518661 -2
1.9366853 0 2.3155878
2 3.0560694 1.0842022e-19
1.9392849 3.6893488e+19 2.3026228
-0 3.0377872 2
1.6490057 -0 2.2599311
-3.6893488e+19 2.9936125 1.0842022e-19
-1.9283851 1.0842022e-19 2.182327
-3.6893488e+19 3.032413 -3.6893488e+19
1.6462231 0 2.2282801
3.6893488e+19 3.030189 0
1.6450716 -3.6893488e+19 2.1929302
-2 2.9772868 1.0842022e-19
-1.9224852 -2 2.1141796
1.0842022e-19 3.1012003 0
1.6818386 0 2.2578309
3.6893488e+19 2.9764106 -1.0842022e-19
-1.9221685 3.6893488e+19 2.0866885
3.6893488e+19 3.0071013 -1.0842022e-19
1.6331176 3.6893488e+19 2.098594
1.0842022e-19 2.9770656 0
-1.9224052 1.0842022e-19 2.0603302
1.0842022e-19 3.1026125 3.6893488e+19
1.6825697 -0 2.1885073
1.0842022e-19 2.9790676 0
-1.9231287 -3.6893488e+19 2.0347238
-3.6893488e+19 2.9820304 -0
1.6245776 -0 2.0226915
2 2.9759398 1.0842022e-19
-1.9219984 1.0842022e-19 2.006165
2 2.9851255 1.0842022e-19
1.6255901 -0 1.9972618
-2 3.0114558 -3.6893488e+19
1.9116942 0 2.0020647
0 2.9756849 -1.0842022e-19
-1.7222466 -3.6893488e+19 1.965843
-1.0842022e-19 3.0233462 1.0842022e-19
1.9190477 1.0842022e-19 1.9829216
-3.6893488e+19 2.98229 -3.6893488e+19
-1.7253327 1.0842022e-19 1.9418617
-1.0842022e-19 3.0109012 -1.0842022e-19
1.9113512 1.0842022e-19 1.9431201
-1.0842022e-19 2.9135783 2
-1.6932297 -0 1.8914129
3.6893488e+19 3.0120399 -2
1.9120554 -3.6893488e+19 1.9146574
2 2.9136291 -3.6893488e+19
-1.6932533 2 1.8616446
1.0842022e-19 3.010139 -2
1.9108797 -3.6893488e+19 1.8843915
-2 2.9167829 1.0842022e-19
-1.6947269 -1.0842022e-19 1.8169131
1.0842022e-19 3.0166218 -2
1.914889 -3.6893488e+19 1.8409051
-0 2.9231668 0
-1.6977096 -1.0842022e-19 1.7726136
-2 3.1430779 1.0842022e-19
1.9930943 2 1.855522
1.0842022e-19 2.9189093 -1.0842022e-19
-1.6957203 -1.0842022e-19 1.6987764
2 3.0143168 -2
1.9134635 -3.6893488e+19 1.6919682
0 2.9296827 2
-1.9052817 -3.6893488e+19 1.4905266
-2 2.9917336 -1.0842022e-19
1.6273007 3.6893488e+19 1.2221191
-2 2.9283116 1.0842022e-19
-1.9047862 2 -1.3928522
0 2.9867876 2
1.6260203 -0 -1.5646827
2 2.9316649 -0
-1.905998 -1.0842022e-19 -1.6323789
0 2.9896922 2
1.6267723 0 -1.7046701
-3.6893488e+19 2.9365573 3.6893488e+19
-1.9077661 3.6893488e+19 -1.7313902
-2 2.9953218 0
1.6282297 0 -1.7837702
-1.0842022e-19 2.9331257 2
-1.906526 0 -1.7881596
-1.0842022e-19 2.9944284 -3.6893488e+19
1.6279984 2 -1.8386691
-0 2.9277396 0
-1.9045795 0 -1.833928
-1.0842022e-19 2.9826429 -1.0842022e-19
1.6248947 1.0842022e-19 -1.8812277
-3.6893488e+19 2.9238946 1.0842022e-19
-1.90319 -0 -1.8772188
-1.0842022e-19 2.8575008 3.6893488e+19
1.5601008 3.6893488e+19 -1.8593408
3.6893488e+19 2.8464291 3.6893488e+19
-1.8751949 0 -1.8716805
-3.6893488e+19 2.854768 -0
1.5586859 -3.6893488e+19 -1.8860976
1.0842022e-19 2.838362 -1.0842022e-19
1.8342558 -1.0842022e-19 -1.8893646
-2 2.8218551 -2
-1.6503752 -3.6893488e+19 -1.8914812
-3.6893488e+19 2.7513039 -3.6893488e+19
-1.6098256 0 -1.8740681
1.0842022e-19 2.6920986 0
1.7617053 -1.0842022e-19 -1.8566084
3.6893488e+19 2.6547461 1.0842022e-19
-1.5641031 2 -1.8482416
2 2.6191313 0
1.7282848 0 -1.8390794
1.0842022e-19 2.5903585 2
-1.5340203 -0 -1.8318129
1.0842022e-19 2.5591691 -1.0842022e-19
1.6912018 -2 -1.82166
0 2.5433359 -1.0842022e-19
-1.5120506 3.6893488e+19 -1.8197029
1.0842022e-19 2.5261376 -3.6893488e+19
1.6707739 2 -1.816165
3.6893488e+19 2.5112913 1.0842022e-19
-1.494158 -0 -1.813117
0 2.4912391 1.0842022e-19
1.6519004 2 -1.8088584
2 2.4697442 -2
-1.4694711 1.0842022e-19 -1.8073097
-3.6893488e+19 2.4489 -1.0842022e-19
1.6388084 1.0842022e-19 -1.8056579
-0 2.3865712 -0
-1.6397017 -2 -1.802447
1.0842022e-19 2.3361282 -1.0842022e-19
-1.6179446 -0 -1.7983351
2 2.2944517 3.6893488e+19
-1.587822 1.0842022e-19 -1.7935851
-3.6893488e+19 2.2607763 -2
-1.5634823 -1.0842022e-19 -1.7891909
0 2.226182 3.6893488e+19
1.5222445 -0 -1.788514
2 2.187665 -1.0842022e-19
1.5103343 -1.0842022e-19 -1.7878914
1.0842022e-19 2.1551352 -3.6893488e+19
1.5002754 3.6893488e+19 -1.7875118
3.6893488e+19 2.118794 0
1.4780762 -2 -1.7836696
2 3.0888028 3.6893488e+19
-2.0091298 -2 2.5640216
2 3.1702602 3.6893488e+19
1.64703 3.6893488e+19 2.6329148
-0 3.0884578 -3.6893488e+19
-2.0088658 -2 2.5537641
0 3.1806521 3.6893488e+19
1.6506656 0 2.6297727
-3.6893488e+19 3.0878496 1.0842022e-19
-2.0084009 2 2.5433276
1.0842022e-19 3.0822186 -3.6893488e+19
1.6074564 -1.0842022e-19 2.5332682
-0 3.0824287 2
1.6076035 2 2.5237699
-3.6893488e+19 3.2890601 -2
-2.1921694 -2 2.7182398
0 3.175647 3.6893488e+19
1.6489146 1.0842022e-19 2.5881858
2 3.175029 -3.6893488e+19
1.6486983 -3.6893488e+19 2.5753908
-0 3.0889323 -3.6893488e+19
-2.0092287 0 2.5048697
-1.0842022e-19 3.1726046 -3.6893488e+19
1.6478502 3.6893488e+19 2.5613363
3.6893488e+19 3.0896134 0
-2.0097499 -1.0842022e-19 2.4911609
3.6893488e+19 3.0294347 0
1.5705231 -3.6893488e+19 2.3956299
3.6893488e+19 3.122448 -0
1.9646806 2 2.5084722
-0 3.2947679 2
-1.9124719 -1.0842022e-19 2.6504607
0 3.1308374 0
1.9695163 1.0842022e-19 2.5033605
1.0842022e-19 3.0334213 0
-1.7812178 0 2.368799
1.0842022e-19 3.1308684 0
1.9695342 1.0842022e-19 2.4849479
3.6893488e+19 3.032902 2
-1.7809316 -0 2.3519461
-1.0842022e-19 3.0528576 -1.0842022e-19
1.9245684 0 2.3683081
2 3.031811 -0
-1.7803302 -1.0842022e-19 2.3345058
-1.0842022e-19 3.0317552 0
-1.7802995 1.0842022e-19 2.3183932
0 3.1217806 2
1.9642959 3.6893488e+19 2.4097607
0 3.1155157 2
-1.826467 1.0842022e-19 2.3922734
1.0842022e-19 3.1180098 -1.0842022e-19
1.9621223 -2 2.3847003
3.6893488e+19 3.1152906 1.0842022e-19
-1.8263431 0 2.3713076
0 3.1139657 -0
1.9597913 -2 2.3598318
-2 2.9932261 -3.6893488e+19
-1.9386194 0 2.209933
-0 3.0385065 1.0842022e-19
1.5768708 0 2.2605762
2 3.2185428 -0
-2.1083601 -1.0842022e-19 2.4104197
2 3.1079638 2
1.6252353 1.0842022e-19 2.3031089
0 2.993979 -2
-1.9389073 -3.6893488e+19 2.1548085
-2 3.107224 -2
1.624953 -1.0842022e-19 2.2823496
0 3.1033382 -0
-2.020247 3.6893488e+19 2.2696371
3.6893488e+19 3.1032293 0
1.6221579 3.6893488e+19 2.2593157
2 3.103471 -1.0842022e-19
-2.0203485 0 2.2496705
-1.0842022e-19 3.1017652 -1.0842022e-19
1.6211334 0 2.2269368
1.0842022e-19 2.9776919 3.6893488e+19
-1.9326788 -3.6893488e+19 2.0607753
3.6893488e+19 3.1025252 -0
1.6216652 -3.6893488e+19 2.188391
-3.6893488e+19 2.9759583 -2
-1.9320159 3.6893488e+19 2.0329106
2 3.105669 1.0842022e-19
1.623865 -1.0842022e-19 2.1524069
-1.0842022e-19 2.9828887 3.6893488e+19
1.5439409 2 1.9961174
-0 3.204787 -3.6893488e+19
2.012141 2 2.1884086
3.6893488e+19 3.094177 3.6893488e+19
-1.8147055 0 2.0623553
-2 3.2049356 1.0842022e-19
2.0122268 1.0842022e-19 2.1376181
1.0842022e-19 3.0959899 -0
-1.8157047 0 2.0252907
0 3.1130328 -1.0842022e-19
1.9592535 -0 2.0186918
-0 3.1093061 -0
-1.8230444 -0 1.9957219
-2 3.1049025 -1.0842022e-19
1.9545673 -3.6893488e+19 1.9729874
3.6893488e+19 3.0100708 2
1.8999059 2 1.8843433
-3.6893488e+19 2.9166405 1.0842022e-19
-1.7296464 0 1.8168557
-2 3.1078408 -2
1.9562609 2 1.8948721
-1.0842022e-19 2.9191506 -1.0842022e-19
-1.7310299 -3.6893488e+19 1.7712188
1.0842022e-19 3.025244 -2
1.9086517 -2 1.786402
-0 2.9883738 -2
-1.7595923 -2 1.7317476
0 3.014374 -2
1.9023862 1.0842022e-19 1.691991
2 2.9849131 0
-1.7586386 -1.0842022e-19 1.618785
-1.0842022e-19 2.9274452 -2
-1.9134635 3.6893488e+19 1.4893034
0 2.9289463 -1.0842022e-19
-1.9140375 -2 -1.3930812
-2 2.9851711 -3.6893488e+19
1.5447394 1.0842022e-19 -1.5640496
2 2.9342966 -1.0842022e-19
-1.9160836 0 -1.6332023
2 2.9810767 3.6893488e+19
1.5433069 -1.0842022e-19 -1.7010655
-2 2.9442441 -0
-1.9198878 -3.6893488e+19 -1.7354932
-3.6893488e+19 2.9792089 2
1.5426536 -3.6893488e+19 -1.7786026
-3.6893488e+19 2.9441197 3.6893488e+19
-1.9198402 3.6893488e+19 -1.7923214
2 2.9800677 1.0842022e-19
1.542954 1.0842022e-19 -1.8324593
0 2.9346139 -0
-1.9162049 3.6893488e+19 -1.8373115
0 2.9809651 -1.0842022e-19
1.5432678 -1.0842022e-19 -1.8807691
-3.6893488e+19 2.9229696 3.6893488e+19
-1.911752 -0 -1.8769567
-0 2.9434962 -0
1.5301592 -3.6893488e+19 -1.8953526
3.6893488e+19 2.9222252 2
-1.9114673 2 -1.9003445
-0 2.8351514 3.6893488e+19
1.8181827 -2 -1.8880287
3.6893488e+19 2.8218417 1.0842022e-19
-1.6773946 -3.6893488e+19 -1.8914812
-3.6893488e+19 2.7503579 0
-1.6379938 -0 -1.8731408
-2 2.6915185 0
1.7522466 -3.6893488e+19 -1.8562819
-1.0842022e-19 2.6547291 2
-1.598081 2 -1.8482416
-1.0842022e-19 2.619292 0
1.7128615 2 -1.8391516
1.0842022e-19 2.5925875 -0
-1.5638293 -3.6893488e+19 -1.8331759
0 2.556958 -3.6893488e+19
1.6769317 -1.0842022e-19 -1.8202344
-1.0842022e-19 2.5435727 2
-1.5368131 -1.0842022e-19 -1.8198682
-0 2.527658 -0
1.6600432 3.6893488e+19 -1.8171988
-1.0842022e-19 2.5112803 -1.0842022e-19
-1.519014 -0 -1.813117
-0 2.4910383 -0
1.6415182 2 -1.8087653
3.6893488e+19 2.4684806 -2
-1.5041099 0 -1.8068269
-2 2.4506841 -1.0842022e-19
1.6298881 0 -1.8063581
2 3.0888028 3.6893488e+19
-2.0091298 -2 2.5640216
2 3.1702602 3.6893488e+19
1.64703 3.6893488e+19 2.6329148
-0 3.0884578 -3.6893488e+19
-2.0088658 -2 2.5537641
0 3.1806521 3.6893488e+19
1.6506656 0 2.6297727
-3.6893488e+19 3.0878496 1.0842022e-19
-2.0084009 2 2.5433276
-1.0842022e-19 3.0480492 1.0842022e-19
1.5835479 0 2.5041337
-0 3.0310998 -2
1.5716882 -0 2.4629965
-3.6893488e+19 3.2890601 -2
-2.1921694 -2 2.7182398
0 3.175647 3.6893488e+19
1.6489146 1.0842022e-19 2.5881858
-0 3.0323091 -1.0842022e-19
1.5725343 0 2.4322569
-0 3.0889323 -3.6893488e+19
-2.0092287 0 2.5048697
1.0842022e-19 3.0292983 2
1.5704277 -1.0842022e-19 2.4115226
3.6893488e+19 3.0896134 0
-2.0097499 -1.0842022e-19 2.4911609
3.6893488e+19 3.0294347 0
1.5705231 -3.6893488e+19 2.3956299
-1.0842022e-19 3.0515523 0
1.9238161 -0 2.4185438
2 3.025207 1.0842022e-19
-1.7766902 -0 2.3738861
-2 3.0557911 -3.6893488e+19
1.9262593 0 2.4068689
1.0842022e-19 3.0334213 0
-1.7812178 0 2.368799
1.0842022e-19 3.1308684 0
1.9695342 1.0842022e-19 2.4849479
3.6893488e+19 3.032902 2
-1.7809316 -0 2.3519461
-1.0842022e-19 3.0528576 -1.0842022e-19
1.9245684 0 2.3683081
2 3.031811 -0
-1.7803302 -1.0842022e-19 2.3345058
-1.0842022e-19 3.0317552 0
-1.7802995 1.0842022e-19 2.3183932
0 3.1217806 2
1.9642959 3.6893488e+19 2.4097607
-0 3.0291767 -2
-1.7788782 -1.0842022e-19 2.299614
-3.6893488e+19 3.0519264 0
1.9240317 -2 2.3156199
1.0842022e-19 3.029865 0
-1.7792577 1.0842022e-19 2.2844748
1.0842022e-19 3.0543017 -0
1.9254007 1.0842022e-19 2.3008456
-2 2.9932261 -3.6893488e+19
-1.9386194 0 2.209933
-0 3.0385065 1.0842022e-19
1.5768708 0 2.2605762
0 2.9951661 -3.6893488e+19
-1.9393612 1.0842022e-19 2.1837404
-3.6893488e+19 3.030771 -0
1.5714582 0 2.2254908
0 2.993979 -2
-1.9389073 -3.6893488e+19 2.1548085
-1.0842022e-19 3.0312202 -1.0842022e-19
1.5717725 2 2.1945527
0 3.1033382 -0
-2.020247 3.6893488e+19 2.2696371
0 3.0014398 1.0842022e-19
1.5509348 1.0842022e-19 2.1191783
3.6893488e+19 2.9772232 -3.6893488e+19
-1.9324995 2 2.0873039
1.0842022e-19 3.00667 3.6893488e+19
1.5545944 3.6893488e+19 2.0980029
1.0842022e-19 2.9776919 3.6893488e+19
-1.9326788 -3.6893488e+19 2.0607753
3.6893488e+19 3.1025252 -0
1.6216652 -3.6893488e+19 2.188391
-3.6893488e+19 2.9759583 -2
-1.9320159 3.6893488e+19 2.0329106
-2 2.982039 -2
1.5436436 -0 2.0226915
-1.0842022e-19 2.9828887 3.6893488e+19
1.5439409 2 1.9961174
-1.0842022e-19 3.011045 -3.6893488e+19
1.9004674 3.6893488e+19 2.0016439
-3.6893488e+19 2.9845243 3.6893488e+19
-1.7585315 3.6893488e+19 1.9698632
-3.6893488e+19 3.0210028 3.6893488e+19
1.9062072 1.0842022e-19 1.9809022
-2 2.9805224 -1.0842022e-19
-1.7574285 0 1.9411665
2 3.0106149 -2
1.9002194 1.0842022e-19 1.9428892
3.6893488e+19 2.9129992 0
-1.7276393 -1.0842022e-19 1.8912207
-3.6893488e+19 3.0140314 2
1.9021889 -1.0842022e-19 1.9158926
3.6893488e+19 3.0100708 2
1.8999059 2 1.8843433
-3.6893488e+19 2.9166405 1.0842022e-19
-1.7296464 0 1.8168557
2 3.0141816 -2
1.9022753 -2 1.8389081
-1.0842022e-19 2.9191506 -1.0842022e-19
-1.7310299 -3.6893488e+19 1.7712188
1.0842022e-19 3.025244 -2
1.9086517 -2 1.786402
-3.6893488e+19 2.921391 -3.6893488e+19
-1.7322648 -1.0842022e-19 1.6999624
0 3.014374 -2
1.9023862 1.0842022e-19 1.691991
3.6893488e+19 2.9206121 -3.6893488e+19
-1.7318354 0 1.5864584
-1.0842022e-19 2.9274452 -2
-1.9134635 3.6893488e+19 1.4893034
0 2.9289463 -1.0842022e-19
-1.9140375 -2 -1.3930812
-2 2.9851711 -3.6893488e+19
1.5447394 1.0842022e-19 -1.5640496
2 2.9342966 -1.0842022e-19
-1.9160836 0 -1.6332023
2 2.9810767 3.6893488e+19
1.5433069 -1.0842022e-19 -1.7010655
-2 2.9442441 -0
-1.9198878 -3.6893488e+19 -1.7354932
-3.6893488e+19 2.9792089 2
1.5426536 -3.6893488e+19 -1.7786026
-3.6893488e+19 2.9441197 3.6893488e+19
-1.9198402 3.6893488e+19 -1.7923214
2 2.9800677 1.0842022e-19
1.542954 1.0842022e-19 -1.8324593
0 2.9346139 -0
-1.9162049 3.6893488e+19 -1.8373115
0 2.9809651 -1.0842022e-19
1.5432678 -1.0842022e-19 -1.8807691
-3.6893488e+19 2.9229696 3.6893488e+19
-1.911752 -0 -1.8769567
3.6893488e+19 2.8582566 -1.0842022e-19
1.5003377 -3.6893488e+19 -1.8598319
-2 2.8446405 -3.6893488e+19
-1.8817973 -2 -1.8704368
-0 2.8351514 3.6893488e+19
1.8181827 -2 -1.8880287
3.6893488e+19 2.8218417 1.0842022e-19
-1.6773946 -3.6893488e+19 -1.8914812
-3.6893488e+19 2.7503579 0
-1.6379938 -0 -1.8731408
-2 2.6915185 0
1.7522466 -3.6893488e+19 -1.8562819
-1.0842022e-19 2.6547291 2
-1.598081 2 -1.8482416
-1.0842022e-19 2.619292 0
1.7128615 2 -1.8391516
1.0842022e-19 2.5925875 -0
-1.5638293 -3.6893488e+19 -1.8331759
0 2.556958 -3.6893488e+19
1.6769317 -1.0842022e-19 -1.8202344
-1.0842022e-19 2.5435727 2
-1.5368131 -1.0842022e-19 -1.8198682
-0 2.527658 -0
1.6600432 3.6893488e+19 -1.8171988
-1.0842022e-19 2.5112803 -1.0842022e-19
-1.519014 -0 -1.813117
-0 2.4910383 -0
1.6415182 2 -1.8087653
3.6893488e+19 2.4684806 -2
-1.5041099 0 -1.8068269
-2 2.4506841 -1.0842022e-19
1.6298881 0 -1.8063581
3.6893488e+19 3.08815 -0
-2.0231619 2 2.563458
0 3.0883524 0
-2.0233254 -0 2.5537095
0 3.1823964 2
1.5292557 -3.6893488e+19 2.6313064
3.6893488e+19 3.0828335 -0
1.4874742 -1.0842022e-19 2.5337894
-2 3.0824018 -2
1.4871662 -1.0842022e-19 2.5237446
3.6893488e+19 3.2886245 0
-2.2163093 3.6893488e+19 2.7175956
1.0842022e-19 3.0323272 1.0842022e-19
1.4514383 -1.0842022e-19 2.4486251
-3.6893488e+19 3.2678261 -2
-2.1827068 3.6893488e+19 2.6683567
-0 3.0322201 0
1.451362 -1.0842022e-19 2.4321158
-2 3.0888569 -3.6893488e+19
-2.0237329 2 2.5048466
-0 3.0301619 -1.0842022e-19
1.4498934 -1.0842022e-19 2.4127905
-0 3.0892923 -3.6893488e+19
-2.0240846 -1.0842022e-19 2.490761
2 3.0302994 -2
1.4499915 3.6893488e+19 2.3968499
1.0842022e-19 3.0532422 2
1.9117745 -1.0842022e-19 2.42085
0 3.2947533 1.0842022e-19
-1.9377445 -1.0842022e-19 2.6504607
-2 3.0557888 2
1.9131331 0 2.4068279
-3.6893488e+19 3.0328519 2
-1.805164 3.6893488e+19 2.3680766
-2 3.130842 -2
1.9531727 -1.0842022e-19 2.4848692
1.0842022e-19 3.0336907 0
-1.8056982 1.0842022e-19 2.3529449
0 3.1237209 -3.6893488e+19
1.9493736 -1.0842022e-19 2.454443
3.6893488e+19 3.0344548 2
-1.8061849 -2 2.3376608
3.6893488e+19 3.0478208 -2
1.9088823 -0 2.3451664
-3.6893488e+19 3.0326383 0
-1.805028 -2 2.319407
-0 3.1210415 -3.6893488e+19
1.9479443 0 2.4089084
-0 3.1150329 2
-1.8575095 1.0842022e-19 2.3917749
-1.0842022e-19 3.1180129 2
1.9463286 -3.6893488e+19 2.3846679
-3.6893488e+19 3.1138465 -3.6893488e+19
-1.8567538 1.0842022e-19 2.3698583
-1.0842022e-19 3.0542989 -1.0842022e-19
1.9123383 -1.0842022e-19 2.3008149
2 3.1133225 -3.6893488e+19
-1.8564199 -2 2.348752
-3.6893488e+19 2.9935951 -3.6893488e+19
-1.9493662 -2 2.2103376
-2 2.9944181 3.6893488e+19
-1.9496987 1.0842022e-19 2.1831424
-0 3.107657 0
1.5025928 3.6893488e+19 2.3028457
-2 2.9920509 -1.0842022e-19
-1.9487425 -3.6893488e+19 2.1532817
1.0842022e-19 3.0306015 -0
1.450207 -0 2.1935694
0 3.1017382 -3.6893488e+19
-2.0341384 -0 2.2684515
2 3.1058161 0
1.5019361 3.6893488e+19 2.2612119
2 3.1029892 -1.0842022e-19
-2.0351491 -3.6893488e+19 2.2490549
0 3.1013644 -0
1.5003479 0 2.226388
1.0842022e-19 3.1343367 -1.0842022e-19
-2.060472 0 2.2500737
0 3.1024981 1.0842022e-19
1.5007523 3.6893488e+19 2.1883523
3.6893488e+19 3.1312146 3.6893488e+19
-2.05795 -2 2.203249
-1.0842022e-19 3.1082602 2
1.502808 3.6893488e+19 2.1553342
0 3.0976377 -2
1.4980367 -3.6893488e+19 2.1043618
0 3.2049229 -0
1.9926935 3.6893488e+19 2.1884987
0 3.096905 2
-1.8459628 -0 2.0648465
-1.0842022e-19 3.2042294 3.6893488e+19
1.9923236 -0 2.1369803
1.0842022e-19 3.0964408 1.0842022e-19
-1.8456671 1.0842022e-19 2.0256631
-2 3.1128168 0
1.9435567 -2 2.018507
-2 3.1070406 -0
-1.8524188 -0 1.9941849
0 3.1049981 0
1.9393854 -3.6893488e+19 1.9730266
-3.6893488e+19 2.9207101 0
-1.7589867 -2 1.8657179
-2 3.0127795 0
1.8901885 1.0842022e-19 1.8857299
3.6893488e+19 3.1054699 0
1.9396372 1.0842022e-19 1.8938988
-3.6893488e+19 2.920629 -0
-1.7589608 -1.0842022e-19 1.7717419
3.6893488e+19 3.2338998 3.6893488e+19
2.0081522 0 1.8918654
-2 2.9203703 2
-1.7588785 0 1.699488
-2 3.0148044 -2
1.8912686 1.0842022e-19 1.6922858
-2 2.9200287 -0
-1.7587696 1.0842022e-19 1.5861757
3.6893488e+19 2.9275138 0
-1.9226756 -2 1.4893732
-2 2.9893727 3.6893488e+19
1.4245819 3.6893488e+19 1.2210463
1.0842022e-19 2.9325101 3.6893488e+19
-1.9246936 3.6893488e+19 -1.394289
3.6893488e+19 3.0677741 3.6893488e+19
1.4767294 3.6893488e+19 -1.622642
-1.0842022e-19 3.0577812 3.6893488e+19
-1.9986297 -1.0842022e-19 -1.6888229
-3.6893488e+19 2.9812694 3.6893488e+19
1.4216911 -3.6893488e+19 -1.7011439
2 3.0563178 2
-1.9974475 3.6893488e+19 -1.7874
0 3.0693722 0
1.4778696 1.0842022e-19 -1.8297368
3.6893488e+19 2.944623 -0
-1.9295861 -1.0842022e-19 -1.792533
2 3.0717251 2
1.4795485 0 -1.8890307
1.0842022e-19 2.9494059 -3.6893488e+19
-1.9315178 -2 -1.8445663
-3.6893488e+19 3.0690956 -3.6893488e+19
1.4776723 2 -1.9235154
-1.0842022e-19 2.9228516 -0
-1.9207925 3.6893488e+19 -1.876938
-1.0842022e-19 2.9440632 -2
1.4084178 1.0842022e-19 -1.8955369
-0 2.9217331 -3.6893488e+19
-1.9203407 2 -1.900189
3.6893488e+19 2.8592732 -2
1.3781693 1.0842022e-19 -1.8878219
-2 2.8356192 -3.6893488e+19
1.8040471 1.0842022e-19 -1.8882086
2 2.8199539 -0
-1.7037961 0 -1.8906584
2 2.7488201 -3.6893488e+19
-1.6588628 -2 -1.8722135
-3.6893488e+19 2.6915596 -3.6893488e+19
1.7355645 -3.6893488e+19 -1.8562819
1.0842022e-19 2.6547091 -1.0842022e-19
-1.6288906 2 -1.8482416
0 2.6178312 -1.0842022e-19
1.6962316 1.0842022e-19 -1.8382846
-1.0842022e-19 2.593318 0
-1.5936781 -0 -1.8336303
-0 2.5566127 3.6893488e+19
1.6635727 3.6893488e+19 -1.8199968
3.6893488e+19 2.543309 3.6893488e+19
-1.5618246 3.6893488e+19 -1.8197029
-0 2.5268126 3.6893488e+19
1.6476748 -2 -1.8165957
1.0842022e-19 2.5115163 -2
-1.541574 1.0842022e-19 -1.8132963
-2 2.4915814 -3.6893488e+19
1.6311251 1.0842022e-19 -1.8089515
0 2.4687061 -3.6893488e+19
-1.5242722 -3.6893488e+19 -1.8069234
-0 2.4497316 -3.6893488e+19
1.6149241 -0 -1.8059579
1.0842022e-19 2.3857291 1.0842022e-19
-1.6557984 -0 -1.8021053
-3.6893488e+19 2.3350523 0
-1.6353298 3.6893488e+19 -1.7978241
1.0842022e-19 2.2975903 3.6893488e+19
-1.6153972 3.6893488e+19 -1.7954252
-0 2.260217 -0
-1.5852066 -1.0842022e-19 -1.7888802
3.6893488e+19 2.2257802 1.0842022e-19
1.5019103 0 -1.788345
3.6893488e+19 2.1808703 1.0842022e-19
1.479862 3.6893488e+19 -1.785332
-3.6893488e+19 2.1561923 2
1.4666967 2 -1.7879049
-2 2.1217957 0
1.4483467 3.6893488e+19 -1.7849306
3.6893488e+19 3.08815 -0
-2.0231619 2 2.563458
0 3.0883524 0
-2.0233254 -0 2.5537095
0 3.1823964 2
1.5292557 -3.6893488e+19 2.6313064
3.6893488e+19 3.0828335 -0
1.4874742 -1.0842022e-19 2.5337894
-3.6893488e+19 3.0285318 0
1.4487305 -3.6893488e+19 2.4587617
3.6893488e+19 3.2886245 0
-2.2163093 3.6893488e+19 2.7175956
1.0842022e-19 3.0323272 1.0842022e-19
1.4514383 -1.0842022e-19 2.4486251
-3.6893488e+19 3.2678261 -2
-2.1827068 3.6893488e+19 2.6683567
-0 3.0322201 0
1.451362 -1.0842022e-19 2.4321158
-2 3.0888569 -3.6893488e+19
-2.0237329 2 2.5048466
-0 3.0301619 -1.0842022e-19
1.4498934 -1.0842022e-19 2.4127905
-0 3.0892923 -3.6893488e+19
-2.0240846 -1.0842022e-19 2.490761
2 3.0302994 -2
1.4499915 3.6893488e+19 2.3968499
1.0842022e-19 3.0532422 2
1.9117745 -1.0842022e-19 2.42085
-0 3.0252857 3.6893488e+19
-1.8003446 2 2.3740118
-2 3.0557888 2
1.9131331 0 2.4068279
-3.6893488e+19 3.0328519 2
-1.805164 3.6893488e+19 2.3680766
-2 3.130842 -2
1.9531727 -1.0842022e-19 2.4848692
1.0842022e-19 3.0336907 0
-1.8056982 1.0842022e-19 2.3529449
1.0842022e-19 3.05057 -2
1.9103489 3.6893488e+19 2.3654919
3.6893488e+19 3.0344548 2
-1.8061849 -2 2.3376608
3.6893488e+19 3.0478208 -2
1.9088823 -0 2.3451664
-3.6893488e+19 3.0326383 0
-1.805028 -2 2.319407
-0 3.1210415 -3.6893488e+19
1.9479443 0 2.4089084
-1.0842022e-19 3.0288222 3.6893488e+19
-1.8025972 2 2.2992485
-3.6893488e+19 3.0512731 1.0842022e-19
1.9107242 -2 2.3149078
-2 3.0299749 -3.6893488e+19
-1.8033314 -1.0842022e-19 2.2846007
-1.0842022e-19 3.0542989 -1.0842022e-19
1.9123383 -1.0842022e-19 2.3008149
2 3.1133225 -3.6893488e+19
-1.8564199 -2 2.348752
-3.6893488e+19 2.9935951 -3.6893488e+19
-1.9493662 -2 2.2103376
-2 2.9944181 3.6893488e+19
-1.9496987 1.0842022e-19 2.1831424
-0 3.107657 0
1.5025928 3.6893488e+19 2.3028457
-2 2.9920509 -1.0842022e-19
-1.9487425 -3.6893488e+19 2.1532817
1.0842022e-19 3.0306015 -0
1.450207 -0 2.1935694
0 2.9805214 -3.6893488e+19
-1.9440856 2 2.1167407
0 2.9929271 -1.0842022e-19
1.4258498 0 2.1118679
-2 2.9805179 3.6893488e+19
-1.9440843 -1.0842022e-19 2.0896773
-3.6893488e+19 2.9970291 -3.6893488e+19
1.4273132 -2 2.0869417
2 2.9853437 -3.6893488e+19
-1.9460334 0 2.0657952
0 3.1024981 1.0842022e-19
1.5007523 3.6893488e+19 2.1883523
-1.0842022e-19 2.972223 -0
-1.9407339 -2 2.0307271
-1.0842022e-19 3.1082602 2
1.502808 3.6893488e+19 2.1553342
0 3.0976377 -2
1.4980367 -3.6893488e+19 2.1043618
0 3.0061436 2
1.8866482 -1.0842022e-19 1.9968959
-2 2.9803202 2
-1.7779711 -1.0842022e-19 1.9679663
-2 3.0141041 1.0842022e-19
1.8908951 -2 1.9750034
1.0842022e-19 3.0964408 1.0842022e-19
-1.8456671 1.0842022e-19 2.0256631
-0 3.0118246 -0
1.889679 3.6893488e+19 1.9437666
-2 2.9109807 1.0842022e-19
-1.7558881 0 1.8905376
-1.0842022e-19 3.0138063 2
1.8907362 -2 1.9157357
-3.6893488e+19 2.9207101 0
-1.7589867 -2 1.8657179
-2 3.0127795 0
1.8901885 1.0842022e-19 1.8857299
-3.6893488e+19 3.010709 -0
1.8890839 -2 1.8360769
-3.6893488e+19 2.920629 -0
-1.7589608 -1.0842022e-19 1.7717419
-0 3.0211163 2
1.8946359 -1.0842022e-19 1.7839668
-2 2.9203703 2
-1.7588785 0 1.699488
-2 3.0148044 -2
1.8912686 1.0842022e-19 1.6922858
-2 2.9200287 -0
-1.7587696 1.0842022e-19 1.5861757
3.6893488e+19 2.9275138 0
-1.9226756 -2 1.4893732
-2 2.9893727 3.6893488e+19
1.4245819 3.6893488e+19 1.2210463
1.0842022e-19 2.9325101 3.6893488e+19
-1.9246936 3.6893488e+19 -1.394289
-3.6893488e+19 2.983614 -2
1.4225274 0 -1.5634408
0 2.936861 1.0842022e-19
-1.926451 -2 -1.6340064
-3.6893488e+19 2.9812694 3.6893488e+19
1.4216911 -3.6893488e+19 -1.7011439
2 2.9393177 0
-1.9274433 -0 -1.7329123
1.0842022e-19 2.9797769 2
1.4211586 1.0842022e-19 -1.778783
3.6893488e+19 2.944623 -0
-1.9295861 -1.0842022e-19 -1.792533
-1.0842022e-19 2.9801979 -1.0842022e-19
1.4213088 0 -1.8325133
1.0842022e-19 2.9494059 -3.6893488e+19
-1.9315178 -2 -1.8445663
-0 2.9800334 2
1.4212501 -2 -1.8805144
-1.0842022e-19 2.9228516 -0
-1.9207925 3.6893488e+19 -1.876938
0 2.8623822 3.6893488e+19
1.3792784 2 -1.8625336
3.6893488e+19 2.8338695 0
-1.8848521 0 -1.8627975
-1.0842022e-19 2.8236268 3.6893488e+19
1.3559053 3.6893488e+19 -1.8732949
-2 2.8356192 -3.6893488e+19
1.8040471 1.0842022e-19 -1.8882086
2 2.8199539 -0
-1.7037961 0 -1.8906584
2 2.7488201 -3.6893488e+19
-1.6588628 -2 -1.8722135
-3.6893488e+19 2.6915596 -3.6893488e+19
1.7355645 -3.6893488e+19 -1.8562819
1.0842022e-19 2.6547091 -1.0842022e-19
-1.6288906 2 -1.8482416
0 2.6178312 -1.0842022e-19
1.6962316 1.0842022e-19 -1.8382846
-1.0842022e-19 2.593318 0
-1.5936781 -0 -1.8336303
-0 2.5566127 3.6893488e+19
1.6635727 3.6893488e+19 -1.8199968
3.6893488e+19 2.543309 3.6893488e+19
-1.5618246 3.6893488e+19 -1.8197029
-0 2.5268126 3.6893488e+19
1.6476748 -2 -1.8165957
1.0842022e-19 2.5115163 -2
-1.541574 1.0842022e-19 -1.8132963
-2 2.4915814 -3.6893488e+19
1.6311251 1.0842022e-19 -1.8089515
0 2.4687061 -3.6893488e+19
-1.5242722 -3.6893488e+19 -1.8069234
-0 2.4497316 -3.6893488e+19
1.6149241 -0 -1.8059579
1.0842022e-19 2.3857291 1.0842022e-19
-1.6557984 -0 -1.8021053
-3.6893488e+19 2.3350523 0
-1.6353298 3.6893488e+19 -1.7978241
1.0842022e-19 2.2975903 3.6893488e+19
-1.6153972 3.6893488e+19 -1.7954252
-0 2.260217 -0
-1.5852066 -1.0842022e-19 -1.7888802
3.6893488e+19 2.2257802 1.0842022e-19
1.5019103 0 -1.788345
3.6893488e+19 2.1808703 1.0842022e-19
1.479862 3.6893488e+19 -1.785332
-3.6893488e+19 2.1561923 2
1.4666967 2 -1.7879049
-2 2.1217957 0
1.4483467 3.6893488e+19 -1.7849306
3.6893488e+19 3.0858543 0
-2.0354502 0 2.5613723
-2 3.1507354 0
1.0081687 1.0842022e-19 2.6151197
3.6893488e+19 3.0881541 3.6893488e+19
-2.0374048 1.0842022e-19 2.5535729
1.0842022e-19 3.0582683 3.6893488e+19
-2.0120041 -2 2.5177159
-2 3.0821929 -2
0.98539126 3.6893488e+19 2.5332422
1.0842022e-19 3.0617199 -2
-2.0149376 1.0842022e-19 2.5116146
-2 3.0832601 -0
0.98574591 -3.6893488e+19 2.5244503
0 3.0314088 -2
0.9685151 1.0842022e-19 2.4471641
3.6893488e+19 3.0317302 1.0842022e-19
0.96862197 -3.6893488e+19 2.4313638
1.0842022e-19 3.0304396 -1.0842022e-19
0.96819305 -3.6893488e+19 2.413198
-2 3.0442262 0
-2.0000696 -3.6893488e+19 2.4256341
-1.0842022e-19 3.0311313 3.6893488e+19
0.96842295 2 2.3980262
3.6893488e+19 3.05336 2
1.8990841 1.0842022e-19 2.4209783
-1.0842022e-19 3.0266256 1.0842022e-19
-1.8244435 -1.0842022e-19 2.3758531
3.6893488e+19 3.0555065 2
1.900139 -3.6893488e+19 2.4064178
-1.0842022e-19 3.0291049 2
-1.826231 -1.0842022e-19 2.3632207
3.6893488e+19 3.1245503 1.0842022e-19
1.9340701 -3.6893488e+19 2.4768188
-0 3.0307729 0
-1.8274336 -1.0842022e-19 2.3493342
-3.6893488e+19 3.1231654 0
1.9333895 3.6893488e+19 2.4537296
1.0842022e-19 3.0316577 -2
-1.8280714 1.0842022e-19 2.3343592
-0 3.0475676 2
1.8962375 1.0842022e-19 2.3448441
-0 3.0326536 2
-1.8287895 2 2.319442
-3.6893488e+19 3.1205776 -2
1.9321177 -2 2.4083626
3.6893488e+19 3.0340397 -2
-1.8297888 -0 2.3048651
-2 3.1166191 -2
1.9301723 3.6893488e+19 2.3831789
-3.6893488e+19 3.1141052 2
-1.8812575 3.6893488e+19 2.3701417
0 3.0543246 -1.0842022e-19
1.8995581 -1.0842022e-19 2.3008149
3.6893488e+19 3.1133332 2
-1.8809792 -0 2.3487818
-1.0842022e-19 3.0638716 -2
-2.0167665 1.0842022e-19 2.2927635
1.0842022e-19 3.1489034 -2
1.0075598 3.6893488e+19 2.36028
-3.6893488e+19 2.9941027 -2
-1.9599745 0 2.182925
-2 3.1078758 -0
0.99392599 0 2.30303
1.0842022e-19 2.9951506 -1.0842022e-19
-1.9604198 -1.0842022e-19 2.1558774
-1.0842022e-19 3.1481862 -3.6893488e+19
1.0073215 -1.0842022e-19 2.3147213
1.0842022e-19 3.1002924 -0
-2.0477214 0 2.2673845
1.0842022e-19 3.1087427 -2
0.994214 3.6893488e+19 2.2633593
-1.0842022e-19 3.1012003 3.6893488e+19
-2.0484931 -3.6893488e+19 2.2465935
2 3.102113 -1.0842022e-19
0.99201089 -2 2.227401
2 3.1031809 2
-2.0501764 -3.6893488e+19 2.2096658
1.0842022e-19 3.1015024 3.6893488e+19
0.991808 2 2.1871126
-2 3.1298556 -2
-2.0728478 -2 2.2016947
-0 3.1043339 -3.6893488e+19
0.99274892 -2 2.1508904
-0 2.971333 2
-1.9502983 2 2.0037844
2 3.0978572 -2
0.99059665 1.0842022e-19 2.1045845
0 3.0057909 -0
1.8757066 -1.0842022e-19 1.9965353
-1.0842022e-19 3.0967607 -2
-1.8750049 -0 2.0647333
1.0842022e-19 3.0139081 0
1.8796958 -0 1.9748174
-2 2.9782875 3.6893488e+19
-1.7974194 0 1.9402975
-3.6893488e+19 3.111568 -0
1.92769 1.0842022e-19 2.0175605
-3.6893488e+19 3.1068022 -2
-1.8786248 -3.6893488e+19 1.9940354
-3.6893488e+19 3.1044347 -0
1.9241844 -3.6893488e+19 1.9726541
1.0842022e-19 2.9230597 2
-1.7775102 3.6893488e+19 1.8670757
2 3.0128953 -3.6893488e+19
1.879198 0 1.8857783
-2 3.0975177 0
-1.8752779 -1.0842022e-19 1.9100426
1.0842022e-19 3.1051252 2
1.9245237 -2 1.8937471
0 3.0941434 -1.0842022e-19
-1.8731227 -2 1.865131
-2 3.0192027 -1.0842022e-19
1.8822978 -3.6893488e+19 1.7828315
2 2.9174106 2
-1.7754737 -3.6893488e+19 1.6980944
1.0842022e-19 3.2040067 2
1.9731183 -0 1.7898228
-2 2.9210675 1.0842022e-19
-1.776792 2 1.5867097
1.0842022e-19 2.9300146 -1.0842022e-19
-1.9327395 2 1.4908062
-1.0842022e-19 2.9941247 1.0842022e-19
0.95710146 2 1.2231919
3.6893488e+19 3.0598121 -3.6893488e+19
-2.0133162 2 -1.45674
0 3.0675879 0
0.98053783 -1.0842022e-19 -1.6224959
0 3.0608912 2
-2.0142334 -0 -1.6907567
2 2.9819589 2
0.95508003 1.0842022e-19 -1.7014313
-2 3.0555272 3.6893488e+19
-2.0096745 -0 -1.7870029
3.6893488e+19 3.0708418 0
0.98161918 -3.6893488e+19 -1.8306781
-2 3.0557029 -2
-2.0098238 3.6893488e+19 -1.855408
-2 3.0720074 2
0.98200655 2 -1.8891522
2 3.0556455 -0
-2.0097749 -3.6893488e+19 -1.8993496
-3.6893488e+19 3.069659 3.6893488e+19
0.98122615 -0 -1.9238211
-0 2.9258502 3.6893488e+19
-1.9309698 2 -1.8778555
-0 2.9401932 3.6893488e+19
0.94814044 -1.0842022e-19 -1.8942679
-3.6893488e+19 2.9203663 -1.0842022e-19
-1.9286394 1.0842022e-19 -1.8997227
2 2.8238778 -0
0.92012805 -1.0842022e-19 -1.8734865
3.6893488e+19 2.8267884 -1.0842022e-19
1.7855978 -0 -1.8845607
-0 2.8170037 -1.0842022e-19
-1.7285554 -1.0842022e-19 -1.8893691
-1.0842022e-19 2.7528884 -3.6893488e+19
-1.6823292 0 -1.8753377
3.6893488e+19 2.6918461 -0
1.7171421 3.6893488e+19 -1.8564125
-1.0842022e-19 2.6516943 -2
-1.6448081 1.0842022e-19 -1.846591
3.6893488e+19 2.6183605 -0
1.6810281 -0 -1.8385736
3.6893488e+19 2.5932989 -2
-1.6225139 -0 -1.8336303
1.0842022e-19 2.5596278 1.0842022e-19
1.6521643 0 -1.8218977
-3.6893488e+19 2.5432925 1.0842022e-19
-1.5864601 3.6893488e+19 -1.8197029
-3.6893488e+19 2.5267112 -2
1.6359878 -3.6893488e+19 -1.8165095
0 2.5113773 3.6893488e+19
-1.5634495 3.6893488e+19 -1.8132067
-2 2.491374 -0
1.6164823 2 -1.8088584
-1.0842022e-19 2.4699237 1.0842022e-19
-1.5444044 0 -1.8074063
1.0842022e-19 2.4497695 3.6893488e+19
1.596036 -0 -1.8059579
3.6893488e+19 3.0858543 0
-2.0354502 0 2.5613723
-2 3.1507354 0
1.0081687 1.0842022e-19 2.6151197
3.6893488e+19 3.0569422 3.6893488e+19
-2.0108771 -2 2.5255527
1.0842022e-19 3.0582683 3.6893488e+19
-2.0120041 -2 2.5177159
-2 3.0821929 -2
0.98539126 3.6893488e+19 2.5332422
1.0842022e-19 3.0617199 -2
-2.0149376 1.0842022e-19 2.5116146
-0 3.0287778 2
0.96764088 -0 2.4591651
0 3.0314088 -2
0.9685151 1.0842022e-19 2.4471641
3.6893488e+19 3.0317302 1.0842022e-19
0.96862197 -3.6893488e+19 2.4313638
1.0842022e-19 3.0304396 -1.0842022e-19
0.96819305 -3.6893488e+19 2.413198
-2 3.0442262 0
-2.0000696 -3.6893488e+19 2.4256341
-1.0842022e-19 3.0311313 3.6893488e+19
0.96842295 2 2.3980262
3.6893488e+19 3.05336 2
1.8990841 1.0842022e-19 2.4209783
-1.0842022e-19 3.0266256 1.0842022e-19
-1.8244435 -1.0842022e-19 2.3758531
3.6893488e+19 3.0555065 2
1.900139 -3.6893488e+19 2.4064178
-1.0842022e-19 3.0291049 2
-1.826231 -1.0842022e-19 2.3632207
3.6893488e+19 3.1245503 1.0842022e-19
1.9340701 -3.6893488e+19 2.4768188
-0 3.0307729 0
-1.8274336 -1.0842022e-19 2.3493342
-0 3.050904 -2
1.8978771 3.6893488e+19 2.3658674
1.0842022e-19 3.0316577 -2
-1.8280714 1.0842022e-19 2.3343592
-0 3.0475676 2
1.8962375 1.0842022e-19 2.3448441
-0 3.0326536 2
-1.8287895 2 2.319442
1.0842022e-19 3.0451069 -0
1.8950281 -3.6893488e+19 2.3251965
3.6893488e+19 3.0340397 -2
-1.8297888 -0 2.3048651
-2 3.1166191 -2
1.9301723 3.6893488e+19 2.3831789
1.0842022e-19 3.0307653 3.6893488e+19
-1.827428 -0 2.2854199
0 3.0543246 -1.0842022e-19
1.8995581 -1.0842022e-19 2.3008149
3.6893488e+19 3.1133332 2
-1.8809792 -0 2.3487818
3.6893488e+19 2.9874527 3.6893488e+19
-1.9571486 -1.0842022e-19 2.2046709
2 3.0007508 1.0842022e-19
0.95832717 -1.0842022e-19 2.2029443
-3.6893488e+19 2.9941027 -2
-1.9599745 0 2.182925
2 3.00175 0
0.95865923 2 2.1763365
1.0842022e-19 2.9951506 -1.0842022e-19
-1.9604198 -1.0842022e-19 2.1558774
-1.0842022e-19 3.1481862 -3.6893488e+19
1.0073215 -1.0842022e-19 2.3147213
1.0842022e-19 2.9926958 -2
-1.9593766 -2 2.1260834
2 3.0001054 -3.6893488e+19
0.95811266 -2 2.1172135
-0 2.9831259 0
-1.9553099 0 2.0915675
3.6893488e+19 2.9734905 -1.0842022e-19
0.95367295 3.6893488e+19 2.0709834
0 2.9832871 2
-1.9553783 -2 2.0644996
-1.0842022e-19 2.9783697 2
0.95448369 1.0842022e-19 2.0474396
1.0842022e-19 2.9740884 -0
-1.9514692 3.6893488e+19 2.0318744
-1.0842022e-19 2.9849141 -0
0.95557106 1.0842022e-19 2.0243139
-0 2.971333 2
-1.9502983 2 2.0037844
2 3.0978572 -2
0.99059665 1.0842022e-19 2.1045845
0 3.0057909 -0
1.8757066 -1.0842022e-19 1.9965353
-2 2.9807925 -3.6893488e+19
-1.7983224 -0 1.9681928
1.0842022e-19 3.0139081 0
1.8796958 -0 1.9748174
-2 2.9782875 3.6893488e+19
-1.7974194 0 1.9402975
-1.0842022e-19 3.0121586 1.0842022e-19
1.878836 2 1.9439975
2 2.9208214 -2
-1.7767032 3.6893488e+19 1.8939106
-1.0842022e-19 3.0124552 -3.6893488e+19
1.8789817 0 1.9148731
1.0842022e-19 2.9230597 2
-1.7775102 3.6893488e+19 1.8670757
2 3.0128953 -3.6893488e+19
1.879198 0 1.8857783
-2 3.0975177 0
-1.8752779 -1.0842022e-19 1.9100426
3.6893488e+19 3.0102315 2
1.8778889 -3.6893488e+19 1.8356724
3.6893488e+19 2.9234169 3.6893488e+19
-1.7776389 -2 1.7727226
-2 3.0192027 -1.0842022e-19
1.8822978 -3.6893488e+19 1.7828315
2 2.9174106 2
-1.7754737 -3.6893488e+19 1.6980944
3.6893488e+19 3.0168881 3.6893488e+19
1.8811603 -2 1.6937824
-2 2.9210675 1.0842022e-19
-1.776792 2 1.5867097
1.0842022e-19 2.9300146 -1.0842022e-19
-1.9327395 2 1.4908062
-1.0842022e-19 2.9941247 1.0842022e-19
0.95710146 2 1.2231919
-0 2.9343235 -1.0842022e-19
-1.9345707 -3.6893488e+19 -1.3949137
0 2.9819286 -2
0.95507497 2 -1.5627832
-2 2.9452267 -2
-1.9392041 3.6893488e+19 -1.6365912
2 2.9819589 2
0.95508003 1.0842022e-19 -1.7014313
3.6893488e+19 2.940506 0
-1.937198 -3.6893488e+19 -1.733574
1.0842022e-19 2.9799037 1.0842022e-19
0.95473856 1.0842022e-19 -1.778823
1.0842022e-19 2.9431899 2
-1.9383385 1.0842022e-19 -1.7920158
0 2.9808872 -1.0842022e-19
0.95490193 3.6893488e+19 -1.8328103
0 2.9462256 2
-1.9396286 3.6893488e+19 -1.8430423
2 2.9798479 -2
0.95472926 2 -1.8804635
-0 2.9258502 3.6893488e+19
-1.9309698 2 -1.8778555
1.0842022e-19 2.8695025 -0
0.93528962 3.6893488e+19 -1.8671999
0 2.8397474 1.0842022e-19
-1.8943795 1.0842022e-19 -1.8670169
2 2.8238778 -0
0.92012805 -1.0842022e-19 -1.8734865
3.6893488e+19 2.8267884 -1.0842022e-19
1.7855978 -0 -1.8845607
-0 2.8170037 -1.0842022e-19
-1.7285554 -1.0842022e-19 -1.8893691
-1.0842022e-19 2.7528884 -3.6893488e+19
-1.6823292 0 -1.8753377
3.6893488e+19 2.6918461 -0
1.7171421 3.6893488e+19 -1.8564125
-1.0842022e-19 2.6516943 -2
-1.6448081 1.0842022e-19 -1.846591
3.6893488e+19 2.6183605 -0
1.6810281 -0 -1.8385736
3.6893488e+19 2.5932989 -2
-1.6225139 -0 -1.8336303
1.0842022e-19 2.5596278 1.0842022e-19
1.6521643 0 -1.8218977
-3.6893488e+19 2.5432925 1.0842022e-19
-1.5864601 3.6893488e+19 -1.8197029
-3.6893488e+19 2.5267112 -2
1.6359878 -3.6893488e+19 -1.8165095
0 2.5113773 3.6893488e+19
-1.5634495 3.6893488e+19 -1.8132067
-2 2.491374 -0
1.6164823 2 -1.8088584
-1.0842022e-19 2.4699237 1.0842022e-19
-1.5444044 0 -1.8074063
1.0842022e-19 2.4497695 3.6893488e+19
1.596036 -0 -1.8059579
-0 3.0868702 -1.0842022e-19
-2.050503 -2 2.5623586
-1.0842022e-19 3.0880144 -1.0842022e-19
-2.0515237 1.0842022e-19 2.5534909
-2 3.0587425 0
-2.0254121 2 2.5181663
-2 3.0822225 2
-1.4594378 -1.0842022e-19 2.5332682
2 3.0613089 -0
-2.0277011 -3.6893488e+19 2.5113068
2 3.0830755 -2
-1.4599755 -1.0842022e-19 2.5242991
1.0842022e-19 3.0307949 0
-1.4270171 3.6893488e+19 2.4461899
2 3.0318828 2
-1.4277029 2 2.4315989
3.6893488e+19 3.0317602 3.6893488e+19
-1.4276257 -2 2.4151452
3.6893488e+19 3.0440307 2
-2.0122883 2 2.4254122
2 3.0317152 -3.6893488e+19
-1.4275972 1.0842022e-19 2.398854
0 3.0535374 -1.0842022e-19
1.8864125 -2 2.4211917
-2 3.0246987 2
-1.8461404 -2 2.3732584
-0 3.0269599 -1.0842022e-19
-1.8479606 -0 2.3604517
-2 3.1259983 1.0842022e-19
1.9189773 -1.0842022e-19 2.4786253
-1.0842022e-19 3.0304158 -1.0842022e-19
-1.8507427 -1.0842022e-19 2.3489118
1.0842022e-19 3.1221135 1.0842022e-19
1.9172313 3.6893488e+19 2.4524155
-2 3.0323198 -2
-1.8522755 3.6893488e+19 2.3351662
-3.6893488e+19 3.1224983 -0
1.9174043 -2 2.4316461
0 3.0324504 -2
-1.8523805 -0 2.3192322
1.0842022e-19 3.1201112 -3.6893488e+19
1.9163314 3.6893488e+19 2.4078171
3.6893488e+19 3.0355392 -1.0842022e-19
-1.8548671 0 2.3064938
-1.0842022e-19 3.1161828 -0
1.914566 -1.0842022e-19 2.3826933
0 3.029911 0
-1.8503363 -0 2.2845693
-1.0842022e-19 3.054503 -0
1.8868465 2 2.3009682
0 3.0622153 -3.6893488e+19
-2.0285096 3.6893488e+19 2.29126
-2 2.9929776 2
-1.9698789 0 2.1820009
-1.0842022e-19 3.1071911 -0
-1.4751784 -3.6893488e+19 2.3024509
-3.6893488e+19 2.9977491 -3.6893488e+19
-1.972007 -1.0842022e-19 2.1580658
3.6893488e+19 3.1500199 3.6893488e+19
-1.5010891 3.6893488e+19 2.3161716
2 3.0979128 2
-2.0603535 -0 2.2656059
-1.0842022e-19 3.1060653 -3.6893488e+19
-1.4744686 -3.6893488e+19 2.2613945
-3.6893488e+19 3.0981042 1.0842022e-19
-2.0605245 0 2.2422862
-1.0842022e-19 3.1022053 1.0842022e-19
-1.4720353 0 2.2275279
-3.6893488e+19 3.0973458 -1.0842022e-19
-2.0598478 -2 2.2021363
-2 3.1015947 2
-1.4716504 -3.6893488e+19 2.1872287
1.0842022e-19 3.0983121 3.6893488e+19
-2.0607097 -3.6893488e+19 2.1642447
2 2.9824812 3.6893488e+19
-1.4020815 0 2.0229385
-2 3.0969272 0
-2.0594745 2 2.1236522
-1.0842022e-19 3.0983551 0
-1.4696081 -0 2.105093
-1.0842022e-19 3.0098641 -3.6893488e+19
1.8585708 -2 2.0004418
3.6893488e+19 2.9768326 -2
-1.8169318 -2 1.9664092
1.0842022e-19 3.0066605 0
1.8556913 2 1.9686264
2 2.9777584 -1.0842022e-19
-1.8173045 -0 1.9400988
-1.0842022e-19 3.1121888 -0
1.9127711 1.0842022e-19 2.0179992
1.0842022e-19 3.1068113 3.6893488e+19
-1.8936216 -3.6893488e+19 1.9940567
0 3.1046808 2
1.9093969 2 1.9727914
2 3.013665 1.0842022e-19
1.8619871 1.0842022e-19 1.8861653
-3.6893488e+19 2.9753401 -1.0842022e-19
-1.8163311 -1.0842022e-19 1.8439225
-0 3.0118754 -0
1.8603786 -1.0842022e-19 1.8369869
2 2.9777977 3.6893488e+19
-1.8173203 3.6893488e+19 1.7917056
1.0842022e-19 3.0158193 -0
1.8639234 0 1.7808359
0 2.9836063 1.0842022e-19
-1.8196584 2 1.7295239
1.0842022e-19 3.018002 -3.6893488e+19
1.8658853 1.0842022e-19 1.6945763
-1.0842022e-19 2.9200416 0
-1.7940727 -2 1.586207
3.6893488e+19 3.052808 -3.6893488e+19
-2.020118 3.6893488e+19 1.5445954
-1.0842022e-19 2.9941857 -3.6893488e+19
-1.4057708 2 1.2232201
0 3.0525916 -0
-2.0199249 1.0842022e-19 -1.4519506
-1.0842022e-19 2.981802 -0
-1.4018674 -2 -1.5627345
-0 3.0515802 -3.6893488e+19
-2.0190227 -0 -1.6850702
-2 2.9823322 -1.0842022e-19
-1.4020345 -2 -1.7015879
-0 3.0580106 2
-2.0247591 -3.6893488e+19 -1.788343
-3.6893488e+19 2.9825265 -0
-1.4020958 -3.6893488e+19 -1.7796642
1.0842022e-19 3.0535071 0
-2.0207417 3.6893488e+19 -1.8537855
2 2.9802608 2
-1.4013816 -0 -1.8325403
3.6893488e+19 3.0573483 1.0842022e-19
-2.0241683 -2 -1.9002031
3.6893488e+19 2.9780974 0
-1.4006997 2 -1.879988
1.0842022e-19 2.8630559 2
-1.9119309 1.0842022e-19 -1.8430361
2 2.9399421 -1.0842022e-19
-1.3886728 -3.6893488e+19 -1.894186
-2 2.9246702 0
-1.9394124 3.6893488e+19 -1.9012772
-3.6893488e+19 2.8228154 1.0842022e-19
-1.3285075 3.6893488e+19 -1.8726723
-3.6893488e+19 2.8252537 3.6893488e+19
1.7711722 1.0842022e-19 -1.8839185
3.6893488e+19 2.8169839 2
-1.7525905 -1.0842022e-19 -1.8893691
2 2.8074789 1.0842022e-19
1.763184 3.6893488e+19 -1.8938046
-3.6893488e+19 2.7476385 -2
-1.7003065 -1.0842022e-19 -1.8716571
3.6893488e+19 2.6920049 -1.0842022e-19
1.6986412 1.0842022e-19 -1.8564779
-0 2.6535392 0
-1.6624303 0 -1.8476226
-3.6893488e+19 2.6191366 2
1.6658936 0 -1.8390071
3.6893488e+19 2.5932775 1.0842022e-19
-1.6381741 -0 -1.8336303
-1.0842022e-19 2.5591533 -3.6893488e+19
1.6389364 3.6893488e+19 -1.8215809
0 2.5440216 -1.0842022e-19
-1.6116956 -1.0842022e-19 -1.8201989
0 2.5272307 -1.0842022e-19
1.6241802 -1.0842022e-19 -1.8168541
-0 2.5113609 3.6893488e+19
-1.585403 3.6893488e+19 -1.8132067
-2 2.4914119 3.6893488e+19
1.5958452 2 -1.8088584
3.6893488e+19 2.4691482 -3.6893488e+19
-1.5638387 0 -1.8071166
-2 2.4495554 -1.0842022e-19
1.5770345 3.6893488e+19 -1.8058579
3.6893488e+19 2.3846295 1.0842022e-19
-1.6715533 -3.6893488e+19 -1.8016497
1.0842022e-19 2.334959 -1.0842022e-19
-1.649399 3.6893488e+19 -1.7978241
-1.0842022e-19 2.2960246 -0
-1.6320335 -3.6893488e+19 -1.7945758
-2 2.2638431 1.0842022e-19
-1.6103598 -0 -1.7912103
-0 2.2263496 -0
1.464076 -0 -1.788514
-2 2.1848707 -1.0842022e-19
1.445435 1.0842022e-19 -1.7867945
0 2.1523376 3.6893488e+19
1.4308143 -2 -1.7863327
1.0842022e-19 2.1247876 3.6893488e+19
1.4184331 -3.6893488e+19 -1.7861915
-0 3.0868702 -1.0842022e-19
-2.050503 -2 2.5623586
0 3.0566244 -0
-2.0235224 -2 2.5253067
-2 3.0587425 0
-2.0254121 2 2.5181663
2 3.0280645 0
-1.4252958 -2 2.4741812
2 3.0613089 -0
-2.0277011 -3.6893488e+19 2.5113068
3.6893488e+19 3.0286546 -2
-1.4256678 -1.0842022e-19 2.4589634
1.0842022e-19 3.0307949 0
-1.4270171 3.6893488e+19 2.4461899
2 3.0318828 2
-1.4277029 2 2.4315989
3.6893488e+19 3.0317602 3.6893488e+19
-1.4276257 -2 2.4151452
3.6893488e+19 3.0440307 2
-2.0122883 2 2.4254122
2 3.0317152 -3.6893488e+19
-1.4275972 1.0842022e-19 2.398854
0 3.0535374 -1.0842022e-19
1.8864125 -2 2.4211917
-2 3.0246987 2
-1.8461404 -2 2.3732584
-0 3.0269599 -1.0842022e-19
-1.8479606 -0 2.3604517
-2 3.1259983 1.0842022e-19
1.9189773 -1.0842022e-19 2.4786253
-1.0842022e-19 3.0304158 -1.0842022e-19
-1.8507427 -1.0842022e-19 2.3489118
3.6893488e+19 3.0496302 1.0842022e-19
1.8846567 -3.6893488e+19 2.3642902
-2 3.0323198 -2
-1.8522755 3.6893488e+19 2.3351662
3.6893488e+19 3.0450246 -1.0842022e-19
1.8825868 -2 2.3418705
0 3.0324504 -2
-1.8523805 -0 2.3192322
3.6893488e+19 3.0453153 3.6893488e+19
1.8827175 0 2.3254013
3.6893488e+19 3.0355392 -1.0842022e-19
-1.8548671 0 2.3064938
-1.0842022e-19 3.1161828 -0
1.914566 -1.0842022e-19 2.3826933
0 3.029911 0
-1.8503363 -0 2.2845693
-1.0842022e-19 3.054503 -0
1.8868465 2 2.3009682
3.6893488e+19 2.9902344 2
-1.9686553 1.0842022e-19 2.2073309
-2 2.9929776 2
-1.9698789 0 2.1820009
-3.6893488e+19 3.0006614 1.0842022e-19
-1.4080206 3.6893488e+19 2.1744945
-3.6893488e+19 2.9977491 -3.6893488e+19
-1.972007 -1.0842022e-19 2.1580658
3.6893488e+19 3.1500199 3.6893488e+19
-1.5010891 3.6893488e+19 2.3161716
1.0842022e-19 2.9955451 2
-1.971024 -3.6893488e+19 2.1283123
-3.6893488e+19 3.0018783 3.6893488e+19
-1.4087877 2 2.119818
3.6893488e+19 2.9951785 -0
-1.9708605 -1.0842022e-19 2.1001384
-1.0842022e-19 2.9738626 -2
-1.3993648 -2 2.0712366
2 2.9966528 -2
-1.971518 -1.0842022e-19 2.0732436
2 2.9739442 1.0842022e-19
-1.3993906 2 2.0446887
-0 2.9758253 -2
-1.9622285 -1.0842022e-19 2.0329475
2 2.9824812 3.6893488e+19
-1.4020815 0 2.0229385
-3.6893488e+19 2.973258 -0
-1.9610835 -0 2.0048573
2 2.9802125 3.6893488e+19
-1.4013664 2 1.9947504
-1.0842022e-19 3.0098641 -3.6893488e+19
1.8585708 -2 2.0004418
3.6893488e+19 2.9768326 -2
-1.8169318 -2 1.9664092
1.0842022e-19 3.0066605 0
