# .PCD v0.7 - Point Cloud Data file format
VERSION 0.7
FIELDS x y z
SIZE 4 4 4
TYPE F F F
COUNT 1 1 1
WIDTH 1731
HEIGHT 1
VIEWPOINT 0 0 0 1 0 0 0
POINTS 1731
DATA ascii
-0 3.101527 0
2.5460873 -0 2.5773084
0 3.1021438 3.6893488e+19
2.4381909 1.0842022e-19 2.5694828
-2 3.0994785 2
2.5443618 -3.6893488e+19 2.5649431
3.6893488e+19 3.1662822 0
2.6006298 -2 2.6127241
-1.0842022e-19 3.1307726 -0
2.4738154 -3.6893488e+19 2.5729551
2 3.109025 0
2.5524027 2 2.5521526
0 3.1327422 3.6893488e+19
2.4762661 -3.6893488e+19 2.5633657
3.6893488e+19 3.1176298 0
2.5596504 -1.0842022e-19 2.5484908
-3.6893488e+19 3.0965998 -0
2.4312925 -0 2.5236089
-2 3.1095099 -1.0842022e-19
2.5528111 -2 2.5312629
0 3.1014633 -3.6893488e+19
2.4373441 -3.6893488e+19 2.5171654
2 3.1661584 -2
2.6005254 1.0842022e-19 2.5633061
-3.6893488e+19 3.1037378 1.0842022e-19
2.4401748 2 2.5085747
-1.0842022e-19 3.1683104 -3.6893488e+19
2.6560726 -1.0842022e-19 2.5485327
1.0842022e-19 3.1308234 1.0842022e-19
2.5348337 2 2.5131307
-2 3.1702738 1.0842022e-19
2.6579788 0 2.5375259
-3.6893488e+19 3.1747093 -3.6893488e+19
2.6622844 -3.6893488e+19 2.5280526
1.0842022e-19 3.0919559 2
2.5057631 2 2.4327214
-0 3.1355684 -0
2.6242886 0 2.4821911
2 3.0938375 1.0842022e-19
2.5071704 -3.6893488e+19 2.4151423
3.6893488e+19 3.1422141 -2
2.6307397 0 2.4445412
-2 3.1011217 -0
2.5126185 -2 2.3832998
-1.0842022e-19 3.1401417 3.6893488e+19
2.6287282 -0 2.4194024
0 3.1158552 -1.0842022e-19
2.5236382 -3.6893488e+19 2.3782704
-3.6893488e+19 3.138468 0
2.6271036 0 2.394948
-0 3.1103144 -2
2.5194941 0 2.3517895
-3.6893488e+19 3.1358473 -3.6893488e+19
2.4801302 -3.6893488e+19 2.3637135
0 3.1594563 -3.6893488e+19
2.5948801 0 2.3779211
-0 3.1336956 0
2.4774528 2 2.3397515
2 3.1633568 0
2.5981658 -1.0842022e-19 2.3576837
-2 3.1037827 -3.6893488e+19
2.4402304 1.0842022e-19 2.2930715
2 3.2138329 -1.0842022e-19
2.640681 0 2.3746474
-0 3.1047335 1.0842022e-19
2.4414136 -3.6893488e+19 2.2736444
1.0842022e-19 3.2088425 -1.0842022e-19
2.6364777 1.0842022e-19 2.3442314
1.0842022e-19 3.1130502 2
2.4517624 -1.0842022e-19 2.2593951
-2 3.1336501 1.0842022e-19
2.5731442 -1.0842022e-19 2.2657833
3.6893488e+19 3.1199741 -3.6893488e+19
2.4603782 -3.6893488e+19 2.2366264
-0 3.1685317 0
2.6025245 -0 2.2659404
-0 3.120575 -2
2.4611259 -3.6893488e+19 2.1953297
0 3.1074369 2
2.551065 2 2.1632695
0 3.0978665 -1.0842022e-19
2.4328685 2 2.128581
-1.0842022e-19 3.1112664 -1.0842022e-19
2.5542905 3.6893488e+19 2.1263287
2 3.1328304 1.0842022e-19
2.6216307 -3.6893488e+19 2.1295092
-1.0842022e-19 3.0973494 -1.0842022e-19
2.5097971 1.0842022e-19 2.0706503
-2 3.1877496 -2
2.6749432 -3.6893488e+19 2.1335526
1.0842022e-19 3.1067131 -3.6893488e+19
2.5168004 1.0842022e-19 2.0386989
1.0842022e-19 3.1398492 -2
2.628444 3.6893488e+19 2.0467224
-1.0842022e-19 3.1057844 0
2.5161061 -1.0842022e-19 1.9974939
0 3.1358688 0
2.6245801 -0 1.9993193
0 3.1071405 -3.6893488e+19
2.5171201 1.0842022e-19 1.9578457
-0 3.1402142 3.6893488e+19
2.6287985 -0 1.9572872
1.0842022e-19 3.224268 -2
2.6047246 0 1.9721441
-0 3.1456053 -2
2.6340318 -2 1.9147031
0 3.1186774 0
2.5257492 0 1.8808211
-1.0842022e-19 3.1413841 -3.6893488e+19
2.6299341 -2 1.861015
1.0842022e-19 3.2099764 -3.6893488e+19
2.5940354 -1.0842022e-19 1.8470223
2 3.1409996 -1.0842022e-19
2.6295607 -2 1.7710001
-1.0842022e-19 3.1195214 1.0842022e-19
2.5263805 2 1.6889648
0 3.1073248 2
2.444638 -0 1.5772213
3.6893488e+19 3.1369514 -3.6893488e+19
2.5759246 -0 1.3036156
-0 3.122056 -2
2.4629688 -3.6893488e+19 -1.5004537
-2 3.1390543 2
2.5776961 -3.6893488e+19 -1.6549193
1.0842022e-19 3.114321 -2
2.4533436 2 -1.7259097
2 3.1309562 -2
2.5708749 -2 -1.7877095
-0 3.1145039 -1.0842022e-19
2.4535713 -2 -1.8203233
2 3.1402371 -0
2.5786922 -2 -1.8778253
-2 3.1110263 -3.6893488e+19
2.449244 2 -1.8874947
-2 3.1037662 0
2.5479734 -2 -1.9062289
-1.0842022e-19 3.1045773 3.6893488e+19
2.5486565 -0 -1.9470369
-1.0842022e-19 3.0651119 -0
2.3921103 0 -1.9412216
-3.6893488e+19 3.0706005 -2
2.5200381 -2 -1.9647543
-0 2.8775275 0
2.3179872 2 -1.8979999
2 2.8346434 -3.6893488e+19
2.3248532 3.6893488e+19 -1.891728
0 2.8033397 1.0842022e-19
2.2037609 -1.0842022e-19 -1.8856387
1.0842022e-19 2.7769134 -0
2.2688122 0 -1.8832161
-2 2.7428718 1.0842022e-19
2.1186395 1.0842022e-19 -1.8734499
1.0842022e-19 2.6987369 0
2.1856091 0 -1.8667295
3.6893488e+19 2.6652994 0
2.0606198 1.0842022e-19 -1.8580076
1.0842022e-19 2.6340661 3.6893488e+19
2.1228302 -0 -1.8540353
-1.0842022e-19 2.6068938 1.0842022e-19
2.0169358 2 -1.8455954
3.6893488e+19 2.5815508 -0
2.0718513 -2 -1.8418567
-1.0842022e-19 2.5659204 2
1.9862901 0 -1.8383051
3.6893488e+19 2.5449314 -3.6893488e+19
2.036303 -1.0842022e-19 -1.8349454
0 2.5326886 1.0842022e-19
1.9614346 -1.0842022e-19 -1.8320273
3.6893488e+19 2.5108814 0
2.0032494 -0 -1.8258013
-3.6893488e+19 2.5009518 2
1.9376974 -3.6893488e+19 -1.8231459
0 2.4624283 -3.6893488e+19
1.9744499 0 -1.8163613
2 2.4482684 -2
1.9176393 2 -1.8148174
3.6893488e+19 2.3988109 3.6893488e+19
1.8731307 -0 -1.8100779
-0 2.3437433 3.6893488e+19
1.838869 0 -1.8042109
-0 2.3027432 -3.6893488e+19
1.8133596 -3.6893488e+19 -1.8002378
-1.0842022e-19 2.2708743 -3.6893488e+19
1.7935315 -2 -1.7974237
2 2.2269833 1.0842022e-19
1.8565146 0 -1.7934178
1.0842022e-19 2.1856687 -0
1.8364615 1.0842022e-19 -1.7917306
3.6893488e+19 2.1516237 1.0842022e-19
1.8199371 2 -1.790656
0 2.1191096 -0
1.8041556 2 -1.7882931
2 3.1001685 3.6893488e+19
2.5411134 -1.0842022e-19 2.5758648
-0 3.1024668 -0
2.4310315 1.0842022e-19 2.5696468
2 3.1665685 -2
2.5963151 3.6893488e+19 2.6251976
-0 3.1663907 -3.6893488e+19
2.5961673 -0 2.6126199
-1.0842022e-19 3.1309566 1.0842022e-19
2.4658718 3.6893488e+19 2.5729809
3.6893488e+19 3.161725 0
2.5922887 -1.0842022e-19 2.5963147
-3.6893488e+19 3.1311707 -0
2.4661336 -1.0842022e-19 2.5619533
1.0842022e-19 3.1635964 1.0842022e-19
2.5938444 1.0842022e-19 2.5856287
-3.6893488e+19 3.097043 2
2.4243989 0 2.5238483
-3.6893488e+19 3.1645496 -0
2.5946369 -1.0842022e-19 2.5741456
-3.6893488e+19 3.108922 0
2.4389257 0 2.5227253
-2 3.1664767 1.0842022e-19
2.5962391 1.0842022e-19 2.563374
0 3.0985003 -0
2.4261806 -3.6893488e+19 2.504643
-2 3.1705866 1.0842022e-19
2.5996559 1.0842022e-19 2.5540962
2 3.1692636 1.0842022e-19
2.6523495 -1.0842022e-19 2.5490239
-1.0842022e-19 3.1713789 -1.0842022e-19
2.6543794 0 2.5380998
3.6893488e+19 3.1737475 -0
2.6566525 3.6893488e+19 2.5272477
1.0842022e-19 3.0922437 -2
2.5022688 -1.0842022e-19 2.4328749
2 3.1731963 -3.6893488e+19
2.5619392 2 2.5053551
1.0842022e-19 3.1465268 2
2.6305299 -0 2.4723425
3.6893488e+19 3.1455326 -2
2.6295757 0 2.4480193
-0 3.2407982 -0
2.611769 -1.0842022e-19 2.5177581
-3.6893488e+19 3.1318676 3.6893488e+19
2.6164622 3.6893488e+19 2.3879921
3.6893488e+19 3.2427363 3.6893488e+19
2.6131976 -3.6893488e+19 2.4808443
1.0842022e-19 3.1632507 2
2.502682 0 2.3893876
-1.0842022e-19 3.1649098 3.6893488e+19
2.5949364 0 2.382745
2 3.1343727 2
2.4700491 2 2.3402135
-3.6893488e+19 3.1631572 3.6893488e+19
2.5934794 -0 2.3573153
-3.6893488e+19 3.2186542 1.0842022e-19
2.639617 3.6893488e+19 2.3783343
-1.0842022e-19 3.1460536 2
2.4843338 -1.0842022e-19 2.3053958
-0 3.2119579 3.6893488e+19
2.6340499 1.0842022e-19 2.3463788
0 3.1158741 -0
2.447427 1.0842022e-19 2.2613072
-3.6893488e+19 3.2151079 -1.0842022e-19
2.6366687 2 2.3220389
-0 3.1197233 -2
2.4521344 -0 2.2361002
0 3.1702864 -2
2.599406 1.0842022e-19 2.2669091
-3.6893488e+19 3.1571686 1.0842022e-19
2.4979265 -0 2.2391078
-1.0842022e-19 3.1069307 3.6893488e+19
2.5467353 0 2.1624584
-1.0842022e-19 3.1386607 -0
2.4752929 -3.6893488e+19 2.1728063
-3.6893488e+19 3.180716 0
2.608077 -1.0842022e-19 2.1984282
-1.0842022e-19 3.187732 3.6893488e+19
2.6700728 -1.0842022e-19 2.1836605
1.0842022e-19 3.1425922 0
2.539381 -1.0842022e-19 2.1122391
2 3.1873286 3.6893488e+19
2.6696856 -0 2.1329415
0 3.1410804 -3.6893488e+19
2.5382664 3.6893488e+19 2.0663595
0 3.1865089 -3.6893488e+19
2.6688988 1.0842022e-19 2.0820262
0 3.2380178 0
2.6097195 -1.0842022e-19 2.089314
-1.0842022e-19 3.1824789 3.6893488e+19
2.6650317 -1.0842022e-19 2.0292587
-0 3.2280774 3.6893488e+19
2.6023924 -2 2.0280921
-2 3.1814933 2
2.6640859 3.6893488e+19 1.9790704
3.6893488e+19 3.2233312 -2
2.5988939 -0 1.9715976
-0 3.184557 -0
2.6670258 3.6893488e+19 1.9308057
-0 3.2150574 1.0842022e-19
2.5927954 -0 1.9149402
0 3.1742322 1.0842022e-19
2.6571176 -0 1.8778307
3.6893488e+19 3.2107532 1.0842022e-19
2.5896227 1.0842022e-19 1.8472892
-1.0842022e-19 3.1724224 0
2.655381 -2 1.7826339
1.0842022e-19 3.2075322 -1.0842022e-19
2.5872483 1.0842022e-19 1.7338578
-2 3.1089518 -2
2.438962 -3.6893488e+19 1.57806
0 3.1368883 2
2.5716405 -2 1.3034885
-3.6893488e+19 3.120569 -3.6893488e+19
2.4531686 -0 -1.4998039
-1.0842022e-19 3.1804492 -0
2.6078551 -0 -1.6713086
0 3.1171865 -0
2.4490321 2 -1.7275946
3.6893488e+19 3.1834188 -2
2.6103237 3.6893488e+19 -1.8100153
-0 3.113601 0
2.4446476 0 -1.8197609
-2 3.1787496 -3.6893488e+19
2.606442 -0 -1.8903635
3.6893488e+19 3.1154032 -1.0842022e-19
2.4468513 -1.0842022e-19 -1.8891053
-3.6893488e+19 3.1371448 -0
2.5718539 -2 -1.9208758
-0 3.1132965 2
2.4442751 -1.0842022e-19 -1.9293293
-2 3.1036708 -0
2.5440252 0 -1.9464256
-1.0842022e-19 3.1141365 -2
2.4453022 -3.6893488e+19 -1.9708822
0 3.0706542 -0
2.5165765 0 -1.9646726
-2 2.8782845 -2
2.3144877 2 -1.8982154
-1.0842022e-19 2.8348548 1.0842022e-19
2.321346 3.6893488e+19 -1.891728
-2 2.8031802 -0
2.1969504 1.0842022e-19 -1.8855016
-2 2.7746007 -3.6893488e+19
2.2635226 -1.0842022e-19 -1.8820201
-0 2.7404122 1.0842022e-19
2.1114845 -1.0842022e-19 -1.8720899
-3.6893488e+19 2.6991417 1.0842022e-19
2.1810224 -2 -1.8667947
-1.0842022e-19 2.6655014 1.0842022e-19
2.0562675 1.0842022e-19 -1.8580076
-0 2.6343088 1.0842022e-19
2.1188049 -0 -1.8540353
1.0842022e-19 2.6064546 -2
2.0127437 0 -1.8452168
-0 2.5817604 -2
2.0683763 -2 -1.8418567
2 2.5668092 1.0842022e-19
1.9835211 2 -1.8388011
-1.0842022e-19 2.545239 -0
2.0333283 3.6893488e+19 -1.8350316
-1.0842022e-19 2.5328259 3.6893488e+19
1.958472 -1.0842022e-19 -1.8320273
3.6893488e+19 2.5122566 1.0842022e-19
2.0016766 -2 -1.8267322
-1.0842022e-19 2.5021751 -2
1.9358791 1.0842022e-19 -1.824015
2 2.4636881 1.0842022e-19
1.9724909 3.6893488e+19 -1.8167614
0 2.4482419 -1.0842022e-19
1.9152002 0 -1.814714
2 3.1001685 3.6893488e+19
2.5411134 -1.0842022e-19 2.5758648
-0 3.1024668 -0
2.4310315 1.0842022e-19 2.5696468
0 3.0977879 1.0842022e-19
2.5391343 -2 2.5632477
-0 3.1663907 -3.6893488e+19
2.5961673 -0 2.6126199
-1.0842022e-19 3.1309566 1.0842022e-19
2.4658718 3.6893488e+19 2.5729809
3.6893488e+19 3.161725 0
2.5922887 -1.0842022e-19 2.5963147
0 3.0963209 1.0842022e-19
2.4235156 3.6893488e+19 2.5334318
3.6893488e+19 3.122963 -1.0842022e-19
2.5600636 0 2.5526552
-3.6893488e+19 3.097043 2
2.4243989 0 2.5238483
-0 3.1076636 -3.6893488e+19
2.5473444 0 2.5296652
-3.6893488e+19 3.108922 0
2.4389257 0 2.5227253
-2 3.1664767 1.0842022e-19
2.5962391 1.0842022e-19 2.563374
0 3.0985003 -0
2.4261806 -3.6893488e+19 2.504643
-2 3.1705866 1.0842022e-19
2.5996559 1.0842022e-19 2.5540962
2 3.1692636 1.0842022e-19
2.6523495 -1.0842022e-19 2.5490239
-1.0842022e-19 3.1713789 -1.0842022e-19
2.6543794 0 2.5380998
3.6893488e+19 3.1737475 -0
2.6566525 3.6893488e+19 2.5272477
1.0842022e-19 3.0922437 -2
2.5022688 -1.0842022e-19 2.4328749
-3.6893488e+19 3.095403 -1.0842022e-19
2.5045977 0 2.4168301
1.0842022e-19 3.1465268 2
2.6305299 -0 2.4723425
3.6893488e+19 3.1455326 -2
2.6295757 0 2.4480193
-1.0842022e-19 3.0991907 -2
2.5073895 2 2.3810067
-3.6893488e+19 3.1318676 3.6893488e+19
2.6164622 3.6893488e+19 2.3879921
-1.0842022e-19 3.1102149 -2
2.5155156 -3.6893488e+19 2.3515213
1.0842022e-19 3.1632507 2
2.502682 0 2.3893876
-1.0842022e-19 3.1649098 3.6893488e+19
2.5949364 0 2.382745
2 3.1343727 2
2.4700491 2 2.3402135
-3.6893488e+19 3.1631572 3.6893488e+19
2.5934794 -0 2.3573153
-3.6893488e+19 3.2186542 1.0842022e-19
2.639617 3.6893488e+19 2.3783343
-0 3.1048152 1.0842022e-19
2.4339035 -3.6893488e+19 2.273597
-0 3.2119579 3.6893488e+19
2.6340499 1.0842022e-19 2.3463788
0 3.1158741 -0
2.447427 1.0842022e-19 2.2613072
-3.6893488e+19 3.1402626 0
2.574446 -0 2.2702162
-0 3.1197233 -2
2.4521344 -0 2.2361002
0 3.1702864 -2
2.599406 1.0842022e-19 2.2669091
-1.0842022e-19 3.1209095 -3.6893488e+19
2.4535849 2 2.1955519
-1.0842022e-19 3.1069307 3.6893488e+19
2.5467353 0 2.1624584
-1.0842022e-19 3.1386607 -0
2.4752929 -3.6893488e+19 2.1728063
-0 3.1090217 3.6893488e+19
2.5484736 3.6893488e+19 2.1237855
-2 3.1352866 -3.6893488e+19
2.6197431 -3.6893488e+19 2.1317029
1.0842022e-19 3.0994515 -2
2.5075817 2 2.0724339
3.6893488e+19 3.1316459 -0
2.6162493 3.6893488e+19 2.0841837
0 3.108053 1.0842022e-19
2.513922 -2 2.0396423
-3.6893488e+19 3.1400044 -1.0842022e-19
2.6242707 -2 2.046653
2 3.1078305 -1.0842022e-19
2.5137579 -2 1.9987961
-0 3.1381774 3.6893488e+19
2.6225173 3.6893488e+19 2.0006526
-1.0842022e-19 3.1095254 0
2.5150075 3.6893488e+19 1.959132
3.6893488e+19 3.138669 1.0842022e-19
2.6229892 3.6893488e+19 1.9563359
-2 3.1270244 -0
2.5279059 0 1.9265101
-0 3.184557 -0
2.6670258 3.6893488e+19 1.9308057
-2 3.1172895 -3.6893488e+19
2.5207303 0 1.8802654
-2 3.1424215 -0
2.6265903 2 1.8614911
1.0842022e-19 3.1206861 2
2.5232339 -0 1.8038365
-1.0842022e-19 3.1426444 -2
2.6268041 1.0842022e-19 1.7715218
3.6893488e+19 3.1203465 -2
2.5229836 2 1.6892947
-2 3.1089518 -2
2.438962 -3.6893488e+19 1.57806
0 3.1368883 2
2.5716405 -2 1.3034885
-3.6893488e+19 3.120569 -3.6893488e+19
2.4531686 -0 -1.4998039
3.6893488e+19 3.1319859 2
2.567565 0 -1.6520214
0 3.1171865 -0
2.4490321 2 -1.7275946
-3.6893488e+19 3.1303694 0
2.5662212 3.6893488e+19 -1.78737
-0 3.113601 0
2.4446476 0 -1.8197609
0 3.141124 0
2.5751619 -2 -1.8780456
3.6893488e+19 3.1154032 -1.0842022e-19
2.4468513 -1.0842022e-19 -1.8891053
-1.0842022e-19 3.1058564 3.6893488e+19
2.5458422 -1.0842022e-19 -1.9070659
-0 3.1132965 2
2.4442751 -1.0842022e-19 -1.9293293
-2 3.1036708 -0
2.5440252 0 -1.9464256
1.0842022e-19 3.0646219 -0
2.3847508 3.6893488e+19 -1.940847
0 3.0706542 -0
2.5165765 0 -1.9646726
-2 2.8782845 -2
2.3144877 2 -1.8982154
-1.0842022e-19 2.8348548 1.0842022e-19
2.321346 3.6893488e+19 -1.891728
-2 2.8031802 -0
2.1969504 1.0842022e-19 -1.8855016
-2 2.7746007 -3.6893488e+19
2.2635226 -1.0842022e-19 -1.8820201
-0 2.7404122 1.0842022e-19
2.1114845 -1.0842022e-19 -1.8720899
-3.6893488e+19 2.6991417 1.0842022e-19
2.1810224 -2 -1.8667947
-1.0842022e-19 2.6655014 1.0842022e-19
2.0562675 1.0842022e-19 -1.8580076
-0 2.6343088 1.0842022e-19
2.1188049 -0 -1.8540353
1.0842022e-19 2.6064546 -2
2.0127437 0 -1.8452168
-0 2.5817604 -2
2.0683763 -2 -1.8418567
2 2.5668092 1.0842022e-19
1.9835211 2 -1.8388011
-1.0842022e-19 2.545239 -0
2.0333283 3.6893488e+19 -1.8350316
-1.0842022e-19 2.5328259 3.6893488e+19
1.958472 -1.0842022e-19 -1.8320273
3.6893488e+19 2.5122566 1.0842022e-19
2.0016766 -2 -1.8267322
-1.0842022e-19 2.5021751 -2
1.9358791 1.0842022e-19 -1.824015
2 2.4636881 1.0842022e-19
1.9724909 3.6893488e+19 -1.8167614
0 2.4482419 -1.0842022e-19
1.9152002 0 -1.814714
-2 3.1005666 0
2.537617 -1.0842022e-19 2.5760591
-0 3.1653588 3.6893488e+19
2.5907745 -0 2.6239059
3.6893488e+19 3.1188238 2
2.4431324 0 2.5734417
0 3.1664662 -2
2.5916829 0 2.6124897
3.6893488e+19 3.0964582 3.6893488e+19
2.4162607 3.6893488e+19 2.5334318
0 3.1252065 -2
2.557832 -1.0842022e-19 2.554311
-3.6893488e+19 3.0957248 2
2.4153798 2 2.5226998
0 3.1642027 -1.0842022e-19
2.5898259 0 2.5736992
-3.6893488e+19 3.1115246 -2
2.4343626 -0 2.5245938
2 3.1675751 -3.6893488e+19
2.5925927 0 2.5640306
0 3.1687644 0
2.5935686 2 2.5526149
1.0842022e-19 3.0870245 -3.6893488e+19
2.4895487 1.0842022e-19 2.4652863
-3.6893488e+19 3.190449 -1.0842022e-19
2.6678054 -1.0842022e-19 2.5509501
-1.0842022e-19 3.0882041 -3.6893488e+19
2.4912624 0 2.4472139
-1.0842022e-19 3.1715198 0
2.6498494 -3.6893488e+19 2.5256178
-2 3.0935924 -3.6893488e+19
2.4990892 -1.0842022e-19 2.4343729
-2 3.1881802 -1.0842022e-19
2.6656532 -2 2.5236495
0 3.0968156 -1.0842022e-19
2.5018854 -3.6893488e+19 2.418334
-2 3.2408199 3.6893488e+19
2.6064732 -2 2.5176418
0 3.1321366 -1.0842022e-19
2.6124907 -3.6893488e+19 2.3880227
3.6893488e+19 3.2443461 -2
2.6090341 1.0842022e-19 2.4821844
0 3.1682954 2
2.5012856 3.6893488e+19 2.3939846
0 3.1326513 -2
2.4597456 1.0842022e-19 2.3385556
-0 3.2142808 -0
2.6309118 0 2.4013121
1.0842022e-19 3.1053267 2
2.4269159 1.0842022e-19 2.2941148
-2 3.2189076 0
2.6347079 3.6893488e+19 2.3783343
2 3.1051714 2
2.4267294 1.0842022e-19 2.2737632
-1.0842022e-19 3.1320882 -1.0842022e-19
2.4590693 2 2.2727792
1.0842022e-19 3.2156951 0
2.6320722 2 2.3222711
0 3.1636705 3.6893488e+19
2.4970145 -2 2.2718322
0 3.170361 3.6893488e+19
2.5948784 -3.6893488e+19 2.2668121
0 3.1571763 -0
2.4892118 3.6893488e+19 2.2389228
-2 3.1721663 3.6893488e+19
2.5963597 0 2.2375791
1.0842022e-19 3.1369033 0
2.4648545 -1.0842022e-19 2.1707275
2 3.173403 -0
2.5973742 3.6893488e+19 2.1905761
-0 3.1870039 0
2.6645374 2 2.1826689
2 3.1439774 1.0842022e-19
2.5361383 -1.0842022e-19 2.1133432
0 3.1856282 2
2.6632323 -0 2.1312144
0 3.1415441 -0
2.5343709 -2 2.0665829
0 3.1854451 -2
2.6630585 -3.6893488e+19 2.0810101
0 3.2367463 -0
2.6035144 0 2.088268
-0 3.1848152 0
2.6624613 -2 2.030592
-0 3.2276611 1.0842022e-19
2.5969162 1.0842022e-19 2.0277171
2 3.1817629 0
2.6595659 3.6893488e+19 1.9790704
1.0842022e-19 3.2229433 2
2.5934896 -0 1.9713099
1.0842022e-19 3.1816368 1.0842022e-19
2.6594462 -1.0842022e-19 1.9294785
-1.0842022e-19 3.1170659 3.6893488e+19
2.516593 -1.0842022e-19 1.8801236
3.6893488e+19 3.144582 3.6893488e+19
2.6242964 -3.6893488e+19 1.8626446
-3.6893488e+19 3.2098978 -3.6893488e+19
2.5840149 3.6893488e+19 1.8467703
-0 3.1743586 -2
2.6525421 2 1.7832576
1.0842022e-19 3.2079973 1.0842022e-19
2.5826347 2 1.7339834
-0 3.1089706 1.0842022e-19
2.4312942 -0 1.5779902
-2 3.1773224 1.0842022e-19
2.60059 1.0842022e-19 1.3220361
-0 3.1155553 3.6893488e+19
2.4392054 2 -1.4963263
1.0842022e-19 3.1788454 -0
2.6018393 0 -1.6705781
-0 3.1192789 1.0842022e-19
2.4436793 -2 -1.7288008
3.6893488e+19 3.1775005 -1.0842022e-19
2.6007359 -0 -1.8073903
2 3.1170206 3.6893488e+19
2.4409659 1.0842022e-19 -1.8215146
-1.0842022e-19 3.1775429 -3.6893488e+19
2.6007707 1.0842022e-19 -1.8898928
-2 3.1173091 -2
2.4413126 0 -1.8897755
-1.0842022e-19 3.1358547 -0
2.5665684 -2 -1.9202143
1.0842022e-19 3.1124523 -2
2.435477 2 -1.9288416
1.0842022e-19 3.1038928 2
2.5403457 3.6893488e+19 -1.9464425
0 3.0651174 3.6893488e+19
2.3786054 3.6893488e+19 -1.9410717
2 3.0708275 -2
2.5132177 0 -1.9646726
-0 2.8765321 -2
2.3089197 -2 -1.897449
-1.0842022e-19 2.8342137 -3.6893488e+19
2.3170316 3.6893488e+19 -1.8913684
-1.0842022e-19 2.8036325 -0
2.191045 -1.0842022e-19 -1.8856387
2 2.7785971 2
2.2642744 1.0842022e-19 -1.8838578
-2 2.739665 2
2.1056345 0 -1.8715954
2 2.7007575 1.0842022e-19
2.1775839 1.0842022e-19 -1.8675131
1.0842022e-19 2.6647189 -0
2.0512023 -1.0842022e-19 -1.8574573
-3.6893488e+19 2.6356406 -3.6893488e+19
2.1158147 3.6893488e+19 -1.8546855
0 2.6062574 -2
2.0087428 2 -1.8449895
-2 2.5817251 -1.0842022e-19
2.064671 -3.6893488e+19 -1.8416983
3.6893488e+19 2.5665932 0
1.9799356 -1.0842022e-19 -1.8385531
-3.6893488e+19 2.5448174 1.0842022e-19
2.0296609 0 -1.8346009
-2 2.5340638 -3.6893488e+19
1.9563102 -1.0842022e-19 -1.8328339
0 2.5131471 0
1.9996186 2 -1.8272908
3.6893488e+19 2.5009494 0
1.9322598 0 -1.8229529
2 2.4625256 -1.0842022e-19
1.9693735 -2 -1.8161612
-2 2.4489458 -0
1.9130304 3.6893488e+19 -1.8149209
-1.0842022e-19 2.3974109 0
1.8637396 -0 -1.8092806
-2 2.346961 -1.0842022e-19
1.8334324 1.0842022e-19 -1.8057437
-1.0842022e-19 2.3020067 1.0842022e-19
1.8064268 3.6893488e+19 -1.7996716
3.6893488e+19 2.2681606 2
1.7860941 1.0842022e-19 -1.7955598
-3.6893488e+19 2.2227879 2
1.8492409 3.6893488e+19 -1.7917268
1.0842022e-19 2.1847816 -3.6893488e+19
1.8312145 3.6893488e+19 -1.7911822
-0 2.1540368 -2
1.8166325 -3.6893488e+19 -1.7914419
-1.0842022e-19 2.1157684 -2
1.7984821 -3.6893488e+19 -1.7866118
-2 3.1005666 0
2.537617 -1.0842022e-19 2.5760591
-0 3.1653588 3.6893488e+19
2.5907745 -0 2.6239059
3.6893488e+19 3.1188238 2
2.4431324 0 2.5734417
0 3.1664662 -2
2.5916829 0 2.6124897
3.6893488e+19 3.0964582 3.6893488e+19
2.4162607 3.6893488e+19 2.5334318
0 3.1252065 -2
2.557832 -1.0842022e-19 2.554311
-3.6893488e+19 3.0957248 2
2.4153798 2 2.5226998
-0 3.1097512 3.6893488e+19
2.5451522 -3.6893488e+19 2.5311453
-3.6893488e+19 3.1115246 -2
2.4343626 -0 2.5245938
2 3.1675751 -3.6893488e+19
2.5925927 0 2.5640306
2 3.0984678 2
2.5358949 2 2.501816
1.0842022e-19 3.0870245 -3.6893488e+19
2.4895487 1.0842022e-19 2.4652863
-3.6893488e+19 3.190449 -1.0842022e-19
2.6678054 -1.0842022e-19 2.5509501
-1.0842022e-19 3.0882041 -3.6893488e+19
2.4912624 0 2.4472139
-1.0842022e-19 3.1715198 0
2.6498494 -3.6893488e+19 2.5256178
-2 3.0935924 -3.6893488e+19
2.4990892 -1.0842022e-19 2.4343729
-2 3.1881802 -1.0842022e-19
2.6656532 -2 2.5236495
0 3.0968156 -1.0842022e-19
2.5018854 -3.6893488e+19 2.418334
-1.0842022e-19 3.0975904 3.6893488e+19
2.5024483 1.0842022e-19 2.3790791
0 3.1321366 -1.0842022e-19
2.6124907 -3.6893488e+19 2.3880227
3.6893488e+19 3.2443461 -2
2.6090341 1.0842022e-19 2.4821844
0 3.1682954 2
2.5012856 3.6893488e+19 2.3939846
0 3.1326513 -2
2.4597456 1.0842022e-19 2.3385556
-3.6893488e+19 3.1749184 -2
2.5986176 1.0842022e-19 2.3672884
1.0842022e-19 3.1053267 2
2.4269159 1.0842022e-19 2.2941148
2 3.09638 -2
2.5341818 3.6893488e+19 2.2794738
2 3.1051714 2
2.4267294 1.0842022e-19 2.2737632
1.0842022e-19 3.1150649 -0
2.438616 -1.0842022e-19 2.2606258
1.0842022e-19 3.2156951 0
2.6320722 2 2.3222711
2 3.1194696 -3.6893488e+19
2.4439082 2 2.235574
0 3.170361 3.6893488e+19
2.5948784 -3.6893488e+19 2.2668121
0 3.1571763 -0
2.4892118 3.6893488e+19 2.2389228
1.0842022e-19 3.1071239 -3.6893488e+19
2.5429964 0 2.1624584
1.0842022e-19 3.1369033 0
2.4648545 -1.0842022e-19 2.1707275
0 3.109277 1.0842022e-19
2.5447631 1.0842022e-19 2.1238492
-3.6893488e+19 3.1324921 -2
2.612828 -2 2.1286979
-0 3.1013379 0
2.5051701 -3.6893488e+19 2.0740192
-3.6893488e+19 3.129364 2
2.6098609 2 2.0819783
-3.6893488e+19 3.1096983 0
2.5112422 -1.0842022e-19 2.0408342
0 3.1854451 -2
2.6630585 -3.6893488e+19 2.0810101
1.0842022e-19 3.1088006 0
2.5105901 -3.6893488e+19 1.9993511
-0 3.1848152 0
2.6624613 -2 2.030592
0 3.1130164 1.0842022e-19
2.5136518 -2 1.9610614
-2 3.139246 3.6893488e+19
2.6192348 1.0842022e-19 1.9565133
1.0842022e-19 3.2229433 2
2.5934896 -0 1.9713099
2 3.1430023 -3.6893488e+19
2.6227977 0 1.913414
-1.0842022e-19 3.1170659 3.6893488e+19
2.516593 -1.0842022e-19 1.8801236
3.6893488e+19 3.144582 3.6893488e+19
2.6242964 -3.6893488e+19 1.8626446
-0 3.121048 -1.0842022e-19
2.519485 -1.0842022e-19 1.8039254
3.6893488e+19 3.140579 -1.0842022e-19
2.6204991 2 1.77066
0 3.1193864 -2
2.5182781 0 1.6887136
-0 3.1089706 1.0842022e-19
2.4312942 -0 1.5779902
3.6893488e+19 3.1398525 3.6893488e+19
2.5698483 -0 1.3047589
-0 3.1155553 3.6893488e+19
2.4392054 2 -1.4963263
-2 3.1284883 -1.0842022e-19
2.5605247 -2 -1.650548
-0 3.1192789 1.0842022e-19
2.4436793 -2 -1.7288008
1.0842022e-19 3.1288917 2
2.5608556 0 -1.7866517
2 3.1170206 3.6893488e+19
2.4409659 1.0842022e-19 -1.8215146
-2 3.1398356 3.6893488e+19
2.5698345 -0 -1.8775549
-2 3.1173091 -2
2.4413126 0 -1.8897755
-2 3.1050084 -1.0842022e-19
2.541261 -0 -1.9066069
1.0842022e-19 3.1124523 -2
2.435477 2 -1.9288416
1.0842022e-19 3.1038928 2
2.5403457 3.6893488e+19 -1.9464425
0 3.0651174 3.6893488e+19
2.3786054 3.6893488e+19 -1.9410717
2 3.0708275 -2
2.5132177 0 -1.9646726
-0 2.8765321 -2
2.3089197 -2 -1.897449
-1.0842022e-19 2.8342137 -3.6893488e+19
2.3170316 3.6893488e+19 -1.8913684
-1.0842022e-19 2.8036325 -0
2.191045 -1.0842022e-19 -1.8856387
2 2.7785971 2
2.2642744 1.0842022e-19 -1.8838578
-2 2.739665 2
2.1056345 0 -1.8715954
2 2.7007575 1.0842022e-19
2.1775839 1.0842022e-19 -1.8675131
1.0842022e-19 2.6647189 -0
2.0512023 -1.0842022e-19 -1.8574573
-3.6893488e+19 2.6356406 -3.6893488e+19
2.1158147 3.6893488e+19 -1.8546855
0 2.6062574 -2
2.0087428 2 -1.8449895
-2 2.5817251 -1.0842022e-19
2.064671 -3.6893488e+19 -1.8416983
3.6893488e+19 2.5665932 0
1.9799356 -1.0842022e-19 -1.8385531
-3.6893488e+19 2.5448174 1.0842022e-19
2.0296609 0 -1.8346009
-2 2.5340638 -3.6893488e+19
1.9563102 -1.0842022e-19 -1.8328339
0 2.5131471 0
1.9996186 2 -1.8272908
3.6893488e+19 2.5009494 0
1.9322598 0 -1.8229529
2 2.4625256 -1.0842022e-19
1.9693735 -2 -1.8161612
-2 2.4489458 -0
1.9130304 3.6893488e+19 -1.8149209
-1.0842022e-19 2.3974109 0
1.8637396 -0 -1.8092806
-2 2.346961 -1.0842022e-19
1.8334324 1.0842022e-19 -1.8057437
-1.0842022e-19 2.3020067 1.0842022e-19
1.8064268 3.6893488e+19 -1.7996716
3.6893488e+19 2.2681606 2
1.7860941 1.0842022e-19 -1.7955598
-3.6893488e+19 2.2227879 2
1.8492409 3.6893488e+19 -1.7917268
1.0842022e-19 2.1847816 -3.6893488e+19
1.8312145 3.6893488e+19 -1.7911822
-0 2.1540368 -2
1.8166325 -3.6893488e+19 -1.7914419
-1.0842022e-19 2.1157684 -2
1.7984821 -3.6893488e+19 -1.7866118
-3.6893488e+19 3.1011419 1.0842022e-19
2.5342572 3.6893488e+19 2.5764201
3.6893488e+19 3.0931964 -1.0842022e-19
2.5278249 -2 2.5587804
-2 3.09743 -1.0842022e-19
2.5312521 -0 2.5522397
-0 3.1233478 1.0842022e-19
2.5522332 0 2.5636973
-0 3.0992901 1.0842022e-19
2.4121819 -0 2.5356371
-3.6893488e+19 3.1241148 -1.0842022e-19
2.5528541 -1.0842022e-19 2.5532639
-1.0842022e-19 3.0973465 3.6893488e+19
2.4098883 3.6893488e+19 2.5238721
3.6893488e+19 3.1639423 0
2.5850954 1.0842022e-19 2.5733232
0 3.1130331 2
2.4283991 -2 2.5256319
1.0842022e-19 3.1666534 -3.6893488e+19
2.5872898 3.6893488e+19 2.5631702
-0 3.1658511 1.0842022e-19
2.5866406 2 2.5503495
1.0842022e-19 3.2410967 -1.0842022e-19
2.6013615 -0 2.5888369
2 3.1911714 0
2.6636114 0 2.5512576
3.6893488e+19 3.0883639 -2
2.4841738 0 2.4472139
3.6893488e+19 3.1673331 2
2.6412623 2 2.522712
0 3.0941803 0
2.4924967 0 2.4349108
0 3.1902559 -1.0842022e-19
2.6627529 3.6893488e+19 2.524776
-0 3.0974965 -0
2.497242 -1.0842022e-19 2.4189577
3.6893488e+19 3.2394359 -3.6893488e+19
2.6001732 -2 2.5167611
-3.6893488e+19 3.1234055 -0
2.6000788 -3.6893488e+19 2.4006593
-2 3.2446711 2
2.603919 -3.6893488e+19 2.4822736
-0 3.2420042 3.6893488e+19
2.5402961 3.6893488e+19 2.4632289
1.0842022e-19 3.2439713 -2
2.6498804 3.6893488e+19 2.455188
-1.0842022e-19 3.2484457 -2
2.5440967 -0 2.4408343
-0 3.1747494 1.0842022e-19
2.5938439 2 2.3669462
3.6893488e+19 3.2503295 0
2.5454028 -0 2.4142494
1.0842022e-19 3.2062647 3.6893488e+19
2.6193562 -3.6893488e+19 2.3679368
0 3.1078029 3.6893488e+19
2.4222271 2 2.2756839
-1.0842022e-19 3.2191951 3.6893488e+19
2.6298237 2 2.3514276
-2 3.1317136 -2
2.4504433 2 2.2724056
-3.6893488e+19 3.1607029 3.6893488e+19
2.582473 1.0842022e-19 2.2840638
-0 3.1539404 3.6893488e+19
2.4766722 2 2.2653351
-1.0842022e-19 3.1640198 3.6893488e+19
2.5851581 -0 2.2626472
0 3.1511381 -0
2.4733651 3.6893488e+19 2.2314847
3.6893488e+19 3.1752026 0
2.5942109 1.0842022e-19 2.2408237
2 3.2559745 1.0842022e-19
2.5520642 -2 2.278244
1.0842022e-19 3.1796508 0
2.5978117 -2 2.1968386
0 3.1323338 2
2.6084492 2 2.1283073
1.0842022e-19 3.104053 2
2.5033119 -2 2.076369
-0 3.1586137 0
2.6330876 1.0842022e-19 2.1073537
-3.6893488e+19 3.102648 -1.0842022e-19
2.5023067 -1.0842022e-19 2.0349991
-0 3.1605182 0
2.6348732 1.0842022e-19 2.0618691
-0 3.1106911 -0
2.5080612 3.6893488e+19 2.0005467
2 3.2510297 -0
2.7206957 0 2.0737858
0 3.2274871 -2
2.5916243 0 2.0274849
-1.0842022e-19 3.23403 -1.0842022e-19
2.7037926 0 2.0066421
1.0842022e-19 3.2227054 -0
2.5882032 0 1.9710943
-3.6893488e+19 3.1409333 -3.6893488e+19
2.6165116 0 1.9124534
-0 3.1169317 -1.0842022e-19
2.512526 -0 1.8800147
2 3.2086079 0
2.5781171 -1.0842022e-19 1.8460438
-2 3.1777239 -3.6893488e+19
2.6510038 2 1.7844142
-0 3.2075982 2
2.5773947 -3.6893488e+19 1.7336692
1.0842022e-19 3.1067612 -2
2.4209979 -1.0842022e-19 1.5766621
0 3.1770606 2
2.5957148 -1.0842022e-19 1.3218102
2 3.1136575 0
2.429136 1.0842022e-19 -1.494952
-3.6893488e+19 3.1777878 -3.6893488e+19
2.5963035 1.0842022e-19 -1.6700667
-1.0842022e-19 3.1180317 1.0842022e-19
2.434298 2 -1.7279392
0 3.1766875 3.6893488e+19
2.5954127 -2 -1.8069463
3.6893488e+19 3.1175346 2
2.4337113 -1.0842022e-19 -1.8217131
-2 3.1794248 0
2.5976288 -1.0842022e-19 -1.8904335
1.0842022e-19 3.1128473 1.0842022e-19
2.42818 2 -1.8880237
-1.0842022e-19 3.1358464 -2
2.562351 1.0842022e-19 -1.9201199
0 3.1120374 2
2.4272242 0 -1.9285673
3.6893488e+19 3.1038368 -2
2.5364385 -2 -1.9463066
2 3.115906 2
2.4317894 -2 -1.971781
1.0842022e-19 3.0701113 -1.0842022e-19
2.5091369 1.0842022e-19 -1.964079
1.0842022e-19 2.8747752 3.6893488e+19
2.3033886 2 -1.8966827
-1.0842022e-19 2.8338125 3.6893488e+19
2.3129592 3.6893488e+19 -1.8911115
2 2.8011959 -2
2.180989 -1.0842022e-19 -1.8844867
-0 2.7789514 -3.6893488e+19
2.2615252 2 -1.8839453
2 2.7396507 -0
2.100327 -3.6893488e+19 -1.8714716
-1.0842022e-19 2.6995785 -0
2.1714933 0 -1.8667295
-1.0842022e-19 2.6647918 -3.6893488e+19
2.0467682 -2 -1.8573885
-1.0842022e-19 2.6364858 0
2.1123421 -2 -1.8550467
-3.6893488e+19 2.6063027 -3.6893488e+19
2.0049214 -3.6893488e+19 -1.8449137
3.6893488e+19 2.5818088 1.0842022e-19
2.0610807 -1.0842022e-19 -1.8416191
-1.0842022e-19 2.5664973 -2
1.9764422 -0 -1.8383877
-1.0842022e-19 2.5439084 0
2.025548 -3.6893488e+19 -1.8338255
3.6893488e+19 2.534198 3.6893488e+19
1.9533333 -1.0842022e-19 -1.8328339
-3.6893488e+19 2.5133095 3.6893488e+19
1.9968606 2 -1.8272908
0 2.5011904 -2
1.9297174 -3.6893488e+19 -1.8230493
-1.0842022e-19 2.4628112 3.6893488e+19
1.9669497 -2 -1.8161612
-3.6893488e+19 2.4491577 -1.0842022e-19
1.9106779 3.6893488e+19 -1.8149209
-3.6893488e+19 3.1011419 1.0842022e-19
2.5342572 3.6893488e+19 2.5764201
3.6893488e+19 3.0931964 -1.0842022e-19
2.5278249 -2 2.5587804
-2 3.09743 -1.0842022e-19
2.5312521 -0 2.5522397
-2 3.0970979 -3.6893488e+19
2.5309832 1.0842022e-19 2.5416415
-0 3.0992901 1.0842022e-19
2.4121819 -0 2.5356371
-3.6893488e+19 3.1241148 -1.0842022e-19
2.5528541 -1.0842022e-19 2.5532639
-1.0842022e-19 3.0973465 3.6893488e+19
2.4098883 3.6893488e+19 2.5238721
3.6893488e+19 3.1639423 0
2.5850954 1.0842022e-19 2.5733232
0 3.1130331 2
2.4283991 -2 2.5256319
1.0842022e-19 3.1666534 -3.6893488e+19
2.5872898 3.6893488e+19 2.5631702
0 3.0986841 1.0842022e-19
2.5322673 -1.0842022e-19 2.5018377
1.0842022e-19 3.0863647 0
2.4813132 -1.0842022e-19 2.4641562
2 3.1911714 0
2.6636114 0 2.5512576
3.6893488e+19 3.0883639 -2
2.4841738 0 2.4472139
3.6893488e+19 3.1673331 2
2.6412623 2 2.522712
0 3.0941803 0
2.4924967 0 2.4349108
0 3.1902559 -1.0842022e-19
2.6627529 3.6893488e+19 2.524776
-0 3.0974965 -0
2.497242 -1.0842022e-19 2.4189577
0 3.0962608 2
2.4954736 -1.0842022e-19 2.3774505
-3.6893488e+19 3.1234055 -0
2.6000788 -3.6893488e+19 2.4006593
-2 3.2446711 2
2.603919 -3.6893488e+19 2.4822736
-0 3.2420042 3.6893488e+19
2.5402961 3.6893488e+19 2.4632289
1.0842022e-19 3.1190937 -0
2.5487893 -1.0842022e-19 2.3401148
0 3.1318479 3.6893488e+19
2.4506016 1.0842022e-19 2.337713
-0 3.1747494 1.0842022e-19
2.5938439 2 2.3669462
-0 3.10322 0
2.4168193 -2 2.2922571
-2 3.0973573 -1.0842022e-19
2.5311933 -3.6893488e+19 2.2801127
0 3.1078029 3.6893488e+19
2.4222271 2 2.2756839
-2 3.096185 2
2.5302444 -0 2.2592928
-0 3.110249 3.6893488e+19
2.4251139 -3.6893488e+19 2.2570875
-3.6893488e+19 3.1607029 3.6893488e+19
2.582473 1.0842022e-19 2.2840638
-0 3.1539404 3.6893488e+19
2.4766722 2 2.2653351
-2 3.1399567 0
2.5656786 -3.6893488e+19 2.2447639
0 3.1511381 -0
2.4733651 3.6893488e+19 2.2314847
2 3.142664 -2
2.5678699 -0 2.2032633
-2 3.1387506 1.0842022e-19
2.4587474 -0 2.1725717
0 3.1067483 3.6893488e+19
2.5387955 1.0842022e-19 2.1210198
0 3.1323338 2
2.6084492 2 2.1283073
1.0842022e-19 3.104053 2
2.5033119 -2 2.076369
-0 3.1586137 0
2.6330876 1.0842022e-19 2.1073537
-3.6893488e+19 3.102648 -1.0842022e-19
2.5023067 -1.0842022e-19 2.0349991
-0 3.1605182 0
2.6348732 1.0842022e-19 2.0618691
-0 3.1106911 -0
2.5080612 3.6893488e+19 2.0005467
2 3.2510297 -0
2.7206957 0 2.0737858
0 3.2274871 -2
2.5916243 0 2.0274849
1.0842022e-19 3.1410375 -3.6893488e+19
2.6166091 1.0842022e-19 1.9573356
1.0842022e-19 3.2227054 -0
2.5882032 0 1.9710943
-3.6893488e+19 3.1409333 -3.6893488e+19
2.6165116 0 1.9124534
-0 3.1169317 -1.0842022e-19
2.512526 -0 1.8800147
-3.6893488e+19 3.1198697 -1.0842022e-19
2.5146282 -2 1.8032731
-0 3.1398771 2
2.6155214 -0 1.7703085
3.6893488e+19 3.1211295 -2
2.5155294 0 1.6895146
1.0842022e-19 3.1067612 -2
2.4209979 -1.0842022e-19 1.5766621
0 3.1389275 -1.0842022e-19
2.5648451 -0 1.3042367
2 3.1136575 0
2.429136 1.0842022e-19 -1.494952
3.6893488e+19 3.1266689 -1.0842022e-19
2.5549216 3.6893488e+19 -1.6497444
-1.0842022e-19 3.1180317 1.0842022e-19
2.434298 2 -1.7279392
-3.6893488e+19 3.1312683 -0
2.558645 2 -1.7875789
3.6893488e+19 3.1175346 2
2.4337113 -1.0842022e-19 -1.8217131
1.0842022e-19 3.1342561 -2
2.5610635 0 -1.8756622
1.0842022e-19 3.1128473 1.0842022e-19
2.42818 2 -1.8880237
-0 3.1044018 -0
2.536896 1.0842022e-19 -1.906256
0 3.1120374 2
2.4272242 0 -1.9285673
3.6893488e+19 3.1038368 -2
2.5364385 -2 -1.9463066
0 3.0648386 3.6893488e+19
2.371527 3.6893488e+19 -1.9408283
1.0842022e-19 3.0701113 -1.0842022e-19
2.5091369 1.0842022e-19 -1.964079
1.0842022e-19 2.8747752 3.6893488e+19
2.3033886 2 -1.8966827
-1.0842022e-19 2.8338125 3.6893488e+19
2.3129592 3.6893488e+19 -1.8911115
2 2.8011959 -2
2.180989 -1.0842022e-19 -1.8844867
-0 2.7789514 -3.6893488e+19
2.2615252 2 -1.8839453
2 2.7396507 -0
2.100327 -3.6893488e+19 -1.8714716
-1.0842022e-19 2.6995785 -0
2.1714933 0 -1.8667295
-1.0842022e-19 2.6647918 -3.6893488e+19
2.0467682 -2 -1.8573885
-1.0842022e-19 2.6364858 0
2.1123421 -2 -1.8550467
-3.6893488e+19 2.6063027 -3.6893488e+19
2.0049214 -3.6893488e+19 -1.8449137
3.6893488e+19 2.5818088 1.0842022e-19
2.0610807 -1.0842022e-19 -1.8416191
-1.0842022e-19 2.5664973 -2
1.9764422 -0 -1.8383877
-1.0842022e-19 2.5439084 0
2.025548 -3.6893488e+19 -1.8338255
3.6893488e+19 2.534198 3.6893488e+19
1.9533333 -1.0842022e-19 -1.8328339
-3.6893488e+19 2.5133095 3.6893488e+19
1.9968606 2 -1.8272908
0 2.5011904 -2
1.9297174 -3.6893488e+19 -1.8230493
-1.0842022e-19 2.4628112 3.6893488e+19
1.9669497 -2 -1.8161612
-3.6893488e+19 2.4491577 -1.0842022e-19
1.9106779 3.6893488e+19 -1.8149209
1.0842022e-19 3.1034784 2
2.5322952 1.0842022e-19 2.578419
3.6893488e+19 3.0931377 -2
2.5240369 -1.0842022e-19 2.5585651
2 3.0976131 -0
2.527611 -0 2.5522397
0 3.1248052 -1.0842022e-19
2.5493271 -0 2.5647559
-2 3.0963318 2
2.4012785 2 2.5331097
-3.6893488e+19 3.0979955 -1.0842022e-19
2.4032061 3.6893488e+19 2.5242789
2 3.1638293 3.6893488e+19
2.5804927 0 2.5730648
3.6893488e+19 3.1156037 1.0842022e-19
2.4236078 -0 2.5274775
3.6893488e+19 3.1669331 -3.6893488e+19
2.5829713 3.6893488e+19 2.5632155
0 3.1199691 -0
2.4286656 -0 2.520014
3.6893488e+19 3.098928 0
2.5286613 3.6893488e+19 2.5018814
0 3.2383213 0
2.5940983 -2 2.5867653
-2 3.1907499 3.6893488e+19
2.6583476 -3.6893488e+19 2.550786
-2 3.0904653 -0
2.4798217 3.6893488e+19 2.4497821
2 3.1908591 2
2.6584487 -0 2.5379095
-1.0842022e-19 3.0944619 -1.0842022e-19
2.4854541 3.6893488e+19 2.4350643
2 3.1896517 -0
2.65733 -2 2.5242314
0 3.0934079 1.0842022e-19
2.4839685 0 2.3939798
1.0842022e-19 3.0945916 -0
2.4856367 -2 2.3754563
3.6893488e+19 3.1236939 -2
2.5962212 3.6893488e+19 2.4007242
-0 3.1359081 1.0842022e-19
2.5219324 3.6893488e+19 2.3982458
-0 3.2446501 3.6893488e+19
2.5365639 -1.0842022e-19 2.4655418
0 3.2448101 1.0842022e-19
2.6451657 2 2.4557209
-0 3.2442403 -0
2.5363264 2 2.4369476
-0 3.1724436 -0
2.5873723 -1.0842022e-19 2.3647621
-1.0842022e-19 3.2438052 2
2.5360744 -3.6893488e+19 2.408422
-3.6893488e+19 3.0954969 3.6893488e+19
2.5259211 -0 2.278466
2 3.1068931 -1.0842022e-19
2.4135151 -2 2.2748775
0 3.2199612 -1.0842022e-19
2.6253207 2 2.3518159
-3.6893488e+19 3.1082304 2
2.4150648 3.6893488e+19 2.2555492
1.0842022e-19 3.1576827 -3.6893488e+19
2.5755837 1.0842022e-19 2.2818263
-0 3.1507351 0
2.464313 -2 2.2631288
3.6893488e+19 3.1552248 2
2.573621 0 2.2569325
-3.6893488e+19 3.247736 -2
2.5383515 2 2.2986012
3.6893488e+19 3.1775053 1.0842022e-19
2.5914147 -3.6893488e+19 2.2432218
2 3.247858 1.0842022e-19
2.5384223 3.6893488e+19 2.2704821
-2 3.1780419 1.0842022e-19
2.5918434 -0 2.1949313
0 3.1386449 2
2.6100731 -0 2.1343174
-3.6893488e+19 3.0996699 -3.6893488e+19
2.4927938 3.6893488e+19 2.0721791
-3.6893488e+19 3.1592886 -1.0842022e-19
2.6291993 3.6893488e+19 2.1077256
0 3.0937753 -3.6893488e+19
2.4844861 1.0842022e-19 2.0276992
1.0842022e-19 3.1594307 1.0842022e-19
2.6293309 -3.6893488e+19 2.060853
0 3.0944395 1.0842022e-19
2.4854224 -0 1.9891466
-3.6893488e+19 3.2509699 3.6893488e+19
2.7150393 -2 2.0735111
-0 3.2279243 -2
2.586772 -0 2.0276098
2 3.2446103 1.0842022e-19
2.7082484 3.6893488e+19 2.0120919
1.0842022e-19 3.2228944 3.6893488e+19
2.5832276 2 1.9710798
3.6893488e+19 3.2244403 -1.0842022e-19
2.6895611 3.6893488e+19 1.9470346
1.0842022e-19 3.2185471 -1.0842022e-19
2.5801642 -0 1.9159428
-0 3.122719 2
2.5126386 2 1.8045629
-1.0842022e-19 3.1409066 3.6893488e+19
2.6121686 -1.0842022e-19 1.7706033
-0 3.1232717 -2
2.5130279 1.0842022e-19 1.6905199
-2 3.108444 2
2.4153123 0 1.5775359
0 3.1412468 3.6893488e+19
2.5624578 -0 1.3052106
0 3.1095598 -3.6893488e+19
2.4166048 -0 -1.492099
-1.0842022e-19 3.1816292 1.0842022e-19
2.5947082 -3.6893488e+19 -1.6715034
0 3.1181419 -2
2.4265485 -0 -1.7279201
2 3.1816311 1.0842022e-19
2.5947096 -1.0842022e-19 -1.8089575
-0 3.1162529 2
2.42436 -1.0842022e-19 -1.8209521
-1.0842022e-19 3.1819489 0
2.5949636 1.0842022e-19 -1.8911847
3.6893488e+19 3.1133263 -2
2.420969 1.0842022e-19 -1.8881531
-3.6893488e+19 3.1337826 -1.0842022e-19
2.5564969 3.6893488e+19 -1.9191209
-2 3.1186676 3.6893488e+19
2.4271579 1.0842022e-19 -1.9317679
-3.6893488e+19 3.1037474 -2
2.53251 3.6893488e+19 -1.9461538
2 3.1170969 -1.0842022e-19
2.4253378 2 -1.9724177
1.0842022e-19 3.069545 0
2.5051954 -2 -1.9635878
-3.6893488e+19 2.8758295 2
2.3001454 -2 -1.897018
1.0842022e-19 2.8309152 3.6893488e+19
2.3065875 1.0842022e-19 -1.8898014
2 2.7994921 0
2.1720777 -2 -1.8836638
-1.0842022e-19 2.7780883 0
2.2576444 -0 -1.8834494
-0 2.7415986 -0
2.0964077 0 -1.8723372
-1.0842022e-19 2.7003391 -0
2.1672318 0 -1.8669907
0 2.6663358 0
2.0433733 -3.6893488e+19 -1.858145
2 2.6356287 -1.0842022e-19
2.1072786 0 -1.8543966
-0 2.6069596 -0
2.0015335 0 -1.8452168
1.0842022e-19 2.5821328 -3.6893488e+19
2.0577154 -3.6893488e+19 -1.8416983
3.6893488e+19 2.5662766 2
1.9728661 -3.6893488e+19 -1.8381397
-1.0842022e-19 2.5455437 -2
2.0238163 0 -1.8348594
-0 2.5337172 2
1.9499229 -2 -1.8323858
-3.6893488e+19 2.5129852 -1.0842022e-19
1.9936516 -1.0842022e-19 -1.8269184
2 2.5024099 -1.0842022e-19
1.927862 2 -1.8239185
-2 2.4643054 0
1.9650857 3.6893488e+19 -1.8166614
2 2.4496117 2
1.9084107 -1.0842022e-19 -1.8150244
1.0842022e-19 2.3996847 -1.0842022e-19
1.8565478 -2 -1.8101918
-3.6893488e+19 2.346493 -2
1.8257326 -1.0842022e-19 -1.8053604
-3.6893488e+19 2.3039546 0
1.801089 1.0842022e-19 -1.8006625
-2 2.2698343 0
1.7813222 -0 -1.7964917
1.0842022e-19 2.2300901 2
1.8473978 -2 -1.7940941
0 2.1848369 0
1.8264346 -2 -1.7909993
-1.0842022e-19 2.1588316 2
1.8143879 -2 -1.7932105
-0 2.1195514 1.0842022e-19
1.7961917 3.6893488e+19 -1.788083
1.0842022e-19 3.1034784 2
2.5322952 1.0842022e-19 2.578419
3.6893488e+19 3.0931377 -2
2.5240369 -1.0842022e-19 2.5585651
2 3.0976131 -0
2.527611 -0 2.5522397
-1.0842022e-19 3.0961101 2
2.5264108 -2 2.5406582
-2 3.0963318 2
2.4012785 2 2.5331097
-3.6893488e+19 3.0979955 -1.0842022e-19
2.4032061 3.6893488e+19 2.5242789
2 3.1638293 3.6893488e+19
2.5804927 0 2.5730648
3.6893488e+19 3.1156037 1.0842022e-19
2.4236078 -0 2.5274775
3.6893488e+19 3.1669331 -3.6893488e+19
2.5829713 3.6893488e+19 2.5632155
0 3.1199691 -0
2.4286656 -0 2.520014
3.6893488e+19 3.098928 0
2.5286613 3.6893488e+19 2.5018814
3.6893488e+19 3.0870066 1.0842022e-19
2.4749472 1.0842022e-19 2.4648259
-2 3.1907499 3.6893488e+19
2.6583476 -3.6893488e+19 2.550786
-2 3.0904653 -0
2.4798217 3.6893488e+19 2.4497821
-2 3.1663852 2
2.6357741 0 2.5219266
-1.0842022e-19 3.0944619 -1.0842022e-19
2.4854541 3.6893488e+19 2.4350643
2 3.1896517 -0
2.65733 -2 2.5242314
0 3.0934079 1.0842022e-19
2.4839685 0 2.3939798
1.0842022e-19 3.0945916 -0
2.4856367 -2 2.3754563
3.6893488e+19 3.1236939 -2
2.5962212 3.6893488e+19 2.4007242
1.0842022e-19 3.1029656 -3.6893488e+19
2.4974382 -1.0842022e-19 2.3642499
-3.6893488e+19 3.1312633 1.0842022e-19
2.441752 -3.6893488e+19 2.3588274
3.6893488e+19 3.1157861 -3.6893488e+19
2.5421243 -2 2.3368895
2 3.1332238 1.0842022e-19
2.4440234 1.0842022e-19 2.3388002
-0 3.1596746 -2
2.5771747 3.6893488e+19 2.3537366
3.6893488e+19 3.1036015 3.6893488e+19
2.4097013 -1.0842022e-19 2.2924607
-3.6893488e+19 3.0954969 3.6893488e+19
2.5259211 -0 2.278466
2 3.1068931 -1.0842022e-19
2.4135151 -2 2.2748775
3.6893488e+19 3.0974965 1.0842022e-19
2.527518 -2 2.260138
-3.6893488e+19 3.1082304 2
2.4150648 3.6893488e+19 2.2555492
1.0842022e-19 3.1576827 -3.6893488e+19
2.5755837 1.0842022e-19 2.2818263
-0 3.1507351 0
2.464313 -2 2.2631288
3.6893488e+19 3.1552248 2
2.573621 0 2.2569325
-3.6893488e+19 3.1509213 -0
2.4645288 -2 2.2310405
3.6893488e+19 3.1398444 1.0842022e-19
2.5613379 0 2.1997719
-1.0842022e-19 3.1384983 2
2.4501348 1.0842022e-19 2.1721358
-0 3.104306 -1.0842022e-19
2.5329561 2 2.1182859
0 3.1386449 2
2.6100731 -0 2.1343174
-3.6893488e+19 3.0996699 -3.6893488e+19
2.4927938 3.6893488e+19 2.0721791
3.6893488e+19 3.1397409 -1.0842022e-19
2.6110885 0 2.0906405
0 3.0937753 -3.6893488e+19
2.4844861 1.0842022e-19 2.0276992
1.0842022e-19 3.1594307 1.0842022e-19
2.6293309 -3.6893488e+19 2.060853
0 3.0944395 1.0842022e-19
2.4854224 -0 1.9891466
-3.6893488e+19 3.1606781 1.0842022e-19
2.6304867 -3.6893488e+19 2.0146909
0 3.1073592 2
2.5018151 0 1.9575777
3.6893488e+19 3.1424932 0
2.6136386 3.6893488e+19 1.9579805
-1.0842022e-19 3.1049476 0
2.5001159 0 1.9159393
-1.0842022e-19 3.1410198 -0
2.6122735 -3.6893488e+19 1.9123901
-3.6893488e+19 3.116333 3.6893488e+19
2.5081387 1.0842022e-19 1.8797423
-0 3.122719 2
2.5126386 2 1.8045629
-1.0842022e-19 3.1409066 3.6893488e+19
2.6121686 -1.0842022e-19 1.7706033
-0 3.1232717 -2
2.5130279 1.0842022e-19 1.6905199
-2 3.108444 2
2.4153123 0 1.5775359
0 3.1412468 3.6893488e+19
2.5624578 -0 1.3052106
0 3.1095598 -3.6893488e+19
2.4166048 -0 -1.492099
0 3.1333334 2
2.556138 -0 -1.6523136
0 3.1181419 -2
2.4265485 -0 -1.7279201
0 3.1337981 -3.6893488e+19
2.556509 2 -1.7885715
-0 3.1162529 2
2.42436 -1.0842022e-19 -1.8209521
1.0842022e-19 3.1314559 2
2.5546386 3.6893488e+19 -1.8743615
3.6893488e+19 3.1133263 -2
2.420969 1.0842022e-19 -1.8881531
-2 3.106549 2
2.5347476 -1.0842022e-19 -1.9071199
1.0842022e-19 3.0889604 3.6893488e+19
2.3927374 0 -1.9171211
-3.6893488e+19 3.1037474 -2
2.53251 3.6893488e+19 -1.9461538
-2 3.0640318 -1.0842022e-19
2.3638539 0 -1.9402666
1.0842022e-19 3.069545 0
2.5051954 -2 -1.9635878
-3.6893488e+19 2.8758295 2
2.3001454 -2 -1.897018
1.0842022e-19 2.8309152 3.6893488e+19
2.3065875 1.0842022e-19 -1.8898014
2 2.7994921 0
2.1720777 -2 -1.8836638
-1.0842022e-19 2.7780883 0
2.2576444 -0 -1.8834494
-0 2.7415986 -0
2.0964077 0 -1.8723372
-1.0842022e-19 2.7003391 -0
2.1672318 0 -1.8669907
0 2.6663358 0
2.0433733 -3.6893488e+19 -1.858145
2 2.6356287 -1.0842022e-19
2.1072786 0 -1.8543966
-0 2.6069596 -0
2.0015335 0 -1.8452168
1.0842022e-19 2.5821328 -3.6893488e+19
2.0577154 -3.6893488e+19 -1.8416983
3.6893488e+19 2.5662766 2
1.9728661 -3.6893488e+19 -1.8381397
-1.0842022e-19 2.5455437 -2
2.0238163 0 -1.8348594
-0 2.5337172 2
1.9499229 -2 -1.8323858
-3.6893488e+19 2.5129852 -1.0842022e-19
1.9936516 -1.0842022e-19 -1.8269184
2 2.5024099 -1.0842022e-19
1.927862 2 -1.8239185
-2 2.4643054 0
1.9650857 3.6893488e+19 -1.8166614
2 2.4496117 2
1.9084107 -1.0842022e-19 -1.8150244
1.0842022e-19 2.3996847 -1.0842022e-19
1.8565478 -2 -1.8101918
-3.6893488e+19 2.346493 -2
1.8257326 -1.0842022e-19 -1.8053604
-3.6893488e+19 2.3039546 0
1.801089 1.0842022e-19 -1.8006625
-2 2.2698343 0
1.7813222 -0 -1.7964917
1.0842022e-19 2.2300901 2
1.8473978 -2 -1.7940941
0 2.1848369 0
1.8264346 -2 -1.7909993
-1.0842022e-19 2.1588316 2
1.8143879 -2 -1.7932105
-0 2.1195514 1.0842022e-19
1.7961917 3.6893488e+19 -1.788083
2 3.1002839 0
2.5259297 3.6893488e+19 2.5752819
3.6893488e+19 3.0954342 -3.6893488e+19
2.3928506 -3.6893488e+19 2.5627851
1.0842022e-19 3.1079392 1.0842022e-19
2.4070723 -2 2.5635359
-2 3.0993829 -1.0842022e-19
2.5252199 -1.0842022e-19 2.5536208
-3.6893488e+19 3.1092284 1.0842022e-19
2.4085386 3.6893488e+19 2.5540891
-1.0842022e-19 3.09641 2
2.5228782 -2 2.5407591
3.6893488e+19 3.0938542 1.0842022e-19
2.3910539 -3.6893488e+19 2.5309784
-0 3.0963044 -3.6893488e+19
2.3938403 2 2.5228434
2 3.1636829 -1.0842022e-19
2.575871 3.6893488e+19 2.5727828
1.0842022e-19 3.1192076 -2
2.4198873 0 2.5301075
-3.6893488e+19 3.1183116 -1.0842022e-19
2.4188685 -1.0842022e-19 2.5187035
0 3.1235917 0
2.5920048 3.6893488e+19 2.5157967
2 3.2378771 1.0842022e-19
2.5885174 -3.6893488e+19 2.5863049
-2 3.1908355 3.6893488e+19
2.6535633 1.0842022e-19 2.5506632
0 3.0913508 0
2.4736979 1.0842022e-19 2.4507453
-2 3.1914558 3.6893488e+19
2.6541312 3.6893488e+19 2.5381255
-1.0842022e-19 3.0949848 -0
2.4787409 -1.0842022e-19 2.4355252
0 3.188622 -0
2.6515367 -3.6893488e+19 2.5234241
2 3.1012895 -1.0842022e-19
2.4874899 2 2.42314
-2 3.2228715 -0
2.6828907 3.6893488e+19 2.5309515
-1.0842022e-19 3.0950284 3.6893488e+19
2.4788015 -0 2.3956578
1.0842022e-19 3.0961227 2
2.48032 -2 2.3769519
-2 3.1668117 -2
2.6315706 0 2.4466915
-0 3.1362071 0
2.5179729 1.0842022e-19 2.3983719
-2 3.1297164 -2
2.4318388 3.6893488e+19 2.3572373
-3.6893488e+19 3.1185048 1.0842022e-19
2.540283 2 2.3392174
-2 3.1303537 -1.0842022e-19
2.4325635 0 2.3361366
-0 3.176322 1.0842022e-19
2.5858274 -3.6893488e+19 2.3679197
-0 3.1303883 3.6893488e+19
2.4326029 3.6893488e+19 2.3144977
1.0842022e-19 3.1156819 -2
2.4158776 -0 2.2815409
-0 3.0966389 3.6893488e+19
2.5230584 0 2.2593615
-3.6893488e+19 3.0985954 3.6893488e+19
2.396446 -1.0842022e-19 2.247165
1.0842022e-19 3.08952 1.0842022e-19
2.5174506 2 2.2191687
3.6893488e+19 3.0935283 -0
2.3906832 -2 2.2009623
3.6893488e+19 3.17503 2
2.5848095 -3.6893488e+19 2.2693498
1.0842022e-19 3.244807 0
2.5313637 -3.6893488e+19 2.2967322
2 3.1790731 -0
2.5879943 -0 2.2447736
1.0842022e-19 3.2447114 0
2.5313094 1.0842022e-19 2.2686715
1.0842022e-19 3.1418822 1.0842022e-19
2.5586979 3.6893488e+19 2.1571331
-0 3.1349263 -3.6893488e+19
2.602381 1.0842022e-19 2.1304109
0 3.102597 -0
2.4893043 -0 2.0747271
3.6893488e+19 3.1298769 3.6893488e+19
2.5977585 -1.0842022e-19 2.0818188
1.0842022e-19 3.1445816 -0
2.5237834 3.6893488e+19 2.0685942
0 3.1314692 3.6893488e+19
2.5992162 3.6893488e+19 2.0394492
0 3.093859 -3.6893488e+19
2.4771783 3.6893488e+19 1.9886342
-3.6893488e+19 3.2511213 -2
2.7097785 -2 2.0735111
1.0842022e-19 3.2273126 -0
2.581187 3.6893488e+19 2.0271275
-2 3.2459438 -0
2.7040122 -2 2.01264
0 3.2242191 -1.0842022e-19
2.5790405 -0 1.9715976
1.0842022e-19 3.1147156 0
2.5030608 2 1.8791102
-2 3.1397009 -3.6893488e+19
2.6067519 3.6893488e+19 1.8592756
2 3.122582 1.0842022e-19
2.5085189 -1.0842022e-19 1.8044146
-1.0842022e-19 3.1379745 0
2.6051717 3.6893488e+19 1.7694241
1.0842022e-19 3.1253209 1.0842022e-19
2.5104194 -3.6893488e+19 1.691478
-1.0842022e-19 3.113529 -3.6893488e+19
2.4134293 -2 1.5803318
-3.6893488e+19 3.201515 -0
2.6056726 1.0842022e-19 1.3328626
1.0842022e-19 3.1127269 -0
2.4125171 -0 -1.4941398
-3.6893488e+19 3.1979501 -0
2.6028645 -1.0842022e-19 -1.677896
0 3.1175687 1.0842022e-19
2.4180236 -0 -1.7274797
0 3.1843081 -0
2.592118 -2 -1.8100022
1.0842022e-19 3.1130497 3.6893488e+19
2.4128842 -3.6893488e+19 -1.8191652
3.6893488e+19 3.1346889 -1.0842022e-19
2.5530314 0 -1.8756722
-3.6893488e+19 3.1134009 -0
2.4132838 -3.6893488e+19 -1.8881295
-3.6893488e+19 3.1330318 3.6893488e+19
2.5517263 -2 -1.9187024
2 3.1188991 3.6893488e+19
2.4195366 -2 -1.9318136
-2 3.1029506 1.0842022e-19
2.5280304 -1.0842022e-19 -1.9456103
-2 3.0615838 2
2.3543539 -0 -1.9387124
0 3.0688226 2
2.5011466 -3.6893488e+19 -1.9629942
-3.6893488e+19 2.8766372 -1.0842022e-19
2.296689 -1.0842022e-19 -1.8972574
0 2.8325143 0
