# .PCD v0.7 - Point Cloud Data file format
VERSION 0.7
FIELDS x y z
SIZE 4 4 4
TYPE F F F
COUNT 1 1 1
WIDTH 1717
HEIGHT 1
VIEWPOINT 0 0 0 1 0 0 0
POINTS 1717
DATA ascii
2 3.0486689 -2
2.7790549 -1.0842022e-19 1.980943
-1.0842022e-19 3.0516627 0
2.8220148 -3.6893488e+19 1.9704428
0 3.0497148 3.6893488e+19
2.7800322 -2 1.9447906
3.6893488e+19 3.0505278 -1.0842022e-19
2.8208032 1.0842022e-19 1.9315698
1.0842022e-19 3.0501523 0
2.780441 -0 1.9080862
0 3.0635984 -3.6893488e+19
2.8347554 -3.6893488e+19 1.899779
2 3.0491884 -1.0842022e-19
2.7795403 -1.0842022e-19 1.8664333
0 3.0629041 3.6893488e+19
2.8340144 3.6893488e+19 1.84474
1.0842022e-19 3.0523145 3.6893488e+19
2.7824612 2 1.7945001
-3.6893488e+19 3.0518291 3.6893488e+19
2.8221924 -0 1.760615
3.6893488e+19 3.0437055 0
2.7744176 -2 1.6846792
1.0842022e-19 3.0525022 -1.0842022e-19
2.7604346 -3.6893488e+19 1.6033146
3.6893488e+19 3.0476973 1.0842022e-19
2.7947838 -3.6893488e+19 1.4140766
0 3.0436943 1.0842022e-19
2.7528517 2 -1.3773513
-3.6893488e+19 3.0521748 -2
2.7992175 -3.6893488e+19 -1.5925686
-3.6893488e+19 3.0455494 -2
2.7544489 -3.6893488e+19 -1.6755865
-1.0842022e-19 3.0504487 3.6893488e+19
2.7975082 2 -1.7538819
2 3.0487392 -1.0842022e-19
2.757195 1.0842022e-19 -1.786312
0 3.0391042 3.6893488e+19
2.7862747 0 -1.8209896
2 3.0221269 1.0842022e-19
2.7185674 3.6893488e+19 -1.8380498
1.0842022e-19 3.0353634 0
2.7825706 -2 -1.8822645
0 3.0248895 -3.6893488e+19
2.7233238 3.6893488e+19 -1.8910127
1.0842022e-19 3.0279994 3.6893488e+19
2.7752786 2 -1.9134778
3.6893488e+19 2.9700243 -1.0842022e-19
2.6546605 -3.6893488e+19 -1.8991284
2 2.9594276 0
2.7049313 -1.0842022e-19 -1.9137143
3.6893488e+19 2.9463215 0
2.634254 -2 -1.9187477
-1.0842022e-19 2.8478932 -3.6893488e+19
2.5944884 -2 -1.8956578
0 2.6753454 2
2.4540417 1.0842022e-19 -1.8193854
2 2.7634931 3.6893488e+19
2.4923785 -2 -1.8753849
2 2.6755159 -2
2.4542236 3.6893488e+19 -1.8464379
0 2.6618118 -3.6893488e+19
2.3847675 3.6893488e+19 -1.8463982
0 2.6072156 3.6893488e+19
2.3813155 -3.6893488e+19 -1.8335619
3.6893488e+19 2.596431 1.0842022e-19
2.3236806 -3.6893488e+19 -1.8326589
1.0842022e-19 2.5575485 0
2.3282976 -3.6893488e+19 -1.824093
2 2.5516493 -2
2.2818396 2 -1.8244801
3.6893488e+19 2.5228672 3.6893488e+19
2.2912765 -2 -1.8189898
-0 2.5170581 -3.6893488e+19
2.2490404 -1.0842022e-19 -1.818143
2 2.4830136 0
2.2578003 -1.0842022e-19 -1.8120625
-3.6893488e+19 2.479877 -1.0842022e-19
2.1983631 -1.0842022e-19 -1.8134079
-3.6893488e+19 2.4436226 1.0842022e-19
2.2235522 0 -1.8109413
-2 2.4360528 -0
2.1574168 3.6893488e+19 -1.8097357
-3.6893488e+19 2.4022853 -2
2.179426 -0 -1.8064487
-0 2.3602667 1.0842022e-19
2.0601664 1.0842022e-19 -1.803196
2 2.3136501 3.6893488e+19
2.0200324 -1.0842022e-19 -1.7994595
2 2.275321 0
1.9870336 3.6893488e+19 -1.7951605
-0 2.2318892 1.0842022e-19
1.9574378 2 -1.7888689
1.0842022e-19 2.1639574 -3.6893488e+19
1.9709426 2 -1.784995
2 2.1299679 -3.6893488e+19
1.9528013 -0 -1.7842472
-2 2.1016982 -3.6893488e+19
1.9377129 1.0842022e-19 -1.7839259
-3.6893488e+19 2.083864 3.6893488e+19
1.9281943 3.6893488e+19 -1.7868701
-2 3.1416247 -0
2.885246 1.0842022e-19 2.6495678
3.6893488e+19 3.1550848 1.0842022e-19
2.8462446 -2 2.6468592
3.6893488e+19 3.1625056 1.0842022e-19
2.8525875 -2 2.641005
0 3.1396558 2
2.8833091 -3.6893488e+19 2.6221526
0 3.1604791 -0
2.8508551 -1.0842022e-19 2.6260664
3.6893488e+19 3.1520889 3.6893488e+19
2.8436837 -1.0842022e-19 2.6056631
-1.0842022e-19 3.1444116 0
2.8879876 1.0842022e-19 2.6011319
-2 3.1521413 -2
2.8437285 -2 2.5930297
0 3.1468513 -2
2.8903873 -3.6893488e+19 2.5904961
-1.0842022e-19 3.0744944 2
2.7773602 -2 2.5165906
-3.6893488e+19 3.1932929 -1.0842022e-19
2.8789027 -0 2.6002879
2 3.0748572 0
2.8014572 -0 2.4895463
0 3.0739496 0
2.8006148 0 2.4677029
-3.6893488e+19 3.0758514 2
2.8023798 -2 2.449904
2 3.1270087 -2
2.899915 -3.6893488e+19 2.5111501
-0 3.0773768 0
2.8037953 -1.0842022e-19 2.4314098
3.6893488e+19 3.0741177 -1.0842022e-19
2.8007708 -2 2.4067624
-3.6893488e+19 3.0675342 -3.6893488e+19
2.836827 2 2.3989623
-1.0842022e-19 3.0765662 0
2.8030431 2 2.3893738
3.6893488e+19 3.0659177 -0
2.8351123 0 2.3766255
1.0842022e-19 3.1431954 3.6893488e+19
2.8648727 -1.0842022e-19 2.4442225
1.0842022e-19 3.1253746 0
2.8981817 3.6893488e+19 2.42342
-1.0842022e-19 3.1472516 2
2.8686368 -2 2.4240057
-3.6893488e+19 3.1417606 2
2.8348558 0 2.4004452
-0 3.1486669 2
2.8921735 -2 2.4050336
-1.0842022e-19 3.1377306 2
2.8314111 1.0842022e-19 2.3725028
3.6893488e+19 3.1445127 -3.6893488e+19
2.8880868 -2 2.3759975
1.0842022e-19 3.1357045 2
2.8296793 -1.0842022e-19 2.346894
3.6893488e+19 3.1049519 -0
2.8491704 -2 2.3159952
-3.6893488e+19 3.1316824 2
2.8262415 -0 2.3198998
2 3.1044085 -0
2.8486359 1.0842022e-19 2.293283
1.0842022e-19 3.0757108 -2
2.7783997 -1.0842022e-19 2.2163296
-0 3.0659752 3.6893488e+19
2.8108287 1.0842022e-19 2.1938264
-0 3.0752592 2
2.7780139 -1.0842022e-19 2.1759815
0 3.1793344 -1.0842022e-19
2.9223413 -1.0842022e-19 2.2746897
1.0842022e-19 3.132158 -2
2.8266478 0 2.2039113
2 3.1768804 -0
2.9199274 -0 2.2429259
-0 3.2095733 -0
2.9874961 -3.6893488e+19 2.2549503
2 3.1737094 -0
2.8931887 0 2.1816988
-1.0842022e-19 3.2071946 -0
2.984973 2 2.1993518
-0 3.0707333 2
2.7976303 -1.0842022e-19 2.0372238
2 3.0557408 -3.6893488e+19
2.824317 1.0842022e-19 2.0117915
3.6893488e+19 3.0495989 2
2.7780182 0 1.9813805
-3.6893488e+19 3.0500412 0
2.8182714 1.0842022e-19 1.9689533
-1.0842022e-19 3.200881 -1.0842022e-19
2.9782758 1.0842022e-19 2.0220301
2 3.0581398 -3.6893488e+19
2.7859437 0 1.9120958
-1.0842022e-19 3.170562 1.0842022e-19
2.9461148 3.6893488e+19 1.9505873
-3.6893488e+19 3.048589 0
2.7770813 -3.6893488e+19 1.8656566
3.6893488e+19 3.1667924 2
2.942116 -2 1.8961449
-1.0842022e-19 3.0547233 3.6893488e+19
2.7827735 -2 1.7956429
1.0842022e-19 3.1655135 1.0842022e-19
2.9407594 -3.6893488e+19 1.811435
-1.0842022e-19 3.0427024 1.0842022e-19
2.7716186 -1.0842022e-19 1.6838247
-3.6893488e+19 3.1897364 3.6893488e+19
2.8758628 1.0842022e-19 1.6657605
2 3.048362 3.6893488e+19
2.7935023 -1.0842022e-19 1.4142309
3.6893488e+19 3.1909206 -0
2.8768749 -2 -1.4409771
0 3.1700859 3.6893488e+19
2.9132435 3.6893488e+19 -1.6510378
-2 3.1922555 -1.0842022e-19
2.878016 2 -1.7562252
1.0842022e-19 3.172332 1.0842022e-19
2.9154532 1.0842022e-19 -1.805932
-3.6893488e+19 3.0537863 -2
2.75966 3.6893488e+19 -1.7888535
1.0842022e-19 3.0487854 3.6893488e+19
2.7939188 3.6893488e+19 -1.8272916
1.0842022e-19 3.0542059 -0
2.7600186 0 -1.8628978
0 3.0560753 3.6893488e+19
2.7616165 2 -1.9068345
-2 3.0287504 -1.0842022e-19
2.7742102 3.6893488e+19 -1.9137082
3.6893488e+19 2.9687138 -2
2.650631 -2 -1.898546
-1.0842022e-19 2.9604127 1.0842022e-19
2.7029138 -2 -1.9138539
-2 2.9457312 0
2.6309869 -1.0842022e-19 -1.9183357
2 2.8536084 2
2.5978489 1.0842022e-19 -1.8978598
0 2.7622855 -0
2.4867849 2 -1.874317
-1.0842022e-19 2.6773207 -0
2.453284 0 -1.8470682
-3.6893488e+19 2.6620867 -0
2.3824034 -3.6893488e+19 -1.8462766
-1.0842022e-19 2.6124513 2
2.3844733 3.6893488e+19 -1.8363248
2 2.596966 -0
2.3219733 0 -1.8327267
3.6893488e+19 2.5579765 -2
2.3266885 -3.6893488e+19 -1.824093
-2 2.552808 1.0842022e-19
2.2809963 -2 -1.8250028
-0 2.5231369 3.6893488e+19
2.2897322 1.0842022e-19 -1.8189117
-0 2.5178354 0
2.2470856 -1.0842022e-19 -1.8184695
-3.6893488e+19 2.484566 0
2.2570038 2 -1.812403
-2 2.4784284 0
2.1939664 0 -1.8126107
1.0842022e-19 2.4440203 -2
2.220998 -3.6893488e+19 -1.8108492
-3.6893488e+19 2.4365838 3.6893488e+19
2.1551359 3.6893488e+19 -1.8097357
2 2.3982301 -2
2.1724257 3.6893488e+19 -1.8043699
-2 3.1416247 -0
2.885246 1.0842022e-19 2.6495678
3.6893488e+19 3.1550848 1.0842022e-19
2.8462446 -2 2.6468592
3.6893488e+19 3.1625056 1.0842022e-19
2.8525875 -2 2.641005
0 3.1396558 2
2.8833091 -3.6893488e+19 2.6221526
0 3.1604791 -0
2.8508551 -1.0842022e-19 2.6260664
3.6893488e+19 3.1520889 3.6893488e+19
2.8436837 -1.0842022e-19 2.6056631
-1.0842022e-19 3.1444116 0
2.8879876 1.0842022e-19 2.6011319
1.0842022e-19 3.0740311 1.0842022e-19
2.7769642 3.6893488e+19 2.526401
0 3.1468513 -2
2.8903873 -3.6893488e+19 2.5904961
-1.0842022e-19 3.0744944 2
2.7773602 -2 2.5165906
-3.6893488e+19 3.0777409 -1.0842022e-19
2.7801352 -1.0842022e-19 2.5089793
2 3.0748572 0
2.8014572 -0 2.4895463
0 3.0739496 0
2.8006148 0 2.4677029
-3.6893488e+19 3.0758514 2
2.8023798 -2 2.449904
2 3.1270087 -2
2.899915 -3.6893488e+19 2.5111501
-0 3.0773768 0
2.8037953 -1.0842022e-19 2.4314098
3.6893488e+19 3.0741177 -1.0842022e-19
2.8007708 -2 2.4067624
-3.6893488e+19 3.0675342 -3.6893488e+19
2.836827 2 2.3989623
-1.0842022e-19 3.0765662 0
2.8030431 2 2.3893738
3.6893488e+19 3.0659177 -0
2.8351123 0 2.3766255
-2 3.0787499 3.6893488e+19
2.8050694 3.6893488e+19 2.3714137
1.0842022e-19 3.1253746 0
2.8981817 3.6893488e+19 2.42342
-0 3.0805271 2
2.8067186 3.6893488e+19 2.3527875
-1.0842022e-19 3.0811429 -2
2.7830429 -1.0842022e-19 2.3384836
-2 3.0658631 2
2.8107185 3.6893488e+19 2.3209076
0 3.0997431 2
2.7989414 1.0842022e-19 2.3360071
3.6893488e+19 3.1445127 -3.6893488e+19
2.8880868 -2 2.3759975
-0 3.1016045 -1.0842022e-19
2.8005323 3.6893488e+19 2.3162253
3.6893488e+19 3.1049519 -0
2.8491704 -2 2.3159952
1.0842022e-19 3.1019351 -3.6893488e+19
2.8008149 1.0842022e-19 2.2949677
2 3.1044085 -0
2.8486359 1.0842022e-19 2.293283
1.0842022e-19 3.0757108 -2
2.7783997 -1.0842022e-19 2.2163296
-0 3.0659752 3.6893488e+19
2.8108287 1.0842022e-19 2.1938264
-0 3.0752592 2
2.7780139 -1.0842022e-19 2.1759815
2 3.0536387 -3.6893488e+19
2.7986929 -1.0842022e-19 2.1385384
3.6893488e+19 3.0730138 1.0842022e-19
2.7760947 2 2.1336622
0 3.0550425 -2
2.8000739 0 2.1022377
1.0842022e-19 3.058706 3.6893488e+19
2.8274624 -2 2.0925121
-2 3.0684328 -0
2.7954955 -1.0842022e-19 2.0744371
-2 3.0561838 3.6893488e+19
2.8247871 -1.0842022e-19 2.0509315
-0 3.0707333 2
2.7976303 -1.0842022e-19 2.0372238
2 3.0557408 -3.6893488e+19
2.824317 1.0842022e-19 2.0117915
3.6893488e+19 3.0495989 2
2.7780182 0 1.9813805
-3.6893488e+19 3.0500412 0
2.8182714 1.0842022e-19 1.9689533
0 3.0527396 -2
2.8211334 1.0842022e-19 1.9326519
2 3.0581398 -3.6893488e+19
2.7859437 0 1.9120958
3.6893488e+19 3.0649455 -2
2.8340809 -1.0842022e-19 1.9002134
-3.6893488e+19 3.048589 0
2.7770813 -3.6893488e+19 1.8656566
3.6893488e+19 3.0636156 -2
2.8326702 1.0842022e-19 1.8449336
-1.0842022e-19 3.0547233 3.6893488e+19
2.7827735 -2 1.7956429
2 3.0509243 3.6893488e+19
2.8192079 2 1.7600205
-1.0842022e-19 3.0427024 1.0842022e-19
2.7716186 -1.0842022e-19 1.6838247
3.6893488e+19 3.0509737 -3.6893488e+19
2.7572558 -0 1.6019065
2 3.048362 3.6893488e+19
2.7935023 -1.0842022e-19 1.4142309
-3.6893488e+19 3.0440235 -1.0842022e-19
2.7513154 2 -1.3773513
-1.0842022e-19 3.0521443 2
2.7972231 -0 -1.5922662
-0 3.0458236 -1.0842022e-19
2.7528539 -2 -1.6755524
3.6893488e+19 3.0501075 2
2.7952194 2 -1.7535696
-3.6893488e+19 3.0537863 -2
2.75966 3.6893488e+19 -1.7888535
1.0842022e-19 3.0487854 3.6893488e+19
2.7939188 3.6893488e+19 -1.8272916
1.0842022e-19 3.0542059 -0
2.7600186 0 -1.8628978
2 3.0242212 -3.6893488e+19
2.7187786 -2 -1.8905122
-2 3.0287504 -1.0842022e-19
2.7742102 3.6893488e+19 -1.9137082
3.6893488e+19 2.9687138 -2
2.650631 -2 -1.898546
-1.0842022e-19 2.9604127 1.0842022e-19
2.7029138 -2 -1.9138539
-2 2.9457312 0
2.6309869 -1.0842022e-19 -1.9183357
2 2.8536084 2
2.5978489 1.0842022e-19 -1.8978598
0 2.7622855 -0
2.4867849 2 -1.874317
-1.0842022e-19 2.6773207 -0
2.453284 0 -1.8470682
-3.6893488e+19 2.6620867 -0
2.3824034 -3.6893488e+19 -1.8462766
-1.0842022e-19 2.6124513 2
2.3844733 3.6893488e+19 -1.8363248
2 2.596966 -0
2.3219733 0 -1.8327267
3.6893488e+19 2.5579765 -2
2.3266885 -3.6893488e+19 -1.824093
-2 2.552808 1.0842022e-19
2.2809963 -2 -1.8250028
-0 2.5231369 3.6893488e+19
2.2897322 1.0842022e-19 -1.8189117
-0 2.5178354 0
2.2470856 -1.0842022e-19 -1.8184695
-3.6893488e+19 2.484566 0
2.2570038 2 -1.812403
-2 2.4784284 0
2.1939664 0 -1.8126107
1.0842022e-19 2.4440203 -2
2.220998 -3.6893488e+19 -1.8108492
-3.6893488e+19 2.4365838 3.6893488e+19
2.1551359 3.6893488e+19 -1.8097357
2 2.3982301 -2
2.1724257 3.6893488e+19 -1.8043699
-2 3.1411963 -0
2.882288 0 2.6486197
2 3.1582863 -1.0842022e-19
2.8464594 -2 2.6495507
1.0842022e-19 3.1608629 -0
2.9015067 0 2.6552627
-3.6893488e+19 3.157479 3.6893488e+19
2.8982 2 2.6386771
1.0842022e-19 3.159585 -2
2.8475614 1.0842022e-19 2.62483
-2 3.1526775 -0
2.8417001 0 2.6057878
-1.0842022e-19 3.1463215 -3.6893488e+19
2.8872964 0 2.6023805
0 3.1493711 -2
2.8388941 3.6893488e+19 2.5902877
-0 3.1474979 3.6893488e+19
2.8884461 2 2.5906143
-0 3.0762126 -0
2.7768142 1.0842022e-19 2.5177042
-2 3.1934469 1.0842022e-19
2.8762958 0 2.6000199
3.6893488e+19 3.1544504 -2
2.8727505 3.6893488e+19 2.5543768
2 3.1517015 2
2.8702171 -1.0842022e-19 2.5396283
-3.6893488e+19 3.0768905 1.0842022e-19
2.8012698 1.0842022e-19 2.4507935
1.0842022e-19 3.1271749 -2
2.8975682 2 2.5109046
2 3.0785868 -3.6893488e+19
2.8028328 3.6893488e+19 2.4324813
1.0842022e-19 3.1437163 2
2.8628578 -0 2.4935107
2 3.1455598 3.6893488e+19
2.8645568 1.0842022e-19 2.471067
2 3.0660257 2
2.833113 -1.0842022e-19 2.3762338
-3.6893488e+19 3.1482031 -3.6893488e+19
2.866993 0 2.449337
0 3.1257291 -2
2.8960443 -2 2.4232345
0 3.1484365 3.6893488e+19
2.867208 3.6893488e+19 2.4247568
-2 3.1397684 -1.0842022e-19
2.8307457 -1.0842022e-19 2.3979654
3.6893488e+19 3.1483691 1.0842022e-19
2.8892975 -2 2.4042127
2 3.1391633 -0
2.8302321 3.6893488e+19 2.3734632
-0 3.144851 2
2.8858595 0 2.3758383
-0 3.132786 1.0842022e-19
2.8248208 2 2.3438864
-2 3.1309621 -2
2.8232729 -0 2.3189409
1.0842022e-19 3.1739457 -3.6893488e+19
2.9142914 3.6893488e+19 2.3503776
2 3.0789158 2
2.779108 1.0842022e-19 2.2552681
2 3.0759301 -1.0842022e-19
2.7765744 -2 2.2161245
-2 3.0561357 -3.6893488e+19
2.7991643 -3.6893488e+19 2.1794548
-2 3.1716511 -2
2.9120493 -2 2.2694285
-1.0842022e-19 3.1311772 1.0842022e-19
2.8234556 -1.0842022e-19 2.2022426
2 3.1755505 -1.0842022e-19
2.9158597 0 2.240761
2 3.209657 3.6893488e+19
2.9845102 -0 2.2546446
2 3.1594596 -3.6893488e+19
2.877367 -0 2.1666763
0 3.0583742 -3.6893488e+19
2.8250475 -1.0842022e-19 2.0526655
-1.0842022e-19 3.1589909 3.6893488e+19
2.8769352 -3.6893488e+19 2.115818
-3.6893488e+19 3.0584831 -0
2.8251626 3.6893488e+19 2.0137749
-3.6893488e+19 3.1592391 -3.6893488e+19
2.8771639 2 2.0656738
-3.6893488e+19 3.0574172 -2
2.824039 3.6893488e+19 1.974026
-1.0842022e-19 3.2020848 -1.0842022e-19
2.9765286 3.6893488e+19 2.0223796
0 3.0570941 1.0842022e-19
2.7830248 1.0842022e-19 1.9113505
-2 3.1705632 2
2.9433029 -1.0842022e-19 1.9503108
-0 3.0494041 -1.0842022e-19
2.7759376 -0 1.8660221
2 3.169276 -1.0842022e-19
2.9419458 -2 1.8968127
1.0842022e-19 3.0516582 2
2.7780149 0 1.7937224
0 3.1666963 3.6893488e+19
2.9392266 -1.0842022e-19 1.8117075
0 3.0420065 1.0842022e-19
2.7691197 2 1.683166
1.0842022e-19 3.190629 2
2.8739045 1.0842022e-19 1.6659122
-2 3.1638622 -1.0842022e-19
2.9044378 -1.0842022e-19 1.4775155
0 3.1908939 0
2.8741293 3.6893488e+19 -1.4407531
-2 3.1678166 -3.6893488e+19
2.9083021 0 -1.6500297
-3.6893488e+19 3.048368 1.0842022e-19
2.7531862 2 -1.6768655
2 3.0401044 -1.0842022e-19
2.783498 1.0842022e-19 -1.74825
0 3.0947688 2
2.7925603 2 -1.8107513
-3.6893488e+19 3.04667 0
2.7899144 -1.0842022e-19 -1.8256022
-0 3.0546021 1.0842022e-19
2.7584763 -3.6893488e+19 -1.8629426
1.0842022e-19 3.0321405 1.0842022e-19
2.7757156 -2 -1.8804349
-2 3.0253603 2
2.7173252 0 -1.8909391
-2 3.0295007 -3.6893488e+19
2.7731359 3.6893488e+19 -1.9139386
1.0842022e-19 3.0262172 -3.6893488e+19
2.7187791 -2 -1.9248842
3.6893488e+19 2.9560094 -2
2.6956251 3.6893488e+19 -1.912079
-1.0842022e-19 2.9424913 -3.6893488e+19
2.6254847 0 -1.9169263
0 2.8495183 -0
2.5915589 2 -1.8959624
-1.0842022e-19 2.7821236 2
2.5473778 2 -1.8785752
-3.6893488e+19 2.7614121 -2
2.4818468 2 -1.8731869
0 2.6942511 3.6893488e+19
2.4682713 2 -1.8555475
1.0842022e-19 2.6633785 -0
2.3809788 -0 -1.8467021
-3.6893488e+19 2.6122904 0
2.3818793 -0 -1.8359393
3.6893488e+19 2.5978386 2
2.320576 -1.0842022e-19 -1.8329976
3.6893488e+19 2.5593951 -2
2.3261237 -1.0842022e-19 -1.8247339
-3.6893488e+19 2.5537403 -1.0842022e-19
2.2799339 1.0842022e-19 -1.8253763
1.0842022e-19 2.5236249 -0
2.2884195 -2 -1.8189898
-1.0842022e-19 2.5190644 2
2.2459519 -3.6893488e+19 -1.8191226
-1.0842022e-19 2.484575 3.6893488e+19
2.2553878 -0 -1.8121476
-3.6893488e+19 2.4787807 -3.6893488e+19
2.1912551 0 -1.8125222
-0 2.4433129 1.0842022e-19
2.2172825 -2 -1.8102969
2 2.4375639 -3.6893488e+19
2.1532686 -3.6893488e+19 -1.8099266
1.0842022e-19 2.3985608 -2
2.1701105 0 -1.804271
-3.6893488e+19 2.3601577 -2
2.055619 3.6893488e+19 -1.8027445
-1.0842022e-19 2.3111556 -3.6893488e+19
2.0140371 3.6893488e+19 -1.7976857
2 2.2766204 -3.6893488e+19
1.9847317 -0 -1.7955821
2 2.2329671 -1.0842022e-19
1.9549156 2 -1.7888689
-2 2.169467 -1.0842022e-19
1.9710736 3.6893488e+19 -1.7866756
0 2.1305881 -2
1.950583 -1.0842022e-19 -1.7840654
-1.0842022e-19 2.1035423 -3.6893488e+19
1.936329 -2 -1.7843168
1.0842022e-19 2.0757077 -3.6893488e+19
1.9216591 0 -1.7824783
-2 3.1411963 -0
2.882288 0 2.6486197
2 3.1582863 -1.0842022e-19
2.8464594 -2 2.6495507
1.0842022e-19 3.1608629 -0
2.9015067 0 2.6552627
2 3.139524 -1.0842022e-19
2.8806536 -1.0842022e-19 2.6215503
1.0842022e-19 3.159585 -2
2.8475614 1.0842022e-19 2.62483
-2 3.1526775 -0
2.8417001 0 2.6057878
-1.0842022e-19 3.1463215 -3.6893488e+19
2.8872964 0 2.6023805
-0 3.0741661 3.6893488e+19
2.7750776 3.6893488e+19 2.5262086
-0 3.1474979 3.6893488e+19
2.8884461 2 2.5906143
-0 3.0762126 -0
2.7768142 1.0842022e-19 2.5177042
0 3.0774834 -3.6893488e+19
2.7778924 0 2.5084879
3.6893488e+19 3.1544504 -2
2.8727505 3.6893488e+19 2.5543768
-3.6893488e+19 3.074033 -0
2.7986362 3.6893488e+19 2.4672585
-3.6893488e+19 3.0768905 1.0842022e-19
2.8012698 1.0842022e-19 2.4507935
1.0842022e-19 3.1271749 -2
2.8975682 2 2.5109046
2 3.0785868 -3.6893488e+19
2.8028328 3.6893488e+19 2.4324813
2 3.0750997 2
2.7996192 -3.6893488e+19 2.4075019
3.6893488e+19 3.0765393 1.0842022e-19
2.800946 -3.6893488e+19 2.3888712
2 3.0660257 2
2.833113 -1.0842022e-19 2.3762338
-2 3.0782185 3.6893488e+19
2.8024936 -0 2.3703654
2 3.0619462 2
2.8288128 2 2.3513873
-2 3.0799406 3.6893488e+19
2.8040807 0 2.3517363
-1.0842022e-19 3.0872545 3.6893488e+19
2.7861841 3.6893488e+19 2.3443472
-0 3.0732145 3.6893488e+19
2.8158543 -3.6893488e+19 2.3279557
3.6893488e+19 3.1006758 -2
2.7975729 0 2.3365285
-0 3.144851 2
2.8858595 0 2.3758383
-3.6893488e+19 3.1007941 0
2.7976735 -2 2.3151455
-2 3.1309621 -2
2.8232729 -0 2.3189409
-2 3.1018155 -3.6893488e+19
2.8438039 -0 2.2907643
2 3.0789158 2
2.779108 1.0842022e-19 2.2552681
2 3.0759301 -1.0842022e-19
2.7765744 -2 2.2161245
-2 3.0561357 -3.6893488e+19
2.7991643 -3.6893488e+19 2.1794548
1.0842022e-19 3.0560725 2
2.7991025 0 2.1411512
-0 3.0696998 0
2.7712877 -3.6893488e+19 2.1293035
-0 3.056246 1.0842022e-19
2.7992723 2 2.1031747
3.6893488e+19 3.0552974 -0
2.8218045 2 2.0882626
3.6893488e+19 3.0723598 1.0842022e-19
2.7970941 -2 2.0780413
0 3.0583742 -3.6893488e+19
2.8250475 -1.0842022e-19 2.0526655
0 3.060832 3.6893488e+19
2.7864697 0 2.0280209
-3.6893488e+19 3.0584831 -0
2.8251626 3.6893488e+19 2.0137749
0 3.0597153 -0
2.7854404 -1.0842022e-19 1.9889042
-3.6893488e+19 3.0574172 -2
2.824039 3.6893488e+19 1.974026
2 3.0586014 -1.0842022e-19
2.8252871 3.6893488e+19 1.9359313
0 3.0570941 1.0842022e-19
2.7830248 1.0842022e-19 1.9113505
-2 3.1705632 2
2.9433029 -1.0842022e-19 1.9503108
-0 3.0494041 -1.0842022e-19
2.7759376 -0 1.8660221
-3.6893488e+19 3.063441 -3.6893488e+19
2.8303885 -2 1.8445077
1.0842022e-19 3.0516582 2
2.7780149 0 1.7937224
3.6893488e+19 3.0539665 -2
2.8204017 -3.6893488e+19 1.7611971
0 3.0420065 1.0842022e-19
2.7691197 2 1.683166
-2 3.0527759 3.6893488e+19
2.7569265 -1.0842022e-19 1.6030114
3.6893488e+19 3.051805 1.0842022e-19
2.7949324 0 1.4159135
-2 3.0437181 -2
2.7484808 2 -1.3770775
0 3.0480676 -2
2.7912798 1.0842022e-19 -1.5890602
-3.6893488e+19 3.048368 1.0842022e-19
2.7531862 2 -1.6768655
2 3.0401044 -1.0842022e-19
2.783498 1.0842022e-19 -1.74825
1.0842022e-19 3.0542686 -2
2.758193 3.6893488e+19 -1.788931
-3.6893488e+19 3.04667 0
2.7899144 -1.0842022e-19 -1.8256022
-0 3.0546021 1.0842022e-19
2.7584763 -3.6893488e+19 -1.8629426
1.0842022e-19 3.0321405 1.0842022e-19
2.7757156 -2 -1.8804349
-2 3.0253603 2
2.7173252 0 -1.8909391
0 2.9836264 -0
2.7226131 0 -1.8918333
-3.6893488e+19 2.9688907 -2
2.6478865 -1.0842022e-19 -1.8984368
3.6893488e+19 2.9560094 -2
2.6956251 3.6893488e+19 -1.912079
-1.0842022e-19 2.9424913 -3.6893488e+19
2.6254847 0 -1.9169263
0 2.8495183 -0
2.5915589 2 -1.8959624
-1.0842022e-19 2.7821236 2
2.5473778 2 -1.8785752
-3.6893488e+19 2.7614121 -2
2.4818468 2 -1.8731869
0 2.6942511 3.6893488e+19
2.4682713 2 -1.8555475
1.0842022e-19 2.6633785 -0
2.3809788 -0 -1.8467021
-3.6893488e+19 2.6122904 0
2.3818793 -0 -1.8359393
3.6893488e+19 2.5978386 2
2.320576 -1.0842022e-19 -1.8329976
3.6893488e+19 2.5593951 -2
2.3261237 -1.0842022e-19 -1.8247339
-3.6893488e+19 2.5537403 -1.0842022e-19
2.2799339 1.0842022e-19 -1.8253763
1.0842022e-19 2.5236249 -0
2.2884195 -2 -1.8189898
-1.0842022e-19 2.5190644 2
2.2459519 -3.6893488e+19 -1.8191226
-1.0842022e-19 2.484575 3.6893488e+19
2.2553878 -0 -1.8121476
-3.6893488e+19 2.4787807 -3.6893488e+19
2.1912551 0 -1.8125222
-0 2.4433129 1.0842022e-19
2.2172825 -2 -1.8102969
2 2.4375639 -3.6893488e+19
2.1532686 -3.6893488e+19 -1.8099266
1.0842022e-19 2.3985608 -2
2.1701105 0 -1.804271
-3.6893488e+19 2.3601577 -2
2.055619 3.6893488e+19 -1.8027445
-1.0842022e-19 2.3111556 -3.6893488e+19
2.0140371 3.6893488e+19 -1.7976857
2 2.2766204 -3.6893488e+19
1.9847317 -0 -1.7955821
2 2.2329671 -1.0842022e-19
1.9549156 2 -1.7888689
-2 2.169467 -1.0842022e-19
1.9710736 3.6893488e+19 -1.7866756
0 2.1305881 -2
1.950583 -1.0842022e-19 -1.7840654
-1.0842022e-19 2.1035423 -3.6893488e+19
1.936329 -2 -1.7843168
1.0842022e-19 2.0757077 -3.6893488e+19
1.9216591 0 -1.7824783
-1.0842022e-19 3.1545236 -0
2.8407738 1.0842022e-19 2.6583111
2 3.1390913 0
2.8777144 3.6893488e+19 2.6459701
0 3.1363266 -3.6893488e+19
2.8750303 3.6893488e+19 2.6305759
0 3.1572592 -3.6893488e+19
2.8430781 -3.6893488e+19 2.6351767
1.0842022e-19 3.1583006 0
2.8963621 -0 2.6389651
0 3.0781994 -1.0842022e-19
2.7764776 2 2.5500185
-2 3.1454203 3.6893488e+19
2.8838584 1.0842022e-19 2.6011319
0 3.1497562 2
2.8367577 -1.0842022e-19 2.5902395
-3.6893488e+19 3.149771 -3.6893488e+19
2.8880818 3.6893488e+19 2.5921264
2 3.0769413 3.6893488e+19
2.7754178 0 2.5180058
-1.0842022e-19 3.1959491 -2
2.8756709 1.0842022e-19 2.6016061
-3.6893488e+19 3.1499224 2
2.866046 -0 2.5506082
1.0842022e-19 3.15224 0
2.8681672 0 2.5396688
-2 3.154542 -2
2.8702741 -0 2.528604
0 3.1274469 -2
2.8953371 -1.0842022e-19 2.5107343
-0 3.1475263 1.0842022e-19
2.8638527 -0 2.5112953
-2 3.1342502 0
2.9024632 -3.6893488e+19 2.5030701
0 3.1469181 -2
2.8632958 -2 2.496927
0 3.0601842 -2
2.8248863 1.0842022e-19 2.3886549
2 3.1463447 -2
2.862771 3.6893488e+19 2.4714353
3.6893488e+19 3.1488507 3.6893488e+19
2.8650649 -0 2.4495275
-0 3.1256135 -1.0842022e-19
2.8934169 -1.0842022e-19 2.4225237
0 3.1495922 -2
2.8657434 1.0842022e-19 2.4254777
2 3.1411433 -0
2.8295021 -0 2.3989282
-2 3.1504686 2
2.8887591 1.0842022e-19 2.4058263
-0 3.1398225 -2
2.8283894 1.0842022e-19 2.3736827
3.6893488e+19 3.1473107 1.0842022e-19
2.8856936 1.0842022e-19 2.3776984
0 3.1332953 -3.6893488e+19
2.8228908 -2 2.3439634
-2 3.128058 2
2.8184791 -0 2.31616
0 3.177201 0
2.9147098 -3.6893488e+19 2.3526187
-2 3.1286182 -3.6893488e+19
2.8189509 3.6893488e+19 2.2935171
1.0842022e-19 3.1782234 -2
2.9157021 0 2.3267024
-3.6893488e+19 3.084528 2
2.7818091 0 2.2278926
1.0842022e-19 3.0561614 -0
2.7972093 -3.6893488e+19 2.1789443
1.0842022e-19 3.0558174 -1.0842022e-19
2.7968752 2 2.1403279
-3.6893488e+19 3.1276622 -3.6893488e+19
2.8181455 -2 2.1975775
1.0842022e-19 3.0568607 -2
2.797888 -0 2.1034331
1.0842022e-19 3.2078018 -1.0842022e-19
2.9795008 0 2.253269
-2 3.158618 -1.0842022e-19
2.8740048 -0 2.1653211
-3.6893488e+19 3.0575814 1.0842022e-19
2.8221605 -0 2.0514734
-3.6893488e+19 3.1593118 1.0842022e-19
2.87464 -3.6893488e+19 2.1156659
-3.6893488e+19 3.0573585 -2
2.8219268 2 2.0124526
-3.6893488e+19 3.1590209 -0
2.8743737 -3.6893488e+19 2.0651269
-3.6893488e+19 3.0594716 -3.6893488e+19
2.8241401 2 1.9752136
2 3.0460329 -0
2.7709565 -3.6893488e+19 1.9417013
-1.0842022e-19 3.2033701 1.0842022e-19
2.9748592 1.0842022e-19 2.0227792
-0 3.1471028 -0
2.8634651 2 1.9583918
2 3.1708922 0
2.9408419 -3.6893488e+19 1.9501923
3.6893488e+19 3.1485109 1.0842022e-19
2.864754 -3.6893488e+19 1.9102093
-3.6893488e+19 3.1686342 -2
2.9384768 -0 1.8963869
-0 3.1594181 1.0842022e-19
2.8747373 3.6893488e+19 1.8537196
1.0842022e-19 3.1665492 -0
2.9362929 2 1.8113855
-1.0842022e-19 3.1597376 -1.0842022e-19
2.8750296 -1.0842022e-19 1.7533532
-0 3.0513539 -1.0842022e-19
2.7538629 2 1.6016899
-3.6893488e+19 3.1650641 3.6893488e+19
2.9029279 1.0842022e-19 1.477886
-0 3.1665497 -2
2.9043698 3.6893488e+19 -1.6493844
1.0842022e-19 3.0493028 0
2.752135 1.0842022e-19 -1.6772236
-3.6893488e+19 3.0414577 -0
2.7829356 -3.6893488e+19 -1.7490908
-1.0842022e-19 3.0527043 0
2.7550006 2 -1.7879082
0 3.0411453 -3.6893488e+19
2.7826321 -2 -1.8216159
1.0842022e-19 3.0621083 -2
2.7629223 0 -1.8685368
-2 3.0340455 3.6893488e+19
2.7757401 -1.0842022e-19 -1.8811486
-1.0842022e-19 3.0248876 -0
2.713135 -1.0842022e-19 -1.8905417
0 3.0296602 -0
2.7714829 -3.6893488e+19 -1.9138234
2 3.0237885 -1.0842022e-19
2.711283 2 -1.9231551
0 2.9559162 3.6893488e+19
2.6925852 -3.6893488e+19 -1.9118396
2 2.9430957 -1.0842022e-19
2.6232672 -2 -1.9169695
-0 2.8486154 2
2.5884221 1.0842022e-19 -1.8954002
-3.6893488e+19 2.7831194 0
2.5465391 -0 -1.878852
-0 2.7633152 1.0842022e-19
2.4820209 1.0842022e-19 -1.8746938
-0 2.7009418 2
2.4723158 -1.0842022e-19 -1.8586986
-0 2.6633077 1.0842022e-19
2.3782973 3.6893488e+19 -1.8463982
0 2.6127884 -0
2.3799839 -0 -1.8359393
3.6893488e+19 2.5987101 0
2.3191717 1.0842022e-19 -1.8332685
2 2.5600412 -0
2.3247366 3.6893488e+19 -1.8248763
-0 2.5542185 -0
2.2784488 -0 -1.8254509
0 2.5267608 0
2.2898788 -3.6893488e+19 -1.8209437
-1.0842022e-19 2.5205204 3.6893488e+19
2.2452106 -2 -1.8199389
-1.0842022e-19 2.4852409 1.0842022e-19
2.2541203 -0 -1.8121476
-3.6893488e+19 2.4820731 -2
2.1912377 -2 -1.813585
-1.0842022e-19 2.443922 -3.6893488e+19
2.2149632 -2 -1.8102969
-1.0842022e-19 2.4421625 3.6893488e+19
2.1547079 0 -1.8116461
-0 2.4017529 3.6893488e+19
2.1707954 -1.0842022e-19 -1.8054588
-1.0842022e-19 3.1545236 -0
2.8407738 1.0842022e-19 2.6583111
2 3.1390913 0
2.8777144 3.6893488e+19 2.6459701
0 3.1363266 -3.6893488e+19
2.8750303 3.6893488e+19 2.6305759
0 3.1572592 -3.6893488e+19
2.8430781 -3.6893488e+19 2.6351767
0 3.14046 -3.6893488e+19
2.8790429 0 2.6219695
0 3.0781994 -1.0842022e-19
2.7764776 2 2.5500185
-2 3.1454203 3.6893488e+19
2.8838584 1.0842022e-19 2.6011319
-1.0842022e-19 3.0755136 3.6893488e+19
2.7742152 3.6893488e+19 2.5270505
-3.6893488e+19 3.149771 -3.6893488e+19
2.8880818 3.6893488e+19 2.5921264
2 3.0769413 3.6893488e+19
2.7754178 0 2.5180058
-0 3.0778737 2
2.7762034 -2 2.5085101
-3.6893488e+19 3.1499224 2
2.866046 -0 2.5506082
1.0842022e-19 3.15224 0
2.8681672 0 2.5396688
3.6893488e+19 3.0782096 -0
2.8004076 2 2.4520695
0 3.1274469 -2
2.8953371 -1.0842022e-19 2.5107343
2 3.0783913 -3.6893488e+19
2.8005738 2 2.4317055
-2 3.1342502 0
2.9024632 -3.6893488e+19 2.5030701
0 3.0761373 -0
2.7985108 -1.0842022e-19 2.4083121
0 3.0601842 -2
2.8248863 1.0842022e-19 2.3886549
2 3.1463447 -2
2.862771 3.6893488e+19 2.4714353
0 3.0768936 -2
2.7992029 0 2.3684278
2 3.0605068 0
2.8252244 -1.0842022e-19 2.3492858
2 3.0798292 0
2.8018901 1.0842022e-19 2.3511956
-1.0842022e-19 3.0884283 -3.6893488e+19
2.7850945 2 2.3451641
2 3.0723693 -2
2.8129432 1.0842022e-19 2.3266821
-0 3.1398225 -2
2.8283894 1.0842022e-19 2.3736827
3.6893488e+19 3.1473107 1.0842022e-19
2.8856936 1.0842022e-19 2.3776984
0 3.1332953 -3.6893488e+19
2.8228908 -2 2.3439634
-2 3.128058 2
2.8184791 -0 2.31616
0 3.177201 0
2.9147098 -3.6893488e+19 2.3526187
3.6893488e+19 3.0779026 1.0842022e-19
2.7762277 1.0842022e-19 2.2542007
1.0842022e-19 3.1782234 -2
2.9157021 0 2.3267024
-3.6893488e+19 3.084528 2
2.7818091 0 2.2278926
1.0842022e-19 3.0561614 -0
2.7972093 -3.6893488e+19 2.1789443
1.0842022e-19 3.0558174 -1.0842022e-19
2.7968752 2 2.1403279
-2 3.0683579 3.6893488e+19
2.7681873 3.6893488e+19 2.1272945
1.0842022e-19 3.0568607 -2
2.797888 -0 2.1034331
3.6893488e+19 3.0519314 3.6893488e+19
2.8162425 2 2.084074
2 3.0749314 1.0842022e-19
2.7974072 -3.6893488e+19 2.0802615
-3.6893488e+19 3.0575814 1.0842022e-19
2.8221605 -0 2.0514734
-2 3.0601268 -1.0842022e-19
2.7838566 1.0842022e-19 2.0270574
-3.6893488e+19 3.0573585 -2
2.8219268 2 2.0124526
-0 3.0602007 1.0842022e-19
2.7839243 -0 1.9889917
-3.6893488e+19 3.0594716 -3.6893488e+19
2.8241401 2 1.9752136
2 3.0460329 -0
2.7709565 -3.6893488e+19 1.9417013
0 3.0614049 3.6893488e+19
2.826165 -3.6893488e+19 1.9373629
-2 3.0467832 3.6893488e+19
2.7716434 -3.6893488e+19 1.905746
-0 3.060252 -1.0842022e-19
2.8249574 -2 1.8975676
3.6893488e+19 3.0488832 -3.6893488e+19
2.7735653 -3.6893488e+19 1.865314
-1.0842022e-19 3.0635674 -3.6893488e+19
2.8284299 -1.0842022e-19 1.8442948
-2 3.0501451 -3.6893488e+19
2.7747204 3.6893488e+19 1.7926748
-2 3.0637681 -3.6893488e+19
2.8286402 -1.0842022e-19 1.765396
1.0842022e-19 3.0431528 -1.0842022e-19
2.7683203 -1.0842022e-19 1.6836644
-0 3.0513539 -1.0842022e-19
2.7538629 2 1.6016899
2 3.0427153 -1.0842022e-19
2.7841563 2 1.4107118
-1.0842022e-19 3.0480816 -2
2.7893658 2 -1.588798
1.0842022e-19 3.0493028 0
2.752135 1.0842022e-19 -1.6772236
-3.6893488e+19 3.0414577 -0
2.7829356 -3.6893488e+19 -1.7490908
-1.0842022e-19 3.0527043 0
2.7550006 2 -1.7879082
0 3.0411453 -3.6893488e+19
2.7826321 -2 -1.8216159
1.0842022e-19 3.0621083 -2
2.7629223 0 -1.8685368
-2 3.0340455 3.6893488e+19
2.7757401 -1.0842022e-19 -1.8811486
-1.0842022e-19 3.0248876 -0
2.713135 -1.0842022e-19 -1.8905417
-1.0842022e-19 2.9837365 0
2.7195923 3.6893488e+19 -1.8916851
-0 2.9715965 0
2.6472766 -3.6893488e+19 -1.8991284
0 2.9559162 3.6893488e+19
2.6925852 -3.6893488e+19 -1.9118396
2 2.9430957 -1.0842022e-19
2.6232672 -2 -1.9169695
-0 2.8486154 2
2.5884221 1.0842022e-19 -1.8954002
-3.6893488e+19 2.7831194 0
2.5465391 -0 -1.878852
-0 2.7633152 1.0842022e-19
2.4820209 1.0842022e-19 -1.8746938
-0 2.7009418 2
2.4723158 -1.0842022e-19 -1.8586986
-0 2.6633077 1.0842022e-19
2.3782973 3.6893488e+19 -1.8463982
0 2.6127884 -0
2.3799839 -0 -1.8359393
3.6893488e+19 2.5987101 0
2.3191717 1.0842022e-19 -1.8332685
2 2.5600412 -0
2.3247366 3.6893488e+19 -1.8248763
-0 2.5542185 -0
2.2784488 -0 -1.8254509
0 2.5267608 0
2.2898788 -3.6893488e+19 -1.8209437
-1.0842022e-19 2.5205204 3.6893488e+19
2.2452106 -2 -1.8199389
-1.0842022e-19 2.4852409 1.0842022e-19
2.2541203 -0 -1.8121476
-3.6893488e+19 2.4820731 -2
2.1912377 -2 -1.813585
-1.0842022e-19 2.443922 -3.6893488e+19
2.2149632 -2 -1.8102969
-1.0842022e-19 2.4421625 3.6893488e+19
2.1547079 0 -1.8116461
-0 2.4017529 3.6893488e+19
2.1707954 -1.0842022e-19 -1.8054588
1.0842022e-19 3.1370864 1.0842022e-19
2.8732722 -0 2.6434321
-0 3.1358256 2
2.8720565 -0 2.6296024
-2 3.1572833 -1.0842022e-19
2.8405957 -1.0842022e-19 2.6347775
2 3.142385 1.0842022e-19
2.8783817 -1.0842022e-19 2.6233311
1.0842022e-19 3.0756536 -1.0842022e-19
2.7723317 -3.6893488e+19 2.547365
-1.0842022e-19 3.142884 -3.6893488e+19
2.8788629 2 2.598439
3.6893488e+19 3.0759556 3.6893488e+19
2.7725844 1.0842022e-19 2.5271227
-1.0842022e-19 3.1510506 -0
2.8867381 0 2.592788
-2 3.2006216 -0
2.876838 -1.0842022e-19 2.6189864
-3.6893488e+19 3.1971474 -1.0842022e-19
2.8739326 -2 2.6021645
3.6893488e+19 3.1512966 -1.0842022e-19
2.8647707 2 2.5512819
3.6893488e+19 3.1533091 2
2.8666 -2 2.5400927
3.6893488e+19 3.1550806 0
2.8682103 -2 2.5286427
2 3.1277428 2
2.8931355 3.6893488e+19 2.5105832
2 3.1478877 -3.6893488e+19
2.8616719 -1.0842022e-19 2.5112214
0 3.1351314 -3.6893488e+19
2.900825 -2 2.5033047
-2 3.1479826 1.0842022e-19
2.8617585 1.0842022e-19 2.4976668
3.6893488e+19 3.06058 3.6893488e+19
2.823236 1.0842022e-19 2.3886206
1.0842022e-19 3.1479449 -3.6893488e+19
2.8617239 -3.6893488e+19 2.472775
-2 3.061285 1.0842022e-19
2.8239698 3.6893488e+19 2.3695772
-1.0842022e-19 3.1498058 0
2.8634157 -0 2.4500675
-3.6893488e+19 3.1258509 -1.0842022e-19
2.8911667 -0 2.4222147
0 3.1508029 -2
2.8643217 -1.0842022e-19 2.4262586
0 3.1409998 0
2.8269784 3.6893488e+19 2.3983448
-3.6893488e+19 3.150136 -0
2.8858562 3.6893488e+19 2.4049771
-0 3.1392758 -0
2.8255367 -3.6893488e+19 2.3727496
2 3.1185083 1.0842022e-19
2.8553572 3.6893488e+19 2.3498752
-3.6893488e+19 3.1340311 -1.0842022e-19
2.8211508 -2 2.3442461
-3.6893488e+19 3.1156368 -1.0842022e-19
2.8525882 -0 2.3242671
-2 3.1288171 2
2.8167906 1.0842022e-19 2.3164477
0 3.1158826 0
2.8528252 -2 2.3016241
2 3.1258461 2
2.814306 1.0842022e-19 2.2910488
0 3.1778114 0
2.9125438 -0 2.3259757
3.6893488e+19 3.1293466 3.6893488e+19
2.8172333 0 2.2706623
2 3.057194 -3.6893488e+19
2.7962308 -2 2.1798475
-2 3.1289799 -0
2.8169267 -3.6893488e+19 2.2446954
0 3.0564849 -3.6893488e+19
2.795547 3.6893488e+19 2.1406858
1.0842022e-19 3.1286807 -0
2.8166764 0 2.1982927
2 3.057642 -3.6893488e+19
2.7966628 0 2.1038857
3.6893488e+19 3.0531735 3.6893488e+19
2.8155277 3.6893488e+19 2.0849912
3.6893488e+19 3.1596448 -1.0842022e-19
2.872359 2 2.165869
-0 3.0552056 -3.6893488e+19
2.8176425 -3.6893488e+19 2.0487368
2 3.1587486 -0
2.8715444 3.6893488e+19 2.114728
-1.0842022e-19 3.0580549 0
2.8206081 -1.0842022e-19 2.0126886
1.0842022e-19 3.1591108 1.0842022e-19
2.8718736 -1.0842022e-19 2.0648208
2 3.2138717 1.0842022e-19
2.9827743 -3.6893488e+19 2.0871158
-1.0842022e-19 3.0458171 1.0842022e-19
2.768892 -3.6893488e+19 1.9413335
-2 3.1475477 0
2.8613632 2 1.9583769
1.0842022e-19 3.1853225 -0
2.9530616 -0 1.9567738
1.0842022e-19 3.1590261 -0
2.8717966 -0 1.9142408
-0 3.1687899 1.0842022e-19
2.9358554 -1.0842022e-19 1.8962417
-3.6893488e+19 3.1589105 3.6893488e+19
2.8716917 2 1.8531641
0 3.1652606 3.6893488e+19
2.9321821 -3.6893488e+19 1.8105556
1.0842022e-19 3.1590598 -1.0842022e-19
2.8718271 2 1.7529883
3.6893488e+19 3.1681318 0
2.849668 3.6893488e+19 1.657095
-2 3.1656454 -3.6893488e+19
2.9008119 1.0842022e-19 1.4779168
3.6893488e+19 3.1656291 -2
2.8475749 2 -1.4294269
2 3.0460098 0
2.7854459 -0 -1.5870438
-3.6893488e+19 3.1664793 2
2.8482862 -1.0842022e-19 -1.7463361
-2 3.1714425 2
2.9064023 -2 -1.8048629
-1.0842022e-19 3.0530076 -0
2.7533939 2 -1.7878927
-3.6893488e+19 3.0437648 -1.0842022e-19
2.7832811 3.6893488e+19 -1.8231345
3.6893488e+19 3.0626523 -1.0842022e-19
2.7614594 2 -1.8686941
3.6893488e+19 3.036459 -2
2.7762358 -1.0842022e-19 -1.8820958
2 3.0655642 -3.6893488e+19
2.7638943 -0 -1.9111615
-2 3.0347121 -1.0842022e-19
2.7745514 2 -1.9165722
-0 3.0245497 -1.0842022e-19
2.7091913 2 -1.9234463
0 2.9558177 0
2.6895506 2 -1.9116004
2 2.9426601 -2
2.6201799 3.6893488e+19 -1.9166226
0 2.7845027 -3.6893488e+19
2.5460958 -0 -1.879305
0 2.7626634 -3.6893488e+19
2.4775114 0 -1.8737789
0 2.7026644 3.6893488e+19
2.4711101 -3.6893488e+19 -1.8592715
3.6893488e+19 2.6662993 1.0842022e-19
2.378408 2 -1.8477353
-3.6893488e+19 2.6135046 -0
2.3783174 3.6893488e+19 -1.8360678
-1.0842022e-19 2.5988986 -0
2.317142 0 -1.8331331
-1.0842022e-19 2.5609066 3.6893488e+19
2.323576 -1.0842022e-19 -1.8251611
-1.0842022e-19 2.5546947 0
2.2769616 1.0842022e-19 -1.8255256
-1.0842022e-19 2.5270278 -3.6893488e+19
2.2883165 1.0842022e-19 -1.8208656
-1.0842022e-19 2.5207295 2
2.2421758 0 -1.8198574
-0 2.4856822 0
2.2527368 -1.0842022e-19 -1.8120625
-1.0842022e-19 2.4821944 -3.6893488e+19
2.1883051 -1.0842022e-19 -1.8134079
-3.6893488e+19 2.4436445 -1.0842022e-19
2.2117229 1.0842022e-19 -1.8099288
-1.0842022e-19 2.4426897 3.6893488e+19
2.1523962 0 -1.8116461
3.6893488e+19 2.3994324 -0
2.165709 -1.0842022e-19 -1.8041719
-1.0842022e-19 2.3625557 -3.6893488e+19
2.0531917 1.0842022e-19 -1.8035345
-3.6893488e+19 2.3129852 -0
2.0117378 3.6893488e+19 -1.7983192
3.6893488e+19 2.2770016 -1.0842022e-19
1.9816461 -2 -1.7954415
-2 2.2340314 -2
1.9523886 2 -1.7888689
3.6893488e+19 2.1693051 0
1.9681958 -3.6893488e+19 -1.7861713
2 2.134248 1.0842022e-19
1.949953 2 -1.7851561
-2 2.1053813 -3.6893488e+19
1.9349314 3.6893488e+19 -1.7847078
2 2.0783353 -3.6893488e+19
1.9208573 3.6893488e+19 -1.7833148
1.0842022e-19 3.1370864 1.0842022e-19
2.8732722 -0 2.6434321
-0 3.1358256 2
2.8720565 -0 2.6296024
-2 3.1572833 -1.0842022e-19
2.8405957 -1.0842022e-19 2.6347775
2 3.142385 1.0842022e-19
2.8783817 -1.0842022e-19 2.6233311
1.0842022e-19 3.0756536 -1.0842022e-19
2.7723317 -3.6893488e+19 2.547365
-1.0842022e-19 3.142884 -3.6893488e+19
2.8788629 2 2.598439
3.6893488e+19 3.0759556 3.6893488e+19
2.7725844 1.0842022e-19 2.5271227
-1.0842022e-19 3.1510506 -0
2.8867381 0 2.592788
0 3.0775549 -2
2.7739217 -1.0842022e-19 2.5182145
1.0842022e-19 3.076957 -0
2.7734218 0 2.5075049
3.6893488e+19 3.1512966 -1.0842022e-19
2.8647707 2 2.5512819
3.6893488e+19 3.1533091 2
2.8666 -2 2.5400927
3.6893488e+19 3.1550806 0
2.8682103 -2 2.5286427
-0 3.0834877 -1.0842022e-19
2.8470771 1.0842022e-19 2.4601085
3.6893488e+19 3.0788109 0
2.7988827 2 2.4317424
-2 3.0826557 -2
2.8462112 -0 2.4375823
2 3.0766106 0
2.7968826 -2 2.4084177
3.6893488e+19 3.06058 3.6893488e+19
2.823236 1.0842022e-19 2.3886206
1.0842022e-19 3.1479449 -3.6893488e+19
2.8617239 -3.6893488e+19 2.472775
-2 3.061285 1.0842022e-19
2.8239698 3.6893488e+19 2.3695772
-1.0842022e-19 3.1498058 0
2.8634157 -0 2.4500675
3.6893488e+19 3.0612056 2
2.8238871 -2 2.3495948
0 3.1508029 -2
2.8643217 -1.0842022e-19 2.4262586
0 3.1409998 0
2.8269784 3.6893488e+19 2.3983448
-1.0842022e-19 3.072721 1.0842022e-19
2.811204 -2 2.3266253
-3.6893488e+19 3.0762877 -2
2.7728622 1.0842022e-19 2.3124359
-2 3.0746489 -1.0842022e-19
2.8130629 -0 2.3082335
1.0842022e-19 3.0806322 -0
2.7764952 1.0842022e-19 2.2963793
-1.0842022e-19 3.0753591 2
2.8137479 -0 2.2885466
2 3.0760124 3.6893488e+19
2.7726319 -1.0842022e-19 2.2723367
0 3.1158826 0
2.8528252 -2 2.3016241
2 3.0779464 0
2.7742493 0 2.2539561
0 3.1778114 0
2.9125438 -0 2.3259757
3.6893488e+19 3.1293466 3.6893488e+19
2.8172333 0 2.2706623
2 3.057194 -3.6893488e+19
2.7962308 -2 2.1798475
-2 3.1289799 -0
2.8169267 -3.6893488e+19 2.2446954
0 3.0564849 -3.6893488e+19
2.795547 3.6893488e+19 2.1406858
1.0842022e-19 3.1286807 -0
2.8166764 0 2.1982927
2 3.057642 -3.6893488e+19
2.7966628 0 2.1038857
3.6893488e+19 3.0531735 3.6893488e+19
2.8155277 3.6893488e+19 2.0849912
-2 3.0786133 -3.6893488e+19
2.798703 -1.0842022e-19 2.0836062
-0 3.0552056 -3.6893488e+19
2.8176425 -3.6893488e+19 2.0487368
3.6893488e+19 3.0593033 2
2.7811506 -3.6893488e+19 2.0259924
-1.0842022e-19 3.0580549 0
2.8206081 -1.0842022e-19 2.0126886
0 3.0588653 1.0842022e-19
2.7807524 1.0842022e-19 1.9876795
-3.6893488e+19 3.0585644 2
2.8211384 -2 1.9742473
-1.0842022e-19 3.0458171 1.0842022e-19
2.768892 -3.6893488e+19 1.9413335
3.6893488e+19 3.0467958 2
2.7697816 -0 1.9055672
1.0842022e-19 3.1853225 -0
2.9530616 -0 1.9567738
0 3.0490689 1.0842022e-19
2.7718477 1.0842022e-19 1.865177
3.6893488e+19 3.0644112 0
2.8272233 3.6893488e+19 1.8445852
-3.6893488e+19 3.1589105 3.6893488e+19
2.8716917 2 1.8531641
3.6893488e+19 3.065527 -2
2.8283844 -3.6893488e+19 1.7659905
0 3.0444696 0
2.7676671 0 1.6842698
-3.6893488e+19 3.0487149 -1.0842022e-19
2.7496083 0 1.5994586
-2 3.0425506 2
2.7821102 1.0842022e-19 1.4104185
1.0842022e-19 3.0529284 3.6893488e+19
2.7533276 3.6893488e+19 -1.380774
2 3.0460098 0
2.7854459 -0 -1.5870438
2 3.0503807 2
2.7511971 2 -1.6776669
1.0842022e-19 3.0423894 -3.6893488e+19
2.7819545 -2 -1.7495713
-1.0842022e-19 3.0530076 -0
2.7533939 2 -1.7878927
-3.6893488e+19 3.0437648 -1.0842022e-19
2.7832811 3.6893488e+19 -1.8231345
3.6893488e+19 3.0626523 -1.0842022e-19
2.7614594 2 -1.8686941
3.6893488e+19 3.036459 -2
2.7762358 -1.0842022e-19 -1.8820958
-0 3.0226531 -2
2.7060192 -3.6893488e+19 -1.8892465
2 2.9840107 2
2.7167375 -3.6893488e+19 -1.8915863
-2 2.9692326 1.0842022e-19
2.6424017 3.6893488e+19 -1.8982184
0 2.9558177 0
2.6895506 2 -1.9116004
2 2.9426601 -2
2.6201799 3.6893488e+19 -1.9166226
0 2.7845027 -3.6893488e+19
2.5460958 -0 -1.879305
0 2.7626634 -3.6893488e+19
2.4775114 0 -1.8737789
0 2.7026644 3.6893488e+19
2.4711101 -3.6893488e+19 -1.8592715
3.6893488e+19 2.6662993 1.0842022e-19
2.378408 2 -1.8477353
-3.6893488e+19 2.6135046 -0
2.3783174 3.6893488e+19 -1.8360678
-1.0842022e-19 2.5988986 -0
2.317142 0 -1.8331331
-1.0842022e-19 2.5609066 3.6893488e+19
2.323576 -1.0842022e-19 -1.8251611
-1.0842022e-19 2.5546947 0
2.2769616 1.0842022e-19 -1.8255256
-1.0842022e-19 2.5270278 -3.6893488e+19
2.2883165 1.0842022e-19 -1.8208656
-1.0842022e-19 2.5207295 2
2.2421758 0 -1.8198574
-0 2.4856822 0
2.2527368 -1.0842022e-19 -1.8120625
-1.0842022e-19 2.4821944 -3.6893488e+19
2.1883051 -1.0842022e-19 -1.8134079
-3.6893488e+19 2.4436445 -1.0842022e-19
2.2117229 1.0842022e-19 -1.8099288
-1.0842022e-19 2.4426897 3.6893488e+19
2.1523962 0 -1.8116461
3.6893488e+19 2.3994324 -0
2.165709 -1.0842022e-19 -1.8041719
-1.0842022e-19 2.3625557 -3.6893488e+19
2.0531917 1.0842022e-19 -1.8035345
-3.6893488e+19 2.3129852 -0
2.0117378 3.6893488e+19 -1.7983192
3.6893488e+19 2.2770016 -1.0842022e-19
1.9816461 -2 -1.7954415
-2 2.2340314 -2
1.9523886 2 -1.7888689
3.6893488e+19 2.1693051 0
1.9681958 -3.6893488e+19 -1.7861713
2 2.134248 1.0842022e-19
1.949953 2 -1.7851561
-2 2.1053813 -3.6893488e+19
1.9349314 3.6893488e+19 -1.7847078
2 2.0783353 -3.6893488e+19
1.9208573 3.6893488e+19 -1.7833148
0 3.1377866 -1.0842022e-19
2.8714831 3.6893488e+19 2.6436553
2 3.1343234 -1.0842022e-19
2.8681655 0 2.6276557
-3.6893488e+19 3.1563396 -0
2.8373449 -3.6893488e+19 2.6334734
-1.0842022e-19 3.1428995 -1.0842022e-19
2.8763812 -0 2.6233573
-2 3.0763144 3.6893488e+19
2.7709076 -0 2.5476484
2 3.0771534 -0
2.7716041 -3.6893488e+19 2.5381122
1.0842022e-19 3.1432889 -0
2.876754 2 2.5983655
1.0842022e-19 3.0764763 -1.0842022e-19
2.7710419 3.6893488e+19 2.527267
3.6893488e+19 3.1515207 1.0842022e-19
2.88464 -3.6893488e+19 2.5927641
-2 3.2007945 -2
2.8742514 2 2.6187313
-3.6893488e+19 3.1337872 -2
2.8676519 0 2.5653379
-2 3.1976285 -0
2.871623 -2 2.6021645
1.0842022e-19 3.1293898 -0
2.892364 2 2.5480585
0 3.1519346 3.6893488e+19
2.86285 1.0842022e-19 2.5514083
-1.0842022e-19 3.1550176 -1.0842022e-19
2.8656332 -1.0842022e-19 2.5409813
1.0842022e-19 3.1234233 -2
2.8861935 -0 2.5192697
0 3.1557233 1.0842022e-19
2.8662703 2 2.5287588
-1.0842022e-19 3.0830564 1.0842022e-19
2.8444464 -1.0842022e-19 2.4588985
-0 3.1478179 0
2.8591337 -0 2.5108705
3.6893488e+19 3.1351528 3.6893488e+19
2.8983243 -0 2.50298
1.0842022e-19 3.1493506 -0
2.8605173 2 2.4987938
2 3.0606112 2
2.8212335 -1.0842022e-19 2.3881395
3.6893488e+19 3.148608 -1.0842022e-19
2.8598468 2 2.4730096
0 3.0615096 -3.6893488e+19
2.8221624 3.6893488e+19 2.3693488
-2 3.1514318 2
2.8623962 2 2.45137
-3.6893488e+19 3.1262443 0
2.8891113 0 2.4220912
0 3.1516676 3.6893488e+19
2.8626089 -0 2.4266791
-2 3.0764368 3.6893488e+19
2.7710092 0 2.3322117
3.6893488e+19 3.1500447 -0
2.8832259 0 2.4043827
1.0842022e-19 3.1380022 3.6893488e+19
2.8221209 3.6893488e+19 2.3711307
3.6893488e+19 3.1203949 -2
2.8548226 0 2.3512306
2 3.1348751 -0
2.8195248 1.0842022e-19 2.3446319
0 3.1163433 -3.6893488e+19
2.8509412 2 2.3244908
-2 3.1285639 -1.0842022e-19
2.8142853 -0 2.3158963
-2 3.116533 1.0842022e-19
2.8511233 1.0842022e-19 2.3017859
3.6893488e+19 3.1264517 -0
2.8125317 0 2.2912045
2 3.0661039 1.0842022e-19
2.8028142 -0 2.2311208
-3.6893488e+19 3.1288917 2
2.8145576 3.6893488e+19 2.2700472
-0 3.1740644 0
2.9062359 -2 2.2963226
2 3.1288698 3.6893488e+19
2.8145392 -1.0842022e-19 2.24402
3.6893488e+19 3.0654955 -1.0842022e-19
2.8022313 -2 2.1516733
-1.0842022e-19 3.1305566 3.6893488e+19
2.8159397 0 2.2000294
-2 3.0589519 -3.6893488e+19
2.7959628 3.6893488e+19 2.1049519
2 3.052804 3.6893488e+19
2.8131592 -2 2.0841351
-3.6893488e+19 3.1604936 3.6893488e+19
2.8705769 -0 2.1662438
-1.0842022e-19 3.0549769 -0
2.8154066 1.0842022e-19 2.0481138
-1.0842022e-19 3.1602223 -3.6893488e+19
2.8703318 1.0842022e-19 2.1156154
-3.6893488e+19 3.2170963 -1.0842022e-19
2.9830701 3.6893488e+19 2.1477757
-0 3.1608982 0
2.8709421 3.6893488e+19 2.0658269
-3.6893488e+19 3.0588114 -2
2.8193722 -1.0842022e-19 1.9741266
0 3.046391 2
2.7675695 -3.6893488e+19 1.9414806
3.6893488e+19 3.173414 3.6893488e+19
2.9378939 1.0842022e-19 2.0040679
-0 3.047684 -0
2.7687368 1.0842022e-19 1.9058504
2 3.1711156 -1.0842022e-19
2.9355168 1.0842022e-19 1.9497581
-0 3.0489631 -2
2.7698915 -0 1.8648115
-0 3.1707664 -3.6893488e+19
2.9351556 2 1.8967353
0 3.1608984 -0
2.8709421 0 1.8540053
0 3.1605432 -3.6893488e+19
2.9245827 -0 1.8082023
-0 3.1593673 -0
2.86956 2 1.7529349
2 3.1690147 1.0842022e-19
2.8478677 3.6893488e+19 1.6572574
-0 3.1663022 -2
2.8987999 -0 1.477994
3.6893488e+19 3.1687894 -2
2.8476806 -1.0842022e-19 -1.4305968
0 3.044348 3.6893488e+19
2.7819729 -2 -1.5855919
-0 3.1681108 0
2.8471174 3.6893488e+19 -1.7470353
-3.6893488e+19 3.0429776 -3.6893488e+19
2.7806602 1.0842022e-19 -1.7497636
-3.6893488e+19 3.0649347 -3.6893488e+19
2.7614601 -2 -1.7941226
1.0842022e-19 3.0436788 -0
2.7813318 -1.0842022e-19 -1.8228308
1.0842022e-19 3.0638256 1.0842022e-19
2.7605393 -2 -1.8693455
0 3.0337718 3.6893488e+19
2.7718413 -2 -1.8806944
1.0842022e-19 3.064115 0
2.7607796 -2 -1.910249
2 3.0355444 0
2.7735395 -0 -1.916852
-2 3.0209513 3.6893488e+19
2.6998899 1.0842022e-19 -1.920989
1.0842022e-19 2.9559891 0
2.6868184 1.0842022e-19 -1.9114608
-2 2.9426172 3.6893488e+19
2.6174626 2 -1.9164275
-3.6893488e+19 2.7807252 1.0842022e-19
2.5403256 1.0842022e-19 -1.8774176
2 2.7639945 -0
2.4766467 -0 -1.8747475
-2 2.7032707 3.6893488e+19
2.4687717 -3.6893488e+19 -1.8592715
-2 2.6675823 1.0842022e-19
2.3769763 -3.6893488e+19 -1.8481606
-3.6893488e+19 2.6138809 -2
2.3763249 3.6893488e+19 -1.8360035
-3.6893488e+19 2.6001024 -0
2.3160582 0 -1.8336072
-3.6893488e+19 2.5615447 -3.6893488e+19
2.3221989 3.6893488e+19 -1.8253036
-1.0842022e-19 2.5550511 -3.6893488e+19
2.2753875 1.0842022e-19 -1.8255256
1.0842022e-19 2.5272884 3.6893488e+19
2.2867711 -0 -1.8207874
-3.6893488e+19 2.520592 0
2.238559 -3.6893488e+19 -1.8195307
-3.6893488e+19 2.4867754 1.0842022e-19
2.2517111 3.6893488e+19 -1.8122327
3.6893488e+19 2.4444602 1.0842022e-19
2.2096598 2 -1.8100208
-2 2.4413929 -2
2.1484714 -2 -1.8108819
1.0842022e-19 2.3997467 -0
2.1634171 2 -1.804073
0 3.1377866 -1.0842022e-19
2.8714831 3.6893488e+19 2.6436553
2 3.1343234 -1.0842022e-19
2.8681655 0 2.6276557
-3.6893488e+19 3.1563396 -0
2.8373449 -3.6893488e+19 2.6334734
-1.0842022e-19 3.1428995 -1.0842022e-19
2.8763812 -0 2.6233573
-2 3.0763144 3.6893488e+19
2.7709076 -0 2.5476484
2 3.0771534 -0
2.7716041 -3.6893488e+19 2.5381122
1.0842022e-19 3.1432889 -0
2.876754 2 2.5983655
1.0842022e-19 3.0764763 -1.0842022e-19
2.7710419 3.6893488e+19 2.527267
3.6893488e+19 3.1515207 1.0842022e-19
2.88464 -3.6893488e+19 2.5927641
-0 3.0783327 -3.6893488e+19
2.772583 2 2.5185626
-3.6893488e+19 3.1337872 -2
2.8676519 0 2.5653379
-1.0842022e-19 3.0773087 2
2.771733 0 2.5075049
1.0842022e-19 3.1293898 -0
2.892364 2 2.5480585
0 3.1519346 3.6893488e+19
2.86285 1.0842022e-19 2.5514083
-1.0842022e-19 3.1550176 -1.0842022e-19
2.8656332 -1.0842022e-19 2.5409813
1.0842022e-19 3.1234233 -2
2.8861935 -0 2.5192697
0 3.1557233 1.0842022e-19
2.8662703 2 2.5287588
-1.0842022e-19 3.0830564 1.0842022e-19
2.8444464 -1.0842022e-19 2.4588985
-0 3.1478179 0
2.8591337 -0 2.5108705
3.6893488e+19 3.0832663 -3.6893488e+19
2.8446631 -0 2.4377987
2 3.0828016 1.0842022e-19
2.8004396 3.6893488e+19 2.4156733
2 3.0606112 2
2.8212335 -1.0842022e-19 2.3881395
3.6893488e+19 3.148608 -1.0842022e-19
2.8598468 2 2.4730096
0 3.0615096 -3.6893488e+19
2.8221624 3.6893488e+19 2.3693488
-2 3.1514318 2
2.8623962 2 2.45137
-3.6893488e+19 3.0620632 1.0842022e-19
2.8227353 -1.0842022e-19 2.3500893
0 3.1516676 3.6893488e+19
2.8626089 -0 2.4266791
-2 3.0764368 3.6893488e+19
2.7710092 0 2.3322117
2 3.0739057 -0
2.810288 0 2.3274181
-3.6893488e+19 3.0758929 -2
2.7705576 -1.0842022e-19 2.3117223
3.6893488e+19 3.0707362 -0
