# .PCD v0.7 - Point Cloud Data file format
VERSION 0.7
FIELDS x y z
SIZE 4 4 4
TYPE F F F
COUNT 1 1 1
WIDTH 1750
HEIGHT 1
VIEWPOINT 0 0 0 1 0 0 0
POINTS 1750
DATA ascii
2.2369177 1.0842022e-19 2.1357515
3.6893488e+19 3.0918441 -1.0842022e-19
2.4087992 3.6893488e+19 2.1468775
1.0842022e-19 3.070513 -2
2.2394361 -3.6893488e+19 2.1016533
-0 3.1351547 0
2.460593 1.0842022e-19 2.1535175
0 3.0905757 3.6893488e+19
2.4927771 -2 2.0892408
2 3.06249 -0
2.3158929 -3.6893488e+19 2.0411053
-3.6893488e+19 3.0925243 1.0842022e-19
2.4955969 3.6893488e+19 2.052232
-0 3.066138 2
2.3195808 2 2.0088539
0 3.0927687 -2
2.49595 -3.6893488e+19 2.0134914
-0 3.0662422 1.0842022e-19
2.3196862 3.6893488e+19 1.9733098
-2 3.0931497 0
2.4965017 -3.6893488e+19 1.974811
3.6893488e+19 3.0844479 -2
2.4839108 0 1.9311537
-2 3.0753915 2
2.3289351 -2 1.9065062
0 3.0878067 0
2.4887707 1.0842022e-19 1.8946456
-3.6893488e+19 3.0729716 -2
2.3264887 3.6893488e+19 1.8630071
2 3.0854008 -3.6893488e+19
2.4852896 0 1.836165
-1.0842022e-19 3.0699153 0
2.3233993 -1.0842022e-19 1.7888019
2 3.0851305 -3.6893488e+19
2.4848983 3.6893488e+19 1.7599957
1.0842022e-19 3.0571933 -0
2.2190964 -1.0842022e-19 1.5889299
0 3.0876231 -0
2.4037514 1.0842022e-19 1.4186146
3.6893488e+19 3.0590017 -1.0842022e-19
2.221858 -1.0842022e-19 -1.3722596
-2 3.0875266 0
2.4036362 0 -1.5952102
-1.0842022e-19 3.0802994 -3.6893488e+19
2.2521901 0 -1.6810603
-2 3.0793386 1.0842022e-19
2.2514567 3.6893488e+19 -1.789086
1.0842022e-19 3.08095 -0
2.3957713 -1.0842022e-19 -1.8282976
3.6893488e+19 3.079886 -2
2.2518744 2 -1.8633021
1.0842022e-19 3.0843894 2
2.3998845 -2 -1.8904394
2 3.0683522 2
2.2361367 -2 -1.9006823
0 3.0401793 -1.0842022e-19
2.3470149 -0 -1.9046224
-0 3.0213983 -3.6893488e+19
2.1644361 -2 -1.9089029
-0 3.0314894 -0
2.3366232 1.0842022e-19 -1.931783
-1.0842022e-19 2.9513345 1.0842022e-19
2.0946031 0 -1.9074502
0 2.8705955 -2
2.1931818 -1.0842022e-19 -1.8905979
-1.0842022e-19 2.8315065 -2
2.229655 3.6893488e+19 -1.8858231
-0 2.8087184 3.6893488e+19
2.0620804 0 -1.8841566
-2 2.7767963 -0
2.1504953 1.0842022e-19 -1.8791387
2 2.7577195 -2
2.0105259 1.0842022e-19 -1.8765306
3.6893488e+19 2.710927 -3.6893488e+19
2.0834563 2 -1.8662663
0 2.6740196 3.6893488e+19
1.9643185 -0 -1.8571093
1.0842022e-19 2.6339037 -0
2.027734 2 -1.8478048
-3.6893488e+19 2.6187763 0
1.9363962 2 -1.8477067
-2 2.5857556 -0
1.9929016 2 -1.8389984
-2 2.5697529 -1.0842022e-19
1.9116175 0 -1.8361839
2 2.5512478 0
1.967937 -1.0842022e-19 -1.83419
-2 2.5308988 0
1.891979 -3.6893488e+19 -1.826429
-3.6893488e+19 2.516521 -0
1.942814 0 -1.8253012
-0 2.5068927 2
1.8798451 -0 -1.8237771
2 2.4749129 0
1.9217873 1.0842022e-19 -1.8170407
-2 2.4574232 -3.6893488e+19
1.8562022 -1.0842022e-19 -1.8149562
-0 3.1460595 -0
2.4651432 1.0842022e-19 2.6164913
-2 3.1210408 -0
2.275445 3.6893488e+19 2.5856962
-0 3.1453536 0
2.4643142 0 2.6041317
-2 3.1234994 -1.0842022e-19
2.2772701 3.6893488e+19 2.5769465
-3.6893488e+19 3.1454406 0
2.4644165 0 2.5925345
3.6893488e+19 3.1635492 3.6893488e+19
2.3070014 1.0842022e-19 2.5998929
-2 3.1436601 3.6893488e+19
2.4623253 -2 2.5794041
3.6893488e+19 3.1623473 2
2.3061092 -1.0842022e-19 2.5868325
0 3.1453102 -1.0842022e-19
2.464263 -0 2.5691841
-1.0842022e-19 3.1405983 2
2.4587295 2 2.553947
2 3.1544564 2
2.3002512 2 2.5568624
-1.0842022e-19 3.1417513 -1.0842022e-19
2.4600835 3.6893488e+19 2.5434105
1.0842022e-19 3.1535401 3.6893488e+19
2.299571 2 2.5444796
-3.6893488e+19 3.1497054 2
2.4694252 -3.6893488e+19 2.53773
3.6893488e+19 3.1311204 0
2.5215945 -3.6893488e+19 2.5201516
-0 3.1431983 -2
2.3891032 2 2.5207958
3.6893488e+19 3.1315141 -0
2.5218749 2 2.5093083
1.0842022e-19 3.139709 -3.6893488e+19
2.3856502 -3.6893488e+19 2.5071354
2 3.1331952 2
2.523073 -0 2.4986155
3.6893488e+19 3.1417987 -2
2.3877182 1.0842022e-19 2.4944499
2 3.1323972 0
2.5225043 -0 2.4753823
-1.0842022e-19 3.1467564 -0
2.3926244 -3.6893488e+19 2.4778869
0 3.1346223 -2
2.5240898 1.0842022e-19 2.4558766
3.6893488e+19 3.147068 -1.0842022e-19
2.3929327 3.6893488e+19 2.4554725
-0 3.1369543 2
2.5257518 3.6893488e+19 2.4362748
3.6893488e+19 3.1492655 -1.0842022e-19
2.3951073 2 2.4351273
3.6893488e+19 3.0996487 2
2.4983342 -2 2.3740475
-3.6893488e+19 3.0847545 1.0842022e-19
2.3312683 -0 2.3456829
-1.0842022e-19 3.0884013 -0
2.334877 3.6893488e+19 2.3301394
2 3.1417668 1.0842022e-19
2.2908311 -1.0842022e-19 2.3698144
-2 3.1304951 -2
2.4468639 -2 2.3506007
-1.0842022e-19 3.1355832 -0
2.2862406 -3.6893488e+19 2.3420987
2 3.090791 -1.0842022e-19
2.4002342 1.0842022e-19 2.2945745
1.0842022e-19 3.1377897 -1.0842022e-19
2.2878785 2 2.3220866
-0 3.1458302 -1.0842022e-19
2.4648738 0 2.3195972
1.0842022e-19 3.0585213 1.0842022e-19
2.2080662 3.6893488e+19 2.2275963
3.6893488e+19 3.1479433 3.6893488e+19
2.4673555 -2 2.2986665
0 3.0829265 0
2.2443011 0 2.2277577
1.0842022e-19 3.1425846 -2
2.461062 0 2.2723374
-3.6893488e+19 3.0794661 1.0842022e-19
2.2391636 -1.0842022e-19 2.1856182
-2 3.1429021 -2
2.4614351 0 2.2502635
1.0842022e-19 3.0781579 2
2.237221 2 2.1468973
2 3.1349361 2
2.4520795 -0 2.1967332
-0 3.0721753 0
2.2283387 -3.6893488e+19 2.10339
1.0842022e-19 3.1353045 -1.0842022e-19
2.452512 1.0842022e-19 2.1535175
0 3.1347713 1.0842022e-19
2.5241961 -2 2.1330829
-0 3.230871 0
2.475863 1.0842022e-19 2.1978168
0 3.2183628 -3.6893488e+19
2.583765 2 2.1630731
3.6893488e+19 3.2311769 -0
2.4761655 -3.6893488e+19 2.1438584
-1.0842022e-19 3.0920694 1.0842022e-19
2.4875319 -2 2.0128303
-0 3.0650136 0
2.311733 1.0842022e-19 1.9723693
-1.0842022e-19 3.2181182 1.0842022e-19
2.583591 0 2.0565386
3.6893488e+19 3.2330513 -1.0842022e-19
2.4780204 -3.6893488e+19 2.0366049
-3.6893488e+19 3.2516611 -1.0842022e-19
2.6086781 1.0842022e-19 2.0224962
2 3.2320476 3.6893488e+19
2.4770272 -0 1.9817783
0 3.0879042 3.6893488e+19
2.4815953 2 1.8946192
-2 3.2490649 -0
2.4938674 -3.6893488e+19 1.9338273
1.0842022e-19 3.0846667 1.0842022e-19
2.4769812 0 1.8356036
-2 3.0710435 -3.6893488e+19
2.3176999 -0 1.7893257
-2 3.085042 3.6893488e+19
2.4775162 2 1.7598966
0 3.0884073 -1.0842022e-19
2.3348827 0 1.6942568
2 3.0575802 2
2.2066691 0 1.5891466
-1.0842022e-19 3.234339 -0
2.5344105 -3.6893488e+19 1.491793
0 3.1504354 2
2.2972662 -0 -1.4101723
-2 3.0869775 1.0842022e-19
2.3957558 -2 -1.5947665
-1.0842022e-19 3.0569201 -1.0842022e-19
2.205689 -1.0842022e-19 -1.6682029
1.0842022e-19 3.0799489 3.6893488e+19
2.2398801 3.6893488e+19 -1.7893494
3.6893488e+19 3.081635 2
2.3894813 -3.6893488e+19 -1.8286393
-0 3.1754081 3.6893488e+19
2.315805 3.6893488e+19 -1.9036146
1.0842022e-19 3.0811813 0
2.3889484 -2 -1.889038
2 3.0676532 0
2.2216246 1.0842022e-19 -1.9003145
-3.6893488e+19 3.0817621 -2
2.3896306 -2 -1.9267113
-3.6893488e+19 3.0231755 -2
2.1555879 -2 -1.909904
1.0842022e-19 3.0315371 2
2.3306448 -1.0842022e-19 -1.931743
2 2.9549899 2
2.0877652 3.6893488e+19 -1.9086862
-1.0842022e-19 2.8720982 3.6893488e+19
2.1870024 -2 -1.8911133
1.0842022e-19 2.8344281 3.6893488e+19
2.2266409 3.6893488e+19 -1.8869556
2 2.8090675 -0
2.0558486 -3.6893488e+19 -1.8842641
-1.0842022e-19 2.7784624 0
2.1468766 -2 -1.8798548
0 2.7587328 0
2.0060382 -2 -1.8769864
3.6893488e+19 2.7069685 2
2.0756454 -3.6893488e+19 -1.8640816
-3.6893488e+19 2.6739109 -0
1.959748 2 -1.8569739
2 2.6340845 2
2.0237067 2 -1.8478048
1.0842022e-19 2.6169181 3.6893488e+19
1.9315484 3.6893488e+19 -1.8465117
2 2.5857911 -2
1.9892918 -1.0842022e-19 -1.8389202
-3.6893488e+19 2.5697341 1.0842022e-19
1.9082022 2 -1.8361022
3.6893488e+19 2.5515122 2
1.964864 -0 -1.8342751
-1.0842022e-19 2.5317323 0
1.8893992 2 -1.8269606
1.0842022e-19 2.5168917 -3.6893488e+19
1.9401926 3.6893488e+19 -1.8254852
-2 2.5069768 -0
1.8771503 -0 -1.8237771
-1.0842022e-19 2.4766059 3.6893488e+19
1.9198197 -0 -1.8176346
0 2.4578202 3.6893488e+19
1.851526 1.0842022e-19 -1.8150587
2 2.404896 1.0842022e-19
1.7752888 -3.6893488e+19 -1.8097414
0 2.3476698 3.6893488e+19
1.7540476 3.6893488e+19 -1.803387
3.6893488e+19 2.3058579 -2
1.7270559 3.6893488e+19 -1.7993759
0 2.2757092 -0
1.7046747 -2 -1.7979727
-2 2.2396147 2
1.7994549 2 -1.7945745
-1.0842022e-19 2.1953232 1.0842022e-19
1.7836734 -1.0842022e-19 -1.7922459
-3.6893488e+19 2.1584084 -2
1.7705202 -3.6893488e+19 -1.7903767
0 2.1230571 -3.6893488e+19
1.7579241 -1.0842022e-19 -1.7870792
-0 3.1460595 -0
2.4651432 1.0842022e-19 2.6164913
-2 3.1210408 -0
2.275445 3.6893488e+19 2.5856962
-0 3.1453536 0
2.4643142 0 2.6041317
-2 3.1234994 -1.0842022e-19
2.2772701 3.6893488e+19 2.5769465
-3.6893488e+19 3.1454406 0
2.4644165 0 2.5925345
-0 3.120343 3.6893488e+19
2.2749269 -3.6893488e+19 2.5633371
-2 3.1436601 3.6893488e+19
2.4623253 -2 2.5794041
-1.0842022e-19 3.1208472 -1.0842022e-19
2.2753012 -3.6893488e+19 2.5529325
0 3.1453102 -1.0842022e-19
2.464263 -0 2.5691841
-1.0842022e-19 3.1405983 2
2.4587295 2 2.553947
2 3.1544564 2
2.3002512 2 2.5568624
-1.0842022e-19 3.1417513 -1.0842022e-19
2.4600835 3.6893488e+19 2.5434105
1.0842022e-19 3.1535401 3.6893488e+19
2.299571 2 2.5444796
-3.6893488e+19 3.1497054 2
2.4694252 -3.6893488e+19 2.53773
3.6893488e+19 3.1311204 0
2.5215945 -3.6893488e+19 2.5201516
-0 3.1431983 -2
2.3891032 2 2.5207958
3.6893488e+19 3.1315141 -0
2.5218749 2 2.5093083
1.0842022e-19 3.139709 -3.6893488e+19
2.3856502 -3.6893488e+19 2.5071354
-1.0842022e-19 3.090817 -0
2.4857469 -2 2.4434729
3.6893488e+19 3.1417987 -2
2.3877182 1.0842022e-19 2.4944499
-2 3.0927706 0
2.4885314 -3.6893488e+19 2.42612
-1.0842022e-19 3.1467564 -0
2.3926244 -3.6893488e+19 2.4778869
1.0842022e-19 3.0922146 3.6893488e+19
2.4877386 3.6893488e+19 2.4056125
3.6893488e+19 3.147068 -1.0842022e-19
2.3929327 3.6893488e+19 2.4554725
-0 3.093956 -3.6893488e+19
2.4902205 -1.0842022e-19 2.3877959
-3.6893488e+19 3.0874593 -3.6893488e+19
2.3339448 -1.0842022e-19 2.3677697
3.6893488e+19 3.0996487 2
2.4983342 -2 2.3740475
-3.6893488e+19 3.0847545 1.0842022e-19
2.3312683 -0 2.3456829
-1.0842022e-19 3.0884013 -0
2.334877 3.6893488e+19 2.3301394
-2 3.057523 -2
2.2065842 -0 2.2902913
-1.0842022e-19 3.087641 -0
2.3965349 -0 2.3111136
0 3.0621285 -1.0842022e-19
2.2134218 -0 2.2769279
2 3.090791 -1.0842022e-19
2.4002342 1.0842022e-19 2.2945745
1.0842022e-19 3.1377897 -1.0842022e-19
2.2878785 2 2.3220866
3.6893488e+19 3.0884216 3.6893488e+19
2.3974516 -1.0842022e-19 2.2732449
1.0842022e-19 3.0585213 1.0842022e-19
2.2080662 3.6893488e+19 2.2275963
3.6893488e+19 3.0933592 -1.0842022e-19
2.4032505 -3.6893488e+19 2.2576997
0 3.0829265 0
2.2443011 0 2.2277577
0 3.0917556 1.0842022e-19
2.4013672 -0 2.2241542
-3.6893488e+19 3.0794661 1.0842022e-19
2.2391636 -1.0842022e-19 2.1856182
2 3.0877905 -0
2.3967104 1.0842022e-19 2.1803188
1.0842022e-19 3.0781579 2
2.237221 2 2.1468973
-3.6893488e+19 3.0915759 -0
2.4011562 -2 2.1464121
-0 3.0721753 0
2.2283387 -3.6893488e+19 2.10339
-0 3.0816493 -2
2.389498 -2 2.097326
0 3.1347713 1.0842022e-19
2.5241961 -2 2.1330829
2 3.0637071 -3.6893488e+19
2.3104398 -1.0842022e-19 2.0421433
-0 3.1378753 1.0842022e-19
2.5264082 -2 2.092087
-2 3.0639186 1.0842022e-19
2.3106494 -3.6893488e+19 2.0069523
-1.0842022e-19 3.0920694 1.0842022e-19
2.4875319 -2 2.0128303
-0 3.0650136 0
2.311733 1.0842022e-19 1.9723693
-3.6893488e+19 3.0926349 1.0842022e-19
2.488338 0 1.9743682
-3.6893488e+19 3.0682943 1.0842022e-19
2.3149796 -0 1.9388511
-2 3.0952749 -2
2.4921005 1.0842022e-19 1.9369302
2 3.2320476 3.6893488e+19
2.4770272 -0 1.9817783
0 3.0879042 3.6893488e+19
2.4815953 2 1.8946192
1.0842022e-19 3.0704422 -0
2.3171048 -2 1.8610655
1.0842022e-19 3.0846667 1.0842022e-19
2.4769812 0 1.8356036
-2 3.0710435 -3.6893488e+19
2.3176999 -0 1.7893257
-2 3.085042 3.6893488e+19
2.4775162 2 1.7598966
0 3.0884073 -1.0842022e-19
2.3348827 0 1.6942568
2 3.0575802 2
2.2066691 0 1.5891466
-0 3.0891764 -1.0842022e-19
2.3983381 1.0842022e-19 1.4193246
-1.0842022e-19 3.0560596 3.6893488e+19
2.2044115 -0 -1.369845
-2 3.0869775 1.0842022e-19
2.3957558 -2 -1.5947665
-1.0842022e-19 3.0569201 -1.0842022e-19
2.205689 -1.0842022e-19 -1.6682029
-2 3.0582633 -1.0842022e-19
2.2076833 -1.0842022e-19 -1.7785478
3.6893488e+19 3.081635 2
2.3894813 -3.6893488e+19 -1.8286393
0 3.0791898 0
2.2387531 -2 -1.8627404
1.0842022e-19 3.0811813 0
2.3889484 -2 -1.889038
2 3.0676532 0
2.2216246 1.0842022e-19 -1.9003145
3.6893488e+19 3.0379434 3.6893488e+19
2.3381686 -3.6893488e+19 -1.9033715
-3.6893488e+19 3.0231755 -2
2.1555879 -2 -1.909904
1.0842022e-19 3.0315371 2
2.3306448 -1.0842022e-19 -1.931743
2 2.9549899 2
2.0877652 3.6893488e+19 -1.9086862
-1.0842022e-19 2.8720982 3.6893488e+19
2.1870024 -2 -1.8911133
1.0842022e-19 2.8344281 3.6893488e+19
2.2266409 3.6893488e+19 -1.8869556
2 2.8090675 -0
2.0558486 -3.6893488e+19 -1.8842641
-1.0842022e-19 2.7784624 0
2.1468766 -2 -1.8798548
0 2.7587328 0
2.0060382 -2 -1.8769864
3.6893488e+19 2.7069685 2
2.0756454 -3.6893488e+19 -1.8640816
-3.6893488e+19 2.6739109 -0
1.959748 2 -1.8569739
2 2.6340845 2
2.0237067 2 -1.8478048
1.0842022e-19 2.6169181 3.6893488e+19
1.9315484 3.6893488e+19 -1.8465117
2 2.5857911 -2
1.9892918 -1.0842022e-19 -1.8389202
-3.6893488e+19 2.5697341 1.0842022e-19
1.9082022 2 -1.8361022
3.6893488e+19 2.5515122 2
1.964864 -0 -1.8342751
-1.0842022e-19 2.5317323 0
1.8893992 2 -1.8269606
1.0842022e-19 2.5168917 -3.6893488e+19
1.9401926 3.6893488e+19 -1.8254852
-2 2.5069768 -0
1.8771503 -0 -1.8237771
-1.0842022e-19 2.4766059 3.6893488e+19
1.9198197 -0 -1.8176346
0 2.4578202 3.6893488e+19
1.851526 1.0842022e-19 -1.8150587
2 2.404896 1.0842022e-19
1.7752888 -3.6893488e+19 -1.8097414
0 2.3476698 3.6893488e+19
1.7540476 3.6893488e+19 -1.803387
3.6893488e+19 2.3058579 -2
1.7270559 3.6893488e+19 -1.7993759
0 2.2757092 -0
1.7046747 -2 -1.7979727
-2 2.2396147 2
1.7994549 2 -1.7945745
-1.0842022e-19 2.1953232 1.0842022e-19
1.7836734 -1.0842022e-19 -1.7922459
-3.6893488e+19 2.1584084 -2
1.7705202 -3.6893488e+19 -1.7903767
0 2.1230571 -3.6893488e+19
1.7579241 -1.0842022e-19 -1.7870792
-2 3.1442206 -2
2.4545391 -2 2.6146505
3.6893488e+19 3.163851 -3.6893488e+19
2.2984715 0 2.6243386
-2 3.1465914 2
2.4572728 -2 2.6051049
3.6893488e+19 3.1235282 2
2.2693906 1.0842022e-19 2.5768933
0 3.1455009 -1.0842022e-19
2.4560151 -0 2.5924559
2 3.1634352 0
2.2981718 -2 2.5997124
-3.6893488e+19 3.1439011 -3.6893488e+19
2.4541707 -1.0842022e-19 2.5794802
1.0842022e-19 3.1624768 -1.0842022e-19
2.2974803 0 2.5868576
-1.0842022e-19 3.1450665 -0
2.4555144 -1.0842022e-19 2.5688658
-3.6893488e+19 3.1398361 1.0842022e-19
2.4494839 3.6893488e+19 2.5532382
-2 3.1559601 3.6893488e+19
2.2927806 0 2.5579295
-3.6893488e+19 3.1434517 -0
2.4536526 0 2.5445719
-3.6893488e+19 3.1487007 1.0842022e-19
2.4597049 3.6893488e+19 2.5368974
1.0842022e-19 3.1310546 0
2.517426 0 2.51998
-2 3.1459849 -1.0842022e-19
2.38343 -3.6893488e+19 2.5226274
3.6893488e+19 3.1340892 -3.6893488e+19
2.5195556 1.0842022e-19 2.5109377
1.0842022e-19 3.139926 -2
2.377563 0 2.5071962
3.6893488e+19 3.1336768 -1.0842022e-19
2.5192661 -0 2.4990108
2 3.1418939 2
2.3794687 -3.6893488e+19 2.494411
-3.6893488e+19 3.1337001 -2
2.5192826 -3.6893488e+19 2.4767811
-3.6893488e+19 3.1442757 0
2.3817751 2 2.4747467
-1.0842022e-19 3.1347396 -0
2.5200121 -0 2.4558043
1.0842022e-19 3.1457827 -3.6893488e+19
2.383234 1.0842022e-19 2.4538524
-2 3.1372252 -3.6893488e+19
2.5217564 -1.0842022e-19 2.4363778
2 3.1456122 -2
2.383069 -1.0842022e-19 2.4310074
-0 3.0995362 2
2.4906125 0 2.373754
-3.6893488e+19 3.0831695 1.0842022e-19
2.3226063 2 2.3439357
1.0842022e-19 3.0869393 0
2.3262565 1.0842022e-19 2.3286076
-0 3.1339784 -0
2.2769272 -2 2.3623755
3.6893488e+19 3.1289194 -2
2.4368966 2 2.3490157
1.0842022e-19 3.1378412 2
2.2797132 3.6893488e+19 2.3440197
1.0842022e-19 3.1457882 1.0842022e-19
2.4563465 -2 2.3419826
3.6893488e+19 3.1372325 2
2.2792742 0 2.3215468
-0 3.1448424 -1.0842022e-19
2.455256 1.0842022e-19 2.3186781
-1.0842022e-19 3.0600822 2
2.1972661 3.6893488e+19 2.2298977
3.6893488e+19 3.0955536 0
2.3984258 0 2.259248
3.6893488e+19 3.061151 1.0842022e-19
2.1988077 1.0842022e-19 2.1964023
3.6893488e+19 3.1444292 3.6893488e+19
2.4547796 -2 2.2735126
0 3.0800107 -0
2.2260108 3.6893488e+19 2.1862333
1.0842022e-19 3.1325066 -1.0842022e-19
2.4410326 -0 2.2370977
3.6893488e+19 3.0798194 2
2.2257352 -3.6893488e+19 2.1488111
1.0842022e-19 3.1341574 0
2.4429362 1.0842022e-19 2.1956596
-2 3.1915214 -2
2.3184276 3.6893488e+19 2.2341833
-1.0842022e-19 3.1355131 -0
2.4444993 1.0842022e-19 2.1535821
3.6893488e+19 3.135349 1.0842022e-19
2.5204399 -2 2.1334803
-1.0842022e-19 3.2310872 -0
2.4658341 0 2.1978745
-1.0842022e-19 3.1357501 -2
2.5207212 -2 2.090055
3.6893488e+19 3.2332213 3.6893488e+19
2.4679005 -0 2.1454051
3.6893488e+19 3.0664165 -0
2.3063843 0 1.9732879
0 3.2362137 1.0842022e-19
2.470798 2 2.0383887
-0 3.2520239 -0
2.6037433 2 2.0227625
0 3.2340939 0
2.4687455 -1.0842022e-19 1.9826875
1.0842022e-19 3.0857532 0
2.4712665 0 1.8936321
-3.6893488e+19 3.2362916 -0
2.4708736 -2 1.9290649
2 3.0849142 -3.6893488e+19
2.4700887 1.0842022e-19 1.8356616
-3.6893488e+19 3.0703089 3.6893488e+19
2.3101535 -0 1.7888972
3.6893488e+19 3.0875673 3.6893488e+19
2.4738128 -1.0842022e-19 1.7608503
-0 3.0571249 2
2.1930003 -0 1.5887783
-0 3.2335031 -1.0842022e-19
2.5287411 0 1.4912838
-1.0842022e-19 3.0557284 2
2.1909862 0 -1.3695215
1.0842022e-19 3.2328484 2
2.5283637 -3.6893488e+19 -1.6573894
-1.0842022e-19 3.056309 -0
2.1918235 -1.0842022e-19 -1.6678277
0 3.1799016 -0
2.4956794 -2 -1.7919735
-1.0842022e-19 3.0570924 3.6893488e+19
2.1929536 3.6893488e+19 -1.7779279
0 3.1791439 1.0842022e-19
2.4948058 -2 -1.8817068
3.6893488e+19 3.0543137 -2
2.1889453 -2 -1.8447223
-1.0842022e-19 3.0817404 -1.0842022e-19
2.382499 -2 -1.8892196
0 3.0686316 -1.0842022e-19
2.2095976 -0 -1.9007412
2 3.0810232 -3.6893488e+19
2.3816719 -2 -1.9262505
-2 3.023241 -1.0842022e-19
2.1441259 -2 -1.909904
-1.0842022e-19 3.0304699 3.6893488e+19
2.3233838 2 -1.9309852
3.6893488e+19 2.8716841 -0
2.1785543 2 -1.8909025
0 2.8348291 -0
2.2199693 -2 -1.8870562
3.6893488e+19 2.8095384 1.0842022e-19
2.0497243 1.0842022e-19 -1.8844256
1.0842022e-19 2.7785916 3.6893488e+19
2.1410339 -2 -1.8798548
3.6893488e+19 2.7572055 0
1.9990507 3.6893488e+19 -1.8761964
3.6893488e+19 2.7073033 -0
2.0709376 -2 -1.8641459
-2 2.6741707 3.6893488e+19
1.9553611 3.6893488e+19 -1.8570416
0 2.6407714 0
2.0242453 2 -1.8515787
-1.0842022e-19 2.6153033 -1.0842022e-19
1.9268606 -0 -1.8454661
0 2.5860696 -0
1.9858552 2 -1.8389984
2 2.5698369 -0
1.9048481 2 -1.8361022
2 2.5517747 3.6893488e+19
1.961787 3.6893488e+19 -1.8343602
0 2.5315757 3.6893488e+19
1.886324 1.0842022e-19 -1.8267834
-2 2.5167701 1.0842022e-19
1.9372207 0 -1.8253012
-3.6893488e+19 2.5060711 -1.0842022e-19
1.8729523 3.6893488e+19 -1.8230129
-0 2.4785421 -2
1.9179215 1.0842022e-19 -1.8183275
2 2.457967 -1.0842022e-19
1.8467234 1.0842022e-19 -1.8150587
-2 3.1442206 -2
2.4545391 -2 2.6146505
3.6893488e+19 3.163851 -3.6893488e+19
2.2984715 0 2.6243386
-2 3.1465914 2
2.4572728 -2 2.6051049
3.6893488e+19 3.1235282 2
2.2693906 1.0842022e-19 2.5768933
0 3.1455009 -1.0842022e-19
2.4560151 -0 2.5924559
2 3.1634352 0
2.2981718 -2 2.5997124
-3.6893488e+19 3.1439011 -3.6893488e+19
2.4541707 -1.0842022e-19 2.5794802
0 3.1204178 2
2.2671473 -2 2.5525091
-1.0842022e-19 3.1450665 -0
2.4555144 -1.0842022e-19 2.5688658
-3.6893488e+19 3.1398361 1.0842022e-19
2.4494839 3.6893488e+19 2.5532382
-2 3.1559601 3.6893488e+19
2.2927806 0 2.5579295
-3.6893488e+19 3.1434517 -0
2.4536526 0 2.5445719
-3.6893488e+19 3.1487007 1.0842022e-19
2.4597049 3.6893488e+19 2.5368974
1.0842022e-19 3.1310546 0
2.517426 0 2.51998
-2 3.1459849 -1.0842022e-19
2.38343 -3.6893488e+19 2.5226274
3.6893488e+19 3.1340892 -3.6893488e+19
2.5195556 1.0842022e-19 2.5109377
1.0842022e-19 3.139926 -2
2.377563 0 2.5071962
3.6893488e+19 3.1336768 -1.0842022e-19
2.5192661 -0 2.4990108
2 3.1418939 2
2.3794687 -3.6893488e+19 2.494411
-2 3.0928991 -3.6893488e+19
2.4812965 2 2.4260824
-3.6893488e+19 3.1442757 0
2.3817751 2 2.4747467
-0 3.0924037 -3.6893488e+19
2.4806011 -2 2.4056485
1.0842022e-19 3.1457827 -3.6893488e+19
2.383234 1.0842022e-19 2.4538524
2 3.0880485 -2
2.474488 2 2.3809588
2 3.1456122 -2
2.383069 -1.0842022e-19 2.4310074
-0 3.0995362 2
2.4906125 0 2.373754
-3.6893488e+19 3.0831695 1.0842022e-19
2.3226063 2 2.3439357
1.0842022e-19 3.0869393 0
2.3262565 1.0842022e-19 2.3286076
-1.0842022e-19 3.0621717 3.6893488e+19
2.20028 3.6893488e+19 2.2946088
-3.6893488e+19 3.0889683 3.6893488e+19
2.3908329 -2 2.3122175
1.0842022e-19 3.06143 3.6893488e+19
2.1992099 1.0842022e-19 2.276242
1.0842022e-19 3.1457882 1.0842022e-19
2.4563465 -2 2.3419826
3.6893488e+19 3.0626528 -2
2.2009737 -1.0842022e-19 2.2596178
-1.0842022e-19 3.0891662 0
2.3910611 2 2.2737417
-1.0842022e-19 3.0600822 2
2.1972661 3.6893488e+19 2.2298977
3.6893488e+19 3.0955536 0
2.3984258 0 2.259248
3.6893488e+19 3.061151 1.0842022e-19
2.1988077 1.0842022e-19 2.1964023
1.0842022e-19 3.0925331 3.6893488e+19
2.394943 0 2.2250519
0 3.0800107 -0
2.2260108 3.6893488e+19 2.1862333
2 3.0874877 -0
2.3891256 3.6893488e+19 2.179769
3.6893488e+19 3.0798194 2
2.2257352 -3.6893488e+19 2.1488111
1.0842022e-19 3.091367 -3.6893488e+19
2.3935983 -0 2.1460185
-3.6893488e+19 3.0778418 1.0842022e-19
2.2228827 2 2.1095195
-3.6893488e+19 3.0804176 -3.6893488e+19
2.3809738 -0 2.0959044
3.6893488e+19 3.135349 1.0842022e-19
2.5204399 -2 2.1334803
3.6893488e+19 3.0651705 1.0842022e-19
2.3051779 -3.6893488e+19 2.043412
-1.0842022e-19 3.1357501 -2
2.5207212 -2 2.090055
-3.6893488e+19 3.0650728 -1.0842022e-19
2.3050833 -0 2.0078144
3.6893488e+19 3.0664165 -0
2.3063843 0 1.9732879
-2 3.0697296 3.6893488e+19
2.3095925 3.6893488e+19 1.9396418
-0 3.2520239 -0
2.6037433 2 2.0227625
-0 3.0680053 2
2.3079228 0 1.9028544
1.0842022e-19 3.0857532 0
2.4712665 0 1.8936321
3.6893488e+19 3.072623 1.0842022e-19
2.3123941 -0 1.8625959
2 3.0849142 -3.6893488e+19
2.4700887 1.0842022e-19 1.8356616
-3.6893488e+19 3.0703089 3.6893488e+19
2.3101535 -0 1.7888972
3.6893488e+19 3.0875673 3.6893488e+19
2.4738128 -1.0842022e-19 1.7608503
-0 3.0571249 2
2.1930003 -0 1.5887783
3.6893488e+19 3.0851302 -2
2.3864074 2 1.4172409
-1.0842022e-19 3.0557284 2
2.1909862 0 -1.3695215
-1.0842022e-19 3.084044 -3.6893488e+19
2.385155 1.0842022e-19 -1.5927703
-1.0842022e-19 3.056309 -0
2.1918235 -1.0842022e-19 -1.6678277
-0 3.0826633 -2
2.383563 0 -1.7542063
-1.0842022e-19 3.0570924 3.6893488e+19
2.1929536 3.6893488e+19 -1.7779279
-0 3.0816996 2
2.382452 -0 -1.8286014
3.6893488e+19 3.0543137 -2
2.1889453 -2 -1.8447223
-1.0842022e-19 3.0817404 -1.0842022e-19
2.382499 -2 -1.8892196
0 3.0686316 -1.0842022e-19
2.2095976 -0 -1.9007412
-1.0842022e-19 3.0333543 3.6893488e+19
2.3267095 -1.0842022e-19 -1.9008696
-2 3.023241 -1.0842022e-19
2.1441259 -2 -1.909904
-1.0842022e-19 3.0304699 3.6893488e+19
2.3233838 2 -1.9309852
3.6893488e+19 2.8716841 -0
2.1785543 2 -1.8909025
0 2.8348291 -0
2.2199693 -2 -1.8870562
3.6893488e+19 2.8095384 1.0842022e-19
2.0497243 1.0842022e-19 -1.8844256
1.0842022e-19 2.7785916 3.6893488e+19
2.1410339 -2 -1.8798548
3.6893488e+19 2.7572055 0
1.9990507 3.6893488e+19 -1.8761964
3.6893488e+19 2.7073033 -0
2.0709376 -2 -1.8641459
-2 2.6741707 3.6893488e+19
1.9553611 3.6893488e+19 -1.8570416
0 2.6407714 0
2.0242453 2 -1.8515787
-1.0842022e-19 2.6153033 -1.0842022e-19
1.9268606 -0 -1.8454661
0 2.5860696 -0
1.9858552 2 -1.8389984
2 2.5698369 -0
1.9048481 2 -1.8361022
2 2.5517747 3.6893488e+19
1.961787 3.6893488e+19 -1.8343602
0 2.5315757 3.6893488e+19
1.886324 1.0842022e-19 -1.8267834
-2 2.5167701 1.0842022e-19
1.9372207 0 -1.8253012
-3.6893488e+19 2.5060711 -1.0842022e-19
1.8729523 3.6893488e+19 -1.8230129
-0 2.4785421 -2
1.9179215 1.0842022e-19 -1.8183275
2 2.457967 -1.0842022e-19
1.8467234 1.0842022e-19 -1.8150587
3.6893488e+19 3.1307218 2
2.2665293 1.0842022e-19 2.6055062
-0 3.1434031 -1.0842022e-19
2.4451759 -0 2.6137581
-1.0842022e-19 3.1442628 3.6893488e+19
2.4461489 1.0842022e-19 2.6028879
1.0842022e-19 3.1235545 -2
2.2615116 -3.6893488e+19 2.5768399
3.6893488e+19 3.1467986 -2
2.4490182 3.6893488e+19 2.593451
-3.6893488e+19 3.1610639 3.6893488e+19
2.2877707 -1.0842022e-19 2.5976257
-1.0842022e-19 3.1441395 3.6893488e+19
2.4460094 2 2.5795562
0 3.1626949 -3.6893488e+19
2.2889123 0 2.5869572
-3.6893488e+19 3.1453054 1.0842022e-19
2.4473288 -1.0842022e-19 2.5689392
1.0842022e-19 3.1620784 -1.0842022e-19
2.2884808 -2 2.5744603
3.6893488e+19 3.1408937 2
2.4423363 2 2.553947
-1.0842022e-19 3.1565747 -2
2.2846279 0 2.5583239
-3.6893488e+19 3.1487408 3.6893488e+19
2.4512162 1.0842022e-19 2.54842
1.0842022e-19 3.1484542 3.6893488e+19
2.4508917 -1.0842022e-19 2.5366125
2 3.1307433 -0
2.513093 3.6893488e+19 2.5196362
0 3.1450999 -2
2.3741663 -2 2.5219326
-2 3.1344771 -1.0842022e-19
2.5156732 -1.0842022e-19 2.5110819
2 3.1401708 2
2.3694985 -2 2.5072768
-2 3.1347945 2
2.5158925 -1.0842022e-19 2.500118
2 3.1420169 0
2.3712468 -3.6893488e+19 2.494411
-0 3.134819 2
2.5159094 -0 2.4779532
-3.6893488e+19 3.1448598 -3.6893488e+19
2.373939 -2 2.4753008
-1.0842022e-19 3.1366217 0
2.5171552 -2 2.4578249
0 3.1362431 2
2.5168934 -2 2.4350722
0 3.1425688 1.0842022e-19
2.3717694 3.6893488e+19 2.4275575
-1.0842022e-19 3.0876143 1.0842022e-19
2.3197267 -3.6893488e+19 2.3484147
2 3.1413224 -0
2.5204031 -0 2.3957317
3.6893488e+19 3.0863056 -1.0842022e-19
2.3184872 -0 2.3278866
-2 3.1335731 -1.0842022e-19
2.2685254 -3.6893488e+19 2.3619087
0 3.0903866 0
2.3851824 2 2.3134065
-1.0842022e-19 3.1375911 -1.0842022e-19
2.2713382 3.6893488e+19 2.3437178
3.6893488e+19 3.1455672 0
2.4476249 2 2.3416638
-1.0842022e-19 3.1352789 -0
2.2697196 -1.0842022e-19 2.31985
2 3.1451135 -0
2.4471114 -3.6893488e+19 2.3187773
0 3.1601515 -1.0842022e-19
2.2871318 0 2.3173108
-3.6893488e+19 3.1475046 0
2.4498174 -3.6893488e+19 2.2981119
-2 3.0614405 3.6893488e+19
2.1860561 -3.6893488e+19 2.1967134
-2 3.1447618 -3.6893488e+19
2.4467134 -0 2.2736409
-2 3.1356418 -2
2.4363933 0 2.2409067
-0 3.1351962 -0
2.435889 -0 2.1966975
0 3.1921835 -0
2.3095562 1.0842022e-19 2.2347963
-1.0842022e-19 3.1344841 -2
2.4350832 1.0842022e-19 2.1523542
-2 3.1354327 1.0842022e-19
2.5163336 1.0842022e-19 2.1333888
-1.0842022e-19 3.238488 0
2.4626067 3.6893488e+19 2.2046216
-3.6893488e+19 3.2383628 1.0842022e-19
2.4624882 -3.6893488e+19 2.1494868
2 3.0667949 2
2.3000102 2 1.9734848
3.6893488e+19 3.0899351 -2
2.4697893 -0 1.9723954
1.0842022e-19 3.0687757 0
2.3018861 -2 1.9390166
1.0842022e-19 3.2524469 -2
2.5988808 -2 2.0230954
-1.0842022e-19 3.0661509 -2
2.2994003 -3.6893488e+19 1.9019153
-1.0842022e-19 3.0871069 -2
2.4658809 2 1.8941454
-2 3.0718865 2
2.3048322 2 1.8619792
3.6893488e+19 3.0865757 3.6893488e+19
2.4651468 -1.0842022e-19 1.8366101
-3.6893488e+19 3.0677099 -1.0842022e-19
2.3008769 -2 1.7875162
0 3.0860896 0
2.4644749 -3.6893488e+19 1.7601938
-1.0842022e-19 3.0987246 3.6893488e+19
2.2382586 2 1.6176778
3.6893488e+19 3.2324774 -3.6893488e+19
2.5229862 2 1.4906818
-2 3.0555506 -2
2.1778095 3.6893488e+19 -1.3693223
2 3.2336171 3.6893488e+19
2.5236311 -2 -1.657581
0 3.0987794 -1.0842022e-19
2.2383351 0 -1.6910529
-2 3.0820143 -0
2.3757083 -3.6893488e+19 -1.7539059
0 3.05567 2
2.1779766 3.6893488e+19 -1.777184
-0 3.0810504 1.0842022e-19
2.3746176 -0 -1.8281268
-3.6893488e+19 3.0520813 -1.0842022e-19
2.1729522 -0 -1.8430598
0 3.0680835 1.0842022e-19
2.1953571 2 -1.9004469
2 3.0814564 -3.6893488e+19
2.3750768 -0 -1.9264151
2 3.0162427 -1.0842022e-19
2.1227734 2 -1.9057722
-1.0842022e-19 3.0288126 0
2.3155053 3.6893488e+19 -1.9298484
-0 2.8835683 0
2.184047 1.0842022e-19 -1.8953533
-2 2.8317833 -0
2.2085238 -3.6893488e+19 -1.8857476
2 2.8079622 1.0842022e-19
2.0416455 0 -1.8836992
3.6893488e+19 2.7777965 -1.0842022e-19
2.133914 1.0842022e-19 -1.8794252
1.0842022e-19 2.7567906 2
1.9931852 0 -1.8759533
-1.0842022e-19 2.7068975 3.6893488e+19
2.0657156 -3.6893488e+19 -1.8638246
0 2.6731894 -0
1.9503838 -3.6893488e+19 -1.856432
0 2.638124 -0
2.018193 -3.6893488e+19 -1.8499409
2 2.6152942 -0
1.9229699 0 -1.8453915
0 2.5867143 -2
1.982669 -2 -1.839311
-2 2.5693185 -3.6893488e+19
1.9012001 2 -1.8356941
-3.6893488e+19 2.5515442 1.0842022e-19
1.9583668 -1.0842022e-19 -1.8341049
3.6893488e+19 2.5317876 -3.6893488e+19
1.8834288 1.0842022e-19 -1.826872
-0 2.5162787 -2
1.9339982 0 -1.8248409
-1.0842022e-19 2.5060279 1.0842022e-19
1.867463 -3.6893488e+19 -1.8229173
-0 2.4792509 2
1.9155809 -3.6893488e+19 -1.8185254
-3.6893488e+19 2.4586046 1.0842022e-19
1.8421533 0 -1.8152636
-2 2.4038501 -0
1.7663603 3.6893488e+19 -1.8091772
-3.6893488e+19 2.3468459 -2
1.7428141 1.0842022e-19 -1.8028803
2 2.3084683 -2
1.7159473 -0 -1.800781
-2 2.2721484 -0
1.6905211 0 -1.7956582
2 2.2337515 1.0842022e-19
1.7921358 -2 -1.7923896
-3.6893488e+19 2.1947641 -3.6893488e+19
1.7786657 -2 -1.7918823
0 2.1616838 0
1.7672365 -2 -1.7915496
-2 2.1224368 -0
1.7536767 0 -1.786661
3.6893488e+19 3.1307218 2
2.2665293 1.0842022e-19 2.6055062
-0 3.1434031 -1.0842022e-19
2.4451759 -0 2.6137581
-1.0842022e-19 3.1442628 3.6893488e+19
2.4461489 1.0842022e-19 2.6028879
1.0842022e-19 3.1235545 -2
2.2615116 -3.6893488e+19 2.5768399
3.6893488e+19 3.1467986 -2
2.4490182 3.6893488e+19 2.593451
-3.6893488e+19 3.1610639 3.6893488e+19
2.2877707 -1.0842022e-19 2.5976257
-1.0842022e-19 3.1441395 3.6893488e+19
2.4460094 2 2.5795562
1.0842022e-19 3.1198025 -3.6893488e+19
2.2588849 0 2.5519364
-3.6893488e+19 3.1453054 1.0842022e-19
2.4473288 -1.0842022e-19 2.5689392
1.0842022e-19 3.1620784 -1.0842022e-19
2.2884808 -2 2.5744603
3.6893488e+19 3.1408937 2
2.4423363 2 2.553947
-1.0842022e-19 3.1565747 -2
2.2846279 0 2.5583239
-3.6893488e+19 3.1487408 3.6893488e+19
2.4512162 1.0842022e-19 2.54842
1.0842022e-19 3.1484542 3.6893488e+19
2.4508917 -1.0842022e-19 2.5366125
-0 3.089062 0
2.4685829 0 2.4802365
0 3.1450999 -2
2.3741663 -2 2.5219326
-1.0842022e-19 3.0922906 2
2.4730449 3.6893488e+19 2.46487
2 3.1401708 2
2.3694985 -2 2.5072768
-2 3.1347945 2
2.5158925 -1.0842022e-19 2.500118
2 3.1420169 0
2.3712468 -3.6893488e+19 2.494411
2 3.0891595 0
2.4687176 -2 2.421243
-3.6893488e+19 3.1448598 -3.6893488e+19
2.373939 -2 2.4753008
2 3.0928953 3.6893488e+19
2.4738803 -0 2.4060454
-3.6893488e+19 3.0881722 0
2.4673533 2 2.3809245
0 3.1425688 1.0842022e-19
2.3717694 3.6893488e+19 2.4275575
-1.0842022e-19 3.0876143 1.0842022e-19
2.3197267 -3.6893488e+19 2.3484147
2 3.1413224 -0
2.5204031 -0 2.3957317
3.6893488e+19 3.0863056 -1.0842022e-19
2.3184872 -0 2.3278866
0 3.0587199 -1.0842022e-19
2.1822467 -1.0842022e-19 2.2912831
0 3.0903866 0
2.3851824 2 2.3134065
-0 3.0617809 -0
2.1865327 0 2.276489
1.0842022e-19 3.0919101 1.0842022e-19
2.3869064 0 2.2953186
-2 3.0570278 0
2.179878 -3.6893488e+19 2.2548876
-3.6893488e+19 3.0912328 1.0842022e-19
2.3861401 1.0842022e-19 2.2753067
3.6893488e+19 3.0604954 -3.6893488e+19
2.1847327 -0 2.2304251
2 3.0962377 -3.6893488e+19
2.3918033 -0 2.2596638
-2 3.0614405 3.6893488e+19
2.1860561 -3.6893488e+19 2.1967134
2 3.0961142 -2
2.3916636 3.6893488e+19 2.2298386
0 3.0792239 2
2.3725505 -0 2.1690886
2 3.0763104 3.6893488e+19
2.3692536 0 2.1284099
0 3.1921835 -0
2.3095562 1.0842022e-19 2.2347963
-2 3.0802944 1.0842022e-19
2.3737621 2 2.0956459
-1.0842022e-19 3.0927401 2
2.473666 -1.0842022e-19 2.0909224
-2 3.0643709 3.6893488e+19
2.2977147 -1.0842022e-19 2.0425758
-1.0842022e-19 3.0656676 1.0842022e-19
2.2989428 -3.6893488e+19 2.00822
2 3.0667949 2
2.3000102 2 1.9734848
3.6893488e+19 3.0899351 -2
2.4697893 -0 1.9723954
1.0842022e-19 3.0687757 0
2.3018861 -2 1.9390166
1.0842022e-19 3.0850365 -3.6893488e+19
2.4630194 -1.0842022e-19 1.9312202
-1.0842022e-19 3.0661509 -2
2.2994003 -3.6893488e+19 1.9019153
-1.0842022e-19 3.0871069 -2
2.4658809 2 1.8941454
-2 3.0718865 2
2.3048322 2 1.8619792
3.6893488e+19 3.0865757 3.6893488e+19
2.4651468 -1.0842022e-19 1.8366101
-3.6893488e+19 3.0677099 -1.0842022e-19
2.3008769 -2 1.7875162
0 3.0860896 0
2.4644749 -3.6893488e+19 1.7601938
2 3.0567296 -1.0842022e-19
2.17946 -2 1.5884533
3.6893488e+19 3.0898042 0
2.3845234 -3.6893488e+19 1.4195098
-2 3.0555506 -2
2.1778095 3.6893488e+19 -1.3693223
0 3.0864279 -3.6893488e+19
2.3807025 -3.6893488e+19 -1.5942422
-0 3.0568473 -1.0842022e-19
2.179625 3.6893488e+19 -1.6680835
-2 3.0820143 -0
2.3757083 -3.6893488e+19 -1.7539059
0 3.05567 2
2.1779766 3.6893488e+19 -1.777184
-0 3.0810504 1.0842022e-19
2.3746176 -0 -1.8281268
-3.6893488e+19 3.0520813 -1.0842022e-19
2.1729522 -0 -1.8430598
0 3.0680835 1.0842022e-19
2.1953571 2 -1.9004469
2 3.0331821 -0
2.3204496 0 -1.9007215
2 3.0162427 -1.0842022e-19
2.1227734 2 -1.9057722
-1.0842022e-19 3.0288126 0
2.3155053 3.6893488e+19 -1.9298484
-0 2.8835683 0
2.184047 1.0842022e-19 -1.8953533
-2 2.8317833 -0
2.2085238 -3.6893488e+19 -1.8857476
2 2.8079622 1.0842022e-19
2.0416455 0 -1.8836992
3.6893488e+19 2.7777965 -1.0842022e-19
2.133914 1.0842022e-19 -1.8794252
1.0842022e-19 2.7567906 2
1.9931852 0 -1.8759533
-1.0842022e-19 2.7068975 3.6893488e+19
2.0657156 -3.6893488e+19 -1.8638246
0 2.6731894 -0
1.9503838 -3.6893488e+19 -1.856432
0 2.638124 -0
2.018193 -3.6893488e+19 -1.8499409
2 2.6152942 -0
1.9229699 0 -1.8453915
0 2.5867143 -2
1.982669 -2 -1.839311
-2 2.5693185 -3.6893488e+19
1.9012001 2 -1.8356941
-3.6893488e+19 2.5515442 1.0842022e-19
1.9583668 -1.0842022e-19 -1.8341049
3.6893488e+19 2.5317876 -3.6893488e+19
1.8834288 1.0842022e-19 -1.826872
-0 2.5162787 -2
1.9339982 0 -1.8248409
-1.0842022e-19 2.5060279 1.0842022e-19
1.867463 -3.6893488e+19 -1.8229173
-0 2.4792509 2
1.9155809 -3.6893488e+19 -1.8185254
-3.6893488e+19 2.4586046 1.0842022e-19
1.8421533 0 -1.8152636
-2 2.4038501 -0
1.7663603 3.6893488e+19 -1.8091772
-3.6893488e+19 2.3468459 -2
1.7428141 1.0842022e-19 -1.8028803
2 2.3084683 -2
1.7159473 -0 -1.800781
-2 2.2721484 -0
1.6905211 0 -1.7956582
2 2.2337515 1.0842022e-19
1.7921358 -2 -1.7923896
-3.6893488e+19 2.1947641 -3.6893488e+19
1.7786657 -2 -1.7918823
0 2.1616838 0
1.7672365 -2 -1.7915496
-2 2.1224368 -0
1.7536767 0 -1.786661
1.0842022e-19 3.1451161 0
2.2682521 2 2.6072283
-0 3.143199 -3.6893488e+19
2.4365306 -1.0842022e-19 2.6018062
1.0842022e-19 3.123426 2
2.2535262 -0 2.5766537
3.6893488e+19 3.146884 0
2.4406219 -2 2.5933986
2 3.1612179 -1.0842022e-19
2.2791839 -1.0842022e-19 2.5976772
-2 3.1450119 1.0842022e-19
2.4385436 -1.0842022e-19 2.5801642
-2 3.1621473 3.6893488e+19
2.279815 1.0842022e-19 2.5864341
1.0842022e-19 3.1449349 -2
2.4384577 1.0842022e-19 2.5685232
2 3.1591771 0
2.2777984 -2 2.572103
0 3.1414022 -2
2.4345357 3.6893488e+19 2.5542305
-2 3.1591756 2
2.2777975 -1.0842022e-19 2.560226
2 3.2098498 1.0842022e-19
2.5052633 0 2.5940278
0 3.1483874 -0
2.4422908 3.6893488e+19 2.5364592
1.0842022e-19 3.0890324 -3.6893488e+19
2.4612172 -1.0842022e-19 2.4799786
-3.6893488e+19 3.1510043 0
2.3712268 -2 2.5259118
-3.6893488e+19 3.1347108 -1.0842022e-19
2.5116789 -1.0842022e-19 2.5111232
1.0842022e-19 3.1730537 -2
2.5377595 -1.0842022e-19 2.524863
-0 3.1419532 -1.0842022e-19
2.3628476 -2 2.494179
-1.0842022e-19 3.139286 3.6893488e+19
2.514791 3.6893488e+19 2.483284
-2 3.1446741 -0
2.3653665 0 2.4749315
-2 3.0919824 -3.6893488e+19
2.4652305 3.6893488e+19 2.4047825
-0 3.089484 -3.6893488e+19
2.4618316 2 2.38223
-2 3.142597 -0
2.3634436 1.0842022e-19 2.4274571
-2 3.1444354 -2
2.3651454 -3.6893488e+19 2.4069285
-2 3.1426208 0
2.3634658 -3.6893488e+19 2.3826745
3.6893488e+19 3.1256812 2
2.2550573 0 2.3543825
0 3.1423943 2
2.4356372 1.0842022e-19 2.3611591
3.6893488e+19 3.1357908 -1.0842022e-19
2.2619209 -1.0842022e-19 2.3420439
0 3.1442354 2
2.4376812 2 2.3403883
-2 3.136512 -1.0842022e-19
2.2624106 1.0842022e-19 2.3208013
-1.0842022e-19 3.1457822 0
2.4393988 0 2.3191998
-3.6893488e+19 3.1583533 -2
2.2772391 2 2.3158484
3.6893488e+19 3.1466646 -0
2.4403782 -2 2.2973726
2 3.1365044 -0
2.2624054 -2 2.2771277
0 3.1445987 2
2.4380846 2 2.2734272
3.6893488e+19 3.1169674 2
2.2482829 -1.0842022e-19 2.234863
-0 3.1297133 3.6893488e+19
2.2577949 -2 2.2089312
2 3.1373756 -2
2.4300654 0 2.1990597
1.0842022e-19 3.1913204 2
2.2996211 -1.0842022e-19 2.2337406
2 3.1395986 3.6893488e+19
2.4325335 1.0842022e-19 2.1575565
-0 3.1346221 3.6893488e+19
2.5116186 -0 2.1324103
-2 3.2341442 1.0842022e-19
2.4481928 3.6893488e+19 2.2004406
-1.0842022e-19 3.0797122 0
2.4485383 -2 2.0403919
-3.6893488e+19 3.2340484 0
2.4481041 2 2.1458361
1.0842022e-19 3.0824139 3.6893488e+19
2.4522135 2 2.0050619
-2 3.2345181 -2
2.4485388 -2 2.091701
-2 3.0890105 -0
2.4611876 3.6893488e+19 1.9716909
-1.0842022e-19 3.2319243 3.6893488e+19
2.4461377 3.6893488e+19 2.0356672
-0 3.2532377 3.6893488e+19
2.5945029 0 2.023828
0 3.0664964 0
2.292994 1.0842022e-19 1.9020346
2 3.0859652 -0
2.4570446 -2 1.8935925
1.0842022e-19 3.2365007 -1.0842022e-19
2.4503741 2 1.9290307
-2 3.0662556 -2
2.2927711 3.6893488e+19 1.7867227
2 3.0837762 -2
2.4540668 -1.0842022e-19 1.759203
3.6893488e+19 3.075999 -2
2.301791 -1.0842022e-19 1.6869578
1.0842022e-19 3.0551486 -3.6893488e+19
2.1643426 0 1.5873052
1.0842022e-19 3.2309215 3.6893488e+19
2.5169601 3.6893488e+19 1.4898174
-2 3.0550592 -0
2.1642215 -2 -1.3688742
-0 3.2321234 0
2.5176275 -2 -1.6570365
0 3.0982978 -3.6893488e+19
2.2229323 2 -1.6907459
-1.0842022e-19 3.085572 3.6893488e+19
2.3725531 1.0842022e-19 -1.7552394
-1.0842022e-19 3.096525 -3.6893488e+19
2.2205253 0 -1.7974856
2 3.080677 3.6893488e+19
2.3671186 -3.6893488e+19 -1.827823
2 3.0528035 2
2.1611586 1.0842022e-19 -1.8435316
2 3.0697024 -1.0842022e-19
2.3549345 0 -1.8840683
-0 3.0981283 1.0842022e-19
2.2227025 2 -1.9146203
-2 3.0819185 -2
2.3684969 2 -1.9265962
-1.0842022e-19 3.0199125 1.0842022e-19
2.116498 2 -1.9078836
2 3.0280492 -0
2.308691 1.0842022e-19 -1.9292901
0 2.8703523 -3.6893488e+19
2.161166 1.0842022e-19 -1.8902935
1.0842022e-19 2.8345172 -2
2.2050748 -1.0842022e-19 -1.8868046
-3.6893488e+19 2.8076227 -1.0842022e-19
2.0347793 0 -1.8835108
1.0842022e-19 2.7767527 0
2.1264925 3.6893488e+19 -1.8788809
0 2.7586048 -2
1.9894012 3.6893488e+19 -1.8768041
-0 2.70698 -2
2.0608361 -3.6893488e+19 -1.8637604
-1.0842022e-19 2.672576 0
1.9455982 1.0842022e-19 -1.8560257
-2 2.6375608 -1.0842022e-19
2.0136175 -3.6893488e+19 -1.8495136
3.6893488e+19 2.6152825 -0
1.9190787 3.6893488e+19 -1.8453168
2 2.5856371 -1.0842022e-19
1.9782991 3.6893488e+19 -1.8385295
0 2.5675604 -1.0842022e-19
1.8969895 -1.0842022e-19 -1.8344696
-3.6893488e+19 2.5513115 0
1.9549512 0 -1.8338497
2 2.5302663 -0
1.8797271 3.6893488e+19 -1.8257204
-0 2.5168893 1.0842022e-19
1.9315373 -3.6893488e+19 -1.825209
3.6893488e+19 2.5061066 -2
1.8620887 -3.6893488e+19 -1.8229173
-0 2.4802022 -1.0842022e-19
1.9133159 1.0842022e-19 -1.8188225
3.6893488e+19 2.4584985 3.6893488e+19
1.8372257 -0 -1.8151611
1.0842022e-19 3.1451161 0
2.2682521 2 2.6072283
-0 3.143199 -3.6893488e+19
2.4365306 -1.0842022e-19 2.6018062
1.0842022e-19 3.123426 2
2.2535262 -0 2.5766537
3.6893488e+19 3.146884 0
2.4406219 -2 2.5933986
2 3.1612179 -1.0842022e-19
2.2791839 -1.0842022e-19 2.5976772
-2 3.1450119 1.0842022e-19
2.4385436 -1.0842022e-19 2.5801642
-0 3.1184213 3.6893488e+19
2.2501285 2 2.5507407
1.0842022e-19 3.1449349 -2
2.4384577 1.0842022e-19 2.5685232
2 3.1591771 0
2.2777984 -2 2.572103
0 3.1414022 -2
2.4345357 3.6893488e+19 2.5542305
-2 3.1591756 2
2.2777975 -1.0842022e-19 2.560226
2 3.146544 -1.0842022e-19
2.4402442 3.6893488e+19 2.5466666
0 3.1483874 -0
2.4422908 3.6893488e+19 2.5364592
1.0842022e-19 3.0890324 -3.6893488e+19
2.4612172 -1.0842022e-19 2.4799786
-3.6893488e+19 3.1510043 0
2.3712268 -2 2.5259118
-2 3.0896795 -3.6893488e+19
2.4620976 -2 2.4611163
2 3.1388614 -2
2.514502 -0 2.5026479
-0 3.1419532 -1.0842022e-19
2.3628476 -2 2.494179
0 3.088764 -2
2.4608519 -0 2.4205625
-0 3.0969939 -2
2.3212268 -2 2.4175553
-2 3.0919824 -3.6893488e+19
2.4652305 3.6893488e+19 2.4047825
-0 3.089484 -3.6893488e+19
2.4618316 2 2.38223
-2 3.142597 -0
2.3634436 1.0842022e-19 2.4274571
-1.0842022e-19 3.0887649 -3.6893488e+19
2.3136089 0 2.3494949
-2 3.0863163 -1.0842022e-19
2.3113422 -0 2.3277965
1.0842022e-19 3.072737 1.0842022e-19
2.188225 -0 2.3044398
0 3.0898659 3.6893488e+19
2.3773201 0 2.3128121
2 3.0749743 1.0842022e-19
2.191263 -1.0842022e-19 2.2881236
-0 3.091728 -2
2.3793874 3.6893488e+19 2.2950528
2 3.0538762 3.6893488e+19
2.1626151 2 2.2522142
0 3.0673652 0
2.3523397 3.6893488e+19 2.2559559
-3.6893488e+19 3.0603485 3.6893488e+19
2.1714036 -2 2.2300894
-0 3.0659447 0
2.3507628 -0 2.2237167
2 3.0612009 -2
2.1725607 3.6893488e+19 2.1962688
0 3.0664191 -2
2.3512893 -2 2.1885092
3.6893488e+19 3.1169674 2
2.2482829 -1.0842022e-19 2.234863
-0 3.0981662 0
2.222754 -2 2.1708026
3.6893488e+19 3.0709348 3.6893488e+19
2.3563027 -0 2.1220391
1.0842022e-19 3.1300898 0
2.2580504 -3.6893488e+19 2.1666243
0 3.0830724 2
2.3697779 -2 2.0984247
-3.6893488e+19 3.0857909 -3.6893488e+19
2.4568076 -1.0842022e-19 2.0838599
-3.6893488e+19 3.0642195 0
2.2908864 1.0842022e-19 2.0423453
-1.0842022e-19 3.0797122 0
2.4485383 -2 2.0403919
-1.0842022e-19 3.0678108 1.0842022e-19
2.2942109 1.0842022e-19 2.0098934
1.0842022e-19 3.0824139 3.6893488e+19
2.4522135 2 2.0050619
2 3.0660548 -2
2.2925851 -0 1.9728942
-2 3.0890105 -0
2.4611876 3.6893488e+19 1.9716909
-3.6893488e+19 3.0675395 -3.6893488e+19
2.2939596 -2 1.9382259
-1.0842022e-19 3.0866034 -3.6893488e+19
2.4579129 2 1.931986
0 3.0664964 0
2.292994 1.0842022e-19 1.9020346
2 3.0859652 -0
2.4570446 -2 1.8935925
1.0842022e-19 3.2365007 -1.0842022e-19
2.4503741 2 1.9290307
-2 3.0662556 -2
2.2927711 3.6893488e+19 1.7867227
2 3.0837762 -2
2.4540668 -1.0842022e-19 1.759203
3.6893488e+19 3.075999 -2
2.301791 -1.0842022e-19 1.6869578
1.0842022e-19 3.0551486 -3.6893488e+19
2.1643426 0 1.5873052
-0 3.0899291 1.0842022e-19
2.3773904 -3.6893488e+19 1.4195098
-2 3.0550592 -0
2.1642215 -2 -1.3688742
-2 3.0890896 3.6893488e+19
2.3764584 1.0842022e-19 -1.5958958
-0 3.0566053 -2
2.1663208 -3.6893488e+19 -1.667913
-1.0842022e-19 3.085572 3.6893488e+19
2.3725531 1.0842022e-19 -1.7552394
3.6893488e+19 3.0566108 -3.6893488e+19
2.1663282 -0 -1.7776179
2 3.080677 3.6893488e+19
2.3671186 -3.6893488e+19 -1.827823
2 3.0528035 2
2.1611586 1.0842022e-19 -1.8435316
2 3.0697024 -1.0842022e-19
2.3549345 0 -1.8840683
-2 3.0665057 3.6893488e+19
2.179764 -2 -1.8996668
-2 3.0316465 -3.6893488e+19
2.3126848 0 -1.8998492
-1.0842022e-19 3.0199125 1.0842022e-19
2.116498 2 -1.9078836
2 3.0280492 -0
2.308691 1.0842022e-19 -1.9292901
0 2.8703523 -3.6893488e+19
2.161166 1.0842022e-19 -1.8902935
1.0842022e-19 2.8345172 -2
2.2050748 -1.0842022e-19 -1.8868046
-3.6893488e+19 2.8076227 -1.0842022e-19
2.0347793 0 -1.8835108
1.0842022e-19 2.7767527 0
2.1264925 3.6893488e+19 -1.8788809
0 2.7586048 -2
1.9894012 3.6893488e+19 -1.8768041
-0 2.70698 -2
2.0608361 -3.6893488e+19 -1.8637604
-1.0842022e-19 2.672576 0
1.9455982 1.0842022e-19 -1.8560257
-2 2.6375608 -1.0842022e-19
2.0136175 -3.6893488e+19 -1.8495136
3.6893488e+19 2.6152825 -0
1.9190787 3.6893488e+19 -1.8453168
2 2.5856371 -1.0842022e-19
1.9782991 3.6893488e+19 -1.8385295
0 2.5675604 -1.0842022e-19
1.8969895 -1.0842022e-19 -1.8344696
-3.6893488e+19 2.5513115 0
1.9549512 0 -1.8338497
2 2.5302663 -0
1.8797271 3.6893488e+19 -1.8257204
-0 2.5168893 1.0842022e-19
1.9315373 -3.6893488e+19 -1.825209
3.6893488e+19 2.5061066 -2
1.8620887 -3.6893488e+19 -1.8229173
-0 2.4802022 -1.0842022e-19
1.9133159 1.0842022e-19 -1.8188225
3.6893488e+19 2.4584985 3.6893488e+19
1.8372257 -0 -1.8151611
2 3.1436129 3.6893488e+19
2.4285774 3.6893488e+19 2.6020496
0 3.1234469 3.6893488e+19
2.2413042 2 2.5766006
-1.0842022e-19 3.14627 -2
2.4314706 -1.0842022e-19 2.5927439
1.0842022e-19 3.1451848 0
2.430289 -3.6893488e+19 2.5801895
2 3.1188684 1.0842022e-19
2.2352808 0 2.5510397
2 3.143559 3.6893488e+19
2.4285188 0 2.5672991
-0 3.1164787 1.0842022e-19
2.232137 -1.0842022e-19 2.5384278
0 3.1436718 1.0842022e-19
2.4286416 -3.6893488e+19 2.5558841
-0 3.2098937 -2
2.5003729 -3.6893488e+19 2.5939364
2 3.1451776 3.6893488e+19
2.4302812 -0 2.5340488
-0 3.0883322 3.6893488e+19
2.4529657 -1.0842022e-19 2.4787755
1.0842022e-19 3.1502984 0
2.3620663 -0 2.5253434
0 3.0883708 -1.0842022e-19
2.4530172 2 2.4591365
-0 3.1493251 2
2.361186 0 2.5131536
2 3.1418638 2
2.5123174 0 2.5044861
1.0842022e-19 3.1423163 -0
2.3548465 3.6893488e+19 2.4944885
1.0842022e-19 3.1407075 -0
2.5115433 -2 2.484834
2 3.1446698 -3.6893488e+19
2.3569751 2 2.4747837
0 3.0919509 2
2.4578104 3.6893488e+19 2.404566
2 3.1603196 -1.0842022e-19
2.3711302 -2 2.470089
2 3.0895121 -3.6893488e+19
2.4545453 -2 2.3820925
-0 3.1425917 -0
2.3550956 0 2.4273231
0 3.0893128 2
2.4542785 -1.0842022e-19 2.3623331
1.0842022e-19 3.1442151 -3.6893488e+19
2.3565638 2 2.4065793
-0 3.1427078 0
2.3552008 -3.6893488e+19 2.3826444
-1.0842022e-19 3.0742614 -0
2.1765962 2 2.3058109
-0 3.1529036 2
2.4386935 -0 2.3706982
0 3.1396213 -0
2.2562914 -3.6893488e+19 2.3453641
2 3.1433306 2
2.4282701 -0 2.3394847
-3.6893488e+19 3.1614115 -0
2.2706251 2 2.3413928
-2 3.14574 -0
2.4308937 0 2.3190508
1.0842022e-19 3.1603961 3.6893488e+19
2.2699571 1.0842022e-19 2.3173587
2 3.1455743 2
2.4307132 1.0842022e-19 2.2964485
2 3.1373646 -2
2.254807 -0 2.2776837
3.6893488e+19 3.0683842 -3.6893488e+19
2.3466661 -1.0842022e-19 2.1910737
-2 3.1317554 1.0842022e-19
2.4156668 1.0842022e-19 2.2356057
1.0842022e-19 3.1288028 -3.6893488e+19
2.2483501 -1.0842022e-19 2.2077303
2 3.0704019 -0
2.3488631 1.0842022e-19 2.1212876
-1.0842022e-19 3.1299865 -0
2.2499077 -3.6893488e+19 2.16642
-1.0842022e-19 3.0797625 -0
2.3590553 1.0842022e-19 2.0948381
-3.6893488e+19 3.0858471 3.6893488e+19
2.4496388 0 2.0837684
3.6893488e+19 3.2360566 0
2.4396338 -2 2.2020841
1.0842022e-19 3.0805044 -2
2.4424856 1.0842022e-19 2.040961
0 3.2466607 -1.0842022e-19
2.4492249 2 2.156028
-0 3.0821607 0
2.4447033 -3.6893488e+19 2.0047548
-2 3.2429154 -1.0842022e-19
2.4458375 -1.0842022e-19 2.0975189
3.6893488e+19 3.0910699 -3.6893488e+19
2.4566309 -3.6893488e+19 1.9729389
0 3.2258008 0
2.4303575 -1.0842022e-19 2.0319526
-3.6893488e+19 3.2530262 -1.0842022e-19
2.5887566 -2 2.0234783
-1.0842022e-19 3.0668085 0
2.2865505 3.6893488e+19 1.9021389
-1.0842022e-19 3.088517 1.0842022e-19
2.4532132 2 1.8946192
2 3.2366157 -3.6893488e+19
2.4401393 -0 1.9290192
-1.0842022e-19 3.2427413 1.0842022e-19
2.5798459 -3.6893488e+19 1.9047587
2 3.236495 2
2.4400303 -1.0842022e-19 1.8737028
-3.6893488e+19 3.0846326 -0
2.4480128 -0 1.7594879
-1.0842022e-19 3.0742648 0
2.2932947 -3.6893488e+19 1.6859075
-1.0842022e-19 3.0535336 2
2.1493268 -1.0842022e-19 1.5861353
1.0842022e-19 3.2355537 -2
2.5143425 -0 1.49204
2 3.053164 -0
2.1488404 2 -1.367306
2 3.210901 -2
2.5009212 3.6893488e+19 -1.65007
-3.6893488e+19 3.0562053 1.0842022e-19
2.1528418 3.6893488e+19 -1.6676573
3.6893488e+19 3.208056 -2
2.498745 3.6893488e+19 -1.8027127
-3.6893488e+19 3.0578301 -3.6893488e+19
2.1549792 -0 -1.7781913
2 3.0519669 0
2.1472657 -3.6893488e+19 -1.84288
-0 3.0773084 0
2.3563833 -3.6893488e+19 -1.8872083
-1.0842022e-19 3.0553055 -2
2.1516578 0 -1.894339
-3.6893488e+19 3.0819762 -1.0842022e-19
2.3614657 1.0842022e-19 -1.9265633
3.6893488e+19 3.0236132 -0
2.1099637 -2 -1.9100132
-0 3.0285826 -2
2.303329 2 -1.9295692
-2 2.8741972 1.0842022e-19
2.1574373 3.6893488e+19 -1.891699
2 2.8372509 -0
2.2015181 2 -1.8878616
-3.6893488e+19 2.8082731 3.6893488e+19
2.0288303 3.6893488e+19 -1.8837529
-1.0842022e-19 2.7777982 0
2.1219218 0 -1.8793106
3.6893488e+19 2.7589922 1.0842022e-19
1.9842561 -2 -1.876956
-2 2.7079203 -3.6893488e+19
2.0565362 -2 -1.8641459
-2 2.6713395 -1.0842022e-19
1.9405489 2 -1.8552806
2 2.6381013 3.6893488e+19
2.0097988 -3.6893488e+19 -1.8497273
2 2.6156399 0
1.915359 -0 -1.8454661
-1.0842022e-19 2.5859084 1.0842022e-19
1.9748604 0 -1.8386077
1.0842022e-19 2.5674081 2
1.8935463 0 -1.8343064
2 2.550585 2
1.9512146 3.6893488e+19 -1.8332539
2 2.530103 -1.0842022e-19
1.8766752 3.6893488e+19 -1.8255433
-2 2.5183578 2
1.9296414 -2 -1.8262216
3.6893488e+19 2.5063071 3.6893488e+19
1.8568275 3.6893488e+19 -1.8230129
-0 2.4777157 -0
1.9098938 -3.6893488e+19 -1.8177335
-2 2.4566591 -2
1.831522 -2 -1.8143414
3.6893488e+19 2.4062581 -3.6893488e+19
1.7586175 -0 -1.8101928
2 2.3479891 2
1.728906 3.6893488e+19 -1.803387
-0 2.3053987 -3.6893488e+19
1.7008902 2 -1.7989544
2 2.2737467 1.0842022e-19
1.6800697 3.6893488e+19 -1.796584
-3.6893488e+19 2.2346692 0
1.7872212 -0 -1.7925577
2 2.20292 0
1.7765945 0 -1.794791
2 2.1625347 1.0842022e-19
