# .PCD v0.7 - Point Cloud Data file format
VERSION 0.7
FIELDS x y z
SIZE 4 4 4
TYPE F F F
COUNT 1 1 1
WIDTH 1705
HEIGHT 1
VIEWPOINT 0 0 0 1 0 0 0
POINTS 1705
DATA ascii
-1.0842022e-19 3.0490239 -0
2.048578 -2 1.7174355
-1.0842022e-19 3.0485721 3.6893488e+19
1.6737678 -3.6893488e+19 1.650088
2 3.0355878 -0
-1.8210559 -3.6893488e+19 1.5347394
2 3.0547209 -1.0842022e-19
1.9050099 -2 1.2627093
-1.0842022e-19 3.0364954 0
-1.8216791 -3.6893488e+19 -1.4409554
3.6893488e+19 3.1976404 0
1.9777124 0 -1.6745111
-2 3.0373268 -2
-1.8222498 2 -1.6760905
-3.6893488e+19 3.0599105 -2
1.9076499 2 -1.7545904
-3.6893488e+19 3.0370195 2
-1.8220389 -0 -1.7770101
2 3.0591254 0
1.9072505 1.0842022e-19 -1.8232675
-1.0842022e-19 3.0373855 -0
-1.8222901 -3.6893488e+19 -1.8413469
3.6893488e+19 3.0586689 -2
1.9070182 2 -1.8834554
1.0842022e-19 3.0385494 -2
-1.823089 -3.6893488e+19 -1.8908297
1.0842022e-19 3.0004163 -2
1.8773854 0 -1.8862377
2 2.9681885 -1.0842022e-19
-1.7857056 -1.0842022e-19 -1.8904014
-2 2.9673715 -0
1.8627495 3.6893488e+19 -1.9032527
2 2.8932085 0
-1.7599688 -2 -1.8898847
-3.6893488e+19 2.8477368 -3.6893488e+19
1.8018919 -2 -1.8834633
0 2.8148453 -3.6893488e+19
1.9071878 0 -1.8798339
-2 2.7868054 0
1.5419197 3.6893488e+19 -1.8760659
-2 2.7579944 2
1.8788049 1.0842022e-19 -1.8666967
-2 2.719331 -1.0842022e-19
1.5115744 -1.0842022e-19 -1.8575624
-2 2.6793694 3.6893488e+19
1.8393646 0 -1.8502094
3.6893488e+19 2.6454201 3.6893488e+19
1.4801329 2 -1.8430835
3.6893488e+19 2.6171966 -3.6893488e+19
1.8083245 1.0842022e-19 -1.8382124
-2 2.5916269 1.0842022e-19
1.4488256 0 -1.8325702
1.0842022e-19 2.5683753 0
1.7839503 -1.0842022e-19 -1.8277587
-0 2.553694 3.6893488e+19
1.4267488 3.6893488e+19 -1.826565
-2 2.5320218 -3.6893488e+19
1.7658006 -3.6893488e+19 -1.8204724
-1.0842022e-19 2.5184042 1.0842022e-19
1.4062103 3.6893488e+19 -1.8182255
2 2.5063808 -3.6893488e+19
1.7529992 1.0842022e-19 -1.8171437
-0 2.4869435 -1.0842022e-19
1.3916996 -2 -1.8139725
2 2.4550662 1.0842022e-19
1.7271938 -0 -1.8083587
-0 3.1467698 0
-1.9018236 0 2.6174345
3.6893488e+19 3.1484008 0
1.9369612 -3.6893488e+19 2.6131485
-0 3.1487796 3.6893488e+19
1.9371389 -1.0842022e-19 2.6018116
3.6893488e+19 3.173017 -3.6893488e+19
-1.911867 3.6893488e+19 2.6169574
-3.6893488e+19 3.1514907 2
1.9384112 -3.6893488e+19 2.5924757
-1.0842022e-19 3.1520891 -1.0842022e-19
-1.903859 2 2.5870793
0 3.1492937 -0
1.9373801 1.0842022e-19 2.5789726
-0 3.1677322 2
-1.9098449 3.6893488e+19 2.5880466
1.0842022e-19 3.1493361 -2
1.9374 3.6893488e+19 2.5674129
2 3.1746113 2
-1.9124771 -1.0842022e-19 2.5690253
2 3.1496658 -2
1.9375547 -1.0842022e-19 2.5445592
-2 3.1729739 -0
-1.9118506 -2 2.5555983
2 3.1425719 0
1.9342258 -2 2.5280213
-1.0842022e-19 3.1580439 -3.6893488e+19
2.1413069 0 2.5334995
-2 3.0634749 2
1.6330608 3.6893488e+19 2.4258218
-1.0842022e-19 3.1538191 -1.0842022e-19
2.1372554 -3.6893488e+19 2.5189571
0 3.1489682 0
1.6693501 -0 2.5095437
0 3.0585051 -1.0842022e-19
1.6309512 2 2.3837492
3.6893488e+19 3.1548724 -0
1.6718563 -1.0842022e-19 2.4805174
1.0842022e-19 3.150671 3.6893488e+19
1.6700729 -2 2.4527147
-2 3.0623314 2
2.0495205 -3.6893488e+19 2.3446326
-1.0842022e-19 3.0580778 -2
1.6307698 -0 2.3305891
1.0842022e-19 3.1272395 0
2.1117661 -1.0842022e-19 2.3948002
-1.0842022e-19 3.0583894 3.6893488e+19
1.6309022 1.0842022e-19 2.3134296
-0 3.1502974 3.6893488e+19
2.1338782 3.6893488e+19 2.3962042
0 3.044054 1.0842022e-19
-1.850039 3.6893488e+19 2.2739706
-3.6893488e+19 3.2252438 -0
1.973022 -2 2.4294136
0 3.2291787 -2
1.9748684 -0 2.4059169
2 3.0470512 -1.0842022e-19
-1.8523327 -2 2.2364421
1.0842022e-19 3.1424198 1.0842022e-19
1.9341544 3.6893488e+19 2.310297
-2 3.157506 3.6893488e+19
-1.9059318 2 2.3107076
2 3.1459777 2
1.935824 -1.0842022e-19 2.2908192
-3.6893488e+19 3.0445206 -3.6893488e+19
-1.8503962 3.6893488e+19 2.1659818
-0 3.1475909 -2
1.936581 0 2.2696464
1.0842022e-19 3.1258295 -0
1.9263688 3.6893488e+19 2.2175655
-3.6893488e+19 3.1502531 2
-1.9031565 2 2.2254157
2 3.1393287 -2
1.9327037 -1.0842022e-19 2.1906726
-1.0842022e-19 3.1619196 1.0842022e-19
2.1450238 -3.6893488e+19 2.1475396
-2 3.0374067 -2
1.6189913 -0 2.0108008
-3.6893488e+19 3.1588428 -1.0842022e-19
2.1420732 3.6893488e+19 2.0987446
1.0842022e-19 3.2333298 -1.0842022e-19
1.7051591 -3.6893488e+19 2.1345179
0 3.1601689 -2
2.1433446 -2 2.0539262
1.0842022e-19 3.2343597 0
1.7055963 -0 2.0812016
0 3.1603534 0
2.1435218 -0 2.0081227
-2 3.1727517 -2
1.6794455 2 1.9918435
3.6893488e+19 3.1598632 -1.0842022e-19
2.1430516 -2 1.9619631
0 3.1714725 -0
1.6789025 -1.0842022e-19 1.944056
-3.6893488e+19 3.0522668 -3.6893488e+19
2.0398686 -3.6893488e+19 1.8700261
-2 3.0492251 1.0842022e-19
2.0369518 2 1.8006655
1.0842022e-19 3.1714444 -0
1.6788906 -1.0842022e-19 1.8249624
-0 3.0497863 3.6893488e+19
2.0374899 1.0842022e-19 1.7179571
3.6893488e+19 3.1717277 2
1.6790109 0 1.7119925
-0 3.0358529 -0
-1.8437628 1.0842022e-19 1.5348967
3.6893488e+19 3.255265 0
1.9895811 3.6893488e+19 1.3557012
0 3.036917 -2
-1.844577 3.6893488e+19 -1.441247
-1.0842022e-19 3.0631094 2
1.8969357 0 -1.6191109
2 3.0381856 3.6893488e+19
-1.8455479 3.6893488e+19 -1.6766266
-3.6893488e+19 3.188149 1.0842022e-19
1.9556142 -1.0842022e-19 -1.8082
2 3.0384405 -2
-1.8457429 -0 -1.7777711
-1.0842022e-19 3.0599294 -2
1.8954433 -1.0842022e-19 -1.8237681
2 3.0395246 2
-1.8465726 -2 -1.8429693
-3.6893488e+19 3.0583484 -0
1.8947015 -1.0842022e-19 -1.8833069
2 3.0411563 -2
-1.8478214 -0 -1.89211
-3.6893488e+19 3.0589385 3.6893488e+19
1.8949784 3.6893488e+19 -1.9180639
-0 2.9671009 3.6893488e+19
-1.8037357 3.6893488e+19 -1.8900831
-1.0842022e-19 2.980515 -3.6893488e+19
1.8504956 2 -1.9075507
1.0842022e-19 2.8918757 -0
-1.7749509 -2 -1.8894184
3.6893488e+19 2.8448303 3.6893488e+19
1.7868216 -3.6893488e+19 -1.8823377
-3.6893488e+19 2.813771 -2
1.9004505 0 -1.8793715
-1.0842022e-19 2.7864366 -2
1.4931676 -2 -1.8759012
-2 2.7558534 -0
1.8703591 -3.6893488e+19 -1.8646548
-1.0842022e-19 2.7192154 -2
1.449168 1.0842022e-19 -1.8575007
-3.6893488e+19 2.6804302 -2
1.8313875 1.0842022e-19 -1.8507317
0 2.6477971 1.0842022e-19
1.418853 -1.0842022e-19 -1.8443902
1.0842022e-19 2.6176252 0
1.8012731 3.6893488e+19 -1.8384291
3.6893488e+19 2.591135 -3.6893488e+19
1.3948016 0 -1.8322673
2 2.5687964 -1.0842022e-19
1.77786 -3.6893488e+19 -1.8279963
-1.0842022e-19 2.5535753 -0
1.3788587 -2 -1.8264823
-2 2.5320642 -0
1.7602473 -3.6893488e+19 -1.8204724
-1.0842022e-19 2.5185339 -1.0842022e-19
1.3529694 1.0842022e-19 -1.8183151
2 2.5065436 1.0842022e-19
1.7460209 0 -1.8172368
-0 2.4837182 -3.6893488e+19
1.3303239 3.6893488e+19 -1.8127172
1.0842022e-19 2.4553831 1.0842022e-19
1.7183522 -2 -1.8084587
-1.0842022e-19 2.3861098 -3.6893488e+19
-1.5227445 -0 -1.8021053
-1.0842022e-19 2.3393493 -0
-1.5048517 -1.0842022e-19 -1.7998679
-1.0842022e-19 2.2968943 1.0842022e-19
-1.4772128 -1.0842022e-19 -1.7948589
1.0842022e-19 2.2666464 0
-1.454064 0 -1.7927637
-0 2.230603 -2
1.6054449 1.0842022e-19 -1.790205
-1.0842022e-19 2.1935861 2
1.5876957 3.6893488e+19 -1.7902681
1.0842022e-19 2.1566689 0
1.5699942 0 -1.7882979
0 2.1257277 0
1.5551581 -2 -1.786822
-0 3.1467698 0
-1.9018236 0 2.6174345
3.6893488e+19 3.1484008 0
1.9369612 -3.6893488e+19 2.6131485
-0 3.1487796 3.6893488e+19
1.9371389 -1.0842022e-19 2.6018116
0 3.0452724 -0
-1.8509713 0 2.5061419
-3.6893488e+19 3.1514907 2
1.9384112 -3.6893488e+19 2.5924757
-1.0842022e-19 3.1520891 -1.0842022e-19
-1.903859 2 2.5870793
0 3.1492937 -0
1.9373801 1.0842022e-19 2.5789726
-0 3.1677322 2
-1.9098449 3.6893488e+19 2.5880466
-1.0842022e-19 3.0636108 0
1.897171 -3.6893488e+19 2.498548
2 3.1746113 2
-1.9124771 -1.0842022e-19 2.5690253
2 3.1496658 -2
1.9375547 -1.0842022e-19 2.5445592
-2 3.1729739 -0
-1.9118506 -2 2.5555983
3.6893488e+19 3.066875 -2
1.8987027 1.0842022e-19 2.4488251
0 3.0572624 -1.0842022e-19
2.0446591 -2 2.4269574
-2 3.0634749 2
1.6330608 3.6893488e+19 2.4258218
-0 3.0599957 0
2.0472806 -3.6893488e+19 2.4129353
1.0842022e-19 3.060569 -3.6893488e+19
1.6318272 -1.0842022e-19 2.4040735
0 3.0585051 -1.0842022e-19
1.6309512 2 2.3837492
3.6893488e+19 3.0499914 0
1.6273375 -0 2.3560407
-2 3.0619285 1.0842022e-19
1.6324044 1.0842022e-19 2.3524456
-2 3.0623314 2
2.0495205 -3.6893488e+19 2.3446326
-1.0842022e-19 3.0580778 -2
1.6307698 -0 2.3305891
3.6893488e+19 3.0627165 -1.0842022e-19
2.0498896 -2 2.3272736
-1.0842022e-19 3.0583894 3.6893488e+19
1.6309022 1.0842022e-19 2.3134296
-0 3.0646653 -1.0842022e-19
2.0517585 0 2.3114479
0 3.044054 1.0842022e-19
-1.850039 3.6893488e+19 2.2739706
3.6893488e+19 3.0683398 2
1.8993902 -1.0842022e-19 2.2876406
-2 3.0580211 -2
1.8945478 -3.6893488e+19 2.2609277
2 3.0470512 -1.0842022e-19
-1.8523327 -2 2.2364421
-1.0842022e-19 3.0603547 1.0842022e-19
1.895643 3.6893488e+19 2.2408121
-0 3.0437415 2
-1.8497999 -0 2.197933
2 3.1459777 2
1.935824 -1.0842022e-19 2.2908192
-3.6893488e+19 3.0445206 -3.6893488e+19
-1.8503962 3.6893488e+19 2.1659818
-0 3.0518503 -2
1.891652 -3.6893488e+19 2.15943
-2 3.0546372 -2
1.8929598 -0 2.1289961
-1.0842022e-19 3.0459137 -2
-1.8514622 3.6893488e+19 2.1014826
2 3.1393287 -2
1.9327037 -1.0842022e-19 2.1906726
-1.0842022e-19 3.1619196 1.0842022e-19
2.1450238 -3.6893488e+19 2.1475396
-2 3.0374067 -2
1.6189913 -0 2.0108008
1.0842022e-19 3.0639291 -3.6893488e+19
2.0510523 3.6893488e+19 2.0177827
0 3.0382001 1.0842022e-19
1.6196648 3.6893488e+19 1.9792806
-1.0842022e-19 3.0655959 -1.0842022e-19
2.0526509 2 1.9838499
-0 3.0370753 2
1.6187099 3.6893488e+19 1.9463
-1.0842022e-19 3.0660951 -2
2.0531297 -3.6893488e+19 1.9488319
-2 3.0442116 -1.0842022e-19
1.6247683 -0 1.9183096
2 3.0585978 1.0842022e-19
2.0459399 1.0842022e-19 1.9095931
3.6893488e+19 3.0488384 -1.0842022e-19
1.626848 0 1.8875924
-3.6893488e+19 3.0522668 -3.6893488e+19
2.0398686 -3.6893488e+19 1.8700261
-2 3.0492251 1.0842022e-19
2.0369518 2 1.8006655
3.6893488e+19 3.040899 -2
1.621956 -0 1.7630227
-0 3.0497863 3.6893488e+19
2.0374899 1.0842022e-19 1.7179571
0 3.0486093 3.6893488e+19
1.6267507 -1.0842022e-19 1.6501037
-0 3.0358529 -0
-1.8437628 1.0842022e-19 1.5348967
3.6893488e+19 3.255265 0
1.9895811 3.6893488e+19 1.3557012
0 3.036917 -2
-1.844577 3.6893488e+19 -1.441247
-1.0842022e-19 3.0631094 2
1.8969357 0 -1.6191109
2 3.0381856 3.6893488e+19
-1.8455479 3.6893488e+19 -1.6766266
-3.6893488e+19 3.0619953 -1.0842022e-19
1.8964128 -1.0842022e-19 -1.7554523
2 3.0384405 -2
-1.8457429 -0 -1.7777711
-1.0842022e-19 3.0599294 -2
1.8954433 -1.0842022e-19 -1.8237681
2 3.0395246 2
-1.8465726 -2 -1.8429693
-3.6893488e+19 3.0583484 -0
1.8947015 -1.0842022e-19 -1.8833069
2 3.0411563 -2
-1.8478214 -0 -1.89211
-1.0842022e-19 3.000716 0
1.8603116 1.0842022e-19 -1.8863906
-0 2.9671009 3.6893488e+19
-1.8037357 3.6893488e+19 -1.8900831
-1.0842022e-19 2.980515 -3.6893488e+19
1.8504956 2 -1.9075507
1.0842022e-19 2.8918757 -0
-1.7749509 -2 -1.8894184
3.6893488e+19 2.8448303 3.6893488e+19
1.7868216 -3.6893488e+19 -1.8823377
-3.6893488e+19 2.813771 -2
1.9004505 0 -1.8793715
-1.0842022e-19 2.7864366 -2
1.4931676 -2 -1.8759012
-2 2.7558534 -0
1.8703591 -3.6893488e+19 -1.8646548
-1.0842022e-19 2.7192154 -2
1.449168 1.0842022e-19 -1.8575007
-3.6893488e+19 2.6804302 -2
1.8313875 1.0842022e-19 -1.8507317
0 2.6477971 1.0842022e-19
1.418853 -1.0842022e-19 -1.8443902
1.0842022e-19 2.6176252 0
1.8012731 3.6893488e+19 -1.8384291
3.6893488e+19 2.591135 -3.6893488e+19
1.3948016 0 -1.8322673
2 2.5687964 -1.0842022e-19
1.77786 -3.6893488e+19 -1.8279963
-1.0842022e-19 2.5535753 -0
1.3788587 -2 -1.8264823
-2 2.5320642 -0
1.7602473 -3.6893488e+19 -1.8204724
-1.0842022e-19 2.5185339 -1.0842022e-19
1.3529694 1.0842022e-19 -1.8183151
2 2.5065436 1.0842022e-19
1.7460209 0 -1.8172368
-0 2.4837182 -3.6893488e+19
1.3303239 3.6893488e+19 -1.8127172
1.0842022e-19 2.4553831 1.0842022e-19
1.7183522 -2 -1.8084587
-1.0842022e-19 2.3861098 -3.6893488e+19
-1.5227445 -0 -1.8021053
-1.0842022e-19 2.3393493 -0
-1.5048517 -1.0842022e-19 -1.7998679
-1.0842022e-19 2.2968943 1.0842022e-19
-1.4772128 -1.0842022e-19 -1.7948589
1.0842022e-19 2.2666464 0
-1.454064 0 -1.7927637
-0 2.230603 -2
1.6054449 1.0842022e-19 -1.790205
-1.0842022e-19 2.1935861 2
1.5876957 3.6893488e+19 -1.7902681
1.0842022e-19 2.1566689 0
1.5699942 0 -1.7882979
0 2.1257277 0
1.5551581 -2 -1.786822
3.6893488e+19 3.1459522 -0
-1.9181415 1.0842022e-19 2.6167016
-2 3.1484909 -3.6893488e+19
1.9202635 -2 2.613204
2 3.1508224 0
1.9212598 3.6893488e+19 2.6035879
2 3.1725311 -1.0842022e-19
-1.9294282 1.0842022e-19 2.6165602
-3.6893488e+19 3.1513369 -1.0842022e-19
1.9214796 1.0842022e-19 2.5923195
-0 3.1520014 1.0842022e-19
-1.9207103 2 2.587028
-1.0842022e-19 3.1486192 -0
1.9203184 -0 2.5783927
-1.0842022e-19 3.1683476 1.0842022e-19
-1.9276518 0 2.588567
-0 3.1484768 2
1.9202576 3.6893488e+19 2.5667067
3.6893488e+19 3.0428474 -0
-1.8737159 -1.0842022e-19 2.4570198
0 3.0641527 -1.0842022e-19
1.8842282 2 2.4811783
-0 3.1744297 -2
-1.9302344 -3.6893488e+19 2.5689099
3.6893488e+19 3.1475446 -3.6893488e+19
1.9198592 2 2.5429745
0 3.1725771 2
-1.9294478 -3.6893488e+19 2.5553317
1.0842022e-19 3.1437082 2
1.91822 0 2.5288057
-0 3.1573074 -3.6893488e+19
2.123445 2 2.5329442
0 3.1509764 0
1.5807528 0 2.5223377
-1.0842022e-19 3.1565588 0
2.1227589 -1.0842022e-19 2.5207403
-0 3.1491587 3.6893488e+19
1.5798202 -0 2.5096641
1.0842022e-19 3.0583858 2
1.5332419 -3.6893488e+19 2.3835955
-1.0842022e-19 3.0598989 -0
2.0341349 1.0842022e-19 2.3772445
1.0842022e-19 3.1548781 -3.6893488e+19
1.5827549 -1.0842022e-19 2.4805174
-0 3.0625827 -3.6893488e+19
1.5353954 -1.0842022e-19 2.3531797
1.0842022e-19 3.0631523 -0
2.0371177 3.6893488e+19 2.3454852
-2 3.1656182 3.6893488e+19
1.588266 2 2.4459813
1.0842022e-19 3.1279781 -1.0842022e-19
2.096554 -1.0842022e-19 2.3955123
3.6893488e+19 3.0605948 -3.6893488e+19
1.5343753 -1.0842022e-19 2.3156664
3.6893488e+19 3.0668812 3.6893488e+19
2.0405366 -1.0842022e-19 2.3135927
-2 3.1500657 -0
1.5802855 -3.6893488e+19 2.3839488
-0 3.0434449 -0
-1.8742234 2 2.2734213
-3.6893488e+19 3.2250304 -0
1.9529667 -1.0842022e-19 2.4291892
1.0842022e-19 3.2021127 -2
-1.94199 -2 2.3957152
-0 3.228344 -1.0842022e-19
1.9543824 2 2.4051802
0 3.1590011 3.6893488e+19
-1.9236827 3.6893488e+19 2.3349061
3.6893488e+19 3.1427906 3.6893488e+19
1.917828 3.6893488e+19 2.3105674
-3.6893488e+19 3.1587851 -1.0842022e-19
-1.923591 -0 2.3117034
1.0842022e-19 3.1442337 -1.0842022e-19
1.9184445 -3.6893488e+19 2.2895169
-1.0842022e-19 3.0454969 -3.6893488e+19
-1.875483 -1.0842022e-19 2.1673882
2 3.1476824 -1.0842022e-19
1.9199181 1.0842022e-19 2.2696886
2 3.1353757 -0
-1.9136502 -2 2.2505188
-0 3.1288469 3.6893488e+19
1.9118702 -2 2.2212849
-3.6893488e+19 3.139354 -0
-1.9153396 2 2.2125006
-2 3.1375499 0
1.9155889 -3.6893488e+19 2.188627
0 3.0720446 -2
1.8876002 0 2.0783896
-0 3.1715379 1.0842022e-19
1.5913036 -3.6893488e+19 2.1325097
1.0842022e-19 3.2032702 2
2.1655867 -2 2.1365817
2 3.1701651 -1.0842022e-19
1.5905991 -3.6893488e+19 2.0842619
2 3.2025547 -2
2.1649306 1.0842022e-19 2.0852818
3.6893488e+19 3.1714244 -0
1.5912453 1.0842022e-19 2.0381629
1.0842022e-19 3.2013803 2
2.1638539 -0 2.033886
1.0842022e-19 3.1711962 1.0842022e-19
1.5911282 -3.6893488e+19 1.9909501
0 3.0588324 -2
2.0331569 -1.0842022e-19 1.9096898
2 3.1725717 -2
1.5918339 2 1.9445595
-3.6893488e+19 3.0548396 -2
2.0294962 0 1.8720738
3.6893488e+19 3.1716464 0
1.5913593 0 1.8970689
0 3.0499887 -0
2.0250485 -3.6893488e+19 1.8010865
0 3.1711066 1.0842022e-19
1.5910822 -1.0842022e-19 1.8247993
-1.0842022e-19 3.0511427 -2
2.0261066 2 1.7189096
1.0842022e-19 3.1713586 0
1.5912116 -2 1.7118039
-1.0842022e-19 3.0363963 2
-1.868237 -2 1.5352112
0 3.2525973 -2
1.9658549 2 1.3532734
1.0842022e-19 3.0339928 -2
-1.8661956 -3.6893488e+19 -1.4393103
-3.6893488e+19 3.0613205 2
1.8830183 -0 -1.6176984
-3.6893488e+19 3.0392597 -3.6893488e+19
-1.8706689 -2 -1.6772966
-1.0842022e-19 3.2050176 0
1.9444158 1.0842022e-19 -1.8152392
2 3.0384839 -1.0842022e-19
-1.8700099 1.0842022e-19 -1.7778043
1.0842022e-19 3.0605769 2
1.8827004 -3.6893488e+19 -1.8241687
-3.6893488e+19 3.0396926 -0
-1.8710366 1.0842022e-19 -1.8431104
3.6893488e+19 3.0566225 1.0842022e-19
1.8810109 1.0842022e-19 -1.882551
2 3.0422611 -0
-1.8732179 2 -1.8926587
-1.0842022e-19 3.0586491 -3.6893488e+19
1.8818767 -1.0842022e-19 -1.917894
-3.6893488e+19 2.9670699 3.6893488e+19
-1.8233417 3.6893488e+19 -1.8900831
-2 2.9764926 2
1.8285915 -1.0842022e-19 -1.9062203
-0 2.8909135 -0
-1.7910018 3.6893488e+19 -1.8890853
-3.6893488e+19 2.8467901 3.6893488e+19
1.7731733 -0 -1.8830801
3.6893488e+19 2.8133209 -3.6893488e+19
1.8936361 0 -1.879166
-2 2.7883127 1.0842022e-19
1.3979418 -2 -1.8767241
-3.6893488e+19 2.7605646 1.0842022e-19
1.8639022 2 -1.8690302
-0 2.7167268 1.0842022e-19
1.3644913 -1.0842022e-19 -1.8562642
-3.6893488e+19 2.6798737 2
1.8220677 3.6893488e+19 -1.8504052
-0 2.6479273 -1.0842022e-19
1.3291882 -1.0842022e-19 -1.8444589
3.6893488e+19 2.6179307 3.6893488e+19
1.793671 -0 -1.8385736
-1.0842022e-19 2.5898933 0
1.2994094 -0 -1.8315099
0 2.5682235 0
1.7708837 -2 -1.8276002
3.6893488e+19 2.5553236 2
1.2816706 3.6893488e+19 -1.8276398
3.6893488e+19 2.531486 -2
1.754042 -0 -1.8200417
2 2.5184133 -3.6893488e+19
1.2627307 3.6893488e+19 -1.8182255
-1.0842022e-19 2.5063345 -1.0842022e-19
1.7350237 2 -1.8170506
-2 2.4822319 1.0842022e-19
1.2474475 2 -1.8121378
-3.6893488e+19 2.4566946 -2
1.7093632 3.6893488e+19 -1.8089589
3.6893488e+19 3.1459522 -0
-1.9181415 1.0842022e-19 2.6167016
-2 3.1484909 -3.6893488e+19
1.9202635 -2 2.613204
2 3.1508224 0
1.9212598 3.6893488e+19 2.6035879
0 3.0457718 -0
-1.8755997 -0 2.506592
-3.6893488e+19 3.1513369 -1.0842022e-19
1.9214796 1.0842022e-19 2.5923195
3.6893488e+19 3.0489633 -1.0842022e-19
-1.876955 0 2.5006435
-1.0842022e-19 3.1486192 -0
1.9203184 -0 2.5783927
-1.0842022e-19 3.1683476 1.0842022e-19
-1.9276518 0 2.588567
-1.0842022e-19 3.0632355 -2
1.8838364 2 2.497915
3.6893488e+19 3.0428474 -0
-1.8737159 -1.0842022e-19 2.4570198
0 3.0641527 -1.0842022e-19
1.8842282 2 2.4811783
-0 3.1744297 -2
-1.9302344 -3.6893488e+19 2.5689099
3.6893488e+19 3.1475446 -3.6893488e+19
1.9198592 2 2.5429745
-2 3.045521 -2
-1.8754933 -1.0842022e-19 2.4270558
0 3.0667138 1.0842022e-19
1.8853226 -2 2.4485636
-3.6893488e+19 3.0574324 -2
2.0318735 2 2.4271283
-0 3.0638182 0
1.5360295 3.6893488e+19 2.4262822
0 3.0597973 2
2.0340416 -1.0842022e-19 2.4126074
2 3.0614061 1.0842022e-19
1.5347917 3.6893488e+19 2.4051571
1.0842022e-19 3.0583858 2
1.5332419 -3.6893488e+19 2.3835955
-1.0842022e-19 3.0598989 -0
2.0341349 1.0842022e-19 2.3772445
-3.6893488e+19 3.0499954 0
1.5289366 -0 2.3560407
-0 3.0625827 -3.6893488e+19
1.5353954 -1.0842022e-19 2.3531797
1.0842022e-19 3.0631523 -0
2.0371177 3.6893488e+19 2.3454852
3.6893488e+19 3.0584848 -0
1.5332927 -1.0842022e-19 2.3310211
2 3.0646517 -2
2.0384924 1.0842022e-19 2.3292484
3.6893488e+19 3.0605948 -3.6893488e+19
1.5343753 -1.0842022e-19 2.3156664
3.6893488e+19 3.0668812 3.6893488e+19
2.0405366 -1.0842022e-19 2.3135927
-2 3.1500657 -0
1.5802855 -3.6893488e+19 2.3839488
-0 3.0434449 -0
-1.8742234 2 2.2734213
-3.6893488e+19 3.2250304 -0
1.9529667 -1.0842022e-19 2.4291892
2 3.0441418 2
-1.8748152 1.0842022e-19 2.2574501
-0 3.228344 -1.0842022e-19
1.9543824 2 2.4051802
-0 3.0455709 0
-1.8755145 0 2.2340503
-2 3.0587299 -2
1.8819113 2 2.2382066
-1.0842022e-19 3.0457745 3.6893488e+19
-1.8756009 0 2.2010632
1.0842022e-19 3.1442337 -1.0842022e-19
1.9184445 -3.6893488e+19 2.2895169
-1.0842022e-19 3.0454969 -3.6893488e+19
-1.875483 -1.0842022e-19 2.1673882
2 3.1476824 -1.0842022e-19
1.9199181 1.0842022e-19 2.2696886
2 3.1353757 -0
-1.9136502 -2 2.2505188
-0 3.1288469 3.6893488e+19
1.9118702 -2 2.2212849
-3.6893488e+19 3.139354 -0
-1.9153396 2 2.2125006
-2 3.1375499 0
1.9155889 -3.6893488e+19 2.188627
0 3.0720446 -2
1.8876002 0 2.0783896
-3.6893488e+19 3.0360067 2
1.5217586 -3.6893488e+19 2.0095267
-2 3.0638838 0
2.0377886 1.0842022e-19 2.0177031
-2 3.0368619 2
1.5221974 -3.6893488e+19 1.9782128
3.6893488e+19 3.0653017 2
2.0390885 -2 1.9835958
-2 3.0374227 1.0842022e-19
1.5224851 2 1.9465349
-3.6893488e+19 3.064959 1.0842022e-19
2.0387745 -3.6893488e+19 1.9480869
3.6893488e+19 3.0381885 1.0842022e-19
1.5228781 -0 1.9148616
0 3.0588324 -2
2.0331569 -1.0842022e-19 1.9096898
-1.0842022e-19 3.0407209 1.0842022e-19
1.5241776 3.6893488e+19 1.8838531
-3.6893488e+19 3.0548396 -2
2.0294962 0 1.8720738
2 3.0421157 -0
1.5248932 -1.0842022e-19 1.8287779
0 3.0499887 -0
2.0250485 -3.6893488e+19 1.8010865
2 3.0424967 -0
1.5250887 0 1.7637788
-1.0842022e-19 3.0511427 -2
2.0261066 2 1.7189096
-2 3.0483632 1.0842022e-19
1.5280991 -0 1.649978
-1.0842022e-19 3.0363963 2
-1.868237 -2 1.5352112
0 3.2525973 -2
1.9658549 2 1.3532734
1.0842022e-19 3.0339928 -2
-1.8661956 -3.6893488e+19 -1.4393103
-3.6893488e+19 3.0613205 2
1.8830183 -0 -1.6176984
-3.6893488e+19 3.0392597 -3.6893488e+19
-1.8706689 -2 -1.6772966
-2 3.0591445 -2
1.8820884 -3.6893488e+19 -1.7542508
2 3.0384839 -1.0842022e-19
-1.8700099 1.0842022e-19 -1.7778043
1.0842022e-19 3.0605769 2
1.8827004 -3.6893488e+19 -1.8241687
-3.6893488e+19 3.0396926 -0
-1.8710366 1.0842022e-19 -1.8431104
3.6893488e+19 3.0566225 1.0842022e-19
1.8810109 1.0842022e-19 -1.882551
2 3.0422611 -0
-1.8732179 2 -1.8926587
-2 3.0045745 3.6893488e+19
1.8425447 2 -1.8884795
-3.6893488e+19 2.9670699 3.6893488e+19
-1.8233417 3.6893488e+19 -1.8900831
-2 2.9764926 2
1.8285915 -1.0842022e-19 -1.9062203
-0 2.8909135 -0
-1.7910018 3.6893488e+19 -1.8890853
-3.6893488e+19 2.8467901 3.6893488e+19
1.7731733 -0 -1.8830801
3.6893488e+19 2.8133209 -3.6893488e+19
1.8936361 0 -1.879166
-2 2.7883127 1.0842022e-19
1.3979418 -2 -1.8767241
-3.6893488e+19 2.7605646 1.0842022e-19
1.8639022 2 -1.8690302
-0 2.7167268 1.0842022e-19
1.3644913 -1.0842022e-19 -1.8562642
-3.6893488e+19 2.6798737 2
1.8220677 3.6893488e+19 -1.8504052
-0 2.6479273 -1.0842022e-19
1.3291882 -1.0842022e-19 -1.8444589
3.6893488e+19 2.6179307 3.6893488e+19
1.793671 -0 -1.8385736
-1.0842022e-19 2.5898933 0
1.2994094 -0 -1.8315099
0 2.5682235 0
1.7708837 -2 -1.8276002
3.6893488e+19 2.5553236 2
1.2816706 3.6893488e+19 -1.8276398
3.6893488e+19 2.531486 -2
1.754042 -0 -1.8200417
2 2.5184133 -3.6893488e+19
1.2627307 3.6893488e+19 -1.8182255
-1.0842022e-19 2.5063345 -1.0842022e-19
1.7350237 2 -1.8170506
-2 2.4822319 1.0842022e-19
1.2474475 2 -1.8121378
-3.6893488e+19 2.4566946 -2
1.7093632 3.6893488e+19 -1.8089589
3.6893488e+19 3.1473536 0
-1.9354199 -1.0842022e-19 2.6180263
-3.6893488e+19 3.1486697 3.6893488e+19
1.9036037 0 2.613343
3.6893488e+19 3.0460579 -1.0842022e-19
-1.8881515 2 2.5155203
3.6893488e+19 3.1516118 -3.6893488e+19
1.9047371 2 2.6042607
-2 3.1731412 2
-1.9474534 -3.6893488e+19 2.6171162
1.0842022e-19 3.1468418 -1.0842022e-19
1.9028993 -0 2.5884626
-1.0842022e-19 3.1518803 -0
-1.9375322 -1.0842022e-19 2.586951
-2 3.1480031 -1.0842022e-19
1.9033468 2 2.5778635
3.6893488e+19 3.169205 -0
-1.9456165 0 2.5892856
-1.0842022e-19 3.146389 -2
1.9027249 -0 2.5650263
0 3.1745074 2
-1.9480908 3.6893488e+19 2.5812688
-1.0842022e-19 3.0652168 0
1.8679001 0 2.4827762
-3.6893488e+19 3.1722496 0
-1.9470373 -2 2.5672951
-1.0842022e-19 3.1468644 2
1.9029081 1.0842022e-19 2.5424538
-3.6893488e+19 3.1710706 -3.6893488e+19
-1.9464871 -3.6893488e+19 2.5542655
2 3.1438882 -2
1.9017613 -3.6893488e+19 2.5289145
-1.0842022e-19 3.1571827 -2
2.1061945 -2 2.5328159
1.0842022e-19 3.1512873 -2
1.392457 -1.0842022e-19 2.5225468
3.6893488e+19 3.1538174 0
2.1032507 0 2.5188754
1.0842022e-19 3.1537883 -1.0842022e-19
1.3933449 3.6893488e+19 2.5126739
0 3.0610878 0
2.0221329 0 2.3964329
2 3.058388 1.0842022e-19
1.3439556 -3.6893488e+19 2.3835955
3.6893488e+19 3.1561947 -0
2.1053302 -0 2.4943941
-0 3.1549428 -2
1.3937547 3.6893488e+19 2.4805908
-3.6893488e+19 3.0618422 0
1.3464082 2 2.3523407
1.0842022e-19 3.0626419 -3.6893488e+19
2.0234921 0 2.3448715
-2 3.0597568 0
1.3449275 0 2.3323839
-2 3.0663686 1.0842022e-19
2.0267525 -3.6893488e+19 2.3309963
2 3.0612171 -3.6893488e+19
1.3459642 -1.0842022e-19 2.3162966
-1.0842022e-19 3.0644193 -2
2.0250471 3.6893488e+19 2.3111107
1.0842022e-19 3.1488276 -1.0842022e-19
1.3915838 1.0842022e-19 2.3827579
-0 3.0424926 -1.0842022e-19
-1.8864878 2 2.2725539
3.6893488e+19 3.2044084 2
-1.9620438 -3.6893488e+19 2.3977537
-2 3.1597168 3.6893488e+19
-1.9411891 -3.6893488e+19 2.3355167
3.6893488e+19 3.14291 2
1.9013845 -2 2.3106411
-1.0842022e-19 3.15832 2
-1.9405372 0 2.3113716
-1.0842022e-19 3.1436377 2
1.9016649 -1.0842022e-19 2.2890601
-0 3.0465333 -2
-1.8883734 -3.6893488e+19 2.1688826
-3.6893488e+19 3.0340991 1.0842022e-19
-1.8825712 -0 2.1193924
2 3.126287 -1.0842022e-19
1.8949797 -3.6893488e+19 2.2180691
0 3.0338795 -1.0842022e-19
-1.8824686 0 2.0872355
1.0842022e-19 3.1362982 2
1.898837 1.0842022e-19 2.1871812
1.0842022e-19 3.0308716 -1.0842022e-19
-1.881065 2 2.0521674
1.0842022e-19 3.0647392 2
1.867532 -3.6893488e+19 2.0709188
0 3.1251032 -3.6893488e+19
2.0781319 -0 2.1118996
1.0842022e-19 3.1711042 -0
1.399492 -0 2.1321135
3.6893488e+19 3.2030251 2
2.1462965 2 2.1363161
-2 3.1708233 -0
1.3993924 -3.6893488e+19 2.0847833
1.0842022e-19 3.2028394 -1.0842022e-19
2.1461339 0 2.0854435
1.0842022e-19 3.1712089 1.0842022e-19
1.3995292 2 2.0380135
2 3.2001681 -2
2.1437972 -2 2.033082
3.6893488e+19 3.1719487 -0
1.3997918 -2 1.9913789
-1.0842022e-19 3.2008104 -1.0842022e-19
2.1443591 -3.6893488e+19 1.9830691
1.0842022e-19 3.1712627 -1.0842022e-19
1.3995483 1.0842022e-19 1.9439554
1.0842022e-19 3.0540111 0
2.0159423 -0 1.8713659
0 3.1716495 1.0842022e-19
1.3996856 0 1.8970689
3.6893488e+19 3.0505319 -0
2.0128987 3.6893488e+19 1.8013796
2 3.1719844 0
1.3998046 -3.6893488e+19 1.8252144
-0 3.0510621 1.0842022e-19
2.0133626 1.0842022e-19 1.7188189
-2 3.1713614 0
1.3995835 -2 1.7118039
1.0842022e-19 3.0348136 3.6893488e+19
-1.8829045 1.0842022e-19 1.5343375
-1.0842022e-19 3.2521923 1.0842022e-19
1.9443346 2 1.3528923
0 3.0337222 -2
-1.8823951 3.6893488e+19 -1.4391438
-2 3.2491584 -1.0842022e-19
1.9423209 3.6893488e+19 -1.6945533
3.6893488e+19 3.0452359 -2
-1.8877679 -0 -1.6809728
-0 3.0597587 0
1.8636942 3.6893488e+19 -1.754499
-3.6893488e+19 3.0383377 -3.6893488e+19
-1.884549 0 -1.7777381
-2 3.0600352 1.0842022e-19
1.8639073 -1.0842022e-19 -1.8238082
-1.0842022e-19 3.040421 -1.0842022e-19
-1.8855212 1.0842022e-19 -1.8436748
3.6893488e+19 3.055831 -2
1.8606675 -2 -1.8821999
0 3.0015318 2
1.8188256 -3.6893488e+19 -1.8868151
1.0842022e-19 2.9689088 -2
-1.8438101 -1.0842022e-19 -1.8906448
2 2.9763997 -3.6893488e+19
1.8085521 3.6893488e+19 -1.9061794
-2 2.893631 2
-1.8086828 1.0842022e-19 -1.8900625
-0 2.8444417 1.0842022e-19
1.7577101 -0 -1.8821701
2 2.8141148 3.6893488e+19
1.8873904 0 -1.8794743
-3.6893488e+19 2.7881899 -2
1.204615 -0 -1.8766693
-1.0842022e-19 2.7592323 1.0842022e-19
1.8517709 0 -1.8677468
1.0842022e-19 2.7166054 2
1.165645 1.0842022e-19 -1.8562025
3.6893488e+19 2.6795633 -3.6893488e+19
1.8128862 0 -1.8502094
-1.0842022e-19 2.6464336 -3.6893488e+19
1.140734 -0 -1.8436337
1.0842022e-19 2.6163664 -3.6893488e+19
1.7852446 3.6893488e+19 -1.8376343
-0 2.5900204 -0
1.1164147 -2 -1.8315856
3.6893488e+19 2.5678968 1.0842022e-19
1.7640446 -1.0842022e-19 -1.8273627
-3.6893488e+19 2.5539553 3.6893488e+19
1.0908085 3.6893488e+19 -1.8267304
-2 2.5315273 -2
1.746274 -0 -1.8200417
-2 2.518913 3.6893488e+19
1.0659285 -1.0842022e-19 -1.818584
3.6893488e+19 2.5063722 0
1.7242689 2 -1.8170506
-0 2.48124 -2
1.0458403 1.0842022e-19 -1.8117516
2 2.4565134 0
1.699674 1.0842022e-19 -1.8088589
-1.0842022e-19 2.3855596 1.0842022e-19
-1.5549164 -1.0842022e-19 -1.8018775
-0 2.3388064 -2
-1.5330995 -1.0842022e-19 -1.7996124
0 2.2971005 -0
-1.513638 1.0842022e-19 -1.7950006
-2 2.266856 -2
-1.4990498 1.0842022e-19 -1.792919
-2 2.2297633 2
1.5848433 1.0842022e-19 -1.7898668
0 2.1937196 3.6893488e+19
1.5690781 3.6893488e+19 -1.7902681
-1.0842022e-19 2.1587491 1.0842022e-19
1.5537825 -2 -1.7890838
-2 2.123888 -3.6893488e+19
1.5385345 0 -1.7859814
3.6893488e+19 3.1473536 0
-1.9354199 -1.0842022e-19 2.6180263
-3.6893488e+19 3.1486697 3.6893488e+19
1.9036037 0 2.613343
3.6893488e+19 3.0460579 -1.0842022e-19
-1.8881515 2 2.5155203
-1.0842022e-19 3.0606968 -1.0842022e-19
1.8644171 -2 2.5240648
-3.6893488e+19 3.0454142 3.6893488e+19
-1.8878512 -0 2.5063007
-2 3.0575919 3.6893488e+19
1.8620245 1.0842022e-19 2.5123425
-1.0842022e-19 3.0461593 -1.0842022e-19
-1.8881989 3.6893488e+19 2.4966216
-2 3.1480031 -1.0842022e-19
1.9033468 2 2.5778635
3.6893488e+19 3.169205 -0
-1.9456165 0 2.5892856
3.6893488e+19 3.0616324 -2
1.8651379 0 2.4953337
-0 3.0427647 -0
-1.8866148 2 2.4569242
-1.0842022e-19 3.0652168 0
1.8679001 0 2.4827762
-3.6893488e+19 3.1722496 0
-1.9470373 -2 2.5672951
-1.0842022e-19 3.1468644 2
1.9029081 1.0842022e-19 2.5424538
3.6893488e+19 3.0458069 0
-1.8880345 -2 2.4275
3.6893488e+19 3.0666425 -2
1.8689986 -0 2.4484329
1.0842022e-19 3.0582156 -2
2.0196202 -0 2.4281533
-3.6893488e+19 3.0633891 -3.6893488e+19
1.3475064 -3.6893488e+19 2.4256961
1.0842022e-19 3.0594118 3.6893488e+19
2.0206666 -0 2.4120336
-1.0842022e-19 3.0667136 0
1.3498669 2 2.4120595
0 3.0610878 0
2.0221329 0 2.3964329
2 3.058388 1.0842022e-19
1.3439556 -3.6893488e+19 2.3835955
1.0842022e-19 3.0631528 -0
2.0239391 -2 2.3811493
3.6893488e+19 3.0501213 -1.0842022e-19
1.3380862 0 2.3561876
-3.6893488e+19 3.0618422 0
1.3464082 2 2.3523407
1.0842022e-19 3.0626419 -3.6893488e+19
2.0234921 0 2.3448715
-2 3.0597568 0
1.3449275 0 2.3323839
-2 3.0663686 1.0842022e-19
2.0267525 -3.6893488e+19 2.3309963
2 3.0612171 -3.6893488e+19
1.3459642 -1.0842022e-19 2.3162966
-1.0842022e-19 3.0644193 -2
2.0250471 3.6893488e+19 2.3111107
1.0842022e-19 3.1488276 -1.0842022e-19
1.3915838 1.0842022e-19 2.3827579
-0 3.0424926 -1.0842022e-19
-1.8864878 2 2.2725539
3.6893488e+19 3.2044084 2
-1.9620438 -3.6893488e+19 2.3977537
0 3.0458291 3.6893488e+19
-1.8880447 1.0842022e-19 2.2345083
3.6893488e+19 3.0647819 -1.0842022e-19
1.8675649 -0 2.2477436
-1.0842022e-19 3.15832 2
-1.9405372 0 2.3113716
-1.0842022e-19 3.1436377 2
1.9016649 -1.0842022e-19 2.2890601
-0 3.0465333 -2
-1.8883734 -3.6893488e+19 2.1688826
-3.6893488e+19 3.0340991 1.0842022e-19
-1.8825712 -0 2.1193924
2 3.126287 -1.0842022e-19
1.8949797 -3.6893488e+19 2.2180691
0 3.0338795 -1.0842022e-19
-1.8824686 0 2.0872355
1.0842022e-19 3.1362982 2
1.898837 1.0842022e-19 2.1871812
1.0842022e-19 3.0308716 -1.0842022e-19
-1.881065 2 2.0521674
1.0842022e-19 3.0647392 2
1.867532 -3.6893488e+19 2.0709188
0 3.1251032 -3.6893488e+19
2.0781319 -0 2.1118996
-0 3.036196 -2
1.3281993 3.6893488e+19 2.0096967
2 3.062185 -3.6893488e+19
2.0230925 0 2.0162151
-3.6893488e+19 3.0366454 0
1.3285185 -3.6893488e+19 1.978039
-3.6893488e+19 3.0625737 3.6893488e+19
2.0234327 -0 1.9815409
2 3.0375185 1.0842022e-19
1.3291383 -1.0842022e-19 1.9465989
3.6893488e+19 3.0624175 0
2.0232961 -0 1.9464595
3.6893488e+19 3.0372536 -1.0842022e-19
1.3289502 -1.0842022e-19 1.9143256
2 3.0575678 0
2.0190537 -3.6893488e+19 1.9090126
2 3.0405357 2
1.3312805 -0 1.8837668
1.0842022e-19 3.0540111 0
2.0159423 -0 1.8713659
1.0842022e-19 3.0452421 -3.6893488e+19
1.3346219 2 1.8309574
3.6893488e+19 3.0505319 -0
2.0128987 3.6893488e+19 1.8013796
-3.6893488e+19 3.0424361 -3.6893488e+19
1.3326298 2 1.7637491
-0 3.0510621 1.0842022e-19
2.0133626 1.0842022e-19 1.7188189
0 3.0466468 2
1.3356193 2 1.6491141
1.0842022e-19 3.0348136 3.6893488e+19
-1.8829045 1.0842022e-19 1.5343375
2 3.0620031 1.0842022e-19
1.8654237 0 1.26597
0 3.0337222 -2
-1.8823951 3.6893488e+19 -1.4391438
-2 3.0613101 -2
1.8648896 2 -1.6176741
3.6893488e+19 3.0452359 -2
-1.8877679 -0 -1.6809728
-0 3.0597587 0
1.8636942 3.6893488e+19 -1.754499
-3.6893488e+19 3.0383377 -3.6893488e+19
-1.884549 0 -1.7777381
-2 3.0600352 1.0842022e-19
1.8639073 -1.0842022e-19 -1.8238082
-1.0842022e-19 3.040421 -1.0842022e-19
-1.8855212 1.0842022e-19 -1.8436748
3.6893488e+19 3.055831 -2
1.8606675 -2 -1.8821999
0 3.0015318 2
1.8188256 -3.6893488e+19 -1.8868151
1.0842022e-19 2.9689088 -2
-1.8438101 -1.0842022e-19 -1.8906448
2 2.9763997 -3.6893488e+19
1.8085521 3.6893488e+19 -1.9061794
-2 2.893631 2
-1.8086828 1.0842022e-19 -1.8900625
-0 2.8444417 1.0842022e-19
1.7577101 -0 -1.8821701
2 2.8141148 3.6893488e+19
1.8873904 0 -1.8794743
-3.6893488e+19 2.7881899 -2
1.204615 -0 -1.8766693
-1.0842022e-19 2.7592323 1.0842022e-19
1.8517709 0 -1.8677468
1.0842022e-19 2.7166054 2
1.165645 1.0842022e-19 -1.8562025
3.6893488e+19 2.6795633 -3.6893488e+19
1.8128862 0 -1.8502094
-1.0842022e-19 2.6464336 -3.6893488e+19
1.140734 -0 -1.8436337
1.0842022e-19 2.6163664 -3.6893488e+19
1.7852446 3.6893488e+19 -1.8376343
-0 2.5900204 -0
1.1164147 -2 -1.8315856
3.6893488e+19 2.5678968 1.0842022e-19
1.7640446 -1.0842022e-19 -1.8273627
-3.6893488e+19 2.5539553 3.6893488e+19
1.0908085 3.6893488e+19 -1.8267304
-2 2.5315273 -2
1.746274 -0 -1.8200417
-2 2.518913 3.6893488e+19
1.0659285 -1.0842022e-19 -1.818584
3.6893488e+19 2.5063722 0
1.7242689 2 -1.8170506
-0 2.48124 -2
1.0458403 1.0842022e-19 -1.8117516
2 2.4565134 0
1.699674 1.0842022e-19 -1.8088589
-1.0842022e-19 2.3855596 1.0842022e-19
-1.5549164 -1.0842022e-19 -1.8018775
-0 2.3388064 -2
-1.5330995 -1.0842022e-19 -1.7996124
0 2.2971005 -0
-1.513638 1.0842022e-19 -1.7950006
-2 2.266856 -2
-1.4990498 1.0842022e-19 -1.792919
-2 2.2297633 2
1.5848433 1.0842022e-19 -1.7898668
0 2.1937196 3.6893488e+19
1.5690781 3.6893488e+19 -1.7902681
-1.0842022e-19 2.1587491 1.0842022e-19
1.5537825 -2 -1.7890838
-2 2.123888 -3.6893488e+19
1.5385345 0 -1.7859814
-1.0842022e-19 3.1480539 -2
1.886658 -2 2.6127598
-2 3.0461257 -1.0842022e-19
-1.9006182 2 2.5156024
1.0842022e-19 3.1463575 0
1.8860756 -3.6893488e+19 2.5996048
3.6893488e+19 3.0448718 -0
-1.8999804 1.0842022e-19 2.5058506
3.6893488e+19 3.1461015 -2
1.8859876 -3.6893488e+19 2.587811
2 3.1531322 1.0842022e-19
-1.9550449 2 2.5880277
3.6893488e+19 3.1475067 -2
1.8864701 0 2.577435
-0 3.1691408 2
-1.9631873 1.0842022e-19 2.5892608
-0 3.1491094 3.6893488e+19
1.8870203 0 2.5671694
-2 3.1742587 -3.6893488e+19
-1.9657904 -3.6893488e+19 2.5811012
1.0842022e-19 3.148916 2
1.8869539 3.6893488e+19 2.5554652
0 3.1703742 0
-1.9638146 1.0842022e-19 2.5659111
2 3.1475642 1.0842022e-19
1.8864899 2 2.5429518
0 3.1698077 0
-1.9635265 2 2.5533772
2 3.0662923 3.6893488e+19
1.842176 -2 2.4479101
2 3.1576087 -0
2.0894179 -1.0842022e-19 2.5330722
-3.6893488e+19 3.1514721 -1.0842022e-19
-1.3769671 2 2.5226724
2 3.1498411 0
2.0829499 -3.6893488e+19 2.5161903
-0 3.1548679 2
-1.378041 0 2.5133762
-1.0842022e-19 3.0599909 -2
2.008131 -2 2.3949797
-0 3.1534643 -1.0842022e-19
-1.3775971 -1.0842022e-19 2.5009291
0 3.1512225 -0
2.0841 0 2.4882739
1.0842022e-19 3.1539228 -2
-1.3777421 -0 2.4793801
1.0842022e-19 3.0618424 0
-1.3222427 2 2.3523407
1.0842022e-19 3.0615108 -3.6893488e+19
2.0093966 2 2.3435757
2 3.0623896 3.6893488e+19
-1.3225888 -3.6893488e+19 2.3352087
-1.0842022e-19 3.0665367 -1.0842022e-19
2.0135818 0 2.331126
-1.0842022e-19 3.1514294 2
-1.3769536 -0 2.4079814
1.0842022e-19 3.0644634 0
2.0118554 3.6893488e+19 2.3111107
-3.6893488e+19 3.1496031 3.6893488e+19
-1.376376 3.6893488e+19 2.3835022
-3.6893488e+19 3.043555 -2
-1.8993107 -1.0842022e-19 2.2735658
-2 3.0515485 1.0842022e-19
-1.9033765 -0 2.2639732
-2 3.1584723 2
-1.957761 3.6893488e+19 2.3345244
2 3.156826 -0
-1.9569236 -0 2.310257
3.6893488e+19 3.2544756 3.6893488e+19
-2.0088675 -1.0842022e-19 2.3595006
3.6893488e+19 3.0537474 -1.0842022e-19
1.8335623 2 2.161921
-1.0842022e-19 3.0334227 0
-1.8941572 -3.6893488e+19 2.1185422
-2 3.1252191 1.0842022e-19
1.8788185 2 2.2167132
-1.0842022e-19 3.0343862 -2
-1.8946471 -0 2.0878644
-0 3.0338097 -3.6893488e+19
-1.8943539 3.6893488e+19 2.0553527
2 3.0662546 -0
1.8421501 0 2.0724449
2 3.1250622 -3.6893488e+19
2.0623162 -0 2.1118095
1.0842022e-19 3.0372257 1.0842022e-19
-1.3066725 -3.6893488e+19 2.0106308
1.0842022e-19 3.0704248 0
2.0168195 -1.0842022e-19 2.0232031
-0 3.1668284 -1.0842022e-19
-1.3818235 2 2.0816052
-0 3.0634904 1.0842022e-19
2.0110452 -2 1.9821874
-2 3.1710527 -0
-1.3831595 -0 2.0379066
-2 3.2624736 0
2.1871266 -3.6893488e+19 2.0800598
0 3.0384717 1.0842022e-19
-1.3074605 2 1.9150224
0 3.0572054 -2
2.0058115 -1.0842022e-19 1.908803
2 3.0405669 3.6893488e+19
-1.3087858 1.0842022e-19 1.8837812
-1.0842022e-19 3.053648 -0
2.0028493 0 1.8710374
1.0842022e-19 3.2602291 -2
2.1833882 1.0842022e-19 1.9027048
-1.0842022e-19 3.2595649 3.6893488e+19
-1.4141768 0 1.8713061
3.6893488e+19 3.2593977 0
2.182004 -3.6893488e+19 1.8135098
-2 3.2589447 2
-1.4137846 -3.6893488e+19 1.7551626
0 3.0354469 -2
-1.8951865 -2 1.5347044
3.6893488e+19 3.2523167 2
1.9232484 1.0842022e-19 1.3529911
0 3.034168 3.6893488e+19
-1.8945361 -2 -1.4394561
1.0842022e-19 3.0584233 -2
1.8367728 -2 -1.6154093
3.6893488e+19 3.0416205 1.0842022e-19
-1.8983268 1.0842022e-19 -1.678771
-0 3.0591524 -2
1.8372735 3.6893488e+19 -1.7542378
3.6893488e+19 3.0406883 -1.0842022e-19
-1.8978525 -1.0842022e-19 -1.7789954
-1.0842022e-19 3.0584607 -3.6893488e+19
1.8367985 -1.0842022e-19 -1.8227867
3.6893488e+19 3.0403042 -3.6893488e+19
-1.8976572 -0 -1.8436042
-2 3.0567236 -1.0842022e-19
1.8356059 -0 -1.8825779
-0 2.969919 -3.6893488e+19
-1.8640145 1.0842022e-19 -1.8544123
-3.6893488e+19 3.0015779 1.0842022e-19
1.7977412 2 -1.8868321
-1.0842022e-19 2.9668112 1.0842022e-19
-1.8624339 0 -1.8900269
1.0842022e-19 2.9743054 0
1.7878363 0 -1.9054836
-0 2.8893559 1.0842022e-19
-1.8230379 3.6893488e+19 -1.8885523
2 2.8463347 -3.6893488e+19
1.7378039 3.6893488e+19 -1.8828886
-2 2.8132236 -0
1.8804115 -0 -1.8790889
-2 2.7895005 -1.0842022e-19
-1.1831113 -0 -1.8772453
-2 2.7583339 -0
1.8401161 3.6893488e+19 -1.8668717
2 2.7187264 1.0842022e-19
-1.1482365 -3.6893488e+19 -1.8572533
-2 2.6772566 3.6893488e+19
1.8028895 -2 -1.8489686
0 2.6465585 -2
-1.1254131 3.6893488e+19 -1.8437024
2 2.6146746 -2
1.7768332 2 -1.8366228
3.6893488e+19 2.5890234 -0
-1.0894349 -1.0842022e-19 -1.8309798
-1.0842022e-19 2.5686879 2
1.7576866 0 -1.8278379
1.0842022e-19 2.5534573 -0
-1.066939 2 -1.8263997
3.6893488e+19 2.5324373 0
1.7351872 2 -1.8206447
-1.0842022e-19 2.5186641 -1.0842022e-19
-1.0449321 0 -1.8184048
-0 2.5062838 1.0842022e-19
1.7134089 1.0842022e-19 -1.8169575
-3.6893488e+19 2.4864655 0
-1.0288466 -1.0842022e-19 -1.8137794
0 2.4570742 1.0842022e-19
1.690304 3.6893488e+19 -1.8090589
-1.0842022e-19 3.1480539 -2
1.886658 -2 2.6127598
-2 3.0461257 -1.0842022e-19
-1.9006182 2 2.5156024
1.0842022e-19 3.0600443 -1.0842022e-19
1.8378859 -1.0842022e-19 2.5234728
3.6893488e+19 3.0448718 -0
-1.8999804 1.0842022e-19 2.5058506
1.0842022e-19 3.0569077 -3.6893488e+19
1.8357321 1.0842022e-19 2.5117431
3.6893488e+19 3.0461357 0
-1.9006233 3.6893488e+19 2.4966216
-3.6893488e+19 3.0575397 3.6893488e+19
1.8361663 -2 2.5033271
-3.6893488e+19 3.0474181 2
-1.9012756 -0 2.4814723
1.0842022e-19 3.0613446 3.6893488e+19
1.8387787 3.6893488e+19 2.4948466
0 3.0426188 0
-1.8988345 2 2.4567327
-1.0842022e-19 3.0661561 -2
1.8420825 2 2.4841859
0 3.1703742 0
-1.9638146 1.0842022e-19 2.5659111
2 3.1475642 1.0842022e-19
1.8864899 2 2.5429518
-0 3.0468898 -1.0842022e-19
-1.9010068 -2 2.4290993
2 3.0662923 3.6893488e+19
1.842176 -2 2.4479101
2 3.1576087 -0
2.0894179 -1.0842022e-19 2.5330722
2 3.0628655 3.6893488e+19
-1.3228898 -3.6893488e+19 2.4249847
2 3.0578234 3.6893488e+19
2.0063262 -0 2.4098611
-0 3.1548679 2
-1.378041 0 2.5133762
-1.0842022e-19 3.0599909 -2
2.008131 -2 2.3949797
2 3.0580175 -1.0842022e-19
-1.3198234 -1.0842022e-19 2.3831346
2 3.0630732 -1.0842022e-19
2.0106976 -3.6893488e+19 2.3809991
2 3.0508633 2
-1.3152983 0 2.3570681
1.0842022e-19 3.0618424 0
-1.3222427 2 2.3523407
1.0842022e-19 3.0615108 -3.6893488e+19
2.0093966 2 2.3435757
2 3.0623896 3.6893488e+19
-1.3225888 -3.6893488e+19 2.3352087
-1.0842022e-19 3.0665367 -1.0842022e-19
2.0135818 0 2.331126
-0 3.0624261 2
-1.3226119 3.6893488e+19 2.3175254
1.0842022e-19 3.0644634 0
2.0118554 3.6893488e+19 2.3111107
-3.6893488e+19 3.1496031 3.6893488e+19
-1.376376 3.6893488e+19 2.3835022
-3.6893488e+19 3.043555 -2
-1.8993107 -1.0842022e-19 2.2735658
-2 3.0515485 1.0842022e-19
-1.9033765 -0 2.2639732
0 3.0479183 -1.0842022e-19
-1.9015299 -1.0842022e-19 2.2379689
-0 3.0518546 1.0842022e-19
-1.9035321 -0 2.2104058
-1.0842022e-19 3.0464163 -0
-1.900766 -2 2.1687508
3.6893488e+19 3.0537474 -1.0842022e-19
1.8335623 2 2.161921
-1.0842022e-19 3.0334227 0
-1.8941572 -3.6893488e+19 2.1185422
1.0842022e-19 3.0535457 -1.0842022e-19
1.8334237 -3.6893488e+19 2.1275625
-1.0842022e-19 3.0343862 -2
-1.8946471 -0 2.0878644
-0 3.0338097 -3.6893488e+19
-1.8943539 3.6893488e+19 2.0553527
2 3.0662546 -0
1.8421501 0 2.0724449
2 3.0676191 -3.6893488e+19
2.014483 -3.6893488e+19 2.056396
1.0842022e-19 3.0372257 1.0842022e-19
-1.3066725 -3.6893488e+19 2.0106308
1.0842022e-19 3.0704248 0
2.0168195 -1.0842022e-19 2.0232031
-2 3.0395794 3.6893488e+19
-1.3081613 2 1.9803731
-0 3.0634904 1.0842022e-19
2.0110452 -2 1.9821874
-0 3.036176 -2
-1.3060085 -3.6893488e+19 1.9456809
-0 3.0621805 2
2.0099545 2 1.9462831
0 3.0384717 1.0842022e-19
-1.3074605 2 1.9150224
0 3.0572054 -2
2.0058115 -1.0842022e-19 1.908803
2 3.0405669 3.6893488e+19
-1.3087858 1.0842022e-19 1.8837812
-1.0842022e-19 3.053648 -0
2.0028493 0 1.8710374
-1.0842022e-19 3.0518219 -2
2.0013287 1.0842022e-19 1.802112
1.0842022e-19 3.0419364 -0
-1.309652 -0 1.7635119
3.6893488e+19 3.0519156 -2
2.0014067 2 1.7194085
-3.6893488e+19 3.0456154 -3.6893488e+19
-1.3119791 0 1.6485958
0 3.0354469 -2
-1.8951865 -2 1.5347044
-3.6893488e+19 3.0572102 -1.0842022e-19
1.83594 1.0842022e-19 1.2637962
0 3.034168 3.6893488e+19
-1.8945361 -2 -1.4394561
1.0842022e-19 3.0584233 -2
1.8367728 -2 -1.6154093
3.6893488e+19 3.0416205 1.0842022e-19
-1.8983268 1.0842022e-19 -1.678771
-0 3.0591524 -2
1.8372735 3.6893488e+19 -1.7542378
3.6893488e+19 3.0406883 -1.0842022e-19
-1.8978525 -1.0842022e-19 -1.7789954
-1.0842022e-19 3.0584607 -3.6893488e+19
1.8367985 -1.0842022e-19 -1.8227867
3.6893488e+19 3.0403042 -3.6893488e+19
-1.8976572 -0 -1.8436042
-2 3.0567236 -1.0842022e-19
1.8356059 -0 -1.8825779
-0 2.969919 -3.6893488e+19
-1.8640145 1.0842022e-19 -1.8544123
-3.6893488e+19 3.0015779 1.0842022e-19
1.7977412 2 -1.8868321
-1.0842022e-19 2.9668112 1.0842022e-19
-1.8624339 0 -1.8900269
1.0842022e-19 2.9743054 0
1.7878363 0 -1.9054836
-0 2.8893559 1.0842022e-19
-1.8230379 3.6893488e+19 -1.8885523
2 2.8463347 -3.6893488e+19
1.7378039 3.6893488e+19 -1.8828886
-2 2.8132236 -0
1.8804115 -0 -1.8790889
-2 2.7895005 -1.0842022e-19
-1.1831113 -0 -1.8772453
-2 2.7583339 -0
1.8401161 3.6893488e+19 -1.8668717
2 2.7187264 1.0842022e-19
-1.1482365 -3.6893488e+19 -1.8572533
-2 2.6772566 3.6893488e+19
1.8028895 -2 -1.8489686
0 2.6465585 -2
-1.1254131 3.6893488e+19 -1.8437024
2 2.6146746 -2
1.7768332 2 -1.8366228
3.6893488e+19 2.5890234 -0
-1.0894349 -1.0842022e-19 -1.8309798
-1.0842022e-19 2.5686879 2
1.7576866 0 -1.8278379
1.0842022e-19 2.5534573 -0
-1.066939 2 -1.8263997
3.6893488e+19 2.5324373 0
1.7351872 2 -1.8206447
-1.0842022e-19 2.5186641 -1.0842022e-19
-1.0449321 0 -1.8184048
-0 2.5062838 1.0842022e-19
1.7134089 1.0842022e-19 -1.8169575
-3.6893488e+19 2.4864655 0
-1.0288466 -1.0842022e-19 -1.8137794
0 2.4570742 1.0842022e-19
1.690304 3.6893488e+19 -1.8090589
1.0842022e-19 3.1447544 2
1.8629144 -2 2.6097338
-1.0842022e-19 3.0461304 3.6893488e+19
-1.9130579 -2 2.5156295
0 3.1464396 -2
1.86393 -2 2.5996587
1.0842022e-19 3.0450294 1.0842022e-19
-1.9124516 -0 2.5060093
-0 3.1490865 -0
1.8655254 1.0842022e-19 2.5903389
-1.0842022e-19 3.152822 -2
-1.9718053 -1.0842022e-19 2.5877969
-0 3.0605245 0
1.81215 0 2.5057724
-1.0842022e-19 3.1677575 -3.6893488e+19
-1.9800292 0 2.5881705
3.6893488e+19 3.1485789 1.0842022e-19
1.8652195 3.6893488e+19 2.566731
2 3.174222 0
-1.9835888 -3.6893488e+19 2.5811012
1.0842022e-19 3.1484461 3.6893488e+19
1.8651394 3.6893488e+19 2.5550892
-1.0842022e-19 3.170399 -2
-1.9814837 -1.0842022e-19 2.5659571
2 3.0643439 -3.6893488e+19
1.8144518 -2 2.4632347
3.6893488e+19 3.1683574 3.6893488e+19
-1.9803596 -1.0842022e-19 2.5523553
3.6893488e+19 3.0677857 -3.6893488e+19
1.8165262 0 2.4500015
-0 3.1506512 -1.0842022e-19
2.0667725 -0 2.5282035
3.6893488e+19 3.0607684 1.0842022e-19
-1.5284438 -2 2.4221389
-0 3.1484163 1.0842022e-19
2.0650055 -1.0842022e-19 2.5152066
0 3.0618999 3.6893488e+19
-1.5290024 -0 2.4057992
-2 3.0598471 2
1.9949789 3.6893488e+19 2.3947442
0 3.1501577 -1.0842022e-19
-1.5725802 3.6893488e+19 2.4977486
3.6893488e+19 3.1505969 2
2.0667295 2 2.4874477
2 3.1538892 -0
-1.5744227 -2 2.4793434
0 3.0628519 0
1.9973545 -0 2.3628278
-2 3.064656 -3.6893488e+19
-1.5303633 3.6893488e+19 2.3555222
-3.6893488e+19 3.061552 2
1.9963269 2 2.3435757
3.6893488e+19 3.1523004 -3.6893488e+19
-1.5736382 0 2.4316902
-2 3.0599866 1.0842022e-19
1.9950892 0 2.3242309
2 3.1501868 3.6893488e+19
-1.5725946 -0 2.4067211
-1.0842022e-19 3.1281619 -1.0842022e-19
2.0489914 -3.6893488e+19 2.3740804
3.6893488e+19 3.1495385 -0
-1.5722746 -1.0842022e-19 2.3834426
2 3.0475936 3.6893488e+19
-1.9138635 3.6893488e+19 2.2773533
-3.6893488e+19 3.081491 -0
1.8247863 -0 2.299448
-2 3.1576078 -0
-1.9744406 3.6893488e+19 2.3568478
2 3.0852239 3.6893488e+19
1.827036 2 2.2838998
-2 3.155827 1.0842022e-19
-1.9734601 -3.6893488e+19 2.3323867
-2 3.230108 3.6893488e+19
1.8946781 1.0842022e-19 2.3795388
-2 3.1564486 1.0842022e-19
-1.9738023 -0 2.3099961
-0 3.1560652 2
1.8697314 -2 2.2981524
1.0842022e-19 3.2542825 -3.6893488e+19
-2.0300303 -1.0842022e-19 2.3592589
-2 3.1574981 -2
1.870595 3.6893488e+19 2.2762957
1.0842022e-19 3.16221 2
-1.9769746 3.6893488e+19 2.2680271
-0 3.1263604 -2
1.8518286 3.6893488e+19 2.2181079
2 3.0330846 3.6893488e+19
-1.9058745 -3.6893488e+19 2.0863471
-0 3.0563991 2
1.8096637 -3.6893488e+19 2.0967188
-1.0842022e-19 3.0334423 -1.0842022e-19
-1.9060714 -0 2.0549839
-1.0842022e-19 3.0647016 -0
1.998817 0 2.0535414
0 3.036319 3.6893488e+19
-1.5163717 2 2.00981
0 3.0380483 -2
-1.5172255 0 1.9791565
-1.0842022e-19 3.0632203 1.0842022e-19
1.9976459 -3.6893488e+19 1.9819565
-3.6893488e+19 3.0364861 -0
-1.5164543 -2 1.9458944
1.0842022e-19 3.2683096 -1.0842022e-19
2.1742747 -3.6893488e+19 2.0873535
-2 3.0365334 -3.6893488e+19
-1.5164776 -1.0842022e-19 1.9139147
-3.6893488e+19 3.0565598 -1.0842022e-19
1.9923798 0 1.9084483
2 3.2794447 -1.0842022e-19
-1.6379775 -1.0842022e-19 2.0073223
3.6893488e+19 3.0536261 0
1.9900602 -3.6893488e+19 1.8709867
-0 3.2702618 -3.6893488e+19
-1.6334434 -1.0842022e-19 1.9385327
-3.6893488e+19 3.2597954 -0
2.1608117 3.6893488e+19 1.9024302
-1.0842022e-19 3.2588913 -0
-1.6278292 -0 1.8706685
3.6893488e+19 3.2540174 1.0842022e-19
2.1516747 -3.6893488e+19 1.8095752
2 3.2578495 -1.0842022e-19
-1.6273147 1.0842022e-19 1.7546129
-0 3.0330484 2
-1.9058546 -2 1.5333763
-1.0842022e-19 3.0551019 0
1.8088819 3.6893488e+19 1.2628363
-0 3.0347054 0
-1.906767 0 -1.439831
-3.6893488e+19 3.0580957 1.0842022e-19
1.8106862 -0 -1.6151414
1.0842022e-19 3.0417826 3.6893488e+19
-1.9106638 -1.0842022e-19 -1.6788858
0 3.0584502 -1.0842022e-19
1.8108997 -1.0842022e-19 -1.7539374
3.6893488e+19 3.0421932 0
-1.91089 1.0842022e-19 -1.7798061
2 3.0812185 0
1.824622 2 -1.8373679
-3.6893488e+19 3.0409346 0
-1.910197 -1.0842022e-19 -1.844098
-0 3.0821948 3.6893488e+19
1.8252105 3.6893488e+19 -1.89358
-1.0842022e-19 3.0397248 -3.6893488e+19
-1.9095308 -2 -1.8914546
3.6893488e+19 2.9984362 2
1.7752012 0 -1.8855414
3.6893488e+19 2.9757664 1.0842022e-19
1.7683698 -2 -1.9059542
1.0842022e-19 2.8925047 3.6893488e+19
-1.8411243 2 -1.8896849
-3.6893488e+19 2.8485374 -2
1.71006 -0 -1.8837267
-0 2.8135147 -2
1.8728786 -0 -1.8791916
-2 2.7860038 -1.0842022e-19
-1.3912162 1.0842022e-19 -1.8757093
-3.6893488e+19 2.7624812 -0
1.8325293 3.6893488e+19 -1.8707221
-3.6893488e+19 2.7194717 0
-1.3568046 3.6893488e+19 -1.8576243
1.0842022e-19 2.6770644 -3.6893488e+19
1.7938279 3.6893488e+19 -1.8488381
-3.6893488e+19 2.6465557 2
-1.3208019 3.6893488e+19 -1.8437024
3.6893488e+19 2.6154702 1.0842022e-19
1.7694784 -2 -1.8370563
-1.0842022e-19 2.5870268 -3.6893488e+19
-1.291409 -2 -1.8297682
2 2.5688548 1.0842022e-19
1.7510504 3.6893488e+19 -1.8279171
-1.0842022e-19 2.5539534 2
-1.2750789 3.6893488e+19 -1.8267304
0 2.532475 0
1.7233372 2 -1.8206447
3.6893488e+19 2.5187869 -3.6893488e+19
