# .PCD v0.7 - Point Cloud Data file format
VERSION 0.7
FIELDS x y z
SIZE 4 4 4
TYPE F F F
COUNT 1 1 1
WIDTH 1704
HEIGHT 1
VIEWPOINT 0 0 0 1 0 0 0
POINTS 1704
DATA ascii
-2.7797837 0 1.6321908
-2 3.2493658 -3.6893488e+19
-2.7616513 -0 -1.2594249
3.6893488e+19 3.3397431 -2
-2.8560286 2 -1.7931116
-3.6893488e+19 3.3362737 -2
-2.7768576 2 -1.8659527
-0 3.2560346 1.0842022e-19
-2.7683077 3.6893488e+19 -1.8698021
-0 3.2651787 3.6893488e+19
-2.6866488 1.0842022e-19 -1.905407
-2 3.2542346 3.6893488e+19
-2.7664213 1.0842022e-19 -1.9301813
2 3.266103 -3.6893488e+19
-2.6881707 2 -1.9665879
3.6893488e+19 3.2545078 -3.6893488e+19
-2.7667074 0 -1.9891076
-1.0842022e-19 3.2639546 -2
-2.6846333 2 -2.0249982
0 3.2557654 -0
-2.7680254 -3.6893488e+19 -2.0493352
-0 3.232666 -1.0842022e-19
-2.6473839 -0 -2.0564682
2 2.8563435 0
-2.3272562 2 -1.9045563
-1.0842022e-19 2.8156765 2
-2.1898751 3.6893488e+19 -1.8944157
1.0842022e-19 2.7866411 0
-2.2632434 3.6893488e+19 -1.8907796
-0 2.7650945 1.0842022e-19
-2.1193924 -1.0842022e-19 -1.8863373
3.6893488e+19 2.7318599 1.0842022e-19
-2.1925271 -3.6893488e+19 -1.8821691
-3.6893488e+19 2.6932154 -1.0842022e-19
-2.0587962 2 -1.8765719
-1.0842022e-19 2.660182 -1.0842022e-19
-2.1266999 2 -1.8736064
3.6893488e+19 2.6403151 3.6893488e+19
-2.0219395 -3.6893488e+19 -1.8701473
1.0842022e-19 2.6169734 -0
-2.0870183 2 -1.8685399
0 2.5878208 -2
-1.9853657 -2 -1.8564236
-1.0842022e-19 2.5689406 0
-2.0429065 -2 -1.8550447
3.6893488e+19 2.5583041 0
-1.9648011 -2 -1.8537924
0 2.5342927 -2
-2.0110865 2 -1.8464553
3.6893488e+19 2.5197408 2
-1.9379333 -2 -1.8405833
-1.0842022e-19 2.5028274 3.6893488e+19
-1.9821899 0 -1.8365533
-0 2.481971 -1.0842022e-19
-2.002537 -3.6893488e+19 -1.8351842
1.0842022e-19 2.4381068 -2
-1.9795536 3.6893488e+19 -1.8288352
1.0842022e-19 2.3704388 -3.6893488e+19
-1.9440978 0 -1.8190137
0 2.3187406 -2
-1.9170096 -2 -1.8106419
-0 2.2805636 -1.0842022e-19
-1.8970062 -1.0842022e-19 -1.8049359
-2 2.2622583 1.0842022e-19
-1.8077202 2 -1.8053919
-0 2.2301092 2
-1.7922504 3.6893488e+19 -1.8041323
-1.0842022e-19 2.1848629 2
-1.7764884 3.6893488e+19 -1.8000083
2 2.1489294 3.6893488e+19
-1.7639706 -1.0842022e-19 -1.7973154
-0 3.3082271 3.6893488e+19
-2.8230019 -0 2.7884467
0 3.273145 -1.0842022e-19
-2.786238 1.0842022e-19 2.7117963
1.0842022e-19 3.2752032 -0
-2.7883949 2 2.6987722
-2 3.2698429 -0
-2.7827778 2 2.6738901
3.6893488e+19 3.3103986 -3.6893488e+19
-2.8252773 0 2.7190838
1.0842022e-19 3.2925503 0
-2.7317195 -2 2.6780388
-0 3.2967088 -2
-2.6634448 0 2.6729505
2 3.2977023 -3.6893488e+19
-2.664829 1.0842022e-19 2.6570141
-2 3.3319423 -2
-2.8048468 3.6893488e+19 2.6989684
-2 3.2953696 2
-2.6615789 3.6893488e+19 2.6366522
3.6893488e+19 3.3310671 0
-2.8040431 1.0842022e-19 2.6783504
1.0842022e-19 3.2769969 -2
-2.6359773 1.0842022e-19 2.5965297
-3.6893488e+19 3.2743785 0
-2.6323292 3.6893488e+19 2.5773718
3.6893488e+19 3.2877295 -0
-2.7642429 -1.0842022e-19 2.5886009
-3.6893488e+19 3.290096 0
-2.6542306 -2 2.5793638
-1.0842022e-19 3.2763789 -2
-2.6351163 0 2.5478556
-1.0842022e-19 3.2895906 -1.0842022e-19
-2.7659521 0 2.5570347
-0 3.2790258 -0
-2.6388047 3.6893488e+19 2.5346477
-2 3.2885745 -0
-2.7650189 -3.6893488e+19 2.539186
3.6893488e+19 3.2764802 -0
-2.7897332 -2 2.5210693
2 3.2825348 -3.6893488e+19
-2.7152276 -3.6893488e+19 2.5154238
-1.0842022e-19 3.2765217 1.0842022e-19
-2.7897768 -2 2.5049558
-1.0842022e-19 3.2829065 -2
-2.7158399 -2 2.4989328
-0 3.2791352 -0
-2.7925155 3.6893488e+19 2.482168
3.6893488e+19 3.2859297 3.6893488e+19
-2.7208178 -0 2.4713454
-0 3.2882826 -0
-2.8021014 1.0842022e-19 2.4643941
-2 3.2856057 3.6893488e+19
-2.7202845 3.6893488e+19 2.4379826
2 3.2520418 0
-2.7641234 2 2.3766937
-1.0842022e-19 3.2863955 3.6893488e+19
-2.721585 -3.6893488e+19 2.4063106
1.0842022e-19 3.2519233 1.0842022e-19
-2.7639992 2 2.3472531
2 3.2868824 2
-2.7223866 3.6893488e+19 2.3741086
-0 3.2554696 -0
-2.7677155 3.6893488e+19 2.3224945
-2 3.2679553 2
-2.691221 -2 2.3187323
1.0842022e-19 3.2577255 -1.0842022e-19
-2.7700794 -0 2.2954712
2 3.2678711 2
-2.6910822 -0 2.2879784
0 3.2670166 3.6893488e+19
-2.6220706 -3.6893488e+19 2.2702229
0 3.2628818 -0
-2.7328467 1.0842022e-19 2.2538159
-1.0842022e-19 3.2671413 0
-2.6222446 3.6893488e+19 2.2300055
0 3.2635002 0
-2.7339828 -1.0842022e-19 2.1983256
-1.0842022e-19 3.2690983 3.6893488e+19
-2.6249714 1.0842022e-19 2.1724191
0 3.2641823 1.0842022e-19
-2.7352357 2 2.138885
0 3.262615 1.0842022e-19
-2.7323568 1.0842022e-19 2.0763619
-0 3.2648075 -0
-2.6189923 1.0842022e-19 2.0455539
1.0842022e-19 3.283988 2
-2.7608068 3.6893488e+19 2.0378535
-0 3.260901 -2
-2.7292087 1.0842022e-19 1.9546868
-1.0842022e-19 3.2682943 -2
-2.6238511 -1.0842022e-19 1.9278508
1.0842022e-19 3.2627501 -3.6893488e+19
-2.732605 -1.0842022e-19 1.89598
2 3.2803471 -1.0842022e-19
-2.6406457 -1.0842022e-19 1.8696718
3.6893488e+19 3.2592266 0
-2.7261333 -1.0842022e-19 1.7943484
-1.0842022e-19 3.2656181 2
-2.6873724 -3.6893488e+19 1.5816474
-2 3.2493658 -3.6893488e+19
-2.7616513 -0 -1.2594249
1.0842022e-19 3.2482336 2
-2.7610581 -2 -1.7465357
-3.6893488e+19 3.2635832 -2
-2.6840217 -3.6893488e+19 -1.8138672
-0 3.2560346 1.0842022e-19
-2.7683077 3.6893488e+19 -1.8698021
-0 3.2651787 3.6893488e+19
-2.6866488 1.0842022e-19 -1.905407
-2 3.2542346 3.6893488e+19
-2.7664213 1.0842022e-19 -1.9301813
2 3.266103 -3.6893488e+19
-2.6881707 2 -1.9665879
3.6893488e+19 3.2545078 -3.6893488e+19
-2.7667074 0 -1.9891076
-1.0842022e-19 3.2639546 -2
-2.6846333 2 -2.0249982
-2 3.2085106 -1.0842022e-19
-2.7304893 1.0842022e-19 -2.0183094
-0 3.232666 -1.0842022e-19
-2.6473839 -0 -2.0564682
2 2.8563435 0
-2.3272562 2 -1.9045563
-1.0842022e-19 2.8156765 2
-2.1898751 3.6893488e+19 -1.8944157
1.0842022e-19 2.7866411 0
-2.2632434 3.6893488e+19 -1.8907796
-0 2.7650945 1.0842022e-19
-2.1193924 -1.0842022e-19 -1.8863373
3.6893488e+19 2.7318599 1.0842022e-19
-2.1925271 -3.6893488e+19 -1.8821691
-3.6893488e+19 2.6932154 -1.0842022e-19
-2.0587962 2 -1.8765719
-1.0842022e-19 2.660182 -1.0842022e-19
-2.1266999 2 -1.8736064
3.6893488e+19 2.6403151 3.6893488e+19
-2.0219395 -3.6893488e+19 -1.8701473
1.0842022e-19 2.6169734 -0
-2.0870183 2 -1.8685399
0 2.5878208 -2
-1.9853657 -2 -1.8564236
-1.0842022e-19 2.5689406 0
-2.0429065 -2 -1.8550447
3.6893488e+19 2.5583041 0
-1.9648011 -2 -1.8537924
0 2.5342927 -2
-2.0110865 2 -1.8464553
3.6893488e+19 2.5197408 2
-1.9379333 -2 -1.8405833
-1.0842022e-19 2.5028274 3.6893488e+19
-1.9821899 0 -1.8365533
-0 2.481971 -1.0842022e-19
-2.002537 -3.6893488e+19 -1.8351842
1.0842022e-19 2.4381068 -2
-1.9795536 3.6893488e+19 -1.8288352
1.0842022e-19 2.3704388 -3.6893488e+19
-1.9440978 0 -1.8190137
0 2.3187406 -2
-1.9170096 -2 -1.8106419
-0 2.2805636 -1.0842022e-19
-1.8970062 -1.0842022e-19 -1.8049359
-2 2.2622583 1.0842022e-19
-1.8077202 2 -1.8053919
-0 2.2301092 2
-1.7922504 3.6893488e+19 -1.8041323
-1.0842022e-19 2.1848629 2
-1.7764884 3.6893488e+19 -1.8000083
2 2.1489294 3.6893488e+19
-1.7639706 -1.0842022e-19 -1.7973154
0 3.3078229 2
-2.8260291 2 2.7882674
-2 3.301553 -0
-2.8193884 0 2.7641644
1.0842022e-19 3.2724533 1.0842022e-19
-2.7885675 -2 2.7109449
1.0842022e-19 3.2743909 -2
-2.7906196 3.6893488e+19 2.6977565
2 3.3076746 -1.0842022e-19
-2.8258719 0 2.7336528
-0 3.310437 1.0842022e-19
-2.8287978 1.0842022e-19 2.7194657
-0 3.2967997 3.6893488e+19
-2.6699858 -2 2.6732745
-2 3.3320572 3.6893488e+19
-2.808619 -1.0842022e-19 2.7189484
-0 3.2977171 -0
-2.671284 -0 2.6572216
0 3.332087 -2
-2.8086464 -3.6893488e+19 2.6994357
-0 3.2962668 -3.6893488e+19
-2.6692317 2 2.638005
3.6893488e+19 3.3312426 2
-2.8078618 0 2.6788371
-0 3.2975962 1.0842022e-19
-2.671113 3.6893488e+19 2.6224713
-1.0842022e-19 3.3275199 -0
-2.8044019 -0 2.6548185
2 3.2934027 -0
-2.6651788 3.6893488e+19 2.6002312
-1.0842022e-19 3.2861693 -0
-2.76597 2 2.5869689
0 3.2896886 -0
-2.6599231 0 2.5790524
-0 3.2911839 3.6893488e+19
-2.6620393 -1.0842022e-19 2.5639553
1.0842022e-19 3.2896872 -1.0842022e-19
-2.7692394 -3.6893488e+19 2.5573227
2 3.2916601 -3.6893488e+19
-2.6627128 0 2.5476735
-2 3.288415 -3.6893488e+19
-2.7680571 -0 2.5392013
2 3.2937038 -3.6893488e+19
-2.8110747 -3.6893488e+19 2.5381546
-0 3.2826397 3.6893488e+19
-2.7215807 3.6893488e+19 2.5156667
-3.6893488e+19 3.2937591 2
-2.8111336 -2 2.5210359
0 3.2828596 -3.6893488e+19
-2.7219472 -1.0842022e-19 2.4991207
3.6893488e+19 3.2816467 0
-2.7983048 3.6893488e+19 2.4868422
3.6893488e+19 3.2874789 3.6893488e+19
-2.7296548 -3.6893488e+19 2.4741566
0 3.2896774 -2
-2.8068101 -0 2.4669628
-3.6893488e+19 3.2889228 -0
-2.732064 -2 2.44331
-3.6893488e+19 3.2878811 1.0842022e-19
-2.804908 2 2.4305553
-3.6893488e+19 3.2865295 3.6893488e+19
-2.728071 -2 2.4067216
2 3.2850451 -3.6893488e+19
-2.801904 -2 2.3931797
-1.0842022e-19 3.2872298 2
-2.7292392 0 2.3747652
3.6893488e+19 3.2845411 1.0842022e-19
-2.8013704 -0 2.3594413
-0 3.2866504 -1.0842022e-19
-2.7282724 3.6893488e+19 2.3411553
1.0842022e-19 3.2803309 2
-2.796911 -1.0842022e-19 2.3216093
-0 3.2839043 0
-2.7236907 -3.6893488e+19 2.3053808
-2 3.2808833 0
-2.6474636 -1.0842022e-19 2.2843871
-1.0842022e-19 3.2923799 0
-2.7717423 -3.6893488e+19 2.2824676
3.6893488e+19 3.2813673 0
-2.6481483 -1.0842022e-19 2.2528996
1.0842022e-19 3.2904561 0
-2.7699542 -1.0842022e-19 2.2444882
-2 3.2854185 0
-2.6538811 -2 2.1982439
-3.6893488e+19 3.2889421 -3.6893488e+19
-2.7685471 1.0842022e-19 2.17559
1.0842022e-19 3.2662609 -3.6893488e+19
-2.6267717 2 2.1077116
2 3.2840979 -0
-2.7640448 -0 2.1032734
-0 3.293287 -1.0842022e-19
-2.6650152 1.0842022e-19 2.0774908
-3.6893488e+19 3.3320847 2
-2.8086445 -3.6893488e+19 2.0868087
3.6893488e+19 3.2779083 -0
-2.6432536 -0 1.9972954
2 3.3321786 -3.6893488e+19
-2.8087316 -1.0842022e-19 2.0107644
3.6893488e+19 3.3293183 -3.6893488e+19
-2.716001 3.6893488e+19 1.9684037
-0 3.3323932 -1.0842022e-19
-2.8089311 -0 1.9347845
3.6893488e+19 3.2800336 1.0842022e-19
-2.646261 -0 1.8695107
0 3.3310852 3.6893488e+19
-2.8077154 -3.6893488e+19 1.8414233
3.6893488e+19 3.307158 -1.0842022e-19
-2.8253248 -1.0842022e-19 1.7564341
1.0842022e-19 3.3396893 -1.0842022e-19
-2.7833834 -2 1.6322086
-3.6893488e+19 3.306983 -2
-2.8251395 -1.0842022e-19 -1.2903885
-1.0842022e-19 3.261802 -2
-2.6868131 1.0842022e-19 -1.6367155
1.0842022e-19 3.2491283 -3.6893488e+19
-2.7643244 2 -1.747149
-1.0842022e-19 3.3346229 3.6893488e+19
-2.7791569 -1.0842022e-19 -1.8649
3.6893488e+19 3.2556314 3.6893488e+19
-2.7707508 1.0842022e-19 -1.8695854
3.6893488e+19 3.2637196 1.0842022e-19
-2.6900127 -3.6893488e+19 -1.9046357
2 3.25492 -2
-2.7699971 -3.6893488e+19 -1.9307916
-2 3.2656527 -1.0842022e-19
-2.693238 1.0842022e-19 -1.9663389
-1.0842022e-19 3.2546492 -3.6893488e+19
-2.7697103 -0 -1.9894056
-3.6893488e+19 3.2645757 -0
-2.6914413 -0 -2.025795
-1.0842022e-19 3.2558153 1.0842022e-19
-2.7709455 1.0842022e-19 -2.0496006
-0 3.2318232 -1.0842022e-19
-2.6519578 -3.6893488e+19 -2.0560992
3.6893488e+19 2.8578908 -3.6893488e+19
-2.332629 -1.0842022e-19 -1.9053214
2 2.8170061 2
-2.1985788 -0 -1.8950907
-2 2.7885337 -2
-2.2681675 0 -1.891795
-3.6893488e+19 2.765341 -2
-2.1254704 3.6893488e+19 -1.8865269
-0 2.7293816 -3.6893488e+19
-2.1955442 2 -1.881569
-3.6893488e+19 2.6932571 2
-2.0636151 -2 -1.876642
3.6893488e+19 2.6606624 3.6893488e+19
-2.1316757 -2 -1.8740482
-3.6893488e+19 2.6400127 -3.6893488e+19
-2.0259433 1.0842022e-19 -1.8700703
-0 2.6160231 3.6893488e+19
-2.0901873 0 -1.8680564
-2 2.5891371 2
-1.9899477 -2 -1.8574324
-0 2.5686264 2
-2.0461361 -0 -1.8549572
1.0842022e-19 2.557672 -3.6893488e+19
-1.9676852 1.0842022e-19 -1.8534285
1.0842022e-19 2.5349691 3.6893488e+19
-2.0148544 0 -1.8471167
-3.6893488e+19 2.5197392 0
-1.940847 3.6893488e+19 -1.8406813
1.0842022e-19 2.503159 -3.6893488e+19
-1.9852897 -3.6893488e+19 -1.8369589
-1.0842022e-19 2.4818788 -1.0842022e-19
-2.0051897 -1.0842022e-19 -1.8352891
-0 2.437324 2
-1.9815948 -0 -1.8286116
0 3.3078229 2
-2.8260291 2 2.7882674
-2 3.301553 -0
-2.8193884 0 2.7641644
1.0842022e-19 3.2724533 1.0842022e-19
-2.7885675 -2 2.7109449
1.0842022e-19 3.2743909 -2
-2.7906196 3.6893488e+19 2.6977565
3.6893488e+19 3.2693896 3.6893488e+19
-2.7853227 2 2.6734703
-0 3.310437 1.0842022e-19
-2.8287978 1.0842022e-19 2.7194657
-0 3.2967997 3.6893488e+19
-2.6699858 -2 2.6732745
-2 3.3320572 3.6893488e+19
-2.808619 -1.0842022e-19 2.7189484
-0 3.2977171 -0
-2.671284 -0 2.6572216
0 3.332087 -2
-2.8086464 -3.6893488e+19 2.6994357
-0 3.2962668 -3.6893488e+19
-2.6692317 2 2.638005
3.6893488e+19 3.3312426 2
-2.8078618 0 2.6788371
3.6893488e+19 3.2783749 -1.0842022e-19
-2.6439137 2 2.5984139
-1.0842022e-19 3.3275199 -0
-2.8044019 -0 2.6548185
-0 3.2723496 -3.6893488e+19
-2.6353877 -0 2.5751004
-1.0842022e-19 3.2861693 -0
-2.76597 2 2.5869689
0 3.2896886 -0
-2.6599231 0 2.5790524
-2 3.2732928 1.0842022e-19
-2.6367226 -0 2.5446651
1.0842022e-19 3.2896872 -1.0842022e-19
-2.7692394 -3.6893488e+19 2.5573227
-3.6893488e+19 3.2791874 0
-2.6450639 0 2.5349438
-2 3.288415 -3.6893488e+19
-2.7680571 -0 2.5392013
-0 3.2752244 -3.6893488e+19
-2.7915025 3.6893488e+19 2.5200245
-0 3.2826397 3.6893488e+19
-2.7215807 3.6893488e+19 2.5156667
-3.6893488e+19 3.2937591 2
-2.8111336 -2 2.5210359
0 3.2828596 -3.6893488e+19
-2.7219472 -1.0842022e-19 2.4991207
3.6893488e+19 3.2816467 0
-2.7983048 3.6893488e+19 2.4868422
3.6893488e+19 3.2874789 3.6893488e+19
-2.7296548 -3.6893488e+19 2.4741566
0 3.2896774 -2
-2.8068101 -0 2.4669628
-3.6893488e+19 3.2889228 -0
-2.732064 -2 2.44331
-0 3.2505591 1.0842022e-19
-2.7653785 3.6893488e+19 2.3747363
-3.6893488e+19 3.2865295 3.6893488e+19
-2.728071 -2 2.4067216
0 3.2509518 0
-2.7657943 -3.6893488e+19 2.3461525
3.6893488e+19 3.2666154 3.6893488e+19
-2.6948442 -0 2.3478682
-0 3.2523866 -1.0842022e-19
-2.767314 -1.0842022e-19 2.3188226
-1.0842022e-19 3.2677031 -1.0842022e-19
-2.6966591 -1.0842022e-19 2.3186052
-3.6893488e+19 3.2592502 -0
-2.7745836 -2 2.2974246
1.0842022e-19 3.2683973 3.6893488e+19
-2.6978173 3.6893488e+19 2.2887008
-0 3.2670627 1.0842022e-19
-2.6279066 2 2.2703941
3.6893488e+19 3.261416 3.6893488e+19
-2.7359278 -0 2.2525535
0 3.2677407 -2
-2.6288657 -1.0842022e-19 2.2313035
-3.6893488e+19 3.2625806 -1.0842022e-19
-2.7380929 1.0842022e-19 2.197032
1.0842022e-19 3.2680218 3.6893488e+19
-2.6292636 -1.0842022e-19 2.1709225
3.6893488e+19 3.2651627 -3.6893488e+19
-2.7428923 -3.6893488e+19 2.1405644
1.0842022e-19 3.2662609 -3.6893488e+19
-2.6267717 2 2.1077116
2 3.2658019 1.0842022e-19
-2.7440805 0 2.0805225
3.6893488e+19 3.2661927 -0
-2.6266754 -3.6893488e+19 2.0472364
-3.6893488e+19 3.3320847 2
-2.8086445 -3.6893488e+19 2.0868087
3.6893488e+19 3.2779083 -0
-2.6432536 -0 1.9972954
-2 3.2600431 0
-2.7333763 2 1.9541373
0 3.2695556 2
-2.631434 -3.6893488e+19 1.928769
-0 3.3323932 -1.0842022e-19
-2.8089311 -0 1.9347845
3.6893488e+19 3.2800336 1.0842022e-19
-2.646261 -0 1.8695107
-1.0842022e-19 3.259511 -2
-2.7323868 -1.0842022e-19 1.7946368
3.6893488e+19 3.307158 -1.0842022e-19
-2.8253248 -1.0842022e-19 1.7564341
-2 3.265275 -3.6893488e+19
-2.6926079 3.6893488e+19 1.5814927
-1.0842022e-19 3.2515194 -0
-2.7663956 -0 -1.2605072
-1.0842022e-19 3.261802 -2
-2.6868131 1.0842022e-19 -1.6367155
1.0842022e-19 3.2491283 -3.6893488e+19
-2.7643244 2 -1.747149
-0 3.2630119 2
-2.688832 2 -1.8135602
3.6893488e+19 3.2556314 3.6893488e+19
-2.7707508 1.0842022e-19 -1.8695854
3.6893488e+19 3.2637196 1.0842022e-19
-2.6900127 -3.6893488e+19 -1.9046357
2 3.25492 -2
-2.7699971 -3.6893488e+19 -1.9307916
-2 3.2656527 -1.0842022e-19
-2.693238 1.0842022e-19 -1.9663389
-1.0842022e-19 3.2546492 -3.6893488e+19
-2.7697103 -0 -1.9894056
-3.6893488e+19 3.2645757 -0
-2.6914413 -0 -2.025795
3.6893488e+19 3.2070773 3.6893488e+19
-2.7341111 -0 -2.0176551
-0 3.2318232 -1.0842022e-19
-2.6519578 -3.6893488e+19 -2.0560992
3.6893488e+19 2.8578908 -3.6893488e+19
-2.332629 -1.0842022e-19 -1.9053214
2 2.8170061 2
-2.1985788 -0 -1.8950907
-2 2.7885337 -2
-2.2681675 0 -1.891795
-3.6893488e+19 2.765341 -2
-2.1254704 3.6893488e+19 -1.8865269
-0 2.7293816 -3.6893488e+19
-2.1955442 2 -1.881569
-3.6893488e+19 2.6932571 2
-2.0636151 -2 -1.876642
3.6893488e+19 2.6606624 3.6893488e+19
-2.1316757 -2 -1.8740482
-3.6893488e+19 2.6400127 -3.6893488e+19
-2.0259433 1.0842022e-19 -1.8700703
-0 2.6160231 3.6893488e+19
-2.0901873 0 -1.8680564
-2 2.5891371 2
-1.9899477 -2 -1.8574324
-0 2.5686264 2
-2.0461361 -0 -1.8549572
1.0842022e-19 2.557672 -3.6893488e+19
-1.9676852 1.0842022e-19 -1.8534285
1.0842022e-19 2.5349691 3.6893488e+19
-2.0148544 0 -1.8471167
-3.6893488e+19 2.5197392 0
-1.940847 3.6893488e+19 -1.8406813
1.0842022e-19 2.503159 -3.6893488e+19
-1.9852897 -3.6893488e+19 -1.8369589
-1.0842022e-19 2.4818788 -1.0842022e-19
-2.0051897 -1.0842022e-19 -1.8352891
-0 2.437324 2
-1.9815948 -0 -1.8286116
2 3.3070636 -1.0842022e-19
-2.8286717 2 2.7877569
3.6893488e+19 3.3016233 1.0842022e-19
-2.8228488 -0 2.7644103
-3.6893488e+19 3.2720857 3.6893488e+19
-2.7912326 -0 2.7106445
-2 3.274229 0
-2.7935269 2 2.6978049
-0 3.3067927 0
-2.828382 2 2.7326031
1.0842022e-19 3.3110669 2
-2.8329568 1.0842022e-19 2.7207465
-1.0842022e-19 3.2968731 -3.6893488e+19
-2.6765115 -2 2.6735771
-0 3.3327384 -1.0842022e-19
-2.8129306 -1.0842022e-19 2.7201982
-2 3.2976387 2
-2.6776116 -2 2.6573045
3.6893488e+19 3.3318086 -2
-2.8120561 -1.0842022e-19 2.6993341
-1.0842022e-19 3.2962499 3.6893488e+19
-2.6756163 -2 2.638164
2 3.2975941 -3.6893488e+19
-2.6775472 -2 2.6226425
-1.0842022e-19 3.2953653 2
-2.6743455 1.0842022e-19 2.6027389
2 3.2848499 -0
-2.7678928 2 2.5856206
-3.6893488e+19 3.2902842 1.0842022e-19
-2.6670456 -0 2.5798831
-3.6893488e+19 3.2831833 1.0842022e-19
-2.7663257 3.6893488e+19 2.5671182
-0 3.2914596 -0
-2.6687341 -3.6893488e+19 2.5643992
0 3.2919054 2
-2.6693745 -2 2.5480628
1.0842022e-19 3.28848 0
-2.771307 1.0842022e-19 2.5394437
-1.0842022e-19 3.2936938 -3.6893488e+19
-2.8143611 2 2.5383461
-1.0842022e-19 3.2873898 -3.6893488e+19
-2.7357969 -1.0842022e-19 2.5202801
-3.6893488e+19 3.3107004 -2
-2.8325646 3.6893488e+19 2.5368669
0 3.2871118 -3.6893488e+19
-2.7353268 3.6893488e+19 2.5034513
-1.0842022e-19 3.2796938 -2
-2.799376 0 2.483804
-3.6893488e+19 3.2879291 0
-2.7367089 1.0842022e-19 2.4751608
-1.0842022e-19 3.2907071 3.6893488e+19
-2.8111644 3.6893488e+19 2.46895
-0 3.2889466 -2
-2.7384286 -3.6893488e+19 2.4435904
0 3.2502191 -0
-2.767827 3.6893488e+19 2.3744888
-2 3.2900729 -1.0842022e-19
-2.7403326 1.0842022e-19 2.411978
-0 3.284019 2
-2.8040056 1.0842022e-19 2.3920379
-2 3.2924359 -2
-2.7443268 -0 2.3817677
-1.0842022e-19 3.2746353 -1.0842022e-19
-2.7939615 2 2.3471701
0 3.284343 -0
-2.7306466 -2 2.3385952
-0 3.285526 1.0842022e-19
-2.8056188 3.6893488e+19 2.3277981
3.6893488e+19 3.2838702 0
-2.7298477 -2 2.3055122
2 3.2805681 -1.0842022e-19
-2.6530864 1.0842022e-19 2.2842007
1.0842022e-19 3.2930057 -3.6893488e+19
-2.775563 -2 2.2832456
-1.0842022e-19 3.2866256 -3.6893488e+19
-2.6617892 2 2.2577465
-3.6893488e+19 3.2899287 0
-2.7726696 -0 2.2438931
-2 3.2849627 1.0842022e-19
-2.6594002 -3.6893488e+19 2.197737
-1.0842022e-19 3.2874129 -3.6893488e+19
-2.7703032 2 2.1735969
1.0842022e-19 3.3015702 1.0842022e-19
-2.6832597 2 2.1553376
-2 3.2861125 -2
-2.7690804 -3.6893488e+19 2.1059966
1.0842022e-19 3.3010349 -3.6893488e+19
-2.6824906 3.6893488e+19 2.0862992
-2 3.3336449 -0
-2.8137832 -0 2.0885985
-2 3.2990396 1.0842022e-19
-2.6796243 0 2.0162234
-1.0842022e-19 3.3331003 3.6893488e+19
-2.813271 -3.6893488e+19 2.0116482
-1.0842022e-19 3.2684762 1.0842022e-19
-2.6357145 -3.6893488e+19 1.9281365
-2 3.3340602 -3.6893488e+19
-2.8141737 2 1.9358251
0 3.257375 -1.0842022e-19
-2.734107 0 1.7933437
0 3.3075325 -3.6893488e+19
-2.8291736 1.0842022e-19 1.7566862
-0 3.33938 -1.0842022e-19
-2.78684 2 1.632161
-0 3.3068898 -1.0842022e-19
-2.8284857 -2 -1.2904536
1.0842022e-19 3.3384464 -0
-2.7860508 0 -1.6768372
-3.6893488e+19 3.2500238 -3.6893488e+19
-2.7676182 2 -1.7477772
2 3.2636011 -1.0842022e-19
-2.695585 -1.0842022e-19 -1.8140866
2 3.2540345 0
-2.7719111 -2 -1.868227
1.0842022e-19 3.2640331 3.6893488e+19
-2.6963153 -1.0842022e-19 -1.9049047
1.0842022e-19 3.2546668 3.6893488e+19
-2.7725878 -2 -1.9307381
3.6893488e+19 3.308069 -1.0842022e-19
-2.7603762 -0 -2.0010192
-0 3.2552562 -2
-2.7732186 2 -1.9901438
-0 3.2628717 0
-2.6943524 -0 -2.0241694
0 3.2075732 1.0842022e-19
-2.7397728 -0 -2.0181324
1.0842022e-19 3.2301223 -0
-2.6557937 -0 -2.0551865
-1.0842022e-19 2.7879319 2
-2.2707915 3.6893488e+19 -1.8915859
-2 2.7323661 1.0842022e-19
-2.2036512 1.0842022e-19 -1.8824693
2 2.6932957 -1.0842022e-19
-2.0684369 3.6893488e+19 -1.8767122
3.6893488e+19 2.6616244 0
-2.1371207 0 -1.8747847
-3.6893488e+19 2.6413026 1.0842022e-19
-2.0310884 -1.0842022e-19 -1.8709956
3.6893488e+19 2.6149499 -3.6893488e+19
-2.0932245 -2 -1.8674922
1.0842022e-19 2.5887337 -1.0842022e-19
-1.9933258 -0 -1.8572643
-2 2.5689161 1.0842022e-19
-2.0499313 -1.0842022e-19 -1.8553073
0 2.5602238 -1.0842022e-19
-1.972846 2 -1.8554306
-0 2.5350368 0
-2.0180688 1.0842022e-19 -1.8473057
-0 2.5196133 -0
-1.943674 3.6893488e+19 -1.8406813
1.0842022e-19 2.5033672 2
-1.9882843 1.0842022e-19 -1.8372632
2 2.4810624 2
-2.0074575 0 -1.8350794
0 2.4372592 2
-1.9840146 -0 -1.8287234
0 2.3706439 -0
-1.9483631 2 -1.8193907
-3.6893488e+19 2.3182983 3.6893488e+19
-1.9203486 -2 -1.8106419
3.6893488e+19 2.2794585 1.0842022e-19
-1.8995621 3.6893488e+19 -1.8044761
1.0842022e-19 2.2605598 -3.6893488e+19
-1.8121704 2 -1.8043897
-0 2.2291803 -2
-1.7971071 0 -1.8039516
3.6893488e+19 2.1863909 -3.6893488e+19
-1.7817384 1.0842022e-19 -1.8007861
-0 2.1495223 2
-1.7684964 1.0842022e-19 -1.7977316
2 3.3070636 -1.0842022e-19
-2.8286717 2 2.7877569
1.0842022e-19 3.2734487 -3.6893488e+19
-2.7926912 -1.0842022e-19 2.7294233
-3.6893488e+19 3.2720857 3.6893488e+19
-2.7912326 -0 2.7106445
-2 3.274229 0
-2.7935269 2 2.6978049
-2 3.269083 1.0842022e-19
-2.7880187 3.6893488e+19 2.6732836
1.0842022e-19 3.3110669 2
-2.8329568 1.0842022e-19 2.7207465
-1.0842022e-19 3.2968731 -3.6893488e+19
-2.6765115 -2 2.6735771
-0 3.3327384 -1.0842022e-19
-2.8129306 -1.0842022e-19 2.7201982
-2 3.2976387 2
-2.6776116 -2 2.6573045
3.6893488e+19 3.3318086 -2
-2.8120561 -1.0842022e-19 2.6993341
-1.0842022e-19 3.2776811 -0
-2.6489389 -3.6893488e+19 2.6138341
2 3.2783513 -0
-2.6499016 0 2.5985472
-2 3.2722528 2
-2.6411402 0 2.5751369
2 3.2848499 -0
-2.7678928 2 2.5856206
-3.6893488e+19 3.2902842 1.0842022e-19
-2.6670456 -0 2.5798831
-3.6893488e+19 3.2831833 1.0842022e-19
-2.7663257 3.6893488e+19 2.5671182
1.0842022e-19 3.2740648 2
-2.6437433 1.0842022e-19 2.5456355
1.0842022e-19 3.2794387 -3.6893488e+19
-2.6514637 -3.6893488e+19 2.5353332
1.0842022e-19 3.28848 0
-2.771307 1.0842022e-19 2.5394437
-0 3.2746878 0
-2.7940178 -2 2.519686
-1.0842022e-19 3.2873898 -3.6893488e+19
-2.7357969 -1.0842022e-19 2.5202801
-1.0842022e-19 3.2939293 -0
-2.8146133 1.0842022e-19 2.5213823
0 3.2871118 -3.6893488e+19
-2.7353268 3.6893488e+19 2.5034513
-1.0842022e-19 3.2796938 -2
-2.799376 0 2.483804
-3.6893488e+19 3.2879291 0
-2.7367089 1.0842022e-19 2.4751608
-2 3.2723792 0
-2.7915468 2 2.4393847
-0 3.2889466 -2
-2.7384286 -3.6893488e+19 2.4435904
0 3.2502191 -0
-2.767827 3.6893488e+19 2.3744888
0 3.265187 -0
-2.6982658 3.6893488e+19 2.3766334
0 3.2516191 -2
-2.7693255 -1.0842022e-19 2.3473153
0 3.2644877 -2
-2.6970837 1.0842022e-19 2.3452821
-1.0842022e-19 3.2516387 1.0842022e-19
-2.7693467 3.6893488e+19 2.3180997
-2 3.2682724 0
-2.7034817 -3.6893488e+19 2.3194585
0 3.2515407 -0
-2.7692416 1.0842022e-19 2.2887812
-3.6893488e+19 3.2641003 2
-2.6964293 -0 2.2842352
-0 3.2660937 2
-2.6322916 -0 2.2695389
2 3.2611952 -0
-2.7412927 2 2.2524948
0 3.2649131 0
-2.6305952 0 2.2264431
-2 3.2628148 -1.0842022e-19
-2.7443392 -3.6893488e+19 2.1977046
-2 3.2684495 2
-2.6356761 1.0842022e-19 2.1717916
-0 3.264818 -3.6893488e+19
-2.748107 -2 2.1402957
-3.6893488e+19 3.2689176 -3.6893488e+19
-2.6363485 3.6893488e+19 2.1114497
-2 3.2644687 -1.0842022e-19
-2.7474501 2 2.0790663
-1.0842022e-19 3.2668214 2
-2.633337 -1.0842022e-19 2.0480778
-2 3.3336449 -0
-2.8137832 -0 2.0885985
-2 3.2990396 1.0842022e-19
-2.6796243 0 2.0162234
-1.0842022e-19 3.2588651 -2
-2.7369101 0 1.9533371
-1.0842022e-19 3.2684762 1.0842022e-19
-2.6357145 -3.6893488e+19 1.9281365
-3.6893488e+19 3.2604227 3.6893488e+19
-2.73984 2 1.8948634
0 3.257375 -1.0842022e-19
-2.734107 0 1.7933437
-2 3.2546594 -3.6893488e+19
-2.7725799 -0 1.7180917
0 3.2626069 2
-2.6939044 -1.0842022e-19 1.5795281
1.0842022e-19 3.2510574 1.0842022e-19
-2.7687244 -0 -1.2603526
-2 3.2611687 2
-2.6914737 0 -1.6364599
-3.6893488e+19 3.2500238 -3.6893488e+19
-2.7676182 2 -1.7477772
2 3.2636011 -1.0842022e-19
-2.695585 -1.0842022e-19 -1.8140866
2 3.2540345 0
-2.7719111 -2 -1.868227
1.0842022e-19 3.2640331 3.6893488e+19
-2.6963153 -1.0842022e-19 -1.9049047
1.0842022e-19 3.2546668 3.6893488e+19
-2.7725878 -2 -1.9307381
2 3.2639019 -3.6893488e+19
-2.6960936 -3.6893488e+19 -1.9650313
-0 3.2552562 -2
-2.7732186 2 -1.9901438
-0 3.2628717 0
-2.6943524 -0 -2.0241694
0 3.2075732 1.0842022e-19
-2.7397728 -0 -2.0181324
1.0842022e-19 3.2301223 -0
-2.6557937 -0 -2.0551865
-1.0842022e-19 2.7879319 2
-2.2707915 3.6893488e+19 -1.8915859
-2 2.7323661 1.0842022e-19
-2.2036512 1.0842022e-19 -1.8824693
2 2.6932957 -1.0842022e-19
-2.0684369 3.6893488e+19 -1.8767122
3.6893488e+19 2.6616244 0
-2.1371207 0 -1.8747847
-3.6893488e+19 2.6413026 1.0842022e-19
-2.0310884 -1.0842022e-19 -1.8709956
3.6893488e+19 2.6149499 -3.6893488e+19
-2.0932245 -2 -1.8674922
1.0842022e-19 2.5887337 -1.0842022e-19
-1.9933258 -0 -1.8572643
-2 2.5689161 1.0842022e-19
-2.0499313 -1.0842022e-19 -1.8553073
0 2.5602238 -1.0842022e-19
-1.972846 2 -1.8554306
-0 2.5350368 0
-2.0180688 1.0842022e-19 -1.8473057
-0 2.5196133 -0
-1.943674 3.6893488e+19 -1.8406813
1.0842022e-19 2.5033672 2
-1.9882843 1.0842022e-19 -1.8372632
2 2.4810624 2
-2.0074575 0 -1.8350794
0 2.4372592 2
-1.9840146 -0 -1.8287234
0 2.3706439 -0
-1.9483631 2 -1.8193907
-3.6893488e+19 2.3182983 3.6893488e+19
-1.9203486 -2 -1.8106419
3.6893488e+19 2.2794585 1.0842022e-19
-1.8995621 3.6893488e+19 -1.8044761
1.0842022e-19 2.2605598 -3.6893488e+19
-1.8121704 2 -1.8043897
-0 2.2291803 -2
-1.7971071 0 -1.8039516
3.6893488e+19 2.1863909 -3.6893488e+19
-1.7817384 1.0842022e-19 -1.8007861
-0 2.1495223 2
-1.7684964 1.0842022e-19 -1.7977316
2 3.3062034 2
-2.8311377 2 2.7871499
0 3.271862 -3.6893488e+19
-2.7939997 0 2.7434049
-2 3.3015027 2
-2.8260543 2 2.764488
2 3.2706263 1.0842022e-19
-2.7926636 -2 2.7084913
-0 3.2713161 0
-2.7934096 -1.0842022e-19 2.6933553
1.0842022e-19 3.3046241 -2
-2.8294296 -0 2.7295239
2 3.3122756 2
-2.8377044 -2 2.7229035
0 3.2970073 3.6893488e+19
-2.6830313 3.6893488e+19 2.6739662
2 3.3343034 2
-2.8180432 -1.0842022e-19 2.7226977
1.0842022e-19 3.2957113 0
-2.6811419 2 2.6548557
0 3.3312764 -0
-2.8151634 3.6893488e+19 2.6988871
3.6893488e+19 3.2943969 3.6893488e+19
-2.6792254 0 2.6359162
3.6893488e+19 3.2790115 3.6893488e+19
-2.6567938 1.0842022e-19 2.5995369
0 3.2951517 -2
-2.6803257 1.0842022e-19 2.602648
-2 3.2988806 1.0842022e-19
-2.7843435 0 2.6023672
-3.6893488e+19 3.2930717 -2
-2.6772935 2 2.5832064
1.0842022e-19 3.2977865 -2
-2.7833023 -1.0842022e-19 2.5836744
3.6893488e+19 3.2915218 -1.0842022e-19
-2.6750336 -1.0842022e-19 2.5646131
0 3.2981074 1.0842022e-19
-2.7836077 1.0842022e-19 2.5666425
1.0842022e-19 3.2917082 3.6893488e+19
-2.6753054 3.6893488e+19 2.5480006
0 3.2884853 1.0842022e-19
-2.7744536 -1.0842022e-19 2.5396254
3.6893488e+19 3.2727299 -2
-2.7949383 3.6893488e+19 2.5179496
3.6893488e+19 3.2869439 -3.6893488e+19
-2.7412298 3.6893488e+19 2.5200088
3.6893488e+19 3.3104851 -2
-2.835768 3.6893488e+19 2.5368669
-0 3.288048 1.0842022e-19
-2.7431202 2 2.5044174
2 3.2781649 -2
-2.8008158 -1.0842022e-19 2.4814928
-3.6893488e+19 3.2881057 0
-2.7432191 3.6893488e+19 2.475713
-2 3.2943637 0
-2.8183341 0 2.4751782
-1.0842022e-19 3.2643118 0
-2.7024853 -0 2.4059937
-3.6893488e+19 3.2506914 1.0842022e-19
-2.7711055 2 2.3754563
0 3.2904773 2
-2.7472787 -3.6893488e+19 2.4127781
0 3.2839575 1.0842022e-19
-2.8070803 0 2.3922248
2 3.2916512 1.0842022e-19
-2.7492886 3.6893488e+19 2.3809521
2 3.25172 -2
-2.7722175 0 2.3184233
-1.0842022e-19 3.2812612 2
-2.7315016 -0 2.3351092
-2 3.2851324 1.0842022e-19
-2.808351 -2 2.3275733
2 3.2829676 1.0842022e-19
-2.7344227 -1.0842022e-19 2.3047078
1.0842022e-19 3.2789798 0
-2.6567476 -3.6893488e+19 2.2827234
2 3.2894127 2
-2.775336 -1.0842022e-19 2.279943
0 3.2649584 0
-2.6363046 1.0842022e-19 2.2267468
-2 3.2889473 -1.0842022e-19
-2.7748933 2 2.2425218
-0 3.2679405 1.0842022e-19
-2.6406527 2 2.1711881
1.0842022e-19 3.2633355 0
-2.7505271 -3.6893488e+19 2.1383474
-3.6893488e+19 3.3002775 2
-2.6877995 2 2.1537886
0 3.2847383 -1.0842022e-19
-2.7708888 3.6893488e+19 2.1045027
-2 3.3008022 2
-2.6885645 3.6893488e+19 2.0861962
1.0842022e-19 3.2576857 3.6893488e+19
-2.7403042 -3.6893488e+19 2.0116708
0 3.3000681 0
-2.687494 -2 2.0172634
-2 3.3233538 -0
-2.8076262 -2 2.0041473
-1.0842022e-19 3.3176382 -0
-2.7131109 0 1.9608543
-0 3.3252237 -2
-2.8094051 1.0842022e-19 1.93102
-0 3.2528992 -3.6893488e+19
-2.7734928 -3.6893488e+19 1.7167344
-3.6893488e+19 3.3409204 -0
-2.7918172 3.6893488e+19 1.6328337
3.6893488e+19 3.3407204 -0
-2.8684654 -1.0842022e-19 -1.3088201
3.6893488e+19 3.3325312 1.0842022e-19
-2.7846363 1.0842022e-19 -1.6738418
0 3.2494903 0
-2.770082 -3.6893488e+19 -1.7476724
3.6893488e+19 3.3332472 -1.0842022e-19
-2.785249 -2 -1.8641763
0 3.264255 -0
-2.7023878 0 -1.90512
3.6893488e+19 3.2627389 3.6893488e+19
-2.7841339 2 -1.9365964
-0 3.3065865 -2
-2.7624283 2 -1.9999484
2 3.2627687 3.6893488e+19
-2.7841661 3.6893488e+19 -1.997383
-1.0842022e-19 3.2614143 -3.6893488e+19
-2.6975248 0 -2.022799
-0 3.252882 -3.6893488e+19
-2.7734742 -0 -2.0465775
0 3.2284546 -2
-2.6595418 -1.0842022e-19 -2.0542932
0 2.7239816 1.0842022e-19
-2.0955284 0 -1.8151983
-3.6893488e+19 2.7239296 -3.6893488e+19
-2.0954905 -1.0842022e-19 -1.8421158
-3.6893488e+19 2.7905483 1.0842022e-19
-2.2764165 2 -1.8929597
-2 2.7232411 -0
-2.0949886 3.6893488e+19 -1.8687259
-2 2.7312226 2
-2.2078166 2 -1.8822359
3.6893488e+19 2.6940703 3.6893488e+19
-2.0737233 -0 -1.8769928
3.6893488e+19 2.6600394 -2
-2.1400955 -3.6893488e+19 -1.8739746
0 2.6403847 2
-2.0345869 3.6893488e+19 -1.870533
1.0842022e-19 2.6143639 -0
-2.0966415 -2 -1.8672504
-0 2.5886981 -1.0842022e-19
-1.9969079 -1.0842022e-19 -1.8573483
-3.6893488e+19 2.5682371 -0
-2.0527585 -0 -1.8549572
1.0842022e-19 2.5600791 3.6893488e+19
-1.9760449 2 -1.8554306
0 2.5357106 2
-2.0218139 -3.6893488e+19 -1.8479669
2 2.5199771 0
-1.946811 0 -1.8410732
-2 2.5024867 -0
-1.9902061 -1.0842022e-19 -1.8366547
-3.6893488e+19 2.4804888 -0
-2.0098076 2 -1.8349745
1.0842022e-19 2.4629648 -0
-1.9481416 1.0842022e-19 -1.8314024
-1.0842022e-19 2.4367161 -0
-1.9861391 -0 -1.8286116
2 3.3062034 2
-2.8311377 2 2.7871499
0 3.271862 -3.6893488e+19
-2.7939997 0 2.7434049
-1.0842022e-19 3.2734213 1.0842022e-19
-2.7956862 1.0842022e-19 2.7297082
2 3.2706263 1.0842022e-19
-2.7926636 -2 2.7084913
-0 3.2713161 0
-2.7934096 -1.0842022e-19 2.6933553
-3.6893488e+19 3.2674887 1.0842022e-19
-2.7892706 -2 2.6710675
2 3.3122756 2
-2.8377044 -2 2.7229035
0 3.2970073 3.6893488e+19
-2.6830313 3.6893488e+19 2.6739662
2 3.3343034 2
-2.8180432 -1.0842022e-19 2.7226977
1.0842022e-19 3.2957113 0
-2.6811419 2 2.6548557
0 3.3312764 -0
-2.8151634 3.6893488e+19 2.6988871
-2 3.2772329 3.6893488e+19
-2.6542008 -1.0842022e-19 2.6134164
3.6893488e+19 3.2790115 3.6893488e+19
-2.6567938 1.0842022e-19 2.5995369
0 3.2719891 -0
-2.6465552 0 2.5749733
0 3.2821484 0
-2.768425 1.0842022e-19 2.5826404
0 3.2744229 -1.0842022e-19
-2.6501036 -1.0842022e-19 2.5620034
0 3.2826946 -0
-2.7689445 -3.6893488e+19 2.5667636
-1.0842022e-19 3.2736473 -1.0842022e-19
-2.648973 -0 2.5453229
0 3.2843432 1.0842022e-19
-2.7705131 -1.0842022e-19 2.5520225
-1.0842022e-19 3.2792473 -1.0842022e-19
-2.6571376 3.6893488e+19 2.5352709
0 3.2884853 1.0842022e-19
-2.7744536 -1.0842022e-19 2.5396254
3.6893488e+19 3.2727299 -2
-2.7949383 3.6893488e+19 2.5179496
-0 3.2620807 -0
-2.6986656 -0 2.4932261
0 3.2851961 1.0842022e-19
-2.8084197 -1.0842022e-19 2.5135014
-0 3.2617831 0
-2.6981564 3.6893488e+19 2.4624381
2 3.2781649 -2
-2.8008158 -1.0842022e-19 2.4814928
0 3.2623084 -0
-2.6990552 -0 2.4331167
0 3.2779253 -2
-2.8005567 3.6893488e+19 2.448642
-1.0842022e-19 3.2643118 0
-2.7024853 -0 2.4059937
-3.6893488e+19 3.2506914 1.0842022e-19
-2.7711055 2 2.3754563
-3.6893488e+19 3.2640216 0
-2.7019887 -2 2.3751841
3.6893488e+19 3.2508132 2
-2.7712371 0 2.3464434
2 3.2645864 -1.0842022e-19
-2.7029552 2 2.3456004
2 3.25172 -2
-2.7722175 0 2.3184233
2 3.2684455 0
-2.7095618 1.0842022e-19 2.31984
0 3.2514114 1.0842022e-19
-2.771884 -1.0842022e-19 2.2888329
-1.0842022e-19 3.2636659 -0
-2.7013795 1.0842022e-19 2.2839234
1.0842022e-19 3.2789798 0
-2.6567476 -3.6893488e+19 2.2827234
2 3.2894127 2
-2.775336 -1.0842022e-19 2.279943
0 3.2649584 0
-2.6363046 1.0842022e-19 2.2267468
-2 3.2633073 3.6893488e+19
-2.7505004 -3.6893488e+19 2.1988173
-0 3.2679405 1.0842022e-19
-2.6406527 2 2.1711881
1.0842022e-19 3.2633355 0
-2.7505271 -3.6893488e+19 2.1383474
0 3.2688692 2
-2.6420064 -0 2.111553
0 3.2847383 -1.0842022e-19
-2.7708888 3.6893488e+19 2.1045027
2 3.2687557 -2
-2.6418409 1.0842022e-19 2.0503788
1.0842022e-19 3.2576857 3.6893488e+19
-2.7403042 -3.6893488e+19 2.0116708
2 3.2696741 -2
-2.6431799 2 1.9901923
1.0842022e-19 3.2581604 -1.0842022e-19
-2.7412074 1.0842022e-19 1.9529071
0 3.2697036 3.6893488e+19
-2.643223 0 1.9290344
-0 3.3252237 -2
-2.8094051 1.0842022e-19 1.93102
-0 3.2528992 -3.6893488e+19
-2.7734928 -3.6893488e+19 1.7167344
2 3.2611947 -0
-2.6971488 -1.0842022e-19 1.5785398
-0 3.2479053 -1.0842022e-19
-2.7692249 -3.6893488e+19 -1.259311
2 3.2613771 2
-2.6974611 0 -1.6366436
0 3.2494903 0
-2.770082 -3.6893488e+19 -1.7476724
-0 3.2632885 2
-2.7007334 -2 -1.8139659
0 3.264255 -0
-2.7023878 0 -1.90512
3.6893488e+19 3.2542338 -0
-2.7749362 -0 -1.9305561
1.0842022e-19 3.2620313 -0
-2.698581 -2 -1.9636241
0 3.2541747 -3.6893488e+19
-2.7748721 0 -1.9892921
-1.0842022e-19 3.2614143 -3.6893488e+19
-2.6975248 0 -2.022799
-1.0842022e-19 3.209336 2
-2.7467401 -3.6893488e+19 -2.0193522
0 3.2284546 -2
-2.6595418 -1.0842022e-19 -2.0542932
0 2.7239816 1.0842022e-19
-2.0955284 0 -1.8151983
-3.6893488e+19 2.7239296 -3.6893488e+19
-2.0954905 -1.0842022e-19 -1.8421158
-3.6893488e+19 2.7905483 1.0842022e-19
-2.2764165 2 -1.8929597
-2 2.7232411 -0
-2.0949886 3.6893488e+19 -1.8687259
-2 2.7312226 2
-2.2078166 2 -1.8822359
3.6893488e+19 2.6940703 3.6893488e+19
-2.0737233 -0 -1.8769928
3.6893488e+19 2.6600394 -2
-2.1400955 -3.6893488e+19 -1.8739746
0 2.6403847 2
-2.0345869 3.6893488e+19 -1.870533
1.0842022e-19 2.6143639 -0
-2.0966415 -2 -1.8672504
-0 2.5886981 -1.0842022e-19
-1.9969079 -1.0842022e-19 -1.8573483
-3.6893488e+19 2.5682371 -0
-2.0527585 -0 -1.8549572
1.0842022e-19 2.5600791 3.6893488e+19
-1.9760449 2 -1.8554306
0 2.5357106 2
-2.0218139 -3.6893488e+19 -1.8479669
2 2.5199771 0
-1.946811 0 -1.8410732
-2 2.5024867 -0
-1.9902061 -1.0842022e-19 -1.8366547
-3.6893488e+19 2.4804888 -0
-2.0098076 2 -1.8349745
1.0842022e-19 2.4629648 -0
-1.9481416 1.0842022e-19 -1.8314024
-1.0842022e-19 2.4367161 -0
-1.9861391 -0 -1.8286116
-3.6893488e+19 3.3139074 0
-2.8427675 -1.0842022e-19 2.8043623
2 3.3058555 -0
-2.8339751 -2 2.7872469
-1.0842022e-19 3.2964365 -2
-2.8236902 -1.0842022e-19 2.7694063
-3.6893488e+19 3.3005097 -1.0842022e-19
-2.8281379 -3.6893488e+19 2.7640193
-0 3.3043523 0
-2.8323338 -3.6893488e+19 2.729871
-1.0842022e-19 3.2941711 1.0842022e-19
-2.6848471 0 2.670537
-2 3.3342175 0
-2.821419 -1.0842022e-19 2.7233472
-2 3.2956455 -0
-2.6870265 2 2.6553793
0 3.3345957 -0
-2.8217824 -3.6893488e+19 2.7041435
1.0842022e-19 3.2942717 1.0842022e-19
-2.6849957 2 2.636354
-3.6893488e+19 3.2966151 -1.0842022e-19
-2.6884599 1.0842022e-19 2.6221883
-2 3.2954371 -1.0842022e-19
-2.6867185 -2 2.6035762
2 3.2982774 1.0842022e-19
-2.786855 2 2.6022987
3.6893488e+19 3.2960982 0
-2.6876957 0 2.5872271
-2 3.2976954 1.0842022e-19
-2.7862954 -0 2.5842032
-3.6893488e+19 3.2928615 -1.0842022e-19
-2.6829112 -0 2.5666242
1.0842022e-19 3.2975044 1.0842022e-19
-2.7861116 -0 2.5666213
1.0842022e-19 3.2796648 1.0842022e-19
-2.6634035 -1.0842022e-19 2.5362289
-2 3.2918992 1.0842022e-19
-2.7807212 -2 2.5436499
-3.6893488e+19 3.2726777 1.0842022e-19
-2.7977471 2 2.5184767
-3.6893488e+19 3.2892749 2
-2.750572 -2 2.5227644
-3.6893488e+19 3.3140178 -0
-2.8428879 -2 2.5407839
0 3.2875874 0
-2.7482202 0 2.50456
-0 3.2793691 1.0842022e-19
-2.8050537 -0 2.4847164
-2 3.2893164 -3.6893488e+19
-2.7506077 0 2.4787989
-1.0842022e-19 3.2941182 -2
-2.8211586 1.0842022e-19 2.4759569
0 3.2931015 1.0842022e-19
-2.7538865 -0 2.4512978
-3.6893488e+19 3.2906697 -1.0842022e-19
-2.75178 0 2.4141064
-0 3.2834942 -3.6893488e+19
-2.8095579 -1.0842022e-19 2.3926716
-2 3.2842629 -1.0842022e-19
-2.742461 2 2.3723147
-3.6893488e+19 3.3285756 2
-2.8587842 2 2.416878
-2 3.2810791 -2
-2.7369452 -2 2.335876
2 3.285887 2
-2.8121707 -2 2.3294899
3.6893488e+19 3.2821906 -2
-2.7388706 2 2.304841
2 3.2788515 1.0842022e-19
-2.6622014 2 2.2835155
-2 3.287921 1.0842022e-19
-2.7768953 0 2.2794931
1.0842022e-19 3.2652664 -0
-2.6421196 -1.0842022e-19 2.2290266
-3.6893488e+19 3.2820699 0
-2.7712684 2 2.2327049
3.6893488e+19 3.2954731 1.0842022e-19
-2.6867716 1.0842022e-19 2.2163584
-2 3.2847302 -1.0842022e-19
-2.7738266 0 2.1717837
-0 3.3084612 -0
-2.7059708 -0 2.1667345
-1.0842022e-19 3.283082 2
-2.7722416 1.0842022e-19 2.1042755
-3.6893488e+19 3.3061013 -1.0842022e-19
-2.7024825 -0 2.094013
-3.6893488e+19 3.2530539 -3.6893488e+19
-2.7367268 3.6893488e+19 2.0085731
-3.6893488e+19 3.2694747 3.6893488e+19
-2.6483407 0 1.9916544
3.6893488e+19 3.2581146 3.6893488e+19
-2.7464604 0 1.9544734
3.6893488e+19 3.317049 -0
-2.7186654 -2 1.9623591
-2 3.2572553 1.0842022e-19
-2.744808 0 1.8947507
0 3.3164263 -2
-2.7177446 -2 1.890132
1.0842022e-19 3.2512085 -1.0842022e-19
-2.7743039 1.0842022e-19 1.7212464
1.0842022e-19 3.339504 -0
-2.7940805 2 1.6401119
-1.0842022e-19 3.3389113 -1.0842022e-19
-2.87007 0 -1.2403572
-3.6893488e+19 3.3368001 -0
-2.7917385 0 -1.6684676
1.0842022e-19 3.3384502 2
-2.8695664 -2 -1.7890131
1.0842022e-19 3.3349812 -1.0842022e-19
-2.7901628 0 -1.8617185
-2 3.2386916 0
-2.7668104 2 -1.8564386
3.6893488e+19 3.2638724 0
-2.7071362 3.6893488e+19 -1.9034686
-1.0842022e-19 3.2350745 1.0842022e-19
-2.7648356 -3.6893488e+19 -1.9209589
3.6893488e+19 3.2619097 -1.0842022e-19
-2.7037358 0 -1.96214
-1.0842022e-19 3.2614918 3.6893488e+19
-2.703012 2 -2.0215278
-3.6893488e+19 3.2488933 -0
-2.7723801 -2 -2.041297
-3.6893488e+19 3.2271681 2
-2.6633263 -2 -2.0522695
-0 2.7241411 -0
-2.1004403 0 -1.8146729
-2 2.8236895 0
-2.3112941 -0 -1.8902663
-2 2.7249489 -1.0842022e-19
-2.1010373 -3.6893488e+19 -1.8420038
2 2.7905636 1.0842022e-19
-2.2794366 -1.0842022e-19 -1.892632
0 2.7237701 0
-2.1001661 -1.0842022e-19 -1.8684324
2 2.7279153 -2
-2.2096136 3.6893488e+19 -1.8810592
3.6893488e+19 2.6910563 1.0842022e-19
-2.0759871 3.6893488e+19 -1.8758729
3.6893488e+19 2.6596837 2
-2.143995 0 -1.8733127
1.0842022e-19 2.6403372 3.6893488e+19
-2.0385003 0 -1.8700559
-2 2.6139135 1.0842022e-19
-2.0999777 -2 -1.8665667
-2 2.588551 0
-2.0002251 1.0842022e-19 -1.8568677
-2 2.5680559 -3.6893488e+19
-2.055876 0 -1.8545005
-0 2.5568845 0
-1.9768201 -1.0842022e-19 -1.8527197
-0 2.5371211 3.6893488e+19
-2.0261259 0 -1.8487829
-0 2.5199828 0
-1.9495459 -2 -1.8407876
1.0842022e-19 2.5022228 -1.0842022e-19
-1.992564 -1.0842022e-19 -1.8361911
0 2.4796989 -2
-2.0119004 -0 -1.8344176
-1.0842022e-19 2.4629726 1.0842022e-19
-1.950515 -3.6893488e+19 -1.83118
-1.0842022e-19 2.4364345 -3.6893488e+19
-1.9882796 1.0842022e-19 -1.8282958
-0 2.3706274 -0
-1.952351 -0 -1.8193737
2 2.318352 1.0842022e-19
-1.9238102 2 -1.8106905
-1.0842022e-19 2.2814701 -0
-1.9036739 -3.6893488e+19 -1.8058051
-1.0842022e-19 2.2615409 -2
-1.8183063 -0 -1.8050392
2 2.2292409 -2
-1.8021047 2 -1.8039622
3.6893488e+19 2.1831129 3.6893488e+19
-1.785058 3.6893488e+19 -1.7994657
0 2.1506145 1.0842022e-19
-1.7730482 -0 -1.7982137
-3.6893488e+19 3.3139074 0
-2.8427675 -1.0842022e-19 2.8043623
2 3.3058555 -0
-2.8339751 -2 2.7872469
0 3.2695508 -0
-2.7943325 1.0842022e-19 2.7399442
-3.6893488e+19 3.3005097 -1.0842022e-19
-2.8281379 -3.6893488e+19 2.7640193
-3.6893488e+19 3.2673762 -3.6893488e+19
-2.7919581 2 2.6715713
-1.0842022e-19 3.2941711 1.0842022e-19
-2.6848471 0 2.670537
-2 3.3342175 0
-2.821419 -1.0842022e-19 2.7233472
-2 3.2956455 -0
-2.6870265 2 2.6553793
0 3.3345957 -0
-2.8217824 -3.6893488e+19 2.7041435
1.0842022e-19 3.2942717 1.0842022e-19
-2.6849957 2 2.636354
-3.6893488e+19 3.2966151 -1.0842022e-19
-2.6884599 1.0842022e-19 2.6221883
-2 3.2954371 -1.0842022e-19
-2.6867185 -2 2.6035762
2 3.2982774 1.0842022e-19
-2.786855 2 2.6022987
-2 3.2755406 0
-2.6573074 -2 2.5638139
-3.6893488e+19 3.2825525 3.6893488e+19
-2.7717323 -0 2.5672033
0 3.2735336 1.0842022e-19
-2.6543403 -1.0842022e-19 2.5457277
-0 3.2842307 -0
-2.7733462 3.6893488e+19 2.5524948
1.0842022e-19 3.2796648 1.0842022e-19
-2.6634035 -1.0842022e-19 2.5362289
-2 3.2918992 1.0842022e-19
-2.7807212 -2 2.5436499
-3.6893488e+19 3.2726777 1.0842022e-19
-2.7977471 2 2.5184767
1.0842022e-19 3.2619982 0
-2.7038891 -1.0842022e-19 2.4940889
-1.0842022e-19 3.2796829 2
-2.8053963 -2 2.5089893
-2 3.2616403 -2
-2.7032692 0 2.4631858
-0 3.2793691 1.0842022e-19
-2.8050537 -0 2.4847164
1.0842022e-19 3.2622871 -2
-2.7043896 0 2.434067
1.0842022e-19 3.2761157 1.0842022e-19
-2.801501 2 2.4468241
3.6893488e+19 3.2630129 -0
-2.705647 2 2.4049695
-0 3.2634375 3.6893488e+19
-2.7063828 -1.0842022e-19 2.3753095
1.0842022e-19 3.250613 0
-2.7736537 -1.0842022e-19 2.3471272
0 3.2641847 -3.6893488e+19
-2.7076769 -2 2.3460169
1.0842022e-19 3.2516997 0
-2.7748404 -3.6893488e+19 2.3193419
1.0842022e-19 3.2630463 -1.0842022e-19
-2.7057047 -3.6893488e+19 2.3143275
-2 3.2502036 -2
-2.7732067 3.6893488e+19 2.2883644
3.6893488e+19 3.263768 2
-2.7069552 0 2.2849398
2 3.2788515 1.0842022e-19
-2.6622014 2 2.2835155
-3.6893488e+19 3.2810812 -3.6893488e+19
-2.7703173 -2 2.2728534
1.0842022e-19 3.2652664 -0
-2.6421196 -1.0842022e-19 2.2290266
-3.6893488e+19 3.2641068 2
-2.753993 2 2.2019646
0 3.2669587 -1.0842022e-19
-2.6446211 -2 2.1713526
-2 3.2847302 -1.0842022e-19
-2.7738266 0 2.1717837
-0 3.3084612 -0
-2.7059708 -0 2.1667345
-1.0842022e-19 3.283082 2
-2.7722416 1.0842022e-19 2.1042755
3.6893488e+19 3.2688484 3.6893488e+19
-2.6474147 -3.6893488e+19 2.052146
-3.6893488e+19 3.2530539 -3.6893488e+19
-2.7367268 3.6893488e+19 2.0085731
-3.6893488e+19 3.2694747 3.6893488e+19
-2.6483407 0 1.9916544
3.6893488e+19 3.2581146 3.6893488e+19
-2.7464604 0 1.9544734
-2 3.2700269 -3.6893488e+19
-2.6491568 0 1.9308639
-2 3.2572553 1.0842022e-19
-2.744808 0 1.8947507
-0 3.2704279 -2
-2.6497495 -0 1.8645226
1.0842022e-19 3.2512085 -1.0842022e-19
-2.7743039 1.0842022e-19 1.7212464
0 3.2610877 -2
-2.7023115 0 1.5904996
2 3.246851 -0
-2.771265 -0 -1.1761842
-0 3.2604914 -2
-2.7012787 3.6893488e+19 -1.6302979
1.0842022e-19 3.3384502 2
-2.8695664 -2 -1.7890131
-1.0842022e-19 3.2630129 1.0842022e-19
-2.7056472 -3.6893488e+19 -1.8108612
-2 3.2386916 0
-2.7668104 2 -1.8564386
3.6893488e+19 3.2638724 0
-2.7071362 3.6893488e+19 -1.9034686
-1.0842022e-19 3.2350745 1.0842022e-19
-2.7648356 -3.6893488e+19 -1.9209589
3.6893488e+19 3.2619097 -1.0842022e-19
-2.7037358 0 -1.96214
-1.0842022e-19 3.2614918 3.6893488e+19
-2.703012 2 -2.0215278
1.0842022e-19 3.2103293 2
-2.7513254 2 -2.01878
-3.6893488e+19 3.2271681 2
-2.6633263 -2 -2.0522695
-0 2.7241411 -0
-2.1004403 0 -1.8146729
-2 2.8236895 0
-2.3112941 -0 -1.8902663
-2 2.7249489 -1.0842022e-19
-2.1010373 -3.6893488e+19 -1.8420038
2 2.7905636 1.0842022e-19
-2.2794366 -1.0842022e-19 -1.892632
0 2.7237701 0
-2.1001661 -1.0842022e-19 -1.8684324
2 2.7279153 -2
-2.2096136 3.6893488e+19 -1.8810592
3.6893488e+19 2.6910563 1.0842022e-19
-2.0759871 3.6893488e+19 -1.8758729
3.6893488e+19 2.6596837 2
-2.143995 0 -1.8733127
1.0842022e-19 2.6403372 3.6893488e+19
-2.0385003 0 -1.8700559
-2 2.6139135 1.0842022e-19
-2.0999777 -2 -1.8665667
-2 2.588551 0
-2.0002251 1.0842022e-19 -1.8568677
-2 2.5680559 -3.6893488e+19
-2.055876 0 -1.8545005
-0 2.5568845 0
-1.9768201 -1.0842022e-19 -1.8527197
-0 2.5371211 3.6893488e+19
-2.0261259 0 -1.8487829
-0 2.5199828 0
-1.9495459 -2 -1.8407876
1.0842022e-19 2.5022228 -1.0842022e-19
-1.992564 -1.0842022e-19 -1.8361911
0 2.4796989 -2
-2.0119004 -0 -1.8344176
-1.0842022e-19 2.4629726 1.0842022e-19
-1.950515 -3.6893488e+19 -1.83118
-1.0842022e-19 2.4364345 -3.6893488e+19
-1.9882796 1.0842022e-19 -1.8282958
-0 2.3706274 -0
-1.952351 -0 -1.8193737
2 2.318352 1.0842022e-19
-1.9238102 2 -1.8106905
-1.0842022e-19 2.2814701 -0
-1.9036739 -3.6893488e+19 -1.8058051
-1.0842022e-19 2.2615409 -2
-1.8183063 -0 -1.8050392
2 2.2292409 -2
-1.8021047 2 -1.8039622
3.6893488e+19 2.1831129 3.6893488e+19
-1.785058 3.6893488e+19 -1.7994657
0 2.1506145 1.0842022e-19
-1.7730482 -0 -1.7982137
-1.0842022e-19 3.3134472 -3.6893488e+19
-2.8457961 -0 2.8041346
-1.0842022e-19 3.3060617 0
-2.8376486 2 2.7876475
-3.6893488e+19 3.2966502 3.6893488e+19
-2.8272657 1.0842022e-19 2.7697945
0 3.2648907 -2
-2.7922282 2 2.6679523
3.6893488e+19 3.2942395 0
-2.6913276 3.6893488e+19 2.6708398
-3.6893488e+19 3.3356218 1.0842022e-19
-2.8264916 -3.6893488e+19 2.7256372
3.6893488e+19 3.2955923 3.6893488e+19
-2.6933565 0 2.655504
1.0842022e-19 3.3356571 2
-2.8265257 3.6893488e+19 2.705873
-1.0842022e-19 3.2943101 2
-2.6914334 -0 2.6365929
1.0842022e-19 3.2945127 -0
-2.6917372 -1.0842022e-19 2.6197302
-3.6893488e+19 3.2844062 0
-2.7766693 3.6893488e+19 2.6028066
-0 3.2949741 -0
-2.6924293 3.6893488e+19 2.6031942
1.0842022e-19 3.2981186 -1.0842022e-19
-2.7900083 2 2.6023343
2 3.2962277 3.6893488e+19
-2.6943095 3.6893488e+19 2.587539
3.6893488e+19 3.2989662 1.0842022e-19
-2.790833 -1.0842022e-19 2.5858424
-2 3.2922468 -0
-2.6883388 3.6893488e+19 2.5661137
-0 3.2969697 0
-2.7888908 -1.0842022e-19 2.5662525
1.0842022e-19 3.2853034 2
-2.6779242 1.0842022e-19 2.5421424
2 3.2918954 -2
-2.7839544 3.6893488e+19 2.5438321
-2 3.2881243 0
-2.7527375 -2 2.5218346
-2 3.3151095 -1.0842022e-19
-2.84763 -3.6893488e+19 2.5420046
-2 3.2875445 -1.0842022e-19
-2.7522287 -3.6893488e+19 2.5046673
-3.6893488e+19 3.2923515 -1.0842022e-19
-2.8225234 -1.0842022e-19 2.503803
3.6893488e+19 3.2909584 -2
-2.7552233 0 2.481791
2 3.293787 2
-2.8241069 3.6893488e+19 2.4757626
-1.0842022e-19 3.2921743 -1.0842022e-19
-2.75629 0 2.4501274
0 3.3060858 -1.0842022e-19
-2.8376749 -3.6893488e+19 2.4599476
2 3.2907016 -3.6893488e+19
-2.754998 -3.6893488e+19 2.4143879
3.6893488e+19 3.2835758 2
-2.8128419 -1.0842022e-19 2.3930669
1.0842022e-19 3.2840247 -2
-2.7482824 1.0842022e-19 2.372215
-3.6893488e+19 3.3282344 1.0842022e-19
-2.8621097 -0 2.4167445
-2 3.2811317 2
-2.7432075 -1.0842022e-19 2.3361309
2 3.2895734 3.6893488e+19
-2.8194585 -0 2.3339787
3.6893488e+19 3.2820904 -3.6893488e+19
-2.744889 3.6893488e+19 2.3049068
0 3.2752056 1.0842022e-19
-2.6627786 -2 2.2799449
-1.0842022e-19 3.2875113 -0
-2.7796898 -3.6893488e+19 2.2792721
2 3.2884414 -3.6893488e+19
-2.7805943 -1.0842022e-19 2.2439208
1.0842022e-19 3.2808948 -1.0842022e-19
-2.6713116 2 2.1935649
-3.6893488e+19 3.2858391 -0
-2.7780631 1.0842022e-19 2.1736946
1.0842022e-19 3.3082342 2
-2.7123179 -1.0842022e-19 2.1666307
3.6893488e+19 3.2866046 -1.0842022e-19
-2.7788076 0 2.1089113
-0 3.3064587 1.0842022e-19
-2.709655 2 2.0945826
3.6893488e+19 3.252044 3.6893488e+19
-2.7403746 0 2.0077043
-1.0842022e-19 3.3103476 1.0842022e-19
-2.715488 3.6893488e+19 2.0284431
2 3.2597725 2
-2.7527056 2 1.9559171
0 3.2509902 0
-2.7383242 -3.6893488e+19 1.8913147
2 3.34746 0
-2.7605762 -1.0842022e-19 1.9039506
1.0842022e-19 3.3386605 3.6893488e+19
-2.8736115 -3.6893488e+19 1.774241
-0 3.3381045 1.0842022e-19
-2.7965791 -2 1.639614
1.0842022e-19 3.3383064 1.0842022e-19
-2.8732209 -2 -1.2401005
3.6893488e+19 3.3372643 -2
-2.7958419 3.6893488e+19 -1.6687961
-3.6893488e+19 3.3389449 2
-2.8739254 1.0842022e-19 -1.7893711
-3.6893488e+19 3.3355224 -1.0842022e-19
-2.7943141 0 -1.8622365
-1.0842022e-19 3.2366838 2
