# .PCD v0.7 - Point Cloud Data file format
VERSION 0.7
FIELDS x y z
SIZE 4 4 4
TYPE F F F
COUNT 1 1 1
WIDTH 1698
HEIGHT 1
VIEWPOINT 0 0 0 1 0 0 0
POINTS 1698
DATA ascii
-1.9157683 3.6893488e+19 -1.9192762
-1.0842022e-19 3.0228212 -3.6893488e+19
-2.1195841 0 -1.904989
-1.0842022e-19 3.0283101 1.0842022e-19
-1.8891256 0 -1.9231689
0 2.9682159 -2
-2.0671401 -1.0842022e-19 -1.9092383
-1.0842022e-19 2.8985739 1.0842022e-19
-1.8242447 -2 -1.896276
2 2.8512599 2
-1.1231685 2 -1.8886688
-3.6893488e+19 2.8230782 -1.0842022e-19
-1.8895047 2 -1.8867736
-3.6893488e+19 2.7924111 -1.0842022e-19
-1.0815912 -0 -1.8817881
-1.0842022e-19 2.7639554 2
-1.8529512 -3.6893488e+19 -1.8765343
0 2.7426379 2
-1.0490266 -1.0842022e-19 -1.8746041
-2 2.6904995 0
-1.8152071 1.0842022e-19 -1.860864
-1.0842022e-19 2.6545005 -3.6893488e+19
-1.0178916 -0 -1.8526049
1.0842022e-19 2.6286664 1.0842022e-19
-1.7885076 -3.6893488e+19 -1.8490108
-2 2.6066844 0
-1.0010005 -1.0842022e-19 -1.8457021
-2 2.5851667 -1.0842022e-19
-1.7697245 -1.0842022e-19 -1.8421067
1.0842022e-19 2.5627639 -0
-0.98548532 -1.0842022e-19 -1.8360806
-2 2.5441864 0
-1.7520293 -1.0842022e-19 -1.8321103
3.6893488e+19 2.5310786 3.6893488e+19
-0.97429234 -3.6893488e+19 -1.8304945
1.0842022e-19 2.5157921 -2
-1.7295372 -1.0842022e-19 -1.8270874
-0 2.5026541 0
-0.96425128 -2 -1.8239322
-2 2.4790661 -0
-1.7068601 1.0842022e-19 -1.820631
0 2.4622731 3.6893488e+19
-1.7815574 0 -1.8207105
-1.0842022e-19 3.1403303 -2
-1.9615253 3.6893488e+19 2.6092865
3.6893488e+19 3.1139388 -1.0842022e-19
-2.254204 -2 2.5807176
1.0842022e-19 3.1414649 1.0842022e-19
-1.9621402 2 2.5988505
3.6893488e+19 3.1584783 1.0842022e-19
-2.2853141 0 2.60919
0 3.1416051 2
-1.9622161 -2 2.5875242
0 3.1557722 1.0842022e-19
-2.2834239 -2 2.5949268
0 3.1404712 -1.0842022e-19
-1.9616016 -2 2.5751631
1.0842022e-19 3.1531587 -0
-2.2815983 3.6893488e+19 2.5809309
-1.0842022e-19 3.1389763 -1.0842022e-19
-1.9607916 -3.6893488e+19 2.5626132
0 3.1555254 2
-2.2832515 -3.6893488e+19 2.5710661
2 3.1364145 -0
-1.9594033 0 2.5493531
2 3.137387 -0
-1.9599303 -1.0842022e-19 2.5389092
-0 3.1465559 0
-2.2769866 -2 2.5409639
2 3.144675 -3.6893488e+19
-1.9638797 -3.6893488e+19 2.532964
-1.0842022e-19 3.1318774 0
-1.5369606 -2 2.5181422
1.0842022e-19 3.137527 2
-2.1009834 -3.6893488e+19 2.5169687
1.0842022e-19 3.1294389 -3.6893488e+19
-1.5359262 1.0842022e-19 2.5055356
-0 3.1353037 0
-2.0989699 -0 2.50437
-2 3.1299982 3.6893488e+19
-1.5361636 -2 2.4900591
-2 3.1379559 1.0842022e-19
-2.101372 0 2.4900105
-0 3.1309412 -3.6893488e+19
-1.5365634 -3.6893488e+19 2.4695003
-3.6893488e+19 3.140625 -1.0842022e-19
-2.1037893 -2 2.4710419
2 3.0880251 1.0842022e-19
-1.518362 -3.6893488e+19 2.3973308
2 3.1439595 2
-2.1068094 -3.6893488e+19 2.4525795
-1.0842022e-19 3.1348481 0
-1.5382205 1.0842022e-19 2.4304631
-3.6893488e+19 3.1430142 -1.0842022e-19
-2.1059532 -3.6893488e+19 2.4291136
-0 3.0960264 1.0842022e-19
-1.5217556 2 2.3673859
1.0842022e-19 3.0925555 1.0842022e-19
-1.5202835 1.0842022e-19 2.344276
2 3.1316156 2
-2.266551 0 2.3633096
3.6893488e+19 3.1269534 1.0842022e-19
-1.9542762 -2 2.3470521
2 3.1279924 -0
-2.2640202 -3.6893488e+19 2.3384175
3.6893488e+19 3.0840225 -3.6893488e+19
-1.9310113 -0 2.2886581
-2 3.0555444 -1.0842022e-19
-2.1768336 -2 2.256249
-2 3.141691 3.6893488e+19
-1.9622627 -3.6893488e+19 2.3163972
-0 3.0893748 -2
-1.9339118 0 2.2550225
-2 3.1306202 -0
-2.2658558 -3.6893488e+19 2.2761924
3.6893488e+19 3.1388125 -2
-1.9607028 -3.6893488e+19 2.2702968
0 3.1279967 -3.6893488e+19
-2.2640231 -0 2.2529705
-2 3.1381667 1.0842022e-19
-1.9603529 -3.6893488e+19 2.2460792
0 3.0608475 1.0842022e-19
-2.1842418 1.0842022e-19 2.1310349
2 3.1311467 -0
-1.9565486 1.0842022e-19 2.194319
-2 3.0644214 -1.0842022e-19
-2.1892345 -3.6893488e+19 2.1000292
-0 3.1313932 2
-1.9566822 1.0842022e-19 2.1518335
3.6893488e+19 3.0585656 3.6893488e+19
-2.0294681 -3.6893488e+19 2.0408342
0 3.2175639 1.0842022e-19
-1.5733016 1.0842022e-19 2.163836
-0 3.2145693 -3.6893488e+19
-2.1707606 -3.6893488e+19 2.1358094
-2 3.090538 0
-1.5194279 -3.6893488e+19 2.0133178
2 3.2206891 1.0842022e-19
-1.574627 2 2.0613453
0 3.0621514 -1.0842022e-19
-2.0327156 2 1.9393455
-0 3.2516313 -2
-1.588442 3.6893488e+19 2.0266836
1.0842022e-19 3.2488103 2
-1.5865537 1.0842022e-19 1.9685408
3.6893488e+19 3.2444732 1.0842022e-19
-2.1978447 1.0842022e-19 1.9393505
-3.6893488e+19 3.0815539 -3.6893488e+19
-1.5156175 -1.0842022e-19 1.8415265
0 3.2380238 -1.0842022e-19
-2.1920033 3.6893488e+19 1.8823431
1.0842022e-19 3.0821869 3.6893488e+19
-1.5158859 2 1.7678081
-2 3.2214093 -1.0842022e-19
-2.1769557 -1.0842022e-19 1.7753174
-1.0842022e-19 3.2390666 0
-2.3416035 0 1.7030715
-3.6893488e+19 3.2335641 -3.6893488e+19
-2.0120499 1.0842022e-19 1.5593468
0 3.0517583 -2
-2.1715443 -3.6893488e+19 -1.1577554
0 3.2307518 0
-2.0105259 -3.6893488e+19 -1.6209058
0 3.0722961 -2
-2.2002349 -2 -1.6548588
-3.6893488e+19 3.2277284 -0
-2.0088875 -0 -1.792737
3.6893488e+19 3.0714931 3.6893488e+19
-2.1991134 -1.0842022e-19 -1.7742424
0 3.0766664 0
-1.927025 2 -1.8126183
-0 3.0722311 1.0842022e-19
-2.2001443 3.6893488e+19 -1.8467566
-2 3.0793025 -1.0842022e-19
-1.9284536 -2 -1.8813374
-2 3.0706191 -1.0842022e-19
-2.1978924 2 -1.8962467
3.6893488e+19 3.0813913 -1.0842022e-19
-1.9295855 2 -1.9191806
0 3.0715747 -1.0842022e-19
-2.1992271 0 -1.9327269
3.6893488e+19 3.0275061 -3.6893488e+19
-1.9003843 2 -1.9226834
2 3.0114574 2
-2.1152458 -3.6893488e+19 -1.9278814
2 2.8984776 -3.6893488e+19
-1.8409404 -1.0842022e-19 -1.8962531
0 2.8550036 1.0842022e-19
-1.4005629 -2 -1.8901473
3.6893488e+19 2.8204765 3.6893488e+19
-1.8951279 1.0842022e-19 -1.8856919
2 2.7930961 0
-1.3736138 -0 -1.8820975
-0 2.7664087 -1.0842022e-19
-1.8662865 -2 -1.8777289
0 2.7367721 1.0842022e-19
-1.3314481 -0 -1.8716334
3.6893488e+19 2.6885679 -2
-1.8236055 2 -1.8598638
-0 2.6576157 0
-1.2978766 -0 -1.8543589
-2 2.6286113 1.0842022e-19
-1.7964543 -3.6893488e+19 -1.8490108
-1.0842022e-19 2.6050625 1.0842022e-19
-1.2755879 1.0842022e-19 -1.8446996
2 2.5838742 1.0842022e-19
-1.776195 2 -1.8413008
1.0842022e-19 2.5603957 -1.0842022e-19
-1.2566439 3.6893488e+19 -1.8344834
-3.6893488e+19 2.5450139 -2
-1.7585971 -2 -1.832723
1.0842022e-19 2.5310771 2
-1.2384189 -3.6893488e+19 -1.8304945
-3.6893488e+19 2.5162504 -2
-1.7411432 -2 -1.8274653
0 2.5031505 0
-1.2147306 3.6893488e+19 -1.824324
-2 2.4792449 -0
-1.7170262 -3.6893488e+19 -1.8207324
-0 2.4611781 -1.0842022e-19
-1.7860619 -3.6893488e+19 -1.8202909
-2 2.4204867 -2
-1.7718508 -3.6893488e+19 -1.8149704
2 2.355793 -0
-1.7485144 2 -1.8059454
-2 2.3122184 -2
-1.7180785 3.6893488e+19 -1.801576
2 2.2768736 -2
-1.6933907 2 -1.7974259
1.0842022e-19 2.2483959 0
-1.086378 1.0842022e-19 -1.7938669
2 2.208813 -2
-1.0695901 -3.6893488e+19 -1.7936482
-0 2.167866 1.0842022e-19
-1.0522239 0 -1.7906746
3.6893488e+19 2.1343932 3.6893488e+19
-1.0380275 -2 -1.7885747
-1.0842022e-19 3.1403303 -2
-1.9615253 3.6893488e+19 2.6092865
3.6893488e+19 3.1139388 -1.0842022e-19
-2.254204 -2 2.5807176
1.0842022e-19 3.1414649 1.0842022e-19
-1.9621402 2 2.5988505
2 3.1118889 0
-2.2527723 -2 2.568222
0 3.1416051 2
-1.9622161 -2 2.5875242
-0 3.1144426 -1.0842022e-19
-2.2545559 -2 2.5597947
0 3.1404712 -1.0842022e-19
-1.9616016 -2 2.5751631
1.0842022e-19 3.1138432 3.6893488e+19
-2.2541373 2 2.5486591
-1.0842022e-19 3.1389763 -1.0842022e-19
-1.9607916 -3.6893488e+19 2.5626132
-1.0842022e-19 3.1202781 -2
-2.2586319 -2 2.54316
2 3.1364145 -0
-1.9594033 0 2.5493531
2 3.137387 -0
-1.9599303 -1.0842022e-19 2.5389092
3.6893488e+19 3.1205864 -1.0842022e-19
-2.2588472 1.0842022e-19 2.5219095
2 3.144675 -3.6893488e+19
-1.9638797 -3.6893488e+19 2.532964
-1.0842022e-19 3.1318774 0
-1.5369606 -2 2.5181422
1.0842022e-19 3.137527 2
-2.1009834 -3.6893488e+19 2.5169687
1.0842022e-19 3.1294389 -3.6893488e+19
-1.5359262 1.0842022e-19 2.5055356
-0 3.1353037 0
-2.0989699 -0 2.50437
-2 3.1299982 3.6893488e+19
-1.5361636 -2 2.4900591
-2 3.1379559 1.0842022e-19
-2.101372 0 2.4900105
-0 3.1309412 -3.6893488e+19
-1.5365634 -3.6893488e+19 2.4695003
-3.6893488e+19 3.140625 -1.0842022e-19
-2.1037893 -2 2.4710419
2 3.0880251 1.0842022e-19
-1.518362 -3.6893488e+19 2.3973308
3.6893488e+19 3.0830557 0
-2.0516489 -3.6893488e+19 2.3826134
1.0842022e-19 3.0933769 2
-1.5206318 -0 2.3840761
0 3.0808456 -3.6893488e+19
-2.0496469 0 2.3612347
-0 3.0960264 1.0842022e-19
-1.5217556 2 2.3673859
1.0842022e-19 3.0925555 1.0842022e-19
-1.5202835 1.0842022e-19 2.344276
0 3.0530295 3.6893488e+19
-2.1733203 3.6893488e+19 2.2884932
-0 3.0851903 -0
-1.9316442 -1.0842022e-19 2.3086019
-2 3.0548813 -1.0842022e-19
-2.1759074 -1.0842022e-19 2.2729611
3.6893488e+19 3.0840225 -3.6893488e+19
-1.9310113 -0 2.2886581
-2 3.0555444 -1.0842022e-19
-2.1768336 -2 2.256249
-2 3.0837996 -3.6893488e+19
-1.9308906 3.6893488e+19 2.2696342
-0 3.0893748 -2
-1.9339118 0 2.2550225
1.0842022e-19 3.0715244 1.0842022e-19
-2.199157 -3.6893488e+19 2.2166204
-0 3.0873795 2
-1.9328306 -3.6893488e+19 2.2190828
-0 3.0686786 3.6893488e+19
-2.1951816 3.6893488e+19 2.1765451
2 3.0854585 -1.0842022e-19
-1.9317895 -0 2.1787179
0 3.0608475 1.0842022e-19
-2.1842418 1.0842022e-19 2.1310349
-3.6893488e+19 3.0874436 2
-1.9328654 -0 2.1433725
-2 3.0644214 -1.0842022e-19
-2.1892345 -3.6893488e+19 2.1000292
-0 3.1313932 2
-1.9566822 1.0842022e-19 2.1518335
3.6893488e+19 3.0585656 3.6893488e+19
-2.0294681 -3.6893488e+19 2.0408342
0 3.2175639 1.0842022e-19
-1.5733016 1.0842022e-19 2.163836
-3.6893488e+19 3.0586534 1.0842022e-19
-2.0295477 -3.6893488e+19 2.0063264
-2 3.090538 0
-1.5194279 -3.6893488e+19 2.0133178
2 3.2206891 1.0842022e-19
-1.574627 2 2.0613453
0 3.0621514 -1.0842022e-19
-2.0327156 2 1.9393455
-0 3.2516313 -2
-1.588442 3.6893488e+19 2.0266836
1.0842022e-19 3.2488103 2
-1.5865537 1.0842022e-19 1.9685408
3.6893488e+19 3.2444732 1.0842022e-19
-2.1978447 1.0842022e-19 1.9393505
-3.6893488e+19 3.0815539 -3.6893488e+19
-1.5156175 -1.0842022e-19 1.8415265
0 3.0645139 2
-2.0348554 -0 1.7955807
1.0842022e-19 3.0821869 3.6893488e+19
-1.5158859 2 1.7678081
2 3.0698159 -0
-2.0396574 -3.6893488e+19 1.7039582
-1.0842022e-19 3.051316 2
-2.1709268 -3.6893488e+19 1.6251131
2 3.085681 -2
-1.93191 1.0842022e-19 1.50297
0 3.0517583 -2
-2.1715443 -3.6893488e+19 -1.1577554
2 3.0796208 0
-1.9286261 0 -1.543602
0 3.0722961 -2
-2.2002349 -2 -1.6548588
1.0842022e-19 3.0764806 -3.6893488e+19
-1.9269242 2 -1.7292637
3.6893488e+19 3.0714931 3.6893488e+19
-2.1991134 -1.0842022e-19 -1.7742424
0 3.0766664 0
-1.927025 2 -1.8126183
-0 3.0722311 1.0842022e-19
-2.2001443 3.6893488e+19 -1.8467566
-2 3.0793025 -1.0842022e-19
-1.9284536 -2 -1.8813374
-2 3.0706191 -1.0842022e-19
-2.1978924 2 -1.8962467
3.6893488e+19 3.0813913 -1.0842022e-19
-1.9295855 2 -1.9191806
-3.6893488e+19 3.0207684 -2
-2.128253 -3.6893488e+19 -1.9038575
3.6893488e+19 3.0275061 -3.6893488e+19
-1.9003843 2 -1.9226834
2 3.0114574 2
-2.1152458 -3.6893488e+19 -1.9278814
2 2.8984776 -3.6893488e+19
-1.8409404 -1.0842022e-19 -1.8962531
0 2.8550036 1.0842022e-19
-1.4005629 -2 -1.8901473
3.6893488e+19 2.8204765 3.6893488e+19
-1.8951279 1.0842022e-19 -1.8856919
2 2.7930961 0
-1.3736138 -0 -1.8820975
-0 2.7664087 -1.0842022e-19
-1.8662865 -2 -1.8777289
0 2.7367721 1.0842022e-19
-1.3314481 -0 -1.8716334
3.6893488e+19 2.6885679 -2
-1.8236055 2 -1.8598638
-0 2.6576157 0
-1.2978766 -0 -1.8543589
-2 2.6286113 1.0842022e-19
-1.7964543 -3.6893488e+19 -1.8490108
-1.0842022e-19 2.6050625 1.0842022e-19
-1.2755879 1.0842022e-19 -1.8446996
2 2.5838742 1.0842022e-19
-1.776195 2 -1.8413008
1.0842022e-19 2.5603957 -1.0842022e-19
-1.2566439 3.6893488e+19 -1.8344834
-3.6893488e+19 2.5450139 -2
-1.7585971 -2 -1.832723
1.0842022e-19 2.5310771 2
-1.2384189 -3.6893488e+19 -1.8304945
-3.6893488e+19 2.5162504 -2
-1.7411432 -2 -1.8274653
0 2.5031505 0
-1.2147306 3.6893488e+19 -1.824324
-2 2.4792449 -0
-1.7170262 -3.6893488e+19 -1.8207324
-0 2.4611781 -1.0842022e-19
-1.7860619 -3.6893488e+19 -1.8202909
-2 2.4204867 -2
-1.7718508 -3.6893488e+19 -1.8149704
2 2.355793 -0
-1.7485144 2 -1.8059454
-2 2.3122184 -2
-1.7180785 3.6893488e+19 -1.801576
2 2.2768736 -2
-1.6933907 2 -1.7974259
1.0842022e-19 2.2483959 0
-1.086378 1.0842022e-19 -1.7938669
2 2.208813 -2
-1.0695901 -3.6893488e+19 -1.7936482
-0 2.167866 1.0842022e-19
-1.0522239 0 -1.7906746
3.6893488e+19 2.1343932 3.6893488e+19
-1.0380275 -2 -1.7885747
3.6893488e+19 3.1402943 2
-1.9779173 3.6893488e+19 2.6092865
-2 3.143471 0
-1.9797724 -2 2.6006706
-1.0842022e-19 3.1560421 -3.6893488e+19
-2.2922056 -0 2.6071308
3.6893488e+19 3.1415384 3.6893488e+19
-1.9786438 3.6893488e+19 2.5874979
2 3.1532114 3.6893488e+19
-2.2901685 0 2.5928299
-2 3.1400375 -2
-1.9777673 3.6893488e+19 2.5748322
-1.0842022e-19 3.154315 -3.6893488e+19
-2.2909627 -3.6893488e+19 2.5819573
-2 3.1392159 0
-1.9772877 -3.6893488e+19 2.5628347
1.0842022e-19 3.1604085 1.0842022e-19
-2.2953479 -0 2.5750079
3.6893488e+19 3.1364708 1.0842022e-19
-1.9756845 -3.6893488e+19 2.5494242
2 3.2083621 1.0842022e-19
-2.0176663 -3.6893488e+19 2.5918732
-3.6893488e+19 3.1457593 -1.0842022e-19
-2.2848058 0 2.5404472
-0 3.1441467 -2
-1.9801669 -2 2.5326114
2 3.1319344 3.6893488e+19
-1.6451541 0 2.5181856
-3.6893488e+19 3.1393433 -2
-2.1190345 -0 2.518261
-0 3.1310058 0
-1.6448013 -0 2.5065939
-1.0842022e-19 3.1339831 2
-2.1139541 -0 2.5035367
-3.6893488e+19 3.1318138 2
-1.6451083 -1.0842022e-19 2.4924066
-3.6893488e+19 3.137712 -1.0842022e-19
-2.1174884 -0 2.4897768
2 3.1306586 0
-1.6446693 0 2.4691579
2 3.1407509 2
-2.1203687 0 2.4712653
-0 3.1324494 3.6893488e+19
-1.6453499 0 2.4495549
3.6893488e+19 3.1409969 -0
-2.1206019 -0 2.4492445
1.0842022e-19 3.1356483 2
-1.6465656 1.0842022e-19 2.4313631
-2 3.1424909 0
-2.1220181 3.6893488e+19 2.4286075
0 3.0959914 -1.0842022e-19
-1.6314939 3.6893488e+19 2.367353
-2 3.1433492 2
-2.1228316 -2 2.4071803
-1.0842022e-19 3.0925512 -1.0842022e-19
-1.6301866 1.0842022e-19 2.344276
-1.0842022e-19 3.1412785 1.0842022e-19
-2.1208689 1.0842022e-19 2.3828347
1.0842022e-19 3.1340613 -2
-2.2763872 -1.0842022e-19 2.3657229
0 3.1262982 -3.6893488e+19
-1.969744 -0 2.3464808
-0 3.1279044 -3.6893488e+19
-2.2719564 -3.6893488e+19 2.3384175
-2 3.0862582 3.6893488e+19
-1.9463623 -2 2.290617
0 3.0512016 -2
-2.1835155 3.6893488e+19 2.2526655
3.6893488e+19 3.1417792 1.0842022e-19
-1.9787844 0 2.3164978
0 3.1510999 0
-2.2886491 -2 2.3137803
3.6893488e+19 3.0920796 1.0842022e-19
-1.9497617 -1.0842022e-19 2.2570786
2 3.1306248 -3.6893488e+19
-2.2739141 -3.6893488e+19 2.2762599
1.0842022e-19 3.1372211 3.6893488e+19
-1.9761226 -2 2.2692153
3.6893488e+19 3.1260166 -1.0842022e-19
-2.2705979 2 2.251704
-3.6893488e+19 3.1373837 -1.0842022e-19
-1.9762176 -1.0842022e-19 2.2451243
0 3.1225951 -3.6893488e+19
-2.2681355 -2 2.2068307
1.0842022e-19 3.1306443 1.0842022e-19
-1.9722821 -0 2.1937742
-1.0842022e-19 3.0637584 -1.0842022e-19
-2.2015886 -1.0842022e-19 2.0993724
-2 3.1330626 -0
-1.6455829 3.6893488e+19 2.1319194
-0 3.2280219 2
-2.2030876 -3.6893488e+19 2.2006214
-1.0842022e-19 3.2045157 2
-1.6727387 0 2.1522923
2 3.2268667 -2
-2.2019925 -3.6893488e+19 2.1460822
-1.0842022e-19 3.090409 1.0842022e-19
-1.6293725 -3.6893488e+19 2.0132213
2 3.227339 2
-2.2024403 -0 2.0930204
-2 3.2733865 3.6893488e+19
-1.7078011 2 2.1116769
0 3.0617299 2
-2.0454695 -0 1.9391185
1.0842022e-19 3.2520812 -3.6893488e+19
-1.6916068 0 2.0271816
2 3.2284329 0
-2.2034771 1.0842022e-19 1.9867382
1.0842022e-19 3.0826507 2
-1.6264238 -1.0842022e-19 1.895744
2 3.2285242 0
-2.2035637 0 1.9332709
-1.0842022e-19 3.2036161 -0
-1.6723968 -1.0842022e-19 1.8981223
3.6893488e+19 3.0651834 1.0842022e-19
-2.048743 -3.6893488e+19 1.7959698
-2 3.0830264 -1.0842022e-19
-1.6265666 -3.6893488e+19 1.7681707
-0 3.2313821 0
-2.2062726 0 1.7785208
-3.6893488e+19 3.2396686 -3.6893488e+19
-2.352387 -3.6893488e+19 1.7033687
-0 3.231802 0
-2.0313544 -2 1.5586919
1.0842022e-19 3.0510345 -3.6893488e+19
-2.183275 -3.6893488e+19 -1.1574136
3.6893488e+19 3.229708 -3.6893488e+19
-2.0301313 -1.0842022e-19 -1.6203946
-3.6893488e+19 3.0729368 2
-2.2147992 -1.0842022e-19 -1.6552029
2 3.0798542 2
-1.9426225 -2 -1.731654
2 3.0724454 -3.6893488e+19
-2.2140915 -2 -1.7747192
-1.0842022e-19 3.0765111 2
-1.9406704 -0 -1.8125465
-2 3.0712848 2
-2.2124214 3.6893488e+19 -1.8461568
2 3.076962 2
-1.9409336 -1.0842022e-19 -1.8804159
1.0842022e-19 3.0779274 0
-1.9414973 0 -1.9174277
-1.0842022e-19 3.0699756 0
-2.2105372 3.6893488e+19 -1.9318606
-0 3.0270748 -0
-1.9118013 -0 -1.9224309
1.0842022e-19 3.0109613 0
-2.1255984 -1.0842022e-19 -1.9275851
-1.0842022e-19 2.8978791 -2
-1.8573465 -1.0842022e-19 -1.896047
-3.6893488e+19 2.8560603 -2
-1.5103207 1.0842022e-19 -1.8905663
-2 2.8213 2
-1.9022703 -1.0842022e-19 -1.8860612
0 2.791595 0
-1.4716413 -0 -1.8814225
-0 2.7654963 -3.6893488e+19
-1.8758237 3.6893488e+19 -1.8773109
3.6893488e+19 2.7385125 0
-1.4356592 -0 -1.8725183
2 2.6887503 -2
-1.8329321 0 -1.8599972
-0 2.6597304 -3.6893488e+19
-1.405718 1.0842022e-19 -1.8555517
-0 2.6284294 1.0842022e-19
-1.804345 1.0842022e-19 -1.8489373
0 2.6070523 -3.6893488e+19
-1.3856976 2 -1.8459334
-2 2.5833259 2
-1.7829696 1.0842022e-19 -1.8409785
3.6893488e+19 2.544472 3.6893488e+19
-1.7645559 -1.0842022e-19 -1.8323729
2 2.5167069 -2
-1.7513975 -3.6893488e+19 -1.8278432
-3.6893488e+19 2.4789238 2
-1.7269713 1.0842022e-19 -1.820631
0 2.4613185 1.0842022e-19
-1.7909925 -1.0842022e-19 -1.8203958
3.6893488e+19 3.1402943 2
-1.9779173 3.6893488e+19 2.6092865
-2 3.143471 0
-1.9797724 -2 2.6006706
-2 3.1112573 -0
-2.2599766 -3.6893488e+19 2.5677407
3.6893488e+19 3.1415384 3.6893488e+19
-1.9786438 3.6893488e+19 2.5874979
1.0842022e-19 3.1144493 -1.0842022e-19
-2.2622736 -0 2.5598724
-2 3.1400375 -2
-1.9777673 3.6893488e+19 2.5748322
1.0842022e-19 3.1140635 2
-2.261996 2 2.5489094
-2 3.1392159 0
-1.9772877 -3.6893488e+19 2.5628347
-2 3.1203446 -1.0842022e-19
-2.2665162 -3.6893488e+19 2.5432808
3.6893488e+19 3.1364708 1.0842022e-19
-1.9756845 -3.6893488e+19 2.5494242
-0 3.1445966 -1.0842022e-19
-1.9804296 -2 2.5443132
0 3.1233783 -3.6893488e+19
-2.2686992 2 2.5240216
-0 3.1441467 -2
-1.9801669 -2 2.5326114
2 3.1319344 3.6893488e+19
-1.6451541 0 2.5181856
-3.6893488e+19 3.1393433 -2
-2.1190345 -0 2.518261
-0 3.1310058 0
-1.6448013 -0 2.5065939
-1.0842022e-19 3.1339831 2
-2.1139541 -0 2.5035367
-3.6893488e+19 3.1318138 2
-1.6451083 -1.0842022e-19 2.4924066
-3.6893488e+19 3.137712 -1.0842022e-19
-2.1174884 -0 2.4897768
0 3.0883152 3.6893488e+19
-1.6285766 1.0842022e-19 2.41697
2 3.1407509 2
-2.1203687 0 2.4712653
-3.6893488e+19 3.0887938 -1.0842022e-19
-1.6287585 -0 2.3982394
-1.0842022e-19 3.0821404 3.6893488e+19
-2.0648155 2 2.3816202
-2 3.0941463 -2
-1.6307927 -0 2.3849416
1.0842022e-19 3.0811353 -3.6893488e+19
-2.0638626 3.6893488e+19 2.3616059
0 3.0959914 -1.0842022e-19
-1.6314939 3.6893488e+19 2.367353
0 3.0797093 -2
-2.062511 2 2.3413026
-1.0842022e-19 3.0925512 -1.0842022e-19
-1.6301866 1.0842022e-19 2.344276
-1.0842022e-19 3.1412785 1.0842022e-19
-2.1208689 1.0842022e-19 2.3828347
3.6893488e+19 3.0528045 -1.0842022e-19
-2.1858227 2 2.2883461
-2 3.0841975 0
-1.945159 2 2.3077164
-1.0842022e-19 3.0538206 2
-2.1872854 -2 2.2720747
-2 3.0862582 3.6893488e+19
-1.9463623 -2 2.290617
0 3.0512016 -2
-2.1835155 3.6893488e+19 2.2526655
2 3.0847943 -2
-1.9455073 -1.0842022e-19 2.2704625
0 3.1510999 0
-2.2886491 -2 2.3137803
3.6893488e+19 3.0920796 1.0842022e-19
-1.9497617 -1.0842022e-19 2.2570786
0 3.0728135 -3.6893488e+19
-2.2146213 0 2.2186005
0 3.0872862 -1.0842022e-19
-1.9469625 0 2.2189965
-3.6893488e+19 3.0683563 -1.0842022e-19
-2.2082064 1.0842022e-19 2.176213
-1.0842022e-19 3.0832484 3.6893488e+19
-1.9446046 -2 2.1759326
-1.0842022e-19 3.0618923 2
-2.1989028 -0 2.1324046
-1.0842022e-19 3.0879109 2
-1.9473274 -0 2.1439536
-1.0842022e-19 3.0637584 -1.0842022e-19
-2.2015886 -1.0842022e-19 2.0993724
-2 3.1330626 -0
-1.6455829 3.6893488e+19 2.1319194
3.6893488e+19 3.0577402 -0
-2.041688 -2 2.0401003
3.6893488e+19 3.1342494 0
-1.646034 -1.0842022e-19 2.0900993
-0 3.0589492 1.0842022e-19
-2.042834 -2 2.0066111
-1.0842022e-19 3.090409 1.0842022e-19
-1.6293725 -3.6893488e+19 2.0132213
2 3.0598013 -0
-2.0436416 1.0842022e-19 1.9726263
-0 3.0871434 -3.6893488e+19
-1.6281313 1.0842022e-19 1.9730121
0 3.0617299 2
-2.0454695 -0 1.9391185
1.0842022e-19 3.2520812 -3.6893488e+19
-1.6916068 0 2.0271816
1.0842022e-19 3.0673234 -2
-2.0507712 -2 1.9070179
1.0842022e-19 3.0826507 2
-1.6264238 -1.0842022e-19 1.895744
-1.0842022e-19 3.066386 1.0842022e-19
-2.0498829 1.0842022e-19 1.8673466
-0 3.0819561 3.6893488e+19
-1.6261599 -2 1.8417917
3.6893488e+19 3.0651834 1.0842022e-19
-2.048743 -3.6893488e+19 1.7959698
-2 3.0830264 -1.0842022e-19
-1.6265666 -3.6893488e+19 1.7681707
-0 3.2313821 0
-2.2062726 0 1.7785208
1.0842022e-19 3.0505302 -3.6893488e+19
-2.1825492 -0 1.6246318
0 3.0864308 1.0842022e-19
-1.946463 1.0842022e-19 1.5032676
1.0842022e-19 3.0510345 -3.6893488e+19
-2.183275 -3.6893488e+19 -1.1574136
2 3.0820887 1.0842022e-19
-1.9439274 -2 -1.5448799
0 3.050746 2
-2.1828599 3.6893488e+19 -1.6445379
2 3.0798542 2
-1.9426225 -2 -1.731654
2 3.0724454 -3.6893488e+19
-2.2140915 -2 -1.7747192
-1.0842022e-19 3.0765111 2
-1.9406704 -0 -1.8125465
-2 3.0712848 2
-2.2124214 3.6893488e+19 -1.8461568
2 3.076962 2
-1.9409336 -1.0842022e-19 -1.8804159
1.0842022e-19 3.0779274 0
-1.9414973 0 -1.9174277
-0 3.0171285 -0
-2.1344748 3.6893488e+19 -1.9018245
-0 3.0270748 -0
-1.9118013 -0 -1.9224309
1.0842022e-19 3.0109613 0
-2.1255984 -1.0842022e-19 -1.9275851
-1.0842022e-19 2.8978791 -2
-1.8573465 -1.0842022e-19 -1.896047
-3.6893488e+19 2.8560603 -2
-1.5103207 1.0842022e-19 -1.8905663
-2 2.8213 2
-1.9022703 -1.0842022e-19 -1.8860612
0 2.791595 0
-1.4716413 -0 -1.8814225
-0 2.7654963 -3.6893488e+19
-1.8758237 3.6893488e+19 -1.8773109
3.6893488e+19 2.7385125 0
-1.4356592 -0 -1.8725183
2 2.6887503 -2
-1.8329321 0 -1.8599972
-0 2.6597304 -3.6893488e+19
-1.405718 1.0842022e-19 -1.8555517
-0 2.6284294 1.0842022e-19
-1.804345 1.0842022e-19 -1.8489373
0 2.6070523 -3.6893488e+19
-1.3856976 2 -1.8459334
-2 2.5833259 2
-1.7829696 1.0842022e-19 -1.8409785
3.6893488e+19 2.544472 3.6893488e+19
-1.7645559 -1.0842022e-19 -1.8323729
2 2.5167069 -2
-1.7513975 -3.6893488e+19 -1.8278432
-3.6893488e+19 2.4789238 2
-1.7269713 1.0842022e-19 -1.820631
0 2.4613185 1.0842022e-19
-1.7909925 -1.0842022e-19 -1.8203958
-1.0842022e-19 3.1403773 -2
-1.9943753 -0 2.6093986
-0 3.1435235 -3.6893488e+19
-1.9963448 -0 2.6007521
1.0842022e-19 3.1413164 -2
-1.9949632 1.0842022e-19 2.5873401
0 3.1520798 1.0842022e-19
-2.2978632 0 2.5919497
-0 3.1399989 -1.0842022e-19
-1.9941385 3.6893488e+19 2.5748322
2 3.1540353 -0
-2.2993119 -2 2.5818071
2 3.1403408 -2
-1.9943525 2 2.5637701
-1.0842022e-19 3.1365857 1.0842022e-19
-1.9920019 0 2.5495431
1.0842022e-19 3.1491253 2
-2.2956746 -1.0842022e-19 2.5545514
-0 3.2083166 -3.6893488e+19
-2.0369051 -3.6893488e+19 2.5918732
3.6893488e+19 3.1444709 3.6893488e+19
-2.2922266 -0 2.5395708
-1.0842022e-19 3.1441383 -3.6893488e+19
-1.9967297 2 2.5326335
2 3.1330352 -0
-1.7098877 3.6893488e+19 2.5189636
-1.0842022e-19 3.1392508 3.6893488e+19
-2.1353457 -2 2.5182397
2 3.1308753 -0
-1.7087042 3.6893488e+19 2.506511
-1.0842022e-19 3.1338606 2
-2.1300097 0 2.5034962
3.6893488e+19 3.1318066 3.6893488e+19
-1.7092146 -1.0842022e-19 2.4924066
-3.6893488e+19 3.1372807 -0
-2.1333954 2 2.4893098
1.0842022e-19 3.0884323 0
-1.6854472 -2 2.4171221
2 3.1412439 2
-2.1373188 -3.6893488e+19 2.4719348
-0 3.1337097 1.0842022e-19
-1.7102574 -1.0842022e-19 2.4510448
2 3.0820878 3.6893488e+19
-2.0787561 2 2.3816202
-0 3.1353004 1.0842022e-19
-1.7111291 0 2.4309824
2 3.1422431 1.0842022e-19
-2.138308 -3.6893488e+19 2.4284048
-0 3.1394148 3.6893488e+19
-1.7133836 -1.0842022e-19 2.4134653
-3.6893488e+19 3.1421731 -1.0842022e-19
-2.1382387 -3.6893488e+19 2.4060273
-3.6893488e+19 3.1775608 -0
-1.7342861 -1.0842022e-19 2.4297216
2 3.1400709 -0
-2.1361575 3.6893488e+19 2.3817136
3.6893488e+19 3.1273875 3.6893488e+19
-2.2795711 3.6893488e+19 2.3594539
-1.0842022e-19 3.123872 -0
-1.9840431 -1.0842022e-19 2.3442812
0 3.128247 -1.0842022e-19
-2.2802076 3.6893488e+19 2.3388054
-3.6893488e+19 3.141362 -2
-1.9949918 -3.6893488e+19 2.338275
2 3.130172 1.0842022e-19
-2.2816339 -2 2.3189869
-0 3.1407461 3.6893488e+19
-1.9946063 0 2.3156946
3.6893488e+19 3.1506011 0
-2.296768 3.6893488e+19 2.3134654
-1.0842022e-19 3.1448355 -2
-1.9971662 -0 2.2967551
3.6893488e+19 3.1320522 2
-2.2830267 -3.6893488e+19 2.2773623
3.6893488e+19 3.1414757 3.6893488e+19
-1.9950629 -2 2.2722003
3.6893488e+19 3.0703578 -3.6893488e+19
-2.2246461 2 2.1789951
0 3.127914 -3.6893488e+19
-1.9865732 -3.6893488e+19 2.2330685
-1.0842022e-19 3.0719633 -0
-2.227025 -3.6893488e+19 2.1448469
-0 3.130295 1.0842022e-19
-1.9880639 3.6893488e+19 2.1934111
0 3.1839416 0
-2.3214667 0 2.2333131
-0 3.1313825 -0
-1.9887446 -0 2.1518991
3.6893488e+19 3.1328683 -0
-1.7097963 -3.6893488e+19 2.1317327
-0 3.2292225 3.6893488e+19
-2.2244148 2 2.2018251
3.6893488e+19 3.0885324 -0
-1.6855021 -0 2.0496409
-1.0842022e-19 3.2305598 2
-2.2257388 1.0842022e-19 2.1492133
3.6893488e+19 3.090153 -0
-1.68639 1.0842022e-19 2.0130284
1.0842022e-19 3.2316878 2
-2.2268553 -2 2.0962005
-2 3.0864189 -2
-1.6843439 3.6893488e+19 1.972537
-0 3.0618985 1.0842022e-19
-2.0587695 2 1.9392509
-1.0842022e-19 3.252857 -0
-1.7635554 -3.6893488e+19 2.0280399
2 3.2321291 -3.6893488e+19
-2.2272921 -1.0842022e-19 1.988605
2 3.0837688 0
-1.6828918 -2 1.8962367
3.6893488e+19 3.0643713 0
-2.0612175 -1.0842022e-19 1.8658416
-3.6893488e+19 3.0833869 0
-1.6826826 1.0842022e-19 1.8427304
2 3.0646656 -0
-2.0615087 -3.6893488e+19 1.795716
-0 3.0848637 -2
-1.6834917 2 1.7689633
3.6893488e+19 3.2301517 2
-2.2253346 2 1.7781527
-3.6893488e+19 3.0503647 0
-2.1950245 1.0842022e-19 1.6245543
3.6893488e+19 3.2292562 2
-2.0500133 -0 1.5577394
-0 3.048224 1.0842022e-19
-2.1918526 -0 -1.1559814
-1.0842022e-19 3.2288172 0
-2.0497386 2 -1.6199633
-0 3.0492425 -0
-2.1933615 -1.0842022e-19 -1.6438498
-1.0842022e-19 3.08004 -0
-1.9566044 -0 -1.7318076
1.0842022e-19 3.0732083 -1.0842022e-19
-2.2288694 -2 -1.7751094
-2 3.0778213 -0
-1.9552155 -3.6893488e+19 -1.8133177
3.6893488e+19 3.0716124 1.0842022e-19
-2.226505 1.0842022e-19 -1.8464353
1.0842022e-19 3.076992 1.0842022e-19
-1.9546963 -0 -1.8804408
0 3.0600169 3.6893488e+19
-2.2093248 -2 -1.8914772
-0 3.0769272 2
-1.9546558 -2 -1.9169335
3.6893488e+19 3.0197389 3.6893488e+19
-2.1496487 2 -1.9033449
1.0842022e-19 3.0275466 1.0842022e-19
-1.9237436 0 -1.9227417
1.0842022e-19 3.0099661 -1.0842022e-19
-2.135169 3.6893488e+19 -1.9269503
-0 2.8964672 2
-1.8731877 0 -1.8955432
0 2.8551798 -1.0842022e-19
-1.5696241 -3.6893488e+19 -1.8902212
-2 2.8196917 3.6893488e+19
-1.9082422 -1.0842022e-19 -1.8854016
-2 2.7911525 3.6893488e+19
-1.5345398 0 -1.8812257
3.6893488e+19 2.7650182 -1.0842022e-19
-1.8811797 -2 -1.8771018
2 2.7383785 -2
-1.5088058 2 -1.8724551
-2 2.6866887 3.6893488e+19
-1.8411539 -2 -1.8589301
0 2.6284938 -0
-1.8123482 -3.6893488e+19 -1.8490108
-2 2.6102855 -0
-1.4474219 1.0842022e-19 -1.8479384
3.6893488e+19 2.5845165 3.6893488e+19
-1.7905803 3.6893488e+19 -1.8417844
3.6893488e+19 2.4095302 0
-1.349406 3.6893488e+19 -1.7631985
-1.0842022e-19 2.5424366 2
-1.7697514 -2 -1.8309723
-2 2.5161676 -2
-1.7567487 -2 -1.8274653
-0 2.4092574 2
-1.3492565 1.0842022e-19 -1.7861243
1.0842022e-19 2.4808338 1.0842022e-19
-1.7380049 0 -1.8214424
-2 2.4612079 3.6893488e+19
-1.7958329 -1.0842022e-19 -1.8203958
3.6893488e+19 2.4185567 -2
-1.7800347 1.0842022e-19 -1.8141878
-1.0842022e-19 2.3590825 -1.0842022e-19
-1.7580053 -0 -1.8077046
1.0842022e-19 2.3110852 -1.0842022e-19
-1.7304538 3.6893488e+19 -1.8010181
-2 2.2772348 -2
-1.7053773 -2 -1.7977324
-0 2.250669 0
-1.2623565 1.0842022e-19 -1.7948691
0 2.2038813 -0
-1.2487085 -1.0842022e-19 -1.7918407
1.0842022e-19 2.1712861 2
-1.2308477 2 -1.7920357
0 2.1338923 0
-1.2103574 0 -1.7883667
-1.0842022e-19 3.1403773 -2
-1.9943753 -0 2.6093986
-0 3.1435235 -3.6893488e+19
-1.9963448 -0 2.6007521
1.0842022e-19 3.1413164 -2
-1.9949632 1.0842022e-19 2.5873401
3.6893488e+19 3.1149099 2
-2.2703276 0 2.5603385
-0 3.1399989 -1.0842022e-19
-1.9941385 3.6893488e+19 2.5748322
2 3.1540353 -0
-2.2993119 -2 2.5818071
2 3.1403408 -2
-1.9943525 2 2.5637701
-1.0842022e-19 3.1365857 1.0842022e-19
-1.9920019 0 2.5495431
1.0842022e-19 3.1491253 2
-2.2956746 -1.0842022e-19 2.5545514
0 3.1448646 -2
-1.9971843 2 2.5445423
-0 3.1237173 3.6893488e+19
-2.2768521 -1.0842022e-19 2.5243361
-1.0842022e-19 3.1441383 -3.6893488e+19
-1.9967297 2 2.5326335
2 3.1330352 -0
-1.7098877 3.6893488e+19 2.5189636
-1.0842022e-19 3.1392508 3.6893488e+19
-2.1353457 -2 2.5182397
-2 3.0879805 0
-1.6851997 2 2.4552448
-1.0842022e-19 3.1338606 2
-2.1300097 0 2.5034962
3.6893488e+19 3.1318066 3.6893488e+19
-1.7092146 -1.0842022e-19 2.4924066
-3.6893488e+19 3.1372807 -0
-2.1333954 2 2.4893098
1.0842022e-19 3.0884323 0
-1.6854472 -2 2.4171221
2 3.1412439 2
-2.1373188 -3.6893488e+19 2.4719348
1.0842022e-19 3.0886638 2
-1.6855741 -3.6893488e+19 2.3980939
2 3.0820878 3.6893488e+19
-2.0787561 2 2.3816202
-0 3.1353004 1.0842022e-19
-1.7111291 0 2.4309824
2 3.0826588 3.6893488e+19
-2.0793214 -2 2.3633273
-1.0842022e-19 3.0958917 -0
-1.6895347 -0 2.3672543
-3.6893488e+19 3.0792236 -0
-2.0759208 -1.0842022e-19 2.3408542
-1.0842022e-19 3.0933819 -2
-1.6881593 1.0842022e-19 2.3451173
2 3.0830727 -3.6893488e+19
-2.079731 3.6893488e+19 2.3259366
1.0842022e-19 3.052114 -0
-2.1976159 2 2.2877574
1.0842022e-19 3.0837302 1.0842022e-19
-1.9589144 -3.6893488e+19 2.3073163
-0 3.0541809 2
-2.2006783 3.6893488e+19 2.2724626
0 3.0878394 1.0842022e-19
-1.9614867 -0 2.2920125
2 3.0489011 -0
-2.1928556 3.6893488e+19 2.2507958
-1.0842022e-19 3.0847299 3.6893488e+19
-1.9595402 3.6893488e+19 2.2704375
-3.6893488e+19 3.0520844 0
-2.1975725 -0 2.2227547
0 3.0918903 -3.6893488e+19
-1.9640225 -1.0842022e-19 2.2569618
3.6893488e+19 3.0679636 -0
-2.2210989 2 2.2116709
3.6893488e+19 3.0892437 -3.6893488e+19
-1.9623657 -3.6893488e+19 2.221765
3.6893488e+19 3.0703578 -3.6893488e+19
-2.2246461 2 2.1789951
-1.0842022e-19 3.0847094 -2
-1.9595274 0 2.1778426
-1.0842022e-19 3.0719633 -0
-2.227025 -3.6893488e+19 2.1448469
1.0842022e-19 3.0863514 -1.0842022e-19
-1.9605552 3.6893488e+19 2.1421742
-3.6893488e+19 3.062845 -1.0842022e-19
-2.2135153 1.0842022e-19 2.098439
-3.6893488e+19 3.0768235 0
-1.9545909 -0 2.0944052
3.6893488e+19 3.1328683 -0
-1.7097963 -3.6893488e+19 2.1317327
-3.6893488e+19 3.0575666 -2
-2.054481 1.0842022e-19 2.039983
3.6893488e+19 3.0885324 -0
-1.6855021 -0 2.0496409
-2 3.0565951 -1.0842022e-19
-2.0535192 3.6893488e+19 2.0046964
3.6893488e+19 3.090153 -0
-1.68639 1.0842022e-19 2.0130284
1.0842022e-19 3.0595028 -1.0842022e-19
-2.0563977 1.0842022e-19 1.9724472
-2 3.0864189 -2
-1.6843439 3.6893488e+19 1.972537
-0 3.0618985 1.0842022e-19
-2.0587695 2 1.9392509
-1.0842022e-19 3.252857 -0
-1.7635554 -3.6893488e+19 2.0280399
2 3.2321291 -3.6893488e+19
-2.2272921 -1.0842022e-19 1.988605
2 3.0837688 0
-1.6828918 -2 1.8962367
3.6893488e+19 3.0643713 0
-2.0612175 -1.0842022e-19 1.8658416
-3.6893488e+19 3.0833869 0
-1.6826826 1.0842022e-19 1.8427304
2 3.0646656 -0
-2.0615087 -3.6893488e+19 1.795716
-0 3.0848637 -2
-1.6834917 2 1.7689633
3.6893488e+19 3.2301517 2
-2.2253346 2 1.7781527
-3.6893488e+19 3.0503647 0
-2.1950245 1.0842022e-19 1.6245543
1.0842022e-19 3.078747 1.0842022e-19
-1.9557949 0 1.5003506
-0 3.048224 1.0842022e-19
-2.1918526 -0 -1.1559814
-3.6893488e+19 3.0799947 -3.6893488e+19
-1.956576 1.0842022e-19 -1.5438256
-0 3.0492425 -0
-2.1933615 -1.0842022e-19 -1.6438498
-1.0842022e-19 3.08004 -0
-1.9566044 -0 -1.7318076
1.0842022e-19 3.0732083 -1.0842022e-19
-2.2288694 -2 -1.7751094
-2 3.0778213 -0
-1.9552155 -3.6893488e+19 -1.8133177
3.6893488e+19 3.0716124 1.0842022e-19
-2.226505 1.0842022e-19 -1.8464353
1.0842022e-19 3.076992 1.0842022e-19
-1.9546963 -0 -1.8804408
0 3.0600169 3.6893488e+19
-2.2093248 -2 -1.8914772
-0 3.0364163 3.6893488e+19
-1.929296 -2 -1.8962481
3.6893488e+19 3.0197389 3.6893488e+19
-2.1496487 2 -1.9033449
1.0842022e-19 3.0275466 1.0842022e-19
-1.9237436 0 -1.9227417
1.0842022e-19 3.0099661 -1.0842022e-19
-2.135169 3.6893488e+19 -1.9269503
-0 2.8964672 2
-1.8731877 0 -1.8955432
0 2.8551798 -1.0842022e-19
-1.5696241 -3.6893488e+19 -1.8902212
-2 2.8196917 3.6893488e+19
-1.9082422 -1.0842022e-19 -1.8854016
-2 2.7911525 3.6893488e+19
-1.5345398 0 -1.8812257
3.6893488e+19 2.7650182 -1.0842022e-19
-1.8811797 -2 -1.8771018
2 2.7383785 -2
-1.5088058 2 -1.8724551
-2 2.6866887 3.6893488e+19
-1.8411539 -2 -1.8589301
0 2.6284938 -0
-1.8123482 -3.6893488e+19 -1.8490108
-2 2.6102855 -0
-1.4474219 1.0842022e-19 -1.8479384
3.6893488e+19 2.5845165 3.6893488e+19
-1.7905803 3.6893488e+19 -1.8417844
3.6893488e+19 2.4095302 0
-1.349406 3.6893488e+19 -1.7631985
-1.0842022e-19 2.5424366 2
-1.7697514 -2 -1.8309723
-2 2.5161676 -2
-1.7567487 -2 -1.8274653
-0 2.4092574 2
-1.3492565 1.0842022e-19 -1.7861243
1.0842022e-19 2.4808338 1.0842022e-19
-1.7380049 0 -1.8214424
-2 2.4612079 3.6893488e+19
-1.7958329 -1.0842022e-19 -1.8203958
3.6893488e+19 2.4185567 -2
-1.7800347 1.0842022e-19 -1.8141878
-1.0842022e-19 2.3590825 -1.0842022e-19
-1.7580053 -0 -1.8077046
1.0842022e-19 2.3110852 -1.0842022e-19
-1.7304538 3.6893488e+19 -1.8010181
-2 2.2772348 -2
-1.7053773 -2 -1.7977324
-0 2.250669 0
-1.2623565 1.0842022e-19 -1.7948691
0 2.2038813 -0
-1.2487085 -1.0842022e-19 -1.7918407
1.0842022e-19 2.1712861 2
-1.2308477 2 -1.7920357
0 2.1338923 0
-1.2103574 0 -1.7883667
-1.0842022e-19 3.1406734 -1.0842022e-19
-2.0099018 1.0842022e-19 2.6097069
-2 3.1398578 -2
-2.0093591 -3.6893488e+19 2.5975192
0 3.1412473 -0
-2.0102835 -2 2.5873137
-3.6893488e+19 3.1531742 0
-2.3066468 0 2.5929594
1.0842022e-19 3.1400216 -0
-2.0094681 0 2.5748832
-3.6893488e+19 3.1539118 2
-2.3072078 -3.6893488e+19 2.5817821
3.6893488e+19 3.1399961 3.6893488e+19
-2.0094512 0 2.563524
-2 3.1380801 -1.0842022e-19
-2.0081766 -2 2.5507307
3.6893488e+19 3.1484222 -0
-2.3030324 -3.6893488e+19 2.5540848
1.0842022e-19 3.2062762 -1.0842022e-19
-2.053545 1.0842022e-19 2.590385
3.6893488e+19 3.1449311 3.6893488e+19
-2.3003771 -3.6893488e+19 2.5399752
-0 3.1439457 3.6893488e+19
-2.0120788 0 2.5325234
-0 3.1325951 -3.6893488e+19
-1.759825 3.6893488e+19 2.518661
2 3.1391907 1.0842022e-19
-2.150605 -2 2.5182397
1.0842022e-19 3.1307738 -2
-1.7591832 1.0842022e-19 2.5064487
-2 3.135309 2
-2.1466095 -3.6893488e+19 2.5044918
3.6893488e+19 3.1314273 -2
-1.7594135 1.0842022e-19 2.4919293
1.0842022e-19 3.136112 3.6893488e+19
-2.1474359 3.6893488e+19 2.4879084
1.0842022e-19 3.1357999 3.6893488e+19
-1.7609544 -3.6893488e+19 2.4755147
-1.0842022e-19 3.1396723 -3.6893488e+19
-2.1511006 -1.0842022e-19 2.4701118
-0 3.0883465 0
-1.7384641 -0 2.3977306
3.6893488e+19 3.079999 0
-2.0896773 -0 2.3792784
-2 3.1346722 1.0842022e-19
-1.7605571 1.0842022e-19 2.43029
2 3.1392779 -3.6893488e+19
-2.1506946 -3.6893488e+19 2.4252319
-2 3.1338296 -0
-1.7602601 1.0842022e-19 2.4075451
0 3.138463 -0
-2.1498559 2 2.4022484
-3.6893488e+19 3.0879788 -3.6893488e+19
-1.738205 -3.6893488e+19 2.339695
2 3.1388342 3.6893488e+19
-2.150238 -0 2.3805623
-0 3.1275787 -1.0842022e-19
-2.2871792 3.6893488e+19 2.3597188
-1.0842022e-19 3.1340091 1.0842022e-19
-2.0054684 1.0842022e-19 2.353651
-0 3.1296749 -1.0842022e-19
-2.2887735 3.6893488e+19 2.3401628
2 3.1411371 2
-2.0102103 -0 2.338114
0 3.1271143 -0
-2.2868259 -3.6893488e+19 2.316494
2 3.0870268 -0
-1.9742125 -0 2.27232
-0 3.1506948 -0
-2.3047609 2 2.3136108
0 3.1437707 -2
-2.0119622 3.6893488e+19 2.295984
-2 3.1293926 2
-2.288559 -0 2.2754951
-1.0842022e-19 3.1412191 3.6893488e+19
-2.0102649 -2 2.272049
-0 3.0704081 0
-2.2373929 -3.6893488e+19 2.1791611
-2 3.1296194 2
-2.002548 3.6893488e+19 2.2352967
0 3.0692217 0
-2.2355881 -1.0842022e-19 2.1415746
0 3.1308804 3.6893488e+19
-2.0033867 -0 2.1941373
1.0842022e-19 3.1810486 1.0842022e-19
-2.3278475 -1.0842022e-19 2.2302012
3.6893488e+19 3.1295066 3.6893488e+19
-2.0024729 1.0842022e-19 2.1499619
1.0842022e-19 3.1329839 1.0842022e-19
-1.7599621 -0 2.1318572
-0 3.232106 0
-2.2462454 -1.0842022e-19 2.2046139
0 3.0892732 3.6893488e+19
-1.7391171 -0 2.0503037
-0 3.230361 3.6893488e+19
-2.2444491 0 2.1491098
-3.6893488e+19 3.161994 -1.0842022e-19
-1.7701851 1.0842022e-19 2.0685883
2 3.230149 1.0842022e-19
-2.244231 0 2.0951481
0 3.1602185 3.6893488e+19
-1.7695594 -1.0842022e-19 2.0213609
2 3.2277944 -0
-2.2418072 1.0842022e-19 2.0399566
-0 3.0812218 -0
-1.7334427 -0 1.9321091
3.6893488e+19 3.2282517 -3.6893488e+19
-2.2422779 -1.0842022e-19 1.9867227
-0 3.0830424 -3.6893488e+19
-1.7347257 2 1.8959219
-2 3.2282805 -2
-2.2423077 3.6893488e+19 1.933235
2 3.0631826 3.6893488e+19
-2.0723677 1.0842022e-19 1.7949378
-0 3.0810125 -2
-1.7332951 -3.6893488e+19 1.767311
1.0842022e-19 3.0502336 -3.6893488e+19
-2.2067039 2 1.6245025
-1.0842022e-19 3.2276163 0
-2.0677421 -2 1.5571321
2 3.0911491 -3.6893488e+19
-2.2594714 -2 -1.1784737
2 3.2285826 0
-2.0683849 2 -1.6198674
-2 3.0478671 -2
-2.2031043 -1.0842022e-19 -1.6432216
2 3.0778532 -1.0842022e-19
-1.9681096 -1.0842022e-19 -1.7302943
-0 3.0495863 -0
-2.2057195 -3.6893488e+19 -1.7641705
0 3.0761032 3.6893488e+19
-1.9669454 3.6893488e+19 -1.8123492
3.6893488e+19 3.0465941 -1.0842022e-19
-2.2011678 -1.0842022e-19 -1.8292568
-2 3.0605674 3.6893488e+19
-2.2224236 2 -1.8917612
-2 3.0772381 -1.0842022e-19
-1.9677005 2 -1.9171089
2 3.0192106 3.6893488e+19
-2.159513 -2 -1.9030796
-2 3.0262399 1.0842022e-19
-1.9337732 -2 -1.9219453
-3.6893488e+19 3.0094399 -1.0842022e-19
-2.1446505 -0 -1.9266329
2 2.8937457 0
-1.8809729 0 -1.8945584
-3.6893488e+19 2.8596029 -2
-1.6267227 3.6893488e+19 -1.891971
3.6893488e+19 2.819144 -2
-1.9142519 -3.6893488e+19 -1.8851905
-1.0842022e-19 2.7922063 -3.6893488e+19
-1.5809448 -1.0842022e-19 -1.8817037
-0 2.7649772 -2
-1.8863742 -2 -1.8771018
-3.6893488e+19 2.7418594 1.0842022e-19
-1.5483295 3.6893488e+19 -1.8742249
-2 2.6835096 3.6893488e+19
-1.8481119 0 -1.8572631
0 2.6346555 1.0842022e-19
-1.8229684 -0 -1.8526928
-1.0842022e-19 2.5849621 -3.6893488e+19
-1.797393 -1.0842022e-19 -1.8421067
1.0842022e-19 2.5425158 -3.6893488e+19
-1.7755473 0 -1.8310599
-0 2.515754 2
-1.7617741 1.0842022e-19 -1.8271819
2 2.479022 3.6893488e+19
-1.7465354 -3.6893488e+19 -1.8207324
0 2.4613495 0
-1.8004469 3.6893488e+19 -1.8205007
-1.0842022e-19 3.1406734 -1.0842022e-19
-2.0099018 1.0842022e-19 2.6097069
-2 3.1398578 -2
-2.0093591 -3.6893488e+19 2.5975192
0 3.1412473 -0
-2.0102835 -2 2.5873137
2 3.1146739 3.6893488e+19
-2.277364 1.0842022e-19 2.560209
1.0842022e-19 3.1400216 -0
-2.0094681 0 2.5748832
-3.6893488e+19 3.1539118 2
-2.3072078 -3.6893488e+19 2.5817821
3.6893488e+19 3.1399961 3.6893488e+19
-2.0094512 0 2.563524
-2 3.1380801 -1.0842022e-19
-2.0081766 -2 2.5507307
3.6893488e+19 3.1484222 -0
-2.3030324 -3.6893488e+19 2.5540848
-2 3.14415 -1.0842022e-19
-2.0122147 2 2.5440385
3.6893488e+19 3.1185207 -0
-2.2802899 -1.0842022e-19 2.5205836
-0 3.1439457 3.6893488e+19
-2.0120788 0 2.5325234
-0 3.1325951 -3.6893488e+19
-1.759825 3.6893488e+19 2.518661
2 3.1391907 1.0842022e-19
-2.150605 -2 2.5182397
-1.0842022e-19 3.0861852 3.6893488e+19
-1.7369409 1.0842022e-19 2.4528375
-2 3.135309 2
-2.1466095 -3.6893488e+19 2.5044918
3.6893488e+19 3.1314273 -2
-1.7594135 1.0842022e-19 2.4919293
1.0842022e-19 3.136112 3.6893488e+19
-2.1474359 3.6893488e+19 2.4879084
2 3.0885477 3.6893488e+19
-1.7386059 -0 2.4172745
-1.0842022e-19 3.1396723 -3.6893488e+19
-2.1511006 -1.0842022e-19 2.4701118
-0 3.0883465 0
-1.7384641 -0 2.3977306
3.6893488e+19 3.079999 0
-2.0896773 -0 2.3792784
-2 3.1346722 1.0842022e-19
-1.7605571 1.0842022e-19 2.43029
2 3.0806916 1.0842022e-19
-2.0903902 0 2.3612347
-2 3.1338296 -0
-1.7602601 1.0842022e-19 2.4075451
-3.6893488e+19 3.0782139 0
-2.0878401 -0 2.3398614
-3.6893488e+19 3.0879788 -3.6893488e+19
-1.738205 -3.6893488e+19 2.339695
-0 3.0822163 -3.6893488e+19
-2.0919595 -0 2.3251488
-0 3.0519209 -1.0842022e-19
-2.2092707 -0 2.2876396
2 3.0859926 -2
-1.9735245 2 2.3094304
2 3.0536163 3.6893488e+19
-2.2118497 3.6893488e+19 2.2720194
-1.0842022e-19 3.0865331 -1.0842022e-19
-1.9738841 -2 2.2909122
-3.6893488e+19 3.0516479 -0
-2.2088556 -2 2.2531588
2 3.0870268 -0
-1.9742125 -0 2.27232
-3.6893488e+19 3.0512099 1.0842022e-19
-2.2081895 0 2.2214947
3.6893488e+19 3.0915456 2
-1.9772187 -0 2.2567282
-0 3.0693467 -3.6893488e+19
-2.2357781 -1.0842022e-19 2.2137856
-3.6893488e+19 3.0884323 -3.6893488e+19
-1.9751476 -0 2.2206836
-0 3.0704081 0
-2.2373929 -3.6893488e+19 2.1791611
3.6893488e+19 3.0740631 -0
-1.9655882 -2 2.1642747
0 3.0692217 0
-2.2355881 -1.0842022e-19 2.1415746
-1.0842022e-19 3.0718377 -0
-1.9641078 3.6893488e+19 2.125289
1.0842022e-19 3.0679872 -1.0842022e-19
-2.2337101 -1.0842022e-19 2.1042473
-1.0842022e-19 3.0757008 1.0842022e-19
-1.9666778 3.6893488e+19 2.093256
1.0842022e-19 3.0897267 -1.0842022e-19
-1.7394367 2 2.0887272
2 3.0599475 3.6893488e+19
-2.0690377 2 2.0422728
0 3.0892732 3.6893488e+19
-1.7391171 -0 2.0503037
-1.0842022e-19 3.0584164 3.6893488e+19
-2.0674617 2 2.006249
3.6893488e+19 3.085463 2
-1.7364318 3.6893488e+19 2.009408
2 3.0603273 1.0842022e-19
-2.0694287 2 1.9730742
0 3.0845065 -0
-1.7357576 1.0842022e-19 1.9712772
-3.6893488e+19 3.0642185 3.6893488e+19
-2.0734341 0 1.9406883
-0 3.0812218 -0
-1.7334427 -0 1.9321091
-1.0842022e-19 3.0611768 0
-2.0703032 3.6893488e+19 1.9040248
-0 3.0830424 -3.6893488e+19
-1.7347257 2 1.8959219
1.0842022e-19 3.067004 2
-2.0763011 0 1.8678961
2 3.0631826 3.6893488e+19
-2.0723677 1.0842022e-19 1.7949378
-0 3.0810125 -2
-1.7332951 -3.6893488e+19 1.767311
1.0842022e-19 3.0502336 -3.6893488e+19
-2.2067039 2 1.6245025
3.6893488e+19 3.0857084 -3.6893488e+19
-1.9733354 -1.0842022e-19 1.5030175
-0 3.0470355 -0
-2.2018392 -0 -1.1553955
-1.0842022e-19 3.0795875 -0
-1.9692634 0 -1.5436339
-2 3.0478671 -2
-2.2031043 -1.0842022e-19 -1.6432216
2 3.0778532 -1.0842022e-19
-1.9681096 -1.0842022e-19 -1.7302943
-0 3.0495863 -0
-2.2057195 -3.6893488e+19 -1.7641705
0 3.0761032 3.6893488e+19
-1.9669454 3.6893488e+19 -1.8123492
3.6893488e+19 3.0465941 -1.0842022e-19
-2.2011678 -1.0842022e-19 -1.8292568
-2 3.0605674 3.6893488e+19
-2.2224236 2 -1.8917612
-0 3.034734 -1.0842022e-19
-1.9394239 -1.0842022e-19 -1.8954035
2 3.0192106 3.6893488e+19
-2.159513 -2 -1.9030796
-2 3.0262399 1.0842022e-19
-1.9337732 -2 -1.9219453
-3.6893488e+19 3.0094399 -1.0842022e-19
-2.1446505 -0 -1.9266329
2 2.8937457 0
-1.8809729 0 -1.8945584
-3.6893488e+19 2.8596029 -2
-1.6267227 3.6893488e+19 -1.891971
3.6893488e+19 2.819144 -2
-1.9142519 -3.6893488e+19 -1.8851905
-1.0842022e-19 2.7922063 -3.6893488e+19
-1.5809448 -1.0842022e-19 -1.8817037
-0 2.7649772 -2
-1.8863742 -2 -1.8771018
-3.6893488e+19 2.7418594 1.0842022e-19
-1.5483295 3.6893488e+19 -1.8742249
-2 2.6835096 3.6893488e+19
-1.8481119 0 -1.8572631
0 2.6346555 1.0842022e-19
-1.8229684 -0 -1.8526928
-1.0842022e-19 2.5849621 -3.6893488e+19
-1.797393 -1.0842022e-19 -1.8421067
1.0842022e-19 2.5425158 -3.6893488e+19
-1.7755473 0 -1.8310599
-0 2.515754 2
-1.7617741 1.0842022e-19 -1.8271819
2 2.479022 3.6893488e+19
-1.7465354 -3.6893488e+19 -1.8207324
0 2.4613495 0
-1.8004469 3.6893488e+19 -1.8205007
1.0842022e-19 3.097018 -0
-2.271286 -0 2.5758784
2 3.1413293 3.6893488e+19
-2.0267944 -3.6893488e+19 2.6103511
1.0842022e-19 3.1400578 1.0842022e-19
-2.0258951 3.6893488e+19 2.5977366
2 3.1411421 1.0842022e-19
-2.0266621 0 2.5872612
-0 3.1533766 0
-2.3153453 -3.6893488e+19 2.5932181
1.0842022e-19 3.1393664 -3.6893488e+19
-2.0254059 0 2.574374
3.6893488e+19 3.153688 -3.6893488e+19
-2.3155885 -2 2.581682
-3.6893488e+19 3.1381462 3.6893488e+19
-2.024543 1.0842022e-19 2.562072
-3.6893488e+19 3.1521478 0
-2.3143847 0 2.5686965
-1.0842022e-19 3.1398449 -3.6893488e+19
-2.0257444 1.0842022e-19 2.5521324
2 3.1487799 3.6893488e+19
-2.3117516 -0 2.5544348
-0 3.1434612 -0
-2.0283024 3.6893488e+19 2.5435576
1.0842022e-19 3.1476154 1.0842022e-19
-2.3108413 2 2.5420201
-1.0842022e-19 3.1436248 -2
-2.0284181 0 2.532325
3.6893488e+19 3.1386456 3.6893488e+19
-1.7945892 0 2.5229187
1.0842022e-19 3.1440096 -1.0842022e-19
-2.1721749 -0 2.5216079
0 3.0861745 1.0842022e-19
-1.7716929 1.0842022e-19 2.4528375
-2 3.1354887 -1.0842022e-19
-2.1630452 -3.6893488e+19 2.5046544
1.0842022e-19 3.1389112 3.6893488e+19
-1.794705 3.6893488e+19 2.5007987
-1.0842022e-19 3.136261 0
-2.1638727 3.6893488e+19 2.4881809
-1.0842022e-19 3.1371152 -1.0842022e-19
-1.7939214 2 2.4771516
-2 3.1382177 -2
-2.1659691 -0 2.4684377
2 3.0876245 1.0842022e-19
-1.7723256 -1.0842022e-19 2.3968947
3.6893488e+19 3.1622579 3.6893488e+19
-2.1917279 3.6893488e+19 2.4739029
-0 3.1372645 -1.0842022e-19
-2.1649477 -2 2.4231055
-1.0842022e-19 3.1346226 2
-1.7928337 0 2.4084003
-2 3.1380558 2
-2.1657958 -2 2.401896
-1.0842022e-19 3.0859838 3.6893488e+19
-1.7716097 0 2.3377008
0 3.1368175 2
-2.1644688 -1.0842022e-19 2.3786535
-3.6893488e+19 3.1262169 -3.6893488e+19
-2.2941127 1.0842022e-19 2.3585122
-3.6893488e+19 3.1390834 -3.6893488e+19
-2.0252059 -3.6893488e+19 2.3583643
0 3.1286826 2
-2.2960403 0 2.3393595
1.0842022e-19 3.1390135 1.0842022e-19
-2.0251565 -0 2.3363161
-2 3.1262145 -3.6893488e+19
-2.2941108 0 2.315819
-0 3.1418128 0
-2.0271366 3.6893488e+19 2.3166232
0 3.151058 -3.6893488e+19
-2.3135324 -3.6893488e+19 2.3139741
-0 3.141737 1.0842022e-19
-2.0270829 -3.6893488e+19 2.2944884
-1.0842022e-19 3.1288011 2
-2.296133 -1.0842022e-19 2.275135
0 3.1402111 -3.6893488e+19
-2.0260034 2 2.2713785
-1.0842022e-19 3.1173146 3.6893488e+19
-2.2871532 -2 2.2421131
2 3.0758939 0
-1.9805108 -1.0842022e-19 2.166662
-2 3.1206512 2
-2.2897618 -1.0842022e-19 2.204776
3.6893488e+19 3.0683453 -0
-1.9751716 -1.0842022e-19 2.1212583
3.6893488e+19 3.183701 3.6893488e+19
-2.3390517 -3.6893488e+19 2.2332783
3.6893488e+19 3.0786548 -3.6893488e+19
-1.9824636 3.6893488e+19 2.0964081
-2 3.1322229 -0
-1.7917866 2 2.1311109
-2 3.2280076 -1.0842022e-19
-2.2560887 -2 2.2008269
1.0842022e-19 3.0774064 1.0842022e-19
-1.7678668 1.0842022e-19 2.0398095
3.6893488e+19 3.2276938 3.6893488e+19
-2.2559206 -3.6893488e+19 2.1469619
-1.0842022e-19 3.1593902 -3.6893488e+19
-1.8036412 -3.6893488e+19 2.0665848
-1.0842022e-19 3.2276678 1.0842022e-19
-2.2559068 3.6893488e+19 2.0934236
2 3.1590188 -3.6893488e+19
-1.8034791 -2 2.020576
-2 3.2319183 3.6893488e+19
-2.258184 -1.0842022e-19 2.0425096
2 3.0837095 2
-1.7706172 2 1.9334828
1.0842022e-19 3.2306938 -0
-2.2575278 1.0842022e-19 1.9879725
-2 3.0846245 2
-1.7710166 3.6893488e+19 1.8966199
2 3.2313466 3.6893488e+19
-2.2578776 0 1.9344414
0 3.2426016 -0
-1.8399513 3.6893488e+19 1.9108646
2 3.0645316 2
-2.0870156 0 1.7956992
1.0842022e-19 3.080127 -2
-1.7690539 -2 1.7669349
2 3.066993 2
-2.089653 1.0842022e-19 1.702287
0 3.0477319 -1.0842022e-19
-2.2155118 -2 1.622486
-2 3.2300601 2
-2.0895555 0 1.5580847
3.6893488e+19 3.0905652 1.0842022e-19
-2.2662416 3.6893488e+19 -1.1782134
1.0842022e-19 3.2297463 0
-2.0893335 -1.0842022e-19 -1.6204904
1.0842022e-19 3.0485694 -1.0842022e-19
-2.2168214 -0 -1.6435956
0 3.0790339 -0
-1.9827317 -0 -1.7311497
-2 3.0478001 0
-2.2156188 -3.6893488e+19 -1.7633758
0 3.076566 -1.0842022e-19
-1.9809861 -2 -1.8126361
-1.0842022e-19 3.0444357 0
-2.2103586 1.0842022e-19 -1.8278217
-1.0842022e-19 3.0635338 0
-1.9717684 2 -1.8750987
-0 3.0601158 3.6893488e+19
-2.2348747 3.6893488e+19 -1.8915908
0 3.0770454 -0
-1.9813253 0 -1.9170293
2 3.0164073 1.0842022e-19
-2.1665351 2 -1.9015239
0 3.0256786 -2
-1.9449925 -0 -1.9216152
-0 3.0088773 -0
-2.1547618 3.6893488e+19 -1.9262943
-3.6893488e+19 2.8960714 3.6893488e+19
-1.8900744 3.6893488e+19 -1.8954287
1.0842022e-19 2.8548477 3.6893488e+19
-1.6548411 3.6893488e+19 -1.8900981
3.6893488e+19 2.8205214 2
-1.9217168 3.6893488e+19 -1.8857974
-0 2.7905746 3.6893488e+19
-1.6267949 -2 -1.8809725
3.6893488e+19 2.7664256 -2
-1.8927354 2 -1.8778186
2 2.7379768 -2
-1.5879332 -1.0842022e-19 -1.8722655
0 2.684804 -2
-1.8579427 2 -1.8579966
-3.6893488e+19 2.4101982 -3.6893488e+19
-1.4289938 2 -1.7308323
2 2.6337185 2
-1.8305742 2 -1.8521774
-2 2.585526 3.6893488e+19
-1.8047554 -2 -1.8425096
2 2.4122472 3.6893488e+19
-1.4298879 2 -1.7641232
2 2.5440805 3.6893488e+19
