# .PCD v0.7 - Point Cloud Data file format
VERSION 0.7
FIELDS x y z
SIZE 4 4 4
TYPE F F F
COUNT 1 1 1
WIDTH 1711
HEIGHT 1
VIEWPOINT 0 0 0 1 0 0 0
POINTS 1711
DATA ascii
-2.85919 -3.6893488e+19 2.8033376
2 3.3036399 2
-2.8499942 0 2.7862945
-0 3.2673059 -0
-2.8081133 0 2.7215531
0 3.2680337 -3.6893488e+19
-2.8089521 -3.6893488e+19 2.6742795
-3.6893488e+19 3.2883518 -1.0842022e-19
-2.7668185 -0 2.6745729
-3.6893488e+19 3.2925167 -2
-2.7165499 -3.6893488e+19 2.6693037
3.6893488e+19 3.2906771 3.6893488e+19
-2.7136157 -2 2.6496453
1.0842022e-19 3.3265145 -0
-2.8335207 -0 2.6947238
-2 3.2917376 1.0842022e-19
-2.7153072 2 2.6340637
2 3.2743702 0
-2.687607 -3.6893488e+19 2.5952072
-0 3.2722783 1.0842022e-19
-2.6842706 3.6893488e+19 2.5767419
2 3.286649 3.6893488e+19
-2.707191 0 2.5773489
0 3.2839837 -1.0842022e-19
-2.7900772 -3.6893488e+19 2.5699239
-2 3.2843969 -1.0842022e-19
-2.7904994 0 2.5537295
2 3.2880776 2
-2.7094696 0 2.5456374
0 3.2845263 -0
-2.7906315 -3.6893488e+19 2.5372329
2 3.2723935 -2
-2.8139775 3.6893488e+19 2.5192578
2 3.27793 3.6893488e+19
-2.757175 -0 2.5128942
-2 3.285161 -0
-2.8286943 -0 2.5151069
1.0842022e-19 3.2790999 -3.6893488e+19
-2.7582574 2 2.4956541
-0 3.2740722 0
-2.8159127 -3.6893488e+19 2.4774072
2 3.2807424 -0
-2.7597773 -1.0842022e-19 2.4660757
2 3.2794936 -0
-2.7586217 3.6893488e+19 2.4317036
-0 3.275821 -2
-2.8179283 -0 2.4158103
3.6893488e+19 3.2801402 1.0842022e-19
-2.7592201 2 2.4003649
1.0842022e-19 3.2803423 -0
-2.8231399 3.6893488e+19 2.389842
2 3.2532527 -2
-2.7919147 3.6893488e+19 2.3225837
2 3.2640405 -1.0842022e-19
-2.7386453 1.0842022e-19 2.3165116
0 3.2533667 3.6893488e+19
-2.7920461 -0 2.293165
-0 3.2626646 0
-2.7360992 2 2.2846434
-1.0842022e-19 3.2612758 -0
-2.6667221 3.6893488e+19 2.2663648
-1.0842022e-19 3.258234 -2
-2.7637751 -3.6893488e+19 2.2515509
-0 3.2648716 3.6893488e+19
-2.6724572 -2 2.2296083
-3.6893488e+19 3.257714 2
-2.7632442 -1.0842022e-19 2.1925659
-0 3.2670186 0
-2.6758816 2 2.1725881
3.6893488e+19 3.2845252 -2
-2.7906303 3.6893488e+19 2.1729527
3.6893488e+19 3.258239 0
-2.7637804 -0 2.0743139
-0 3.2640491 -3.6893488e+19
-2.6711452 -2 2.0475554
-1.0842022e-19 3.2796371 0
-2.7856376 1.0842022e-19 2.0367346
0 3.2803569 1.0842022e-19
-2.7863727 -1.0842022e-19 1.9728693
-1.0842022e-19 3.3212335 -1.0842022e-19
-2.7561758 2 1.9657443
2 3.327806 0
-2.8348401 -3.6893488e+19 1.9350921
2 3.2763784 2
-2.69081 -1.0842022e-19 1.8704555
0 3.2550366 3.6893488e+19
-2.760509 3.6893488e+19 1.7955377
-3.6893488e+19 3.2377355 1.0842022e-19
-2.7810972 2 1.7156309
2 3.2586524 -3.6893488e+19
-2.7286739 2 1.5891635
0 3.2416501 -0
-2.7833531 -0 -1.1750296
3.6893488e+19 3.2588801 -1.0842022e-19
-2.7290955 3.6893488e+19 -1.6299007
2 3.2436788 -1.0842022e-19
-2.7845223 2 -1.7401836
-1.0842022e-19 3.2585168 -1.0842022e-19
-2.7284231 -1.0842022e-19 -1.8082607
-1.0842022e-19 3.2418101 -0
-2.7834454 1.0842022e-19 -1.858837
-2 3.2585824 -2
-2.7285445 -3.6893488e+19 -1.9008666
-3.6893488e+19 3.2500324 -0
-2.788203 0 -1.9269395
-2 3.2575092 0
-2.7265587 1.0842022e-19 -1.9592341
-3.6893488e+19 3.2403736 2
-2.7826176 2 -1.9804716
1.0842022e-19 3.2584629 3.6893488e+19
-2.7283232 3.6893488e+19 -2.0192297
2 3.2024534 0
-2.7607629 0 -2.0152266
-0 3.223963 3.6893488e+19
-2.6885688 -2 -2.0511868
0 2.8040173 -3.6893488e+19
-2.2348924 0 -1.8688933
1.0842022e-19 2.8461468 -0
-2.3535743 -1.0842022e-19 -1.900522
-1.0842022e-19 2.8032324 3.6893488e+19
-2.2336409 2 -1.8889217
-3.6893488e+19 2.7792752 -2
-2.2852678 -1.0842022e-19 -1.8875699
-3.6893488e+19 2.7582061 -3.6893488e+19
-2.1618261 -2 -1.8830305
-3.6893488e+19 2.7136829 -0
-2.2236326 -3.6893488e+19 -1.8776006
1.0842022e-19 2.6841183 3.6893488e+19
-2.0961986 1.0842022e-19 -1.8734564
3.6893488e+19 2.6507683 -1.0842022e-19
-2.1593678 1.0842022e-19 -1.8687578
-2 2.6307278 3.6893488e+19
-2.0536211 2 -1.86467
1.0842022e-19 2.6062481 -1.0842022e-19
-2.1138923 -1.0842022e-19 -1.8623047
-2 2.5851941 -3.6893488e+19
-2.017309 0 -1.8551899
-2 2.5604331 -3.6893488e+19
-2.0670943 2 -1.8497829
-0 2.5517833 1.0842022e-19
-1.9906648 -1.0842022e-19 -1.8495405
-2 2.5326245 0
-2.0386891 -2 -1.846048
-2 2.523036 3.6893488e+19
-1.9677396 -2 -1.8438187
2 2.5026698 -1.0842022e-19
-2.0080914 -2 -1.8373047
-1.0842022e-19 2.4792418 2
-2.026202 -2 -1.8350458
-1.0842022e-19 2.4342372 2
-2.0002644 1.0842022e-19 -1.8280725
1.0842022e-19 2.3677371 1.0842022e-19
-1.9619383 -2 -1.8186208
-3.6893488e+19 2.3185246 -3.6893488e+19
-1.9335756 -1.0842022e-19 -1.8115263
3.6893488e+19 2.277987 -1.0842022e-19
-1.9102125 1.0842022e-19 -1.8042742
-2 2.2572088 1.0842022e-19
-1.8301178 0 -1.8025364
-0 2.2202306 0
-1.8124987 2 -1.8010728
1.0842022e-19 2.1853108 2
-1.7985748 -1.0842022e-19 -1.8008256
-2 2.1538496 -1.0842022e-19
-1.7860301 -0 -1.8000852
-2 3.3035853 2
-2.8533771 0 2.7864602
1.0842022e-19 3.2665603 -0
-2.8102794 -3.6893488e+19 2.7205942
3.6893488e+19 3.3028495 -2
-2.8525205 1.0842022e-19 2.7297544
-1.0842022e-19 3.2696104 3.6893488e+19
-2.8138299 0 2.6608965
1.0842022e-19 3.2870083 -0
-2.7687435 -0 2.672852
3.6893488e+19 3.2923632 3.6893488e+19
-2.7226748 -3.6893488e+19 2.6693037
-1.0842022e-19 3.3271344 -1.0842022e-19
-2.8378055 2 2.7152472
1.0842022e-19 3.2918081 2
-2.7217774 2 2.6514113
-0 3.3261158 2
-2.8367538 3.6893488e+19 2.6944797
0 3.2915542 2
-2.7213669 1.0842022e-19 2.6340239
-3.6893488e+19 3.3251827 -3.6893488e+19
-2.8357902 2 2.6739924
3.6893488e+19 3.2887418 -2
-2.71682 -3.6893488e+19 2.6134803
1.0842022e-19 3.3237674 -0
-2.8343287 0 2.6530533
1.0842022e-19 3.2882271 -3.6893488e+19
-2.7159877 3.6893488e+19 2.5960627
3.6893488e+19 3.286468 -3.6893488e+19
-2.7131438 -0 2.5773141
-0 3.2846322 -0
-2.7939169 0 2.5708704
-2 3.2843108 -3.6893488e+19
-2.7935851 -2 2.5538416
0 3.2878351 -2
-2.715354 -0 2.5455437
-0 3.2838995 2
-2.7931604 -1.0842022e-19 2.536793
-0 3.2891111 0
-2.836529 -0 2.5359998
-1.0842022e-19 3.2778513 1.0842022e-19
-2.7601695 -0 2.51298
-3.6893488e+19 3.2857351 0
-2.8325994 2 2.5158422
3.6893488e+19 3.2785215 1.0842022e-19
-2.760797 -1.0842022e-19 2.4949284
-3.6893488e+19 3.2733421 -2
-2.8181736 -0 2.4764969
-2 3.2809649 2
-2.7630849 -0 2.4667294
1.0842022e-19 3.2823746 -0
-2.8286874 -0 2.4591084
-1.0842022e-19 3.2804744 0
-2.7626257 -2 2.4334826
1.0842022e-19 3.2797508 -0
-2.8256333 3.6893488e+19 2.4220545
3.6893488e+19 3.2815003 0
-2.7635863 0 2.402554
3.6893488e+19 3.2801149 1.0842022e-19
-2.8260572 0 2.3898213
2 3.2826197 0
-2.7646344 -0 2.371557
3.6893488e+19 3.2795382 -0
-2.8253858 1.0842022e-19 2.3563352
2 3.2834988 -0
-2.7654574 -0 2.3400438
2 3.2809975 2
-2.8270845 2 2.3253827
3.6893488e+19 3.2778068 -2
-2.7601275 0 2.3012362
-3.6893488e+19 3.2772036 -0
-2.6981659 -3.6893488e+19 2.2827513
3.6893488e+19 3.2838712 2
-2.7931311 -2 2.2767105
-2 3.2759566 -2
-2.6961498 3.6893488e+19 2.249943
0 3.2849178 0
-2.7942119 -3.6893488e+19 2.2396109
-0 3.2659605 3.6893488e+19
-2.6799886 -0 2.1711347
-3.6893488e+19 3.2838502 -3.6893488e+19
-2.7931094 -2 2.1722331
-2 3.2792912 1.0842022e-19
-2.7884018 1.0842022e-19 2.1009886
-3.6893488e+19 3.2616143 3.6893488e+19
-2.6729622 2 2.0449669
3.6893488e+19 3.3293207 -0
-2.8400631 2 2.0879061
2 3.328779 2
-2.8395038 -3.6893488e+19 2.011538
3.6893488e+19 3.3210342 -1.0842022e-19
-2.7595141 -2 1.9657236
-2 3.3286445 -0
-2.839365 -2 1.9356904
2 3.2760341 -0
-2.696275 -3.6893488e+19 1.8702786
-2 3.327647 0
-2.838335 -2 1.8442382
-0 3.3326619 2
-2.8872225 -3.6893488e+19 1.7721833
-0 3.2605944 -0
-2.7380214 -1.0842022e-19 1.5909029
0 3.3308539 1.0842022e-19
-2.885118 -3.6893488e+19 -1.2357496
-1.0842022e-19 3.2579618 1.0842022e-19
-2.7330914 -1.0842022e-19 -1.6295187
1.0842022e-19 3.3332005 -0
-2.8878493 0 -1.787231
-1.0842022e-19 3.3306203 2
-2.8095803 0 -1.8595172
1.0842022e-19 3.2468679 -0
-2.78918 -0 -1.8614209
1.0842022e-19 3.2606459 3.6893488e+19
-2.7381177 -3.6893488e+19 -1.9021631
-1.0842022e-19 3.250083 1.0842022e-19
-2.7910998 -1.0842022e-19 -1.9271094
2 3.2613373 -0
-2.7394125 -2 -1.9624738
0 3.2478905 -1.0842022e-19
-2.7897751 0 -1.9841819
-3.6893488e+19 3.2593393 2
-2.7356713 -1.0842022e-19 -2.0203073
-0 3.2004611 -2
-2.762171 -2 -2.0142589
2 3.222367 2
-2.6923065 0 -2.0503557
-0 2.8024502 -1.0842022e-19
-2.2389829 3.6893488e+19 -1.8677636
-3.6893488e+19 2.8441615 -1.0842022e-19
-2.3553882 3.6893488e+19 -1.8997594
-2 2.8022168 2
-2.2386057 -1.0842022e-19 -1.8885292
2 2.7793293 -1.0842022e-19
-2.2884409 -2 -1.887689
-3.6893488e+19 2.7576425 2
-2.1665409 0 -1.88281
-2 2.7142167 2
-2.2293596 -1.0842022e-19 -1.8778334
0 2.683768 -2
-2.1006446 0 -1.8733864
0 2.649292 -1.0842022e-19
-2.1623168 3.6893488e+19 -1.8680232
-2 2.6295505 1.0842022e-19
-2.0568171 -2 -1.8640544
1.0842022e-19 2.6061294 2
-2.1177464 1.0842022e-19 -1.8623852
-1.0842022e-19 2.5841634 1.0842022e-19
-2.0201275 1.0842022e-19 -1.8546027
3.6893488e+19 2.5599835 -3.6893488e+19
-2.0700951 -0 -1.8496082
-2 2.5515027 0
-1.9937257 -2 -1.8494496
3.6893488e+19 2.5321937 -2
-2.0413988 -0 -1.8458594
3.6893488e+19 2.5224049 -1.0842022e-19
-1.9702038 1.0842022e-19 -1.8434277
-3.6893488e+19 2.5020182 -2
-2.0102391 -1.0842022e-19 -1.8368998
-0 2.4798336 1.0842022e-19
-2.0292661 1.0842022e-19 -1.8354647
-2 2.4336696 -2
-2.0023983 -1.0842022e-19 -1.8279608
-2 3.3035853 2
-2.8533771 0 2.7864602
1.0842022e-19 3.2665603 -0
-2.8102794 -3.6893488e+19 2.7205942
2 3.2678895 0
-2.8118267 -1.0842022e-19 2.6743729
-1.0842022e-19 3.2696104 3.6893488e+19
-2.8138299 0 2.6608965
1.0842022e-19 3.2870083 -0
-2.7687435 -0 2.672852
3.6893488e+19 3.2923632 3.6893488e+19
-2.7226748 -3.6893488e+19 2.6693037
-1.0842022e-19 3.3271344 -1.0842022e-19
-2.8378055 2 2.7152472
1.0842022e-19 3.2918081 2
-2.7217774 2 2.6514113
-0 3.3261158 2
-2.8367538 3.6893488e+19 2.6944797
0 3.2915542 2
-2.7213669 1.0842022e-19 2.6340239
-3.6893488e+19 3.3251827 -3.6893488e+19
-2.8357902 2 2.6739924
3.6893488e+19 3.2887418 -2
-2.71682 -3.6893488e+19 2.6134803
1.0842022e-19 3.3237674 -0
-2.8343287 0 2.6530533
3.6893488e+19 3.2709837 2
-2.6881099 1.0842022e-19 2.5753593
3.6893488e+19 3.286468 -3.6893488e+19
-2.7131438 -0 2.5773141
-0 3.2846322 -0
-2.7939169 0 2.5708704
-2 3.2843108 -3.6893488e+19
-2.7935851 -2 2.5538416
0 3.2878351 -2
-2.715354 -0 2.5455437
-0 3.2838995 2
-2.7931604 -1.0842022e-19 2.536793
-2 3.2729616 -2
-2.8177307 -2 2.5200241
-1.0842022e-19 3.2778513 1.0842022e-19
-2.7601695 -0 2.51298
-3.6893488e+19 3.2857351 0
-2.8325994 2 2.5158422
3.6893488e+19 3.2785215 1.0842022e-19
-2.760797 -1.0842022e-19 2.4949284
-3.6893488e+19 3.2733421 -2
-2.8181736 -0 2.4764969
-2 3.2809649 2
-2.7630849 -0 2.4667294
-3.6893488e+19 3.2737439 1.0842022e-19
-2.8186414 -1.0842022e-19 2.445076
-1.0842022e-19 3.2804744 0
-2.7626257 -2 2.4334826
1.0842022e-19 3.2797508 -0
-2.8256333 3.6893488e+19 2.4220545
3.6893488e+19 3.2815003 0
-2.7635863 0 2.402554
3.6893488e+19 3.2801149 1.0842022e-19
-2.8260572 0 2.3898213
-3.6893488e+19 3.2620251 3.6893488e+19
-2.740701 -0 2.3444817
1.0842022e-19 3.2552748 0
-2.797143 2 2.3254058
-2 3.2642589 -1.0842022e-19
-2.744884 -0 2.3169665
-3.6893488e+19 3.2519622 1.0842022e-19
-2.7932873 -2 2.2917612
-0 3.262459 0
-2.7415135 1.0842022e-19 2.2845941
0 3.2623768 3.6893488e+19
-2.6741946 3.6893488e+19 2.2676277
-2 3.2581813 -2
-2.7666032 0 2.2516689
1.0842022e-19 3.263448 -1.0842022e-19
-2.6759264 1.0842022e-19 2.2272813
-2 3.2578733 -1.0842022e-19
-2.7662852 3.6893488e+19 2.1931372
-0 3.2659605 3.6893488e+19
-2.6799886 -0 2.1711347
-2 3.2590487 3.6893488e+19
-2.767499 0 2.1353405
2 3.2585342 -0
-2.7669675 -3.6893488e+19 2.0749028
-3.6893488e+19 3.2616143 3.6893488e+19
-2.6729622 2 2.0449669
-0 3.2801297 -0
-2.7892675 -1.0842022e-19 2.0374327
-1.0842022e-19 3.2799869 1.0842022e-19
-2.7891202 -1.0842022e-19 1.9727249
-1.0842022e-19 3.2767055 -2
-2.6973605 -3.6893488e+19 1.9359363
2 3.2989054 0
-2.8086557 -2 1.9188871
2 3.2760341 -0
-2.696275 -3.6893488e+19 1.8702786
-1.0842022e-19 3.2538061 0
-2.7620854 2 1.7948291
1.0842022e-19 3.2384763 -1.0842022e-19
-2.784296 -1.0842022e-19 1.716122
-0 3.2605944 -0
-2.7380214 -1.0842022e-19 1.5909029
-2 3.2385168 0
-2.7843199 2 -1.1740462
-1.0842022e-19 3.2579618 1.0842022e-19
-2.7330914 -1.0842022e-19 -1.6295187
-3.6893488e+19 3.239764 -0
-2.7850456 -1.0842022e-19 -1.7384597
0 3.2600329 3.6893488e+19
-2.7369697 -2 -1.8094476
1.0842022e-19 3.2468679 -0
-2.78918 -0 -1.8614209
1.0842022e-19 3.2606459 3.6893488e+19
-2.7381177 -3.6893488e+19 -1.9021631
-1.0842022e-19 3.250083 1.0842022e-19
-2.7910998 -1.0842022e-19 -1.9271094
2 3.2613373 -0
-2.7394125 -2 -1.9624738
0 3.2478905 -1.0842022e-19
-2.7897751 0 -1.9841819
3.6893488e+19 3.2342525 -3.6893488e+19
-2.7034354 -1.0842022e-19 -2.0023661
-0 3.2004611 -2
-2.762171 -2 -2.0142589
2 3.222367 2
-2.6923065 0 -2.0503557
-0 2.8024502 -1.0842022e-19
-2.2389829 3.6893488e+19 -1.8677636
-3.6893488e+19 2.8441615 -1.0842022e-19
-2.3553882 3.6893488e+19 -1.8997594
-2 2.8022168 2
-2.2386057 -1.0842022e-19 -1.8885292
2 2.7793293 -1.0842022e-19
-2.2884409 -2 -1.887689
-3.6893488e+19 2.7576425 2
-2.1665409 0 -1.88281
-2 2.7142167 2
-2.2293596 -1.0842022e-19 -1.8778334
0 2.683768 -2
-2.1006446 0 -1.8733864
0 2.649292 -1.0842022e-19
-2.1623168 3.6893488e+19 -1.8680232
-2 2.6295505 1.0842022e-19
-2.0568171 -2 -1.8640544
1.0842022e-19 2.6061294 2
-2.1177464 1.0842022e-19 -1.8623852
-1.0842022e-19 2.5841634 1.0842022e-19
-2.0201275 1.0842022e-19 -1.8546027
3.6893488e+19 2.5599835 -3.6893488e+19
-2.0700951 -0 -1.8496082
-2 2.5515027 0
-1.9937257 -2 -1.8494496
3.6893488e+19 2.5321937 -2
-2.0413988 -0 -1.8458594
3.6893488e+19 2.5224049 -1.0842022e-19
-1.9702038 1.0842022e-19 -1.8434277
-3.6893488e+19 2.5020182 -2
-2.0102391 -1.0842022e-19 -1.8368998
-0 2.4798336 1.0842022e-19
-2.0292661 1.0842022e-19 -1.8354647
-2 2.4336696 -2
-2.0023983 -1.0842022e-19 -1.8279608
0 3.3042011 0
-2.8575518 -2 2.7872608
-2 3.2959464 -2
-2.8478494 2 2.7704368
0 3.2656524 -1.0842022e-19
-2.8122423 2 2.7193506
2 3.2666845 2
-2.8134556 -3.6893488e+19 2.7049987
1.0842022e-19 3.3030155 0
-2.8561583 2 2.7303848
2 3.2685046 1.0842022e-19
-2.8155949 -0 2.6595244
1.0842022e-19 3.2872355 -1.0842022e-19
-2.772131 0 2.6734478
-1.0842022e-19 3.2922225 -3.6893488e+19
-2.728821 -2 2.6693254
1.0842022e-19 3.3267782 3.6893488e+19
-2.8410902 -2 2.7150562
1.0842022e-19 3.2911999 2
-2.7271454 2 2.6507881
-2 3.3255363 0
-2.8397942 -0 2.6939914
-3.6893488e+19 3.2913988 1.0842022e-19
-2.7274716 1.0842022e-19 2.6340239
-0 3.3221543 3.6893488e+19
-2.8362639 -2 2.6703291
-1.0842022e-19 3.3236969 -3.6893488e+19
-2.8378739 1.0842022e-19 2.6532395
3.6893488e+19 3.2880735 -0
-2.7220228 3.6893488e+19 2.5960627
-2 3.2863457 -0
-2.7191918 0 2.5773489
2 3.2844539 -1.0842022e-19
-2.7969122 -2 2.5708871
-1.0842022e-19 3.2864816 2
-2.7194145 2 2.5608938
1.0842022e-19 3.2840729 3.6893488e+19
-2.7965145 0 2.5537937
1.0842022e-19 3.2875299 1.0842022e-19
-2.721132 0 2.5453877
3.6893488e+19 3.2837667 -0
-2.796195 1.0842022e-19 2.5368538
-2 3.2884879 2
-2.839083 -1.0842022e-19 2.5356019
1.0842022e-19 3.278224 1.0842022e-19
-2.7635934 3.6893488e+19 2.513495
3.6893488e+19 3.2864254 -1.0842022e-19
-2.8366585 3.6893488e+19 2.5166883
1.0842022e-19 3.2785313 -0
-2.7638845 2 2.4952509
-0 3.2729094 -1.0842022e-19
-2.8207722 0 2.4761069
-3.6893488e+19 3.2815783 0
-2.7667716 -1.0842022e-19 2.4680369
-3.6893488e+19 3.2828298 2
-2.8324325 -1.0842022e-19 2.4602008
-3.6893488e+19 3.2796261 -2
-2.8286669 -1.0842022e-19 2.4221897
-0 3.2814026 -0
-2.7666049 -1.0842022e-19 2.4026623
0 3.2796018 -3.6893488e+19
-2.8286381 -2 2.389405
-0 3.2826273 3.6893488e+19
-2.7677653 0 2.3717964
1.0842022e-19 3.2791748 -3.6893488e+19
-2.8281362 2 2.3561444
-3.6893488e+19 3.2815194 1.0842022e-19
-2.7667158 -1.0842022e-19 2.337878
-3.6893488e+19 3.2441173 -2
-2.7903876 3.6893488e+19 2.2863021
-0 3.2789099 2
-2.7642434 -0 2.3026187
1.0842022e-19 3.2765672 1.0842022e-19
-2.7031691 2 2.2822526
1.0842022e-19 3.2850971 -0
-2.7975836 0 2.2780945
3.6893488e+19 3.2775979 0
-2.7048581 2 2.2515922
2 3.2846789 0
-2.7971473 1.0842022e-19 2.2395332
3.6893488e+19 3.2640147 -0
-2.6826012 0 2.1682765
-2 3.2838538 -2
-2.7962859 -2 2.1725254
0 3.3035104 0
-2.7473168 -2 2.1615908
-3.6893488e+19 3.2790108 3.6893488e+19
-2.7912309 0 2.1008747
-3.6893488e+19 3.261322 -0
-2.6781893 3.6893488e+19 2.0447943
0 3.3279486 2
-2.8423119 2 2.0867269
3.6893488e+19 3.2963119 -3.6893488e+19
-2.7355216 2 2.016722
2 3.3270895 -2
-2.8414152 -3.6893488e+19 2.010371
-1.0842022e-19 3.2730229 2
-2.6973617 -2 1.9335595
-1.0842022e-19 3.3281341 0
-2.8425057 3.6893488e+19 1.935528
-2 3.2759635 2
-2.7021801 -0 1.8703467
-3.6893488e+19 3.3268952 -2
-2.8412125 -1.0842022e-19 1.8438839
0 3.2618175 3.6893488e+19
-2.7460992 3.6893488e+19 1.59205
1.0842022e-19 3.3303459 1.0842022e-19
-2.8882818 3.6893488e+19 -1.2355679
-1.0842022e-19 3.2566321 -3.6893488e+19
-2.736274 -2 -1.6289306
2 3.3324058 -0
-2.890703 1.0842022e-19 -1.786968
3.6893488e+19 3.3034761 -3.6893488e+19
-2.7875175 3.6893488e+19 -1.8403958
-1.0842022e-19 3.2514515 3.6893488e+19
-2.7955511 -3.6893488e+19 -1.8644758
3.6893488e+19 3.3023818 1.0842022e-19
-2.7864809 -1.0842022e-19 -1.9266372
3.6893488e+19 3.249094 -3.6893488e+19
-2.7933123 2 -1.9268651
1.0842022e-19 3.2617691 -3.6893488e+19
-2.7460074 1.0842022e-19 -1.9629561
2 3.2486782 -3.6893488e+19
-2.7930679 2 -1.984732
-0 3.2606385 -0
-2.7438655 3.6893488e+19 -2.0218289
-0 3.1980789 2
-2.7633314 -0 -2.0130627
-1.0842022e-19 3.2235951 -2
-2.6986909 3.6893488e+19 -2.0513222
0 2.8438675 -1.0842022e-19
-2.358928 -2 -1.8997331
2 2.8021171 -1.0842022e-19
-2.2450337 -3.6893488e+19 -1.8885572
1.0842022e-19 2.779381 -1.0842022e-19
-2.2916172 -3.6893488e+19 -1.8878081
1.0842022e-19 2.7584832 1.0842022e-19
-2.1735375 0 -1.8833143
-1.0842022e-19 2.715591 -3.6893488e+19
-2.2359827 1.0842022e-19 -1.878299
-2 2.6834147 0
-2.1050858 -3.6893488e+19 -1.8733163
1.0842022e-19 2.6478145 -2
-2.1652377 -1.0842022e-19 -1.8672885
0 2.6291044 -0
-2.0605905 0 -1.8639007
0 2.6060081 -3.6893488e+19
-2.1216002 -1.0842022e-19 -1.8624655
0 2.5841076 -2
-2.0237257 -2 -1.8546865
-2 2.5592909 -1.0842022e-19
-2.0728371 1.0842022e-19 -1.8492588
2 2.5513422 -0
-1.9968821 -2 -1.8494496
3.6893488e+19 2.5318816 1.0842022e-19
-2.0442274 -0 -1.8457651
1.0842022e-19 2.5209193 3.6893488e+19
-1.9719573 -3.6893488e+19 -1.842352
-3.6893488e+19 2.501847 3.6893488e+19
-2.0128775 -1.0842022e-19 -1.8368998
-2 2.4792278 -3.6893488e+19
-2.0316372 -2 -1.8353599
-1.0842022e-19 2.4335761 -1.0842022e-19
-2.0048082 1.0842022e-19 -1.8280725
3.6893488e+19 2.3690808 -1.0842022e-19
-1.966905 -2 -1.8196247
-0 2.3166146 -2
-1.9360712 2 -1.8106905
-2 2.2768526 -0
-1.9127035 -0 -1.8038149
1.0842022e-19 2.2566955 1.0842022e-19
-1.8353041 3.6893488e+19 -1.8023695
-3.6893488e+19 2.2192514 3.6893488e+19
-1.817223 3.6893488e+19 -1.8008922
-0 2.1838894 0
-1.8027374 1.0842022e-19 -1.8004371
1.0842022e-19 2.1500688 2
-1.7888831 1.0842022e-19 -1.7986296
0 3.3042011 0
-2.8575518 -2 2.7872608
-2 3.2959464 -2
-2.8478494 2 2.7704368
0 3.2656524 -1.0842022e-19
-2.8122423 2 2.7193506
2 3.2666845 2
-2.8134556 -3.6893488e+19 2.7049987
0 3.2682884 -2
-2.8153405 -2 2.6753302
2 3.2685046 1.0842022e-19
-2.8155949 -0 2.6595244
1.0842022e-19 3.2872355 -1.0842022e-19
-2.772131 0 2.6734478
-1.0842022e-19 3.2922225 -3.6893488e+19
-2.728821 -2 2.6693254
1.0842022e-19 3.3267782 3.6893488e+19
-2.8410902 -2 2.7150562
1.0842022e-19 3.2911999 2
-2.7271454 2 2.6507881
-2 3.3255363 0
-2.8397942 -0 2.6939914
-3.6893488e+19 3.2913988 1.0842022e-19
-2.7274716 1.0842022e-19 2.6340239
-0 3.3221543 3.6893488e+19
-2.8362639 -2 2.6703291
-1.0842022e-19 3.3236969 -3.6893488e+19
-2.8378739 1.0842022e-19 2.6532395
-0 3.2698853 -1.0842022e-19
-2.6922204 -3.6893488e+19 2.574213
-2 3.2863457 -0
-2.7191918 0 2.5773489
2 3.2844539 -1.0842022e-19
-2.7969122 -2 2.5708871
-1.0842022e-19 3.2864816 2
-2.7194145 2 2.5608938
1.0842022e-19 3.2840729 3.6893488e+19
-2.7965145 0 2.5537937
3.6893488e+19 3.2745142 -2
-2.699805 2 2.5320163
3.6893488e+19 3.2837667 -0
-2.796195 1.0842022e-19 2.5368538
1.0842022e-19 3.2715173 1.0842022e-19
-2.8191359 1.0842022e-19 2.518801
1.0842022e-19 3.278224 1.0842022e-19
-2.7635934 3.6893488e+19 2.513495
3.6893488e+19 3.2864254 -1.0842022e-19
-2.8366585 3.6893488e+19 2.5166883
1.0842022e-19 3.2785313 -0
-2.7638845 2 2.4952509
-0 3.2729094 -1.0842022e-19
-2.8207722 0 2.4761069
-3.6893488e+19 3.2815783 0
-2.7667716 -1.0842022e-19 2.4680369
-3.6893488e+19 3.2726243 1.0842022e-19
-2.8204372 3.6893488e+19 2.4435952
-1.0842022e-19 3.2426045 -1.0842022e-19
-2.7894986 2 2.371876
-0 3.2814026 -0
-2.7666049 -1.0842022e-19 2.4026623
2 3.2429931 3.6893488e+19
-2.789727 -1.0842022e-19 2.3432989
1.0842022e-19 3.2624397 1.0842022e-19
-2.7472785 2 2.3452394
2 3.247304 3.6893488e+19
-2.7922604 0 2.3172064
3.6893488e+19 3.2633076 -3.6893488e+19
-2.7489228 0 2.3160203
-3.6893488e+19 3.2441173 -2
-2.7903876 3.6893488e+19 2.2863021
3.6893488e+19 3.2629497 -0
-2.7482448 -3.6893488e+19 2.2853017
-2 3.2626035 -0
-2.680289 -3.6893488e+19 2.2680018
-2 3.257689 3.6893488e+19
-2.7689753 2 2.2513597
0 3.2631855 0
-2.6812425 -1.0842022e-19 2.2270596
-2 3.258755 2
-2.770088 1.0842022e-19 2.1949546
3.6893488e+19 3.2640147 -0
-2.6826012 0 2.1682765
1.0842022e-19 3.260066 3.6893488e+19
-2.7714562 -0 2.1371164
0 3.3035104 0
-2.7473168 -2 2.1615908
3.6893488e+19 3.2561679 -1.0842022e-19
-2.7673874 0 2.0721481
-3.6893488e+19 3.261322 -0
-2.6781893 3.6893488e+19 2.0447943
0 3.3279486 2
-2.8423119 2 2.0867269
-2 3.2663975 -2
-2.6865056 2 1.989795
2 3.3270895 -2
-2.8414152 -3.6893488e+19 2.010371
-1.0842022e-19 3.2730229 2
-2.6973617 -2 1.9335595
-1.0842022e-19 3.3281341 0
-2.8425057 3.6893488e+19 1.935528
-2 3.2759635 2
-2.7021801 -0 1.8703467
1.0842022e-19 3.2541025 -3.6893488e+19
-2.7652314 -1.0842022e-19 1.7951429
0 3.2618175 3.6893488e+19
-2.7460992 3.6893488e+19 1.59205
-0 3.2391624 1.0842022e-19
-2.7874758 2 -1.1744096
-1.0842022e-19 3.2566321 -3.6893488e+19
-2.736274 -2 -1.6289306
2 3.2496431 2
-2.7936351 1.0842022e-19 -1.743456
2 3.2616818 -1.0842022e-19
-2.7458422 -1.0842022e-19 -1.8107318
-1.0842022e-19 3.2514515 3.6893488e+19
-2.7955511 -3.6893488e+19 -1.8644758
-3.6893488e+19 3.2596338 2
-2.741962 2 -1.9016659
3.6893488e+19 3.249094 -3.6893488e+19
-2.7933123 2 -1.9268651
1.0842022e-19 3.2617691 -3.6893488e+19
-2.7460074 1.0842022e-19 -1.9629561
2 3.2486782 -3.6893488e+19
-2.7930679 2 -1.984732
-0 3.2606385 -0
-2.7438655 3.6893488e+19 -2.0218289
-0 3.1980789 2
-2.7633314 -0 -2.0130627
-1.0842022e-19 3.2235951 -2
-2.6986909 3.6893488e+19 -2.0513222
0 2.8438675 -1.0842022e-19
-2.358928 -2 -1.8997331
2 2.8021171 -1.0842022e-19
-2.2450337 -3.6893488e+19 -1.8885572
1.0842022e-19 2.779381 -1.0842022e-19
-2.2916172 -3.6893488e+19 -1.8878081
1.0842022e-19 2.7584832 1.0842022e-19
-2.1735375 0 -1.8833143
-1.0842022e-19 2.715591 -3.6893488e+19
-2.2359827 1.0842022e-19 -1.878299
-2 2.6834147 0
-2.1050858 -3.6893488e+19 -1.8733163
1.0842022e-19 2.6478145 -2
-2.1652377 -1.0842022e-19 -1.8672885
0 2.6291044 -0
-2.0605905 0 -1.8639007
0 2.6060081 -3.6893488e+19
-2.1216002 -1.0842022e-19 -1.8624655
0 2.5841076 -2
-2.0237257 -2 -1.8546865
-2 2.5592909 -1.0842022e-19
-2.0728371 1.0842022e-19 -1.8492588
2 2.5513422 -0
-1.9968821 -2 -1.8494496
3.6893488e+19 2.5318816 1.0842022e-19
-2.0442274 -0 -1.8457651
1.0842022e-19 2.5209193 3.6893488e+19
-1.9719573 -3.6893488e+19 -1.842352
-3.6893488e+19 2.501847 3.6893488e+19
-2.0128775 -1.0842022e-19 -1.8368998
-2 2.4792278 -3.6893488e+19
-2.0316372 -2 -1.8353599
-1.0842022e-19 2.4335761 -1.0842022e-19
-2.0048082 1.0842022e-19 -1.8280725
3.6893488e+19 2.3690808 -1.0842022e-19
-1.966905 -2 -1.8196247
-0 2.3166146 -2
-1.9360712 2 -1.8106905
-2 2.2768526 -0
-1.9127035 -0 -1.8038149
1.0842022e-19 2.2566955 1.0842022e-19
-1.8353041 3.6893488e+19 -1.8023695
-3.6893488e+19 2.2192514 3.6893488e+19
-1.817223 3.6893488e+19 -1.8008922
-0 2.1838894 0
-1.8027374 1.0842022e-19 -1.8004371
1.0842022e-19 2.1500688 2
-1.7888831 1.0842022e-19 -1.7986296
3.6893488e+19 3.3045483 3.6893488e+19
-2.8614578 1.0842022e-19 2.7878132
2 3.2942672 1.0842022e-19
-2.8492556 -2 2.7691119
-1.0842022e-19 3.2668288 2
-2.81669 3.6893488e+19 2.7056003
-1.0842022e-19 3.2638228 1.0842022e-19
-2.8131223 1.0842022e-19 2.6845021
-1.0842022e-19 3.3032942 -2
-2.8599694 -2 2.7312019
-0 3.2686636 2
-2.8188677 0 2.6600869
-2 3.2928619 -1.0842022e-19
-2.73632 -2 2.6704719
2 3.3272367 3.6893488e+19
-2.845264 -3.6893488e+19 2.7160316
3.6893488e+19 3.2906792 -0
-2.7326953 0 2.6502895
1.0842022e-19 3.3248339 0
-2.8427289 -2 2.6933403
0 3.2911799 0
-2.7335267 0 2.6339443
-1.0842022e-19 3.3218565 -0
-2.8395875 2 2.6702318
-2 3.2924528 0
-2.7356408 -0 2.6185489
-1.0842022e-19 3.3213811 -1.0842022e-19
-2.8390858 3.6893488e+19 2.6506321
-3.6893488e+19 3.2885523 1.0842022e-19
-2.7291636 2 2.5968268
-0 3.2867656 1.0842022e-19
-2.7261965 0 2.5780075
1.0842022e-19 3.2706294 -2
-2.6994009 0 2.5438507
-1.0842022e-19 3.2835014 0
-2.7991195 -1.0842022e-19 2.5533926
1.0842022e-19 3.274471 -1.0842022e-19
-2.7057803 3.6893488e+19 2.5321255
-2 3.2697585 -1.0842022e-19
-2.8201671 3.6893488e+19 2.5172682
-0 3.2824113 -0
-2.7707136 1.0842022e-19 2.5176291
0 3.2792797 2
-2.8314674 2 2.5102379
-3.6893488e+19 3.2821779 3.6893488e+19
-2.7704899 -0 2.5010254
0 3.2831702 3.6893488e+19
-2.8360848 1.0842022e-19 2.4943926
-2 3.2833211 -1.0842022e-19
-2.7715857 -0 2.4712303
1.0842022e-19 3.2844582 0
-2.8376136 2 2.4632113
-2 3.2846031 -3.6893488e+19
-2.7728145 -2 2.440412
-2 3.281467 2
-2.8340635 2 2.4253006
2 3.2850251 1.0842022e-19
-2.7732191 -0 2.4081025
-0 3.2792046 -3.6893488e+19
-2.8313782 -0 2.3891554
1.0842022e-19 3.2834342 3.6893488e+19
-2.7716939 -1.0842022e-19 2.3730922
-3.6893488e+19 3.2796142 2
-2.8318646 -0 2.3569834
3.6893488e+19 3.277766 3.6893488e+19
-2.7662606 -0 2.3335829
1.0842022e-19 3.2433138 3.6893488e+19
-2.7927485 -1.0842022e-19 2.2860594
2 3.27878 1.0842022e-19
-2.7672327 -1.0842022e-19 2.3026681
2 3.2756073 2
-2.7076674 3.6893488e+19 2.2814262
-3.6893488e+19 3.2573295 0
-2.7715058 2 2.251183
-0 3.2618506 2
-2.6848233 0 2.2248988
2 3.2839537 1.0842022e-19
-2.7995965 -2 2.2386243
-0 3.2895582 -1.0842022e-19
-2.7308338 -2 2.2089946
0 3.2830083 -0
-2.798599 0 2.1715589
3.6893488e+19 3.2972002 -3.6893488e+19
-2.7435238 2 2.1532533
1.0842022e-19 3.2808709 -2
-2.7963438 -0 2.1034584
-0 3.2966521 3.6893488e+19
-2.7426138 3.6893488e+19 2.084832
-0 3.3279629 3.6893488e+19
-2.8460302 3.6893488e+19 2.0869751
-2 3.2959516 0
-2.7414508 1.0842022e-19 2.0165429
2 3.3278749 -2
-2.8459373 -3.6893488e+19 2.0111771
2 3.2738686 -0
-2.7047799 0 1.9342284
1.0842022e-19 3.3291607 -2
-2.8472939 2 1.9362375
-2 3.2743294 3.6893488e+19
-2.7055454 0 1.8690268
-1.0842022e-19 3.2526724 -2
-2.766592 -1.0842022e-19 1.7943027
0 3.2586138 -1.0842022e-19
-2.7458034 -0 1.589529
-3.6893488e+19 3.2396798 -2
-2.790592 -1.0842022e-19 -1.1747303
-1.0842022e-19 3.2566226 -3.6893488e+19
-2.741986 3.6893488e+19 -1.629007
0 3.2414045 1.0842022e-19
-2.7916155 -0 -1.7396284
-2 3.2599065 0
-2.7482822 -0 -1.809588
-0 3.2465498 2
-2.7946689 -2 -1.861635
-0 3.3018117 -3.6893488e+19
-2.7893102 3.6893488e+19 -1.9264152
2 3.2497532 -0
-2.7965698 0 -1.9272369
-2 3.3024657 -0
-2.7899373 -2 -1.9962188
-3.6893488e+19 3.2482893 1.0842022e-19
-2.7957013 2 -1.984732
0 3.2599583 -1.0842022e-19
-2.7483809 2 -2.0212901
3.6893488e+19 3.1974602 2
-2.7655375 -0 -2.0129044
0 3.2215664 -0
-2.7020335 3.6893488e+19 -2.0502203
2 2.8433878 2
-2.3623049 3.6893488e+19 -1.8996279
-1.0842022e-19 2.8015859 3.6893488e+19
-2.2504034 -1.0842022e-19 -1.888389
0 2.7781017 -2
-2.293422 -2 -1.8872721
2 2.7554719 -2
-2.1742308 2 -1.881833
2 2.7163539 0
-2.2420452 -3.6893488e+19 -1.8785982
-0 2.6811032 0
-2.1079402 2 -1.8721266
-0 2.6477799 -0
-2.1696935 2 -1.8674355
-2 2.6291418 -0
-2.0647972 -2 -1.8640544
0 2.6058819 -3.6893488e+19
-2.1254871 2 -1.862546
3.6893488e+19 2.585633 -1.0842022e-19
-2.0286722 -1.0842022e-19 -1.8558609
0 2.557632 1.0842022e-19
-2.0745792 -3.6893488e+19 -1.8482103
-1.0842022e-19 2.5509343 2
-1.9998624 -2 -1.849268
0 2.5318067 -3.6893488e+19
-2.0473311 -0 -1.8458594
-1.0842022e-19 2.5206499 3.6893488e+19
-1.9747176 -2 -1.8422543
3.6893488e+19 2.5017929 2
-2.0156641 -3.6893488e+19 -1.837001
-0 2.479331 0
-2.0344508 -1.0842022e-19 -1.8355694
-2 2.4334762 -3.6893488e+19
-2.0072389 -0 -1.8281841
3.6893488e+19 3.3045483 3.6893488e+19
-2.8614578 1.0842022e-19 2.7878132
2 3.2942672 1.0842022e-19
-2.8492556 -2 2.7691119
-1.0842022e-19 3.2668288 2
-2.81669 3.6893488e+19 2.7056003
-1.0842022e-19 3.2638228 1.0842022e-19
-2.8131223 1.0842022e-19 2.6845021
2 3.2688003 0
-2.8190298 2 2.6764743
-0 3.2686636 2
-2.8188677 0 2.6600869
-2 3.2928619 -1.0842022e-19
-2.73632 -2 2.6704719
2 3.3272367 3.6893488e+19
-2.845264 -3.6893488e+19 2.7160316
3.6893488e+19 3.2906792 -0
-2.7326953 0 2.6502895
1.0842022e-19 3.3248339 0
-2.8427289 -2 2.6933403
3.6893488e+19 3.2730858 0
-2.7034802 -3.6893488e+19 2.6100857
-1.0842022e-19 3.3218565 -0
-2.8395875 2 2.6702318
3.6893488e+19 3.267535 -0
-2.6942625 -3.6893488e+19 2.5871472
-1.0842022e-19 3.3213811 -1.0842022e-19
-2.8390858 3.6893488e+19 2.6506321
1.0842022e-19 3.2692087 3.6893488e+19
-2.6970417 2 2.5735765
2 3.2697964 -2
-2.6980176 -1.0842022e-19 2.5585976
1.0842022e-19 3.2706294 -2
-2.6994009 0 2.5438507
-1.0842022e-19 3.2835014 0
-2.7991195 -1.0842022e-19 2.5533926
1.0842022e-19 3.274471 -1.0842022e-19
-2.7057803 3.6893488e+19 2.5321255
-2 3.2697585 -1.0842022e-19
-2.8201671 3.6893488e+19 2.5172682
-0 3.2824113 -0
-2.7707136 1.0842022e-19 2.5176291
0 3.2792797 2
-2.8314674 2 2.5102379
-3.6893488e+19 3.2821779 3.6893488e+19
-2.7704899 -0 2.5010254
-3.6893488e+19 3.2725625 3.6893488e+19
-2.8234951 1.0842022e-19 2.4758728
-2 3.2833211 -1.0842022e-19
-2.7715857 -0 2.4712303
-1.0842022e-19 3.2663887 2
-2.8161676 3.6893488e+19 2.4337871
-3.6893488e+19 3.259778 -3.6893488e+19
-2.7480357 1.0842022e-19 2.4019964
-1.0842022e-19 3.2417729 3.6893488e+19
-2.7918341 -3.6893488e+19 2.3715377
2 3.2599573 3.6893488e+19
-2.7483792 -3.6893488e+19 2.37221
3.6893488e+19 3.2414145 2
-2.7916214 0 2.3424668
-2 3.2612143 2
-2.7503946 -1.0842022e-19 2.3438437
0 3.2438097 -2
-2.7930427 1.0842022e-19 2.3152232
-3.6893488e+19 3.2631721 2
-2.7522714 -2 2.3160565
1.0842022e-19 3.2433138 3.6893488e+19
-2.7927485 -1.0842022e-19 2.2860594
-3.6893488e+19 3.2620261 2
-2.7511728 -3.6893488e+19 2.2844787
-1.0842022e-19 3.2594984 2
-2.6809173 1.0842022e-19 2.2649772
-3.6893488e+19 3.2573295 0
-2.7715058 2 2.251183
-0 3.2618506 2
-2.6848233 0 2.2248988
3.6893488e+19 3.2566748 1.0842022e-19
-2.7708149 1.0842022e-19 2.1916833
3.6893488e+19 3.2640238 1.0842022e-19
-2.688432 -3.6893488e+19 2.1685185
-1.0842022e-19 3.2603385 0
-2.7746806 2 2.1377909
-3.6893488e+19 3.2634339 -2
-2.6874526 1.0842022e-19 2.1074381
0 3.2599611 2
-2.7742822 0 2.0771449
-1.0842022e-19 3.2624183 2
-2.685766 3.6893488e+19 2.0461922
-1.0842022e-19 3.2623944 1.0842022e-19
-2.7768497 3.6893488e+19 2.0196049
-2 3.2640655 3.6893488e+19
-2.6885014 0 1.9878254
0 3.2546816 2
-2.7687118 -3.6893488e+19 1.9528731
2 3.2738686 -0
-2.7047799 0 1.9342284
-3.6893488e+19 3.2556243 0
-2.7697067 2 1.894631
-2 3.2743294 3.6893488e+19
-2.7055454 0 1.8690268
-1.0842022e-19 3.2526724 -2
-2.766592 -1.0842022e-19 1.7943027
0 3.2586138 -1.0842022e-19
-2.7458034 -0 1.589529
-3.6893488e+19 3.2396798 -2
-2.790592 -1.0842022e-19 -1.1747303
-1.0842022e-19 3.2566226 -3.6893488e+19
-2.741986 3.6893488e+19 -1.629007
0 3.2414045 1.0842022e-19
-2.7916155 -0 -1.7396284
-2 3.2599065 0
-2.7482822 -0 -1.809588
-0 3.2465498 2
-2.7946689 -2 -1.861635
-0 3.2587261 -1.0842022e-19
-2.7460189 1.0842022e-19 -1.9012308
2 3.2497532 -0
-2.7965698 0 -1.9272369
-2 3.2599485 -0
-2.7483625 -3.6893488e+19 -1.9616082
-3.6893488e+19 3.2482893 1.0842022e-19
-2.7957013 2 -1.984732
0 3.2599583 -1.0842022e-19
-2.7483809 2 -2.0212901
3.6893488e+19 3.1974602 2
-2.7655375 -0 -2.0129044
0 3.2215664 -0
-2.7020335 3.6893488e+19 -2.0502203
2 2.8433878 2
-2.3623049 3.6893488e+19 -1.8996279
-1.0842022e-19 2.8015859 3.6893488e+19
-2.2504034 -1.0842022e-19 -1.888389
0 2.7781017 -2
-2.293422 -2 -1.8872721
2 2.7554719 -2
-2.1742308 2 -1.881833
2 2.7163539 0
-2.2420452 -3.6893488e+19 -1.8785982
-0 2.6811032 0
-2.1079402 2 -1.8721266
-0 2.6477799 -0
-2.1696935 2 -1.8674355
-2 2.6291418 -0
-2.0647972 -2 -1.8640544
0 2.6058819 -3.6893488e+19
-2.1254871 2 -1.862546
3.6893488e+19 2.585633 -1.0842022e-19
-2.0286722 -1.0842022e-19 -1.8558609
0 2.557632 1.0842022e-19
-2.0745792 -3.6893488e+19 -1.8482103
-1.0842022e-19 2.5509343 2
-1.9998624 -2 -1.849268
0 2.5318067 -3.6893488e+19
-2.0473311 -0 -1.8458594
-1.0842022e-19 2.5206499 3.6893488e+19
-1.9747176 -2 -1.8422543
3.6893488e+19 2.5017929 2
-2.0156641 -3.6893488e+19 -1.837001
-0 2.479331 0
-2.0344508 -1.0842022e-19 -1.8355694
-2 2.4334762 -3.6893488e+19
-2.0072389 -0 -1.8281841
-0 3.2909524 0
-2.8486409 3.6893488e+19 2.7662885
1.0842022e-19 3.2654915 -1.0842022e-19
-2.8181314 -1.0842022e-19 2.7036707
0 3.2631764 3.6893488e+19
-2.8153574 -1.0842022e-19 2.6837759
3.6893488e+19 3.3025723 1.0842022e-19
-2.8625646 1.0842022e-19 2.7304316
-1.0842022e-19 3.2659361 1.0842022e-19
-2.8186646 3.6893488e+19 2.6562407
3.6893488e+19 3.3360784 -2
-2.8258834 -3.6893488e+19 2.7460778
-0 3.2928674 -1.0842022e-19
-2.742734 -3.6893488e+19 2.6707098
-1.0842022e-19 3.3275301 0
-2.8492467 -2 2.7167737
2 3.2907012 -0
-2.7390893 -0 2.6505387
-0 3.3221951 2
-2.8435578 -2 2.6900444
-3.6893488e+19 3.2925148 -3.6893488e+19
-2.7421408 -0 2.6359158
-0 3.2906759 -1.0842022e-19
-2.7390468 1.0842022e-19 2.6165102
1.0842022e-19 3.2911327 -0
-2.7398152 -1.0842022e-19 2.6001196
-2 3.2940941 -2
-2.8135936 -1.0842022e-19 2.5995278
-3.6893488e+19 3.286654 1.0842022e-19
-2.7322805 0 2.5780594
3.6893488e+19 3.2920926 -1.0842022e-19
-2.8114593 2 2.5799618
1.0842022e-19 3.2885942 -1.0842022e-19
-2.7355444 0 2.5635285
-2 3.282496 2
-2.8012266 -2 2.5525267
2 3.2750642 3.6893488e+19
-2.712781 0 2.5328901
-1.0842022e-19 3.2671995 -2
-2.8201783 -2 2.5149395
-0 3.2819917 -0
-2.7734375 1.0842022e-19 2.5174003
-3.6893488e+19 3.2766814 -0
-2.8315403 -3.6893488e+19 2.5080183
-0 3.2826793 0
-2.7741044 0 2.5016303
-0 3.2832766 -1.0842022e-19
-2.839443 3.6893488e+19 2.4949648
1.0842022e-19 3.2834899 -0
-2.7748902 0 2.4718087
-3.6893488e+19 3.2852638 -2
-2.8418243 1.0842022e-19 2.4648864
1.0842022e-19 3.286767 -0
-2.7780678 -3.6893488e+19 2.4440405
-3.6893488e+19 3.2823205 0
-2.8382976 -2 2.4269235
-1.0842022e-19 3.2855411 0
-2.7768793 2 2.4090996
2 3.2793596 -3.6893488e+19
-2.8347492 1.0842022e-19 2.3896756
1.0842022e-19 3.276474 1.0842022e-19
-2.7680871 -3.6893488e+19 2.3641601
-2 3.2799332 -0
-2.8354368 -1.0842022e-19 2.3576698
-1.0842022e-19 3.276273 2
-2.7678924 3.6893488e+19 2.3319995
3.6893488e+19 3.2836893 -2
-2.8399374 -2 2.3292646
1.0842022e-19 3.2773919 3.6893488e+19
-2.7689772 2 2.3013513
1.0842022e-19 3.2833159 -2
-2.7266638 0 2.2894559
-1.0842022e-19 3.2577839 -2
-2.7748759 -1.0842022e-19 2.2518013
1.0842022e-19 3.2606235 2
-2.6884851 0 2.2229319
3.6893488e+19 3.2837565 3.6893488e+19
-2.8025706 -2 2.2386243
-1.0842022e-19 3.2885139 3.6893488e+19
-2.7354095 1.0842022e-19 2.2075899
2 3.2810471 -3.6893488e+19
-2.7996814 3.6893488e+19 2.1689284
-2 3.3043554 0
-2.756031 0 2.163188
3.6893488e+19 3.2811134 3.6893488e+19
-2.7997522 -0 2.1040094
-2 3.2958174 -3.6893488e+19
-2.7476971 -1.0842022e-19 2.0840726
1.0842022e-19 3.2542899 -0
-2.7711501 1.0842022e-19 2.0114591
1.0842022e-19 3.2947505 -3.6893488e+19
-2.7459018 -2 2.0156062
2 3.2542481 0
-2.7711058 1.0842022e-19 1.9526687
-1.0842022e-19 3.2645004 3.6893488e+19
-2.695008 -2 1.9280239
-2 3.2572963 -2
-2.7489827 -1.0842022e-19 1.5885711
3.6893488e+19 3.2379506 0
-2.7923493 2 -1.1742493
3.6893488e+19 3.2568555 1.0842022e-19
-2.7481277 -0 -1.6292056
1.0842022e-19 3.2394643 -2
-2.793256 0 -1.7388688
3.6893488e+19 3.2590744 2
-2.7512155 -1.0842022e-19 -1.8091131
3.6893488e+19 3.2481079 0
-2.798435 -2 -1.8625629
-0 3.3011506 -3.6893488e+19
-2.7920151 0 -1.92614
2 3.2497222 -2
-2.799402 2 -1.9273643
-3.6893488e+19 3.3017282 -2
-2.7925754 -1.0842022e-19 -1.9957737
2 3.2494266 -2
-2.7992249 -2 -1.9854515
-1.0842022e-19 3.2570014 -0
-2.7484107 -1.0842022e-19 -2.0183737
-1.0842022e-19 3.198128 -0
-2.7684901 1.0842022e-19 -2.0135026
2 3.2189927 2
-2.7047658 -2 -2.0487702
-0 2.8465266 -2
-2.3695025 -1.0842022e-19 -1.9011005
-1.0842022e-19 2.803375 -3.6893488e+19
-2.2552061 -2 -1.8892862
1.0842022e-19 2.7791142 2
-2.2976205 -0 -1.8878677
1.0842022e-19 2.7119327 -0
-2.2425604 0 -1.8774676
1.0842022e-19 2.6796472 -0
-2.1114292 2 -1.8714267
2 2.6481061 -1.0842022e-19
-2.1745019 -0 -1.8678027
3.6893488e+19 2.6293004 -0
-2.0690763 0 -1.8642853
-3.6893488e+19 2.6053939 1.0842022e-19
-2.128958 1.0842022e-19 -1.8623852
0 2.5853276 2
-2.0320854 -3.6893488e+19 -1.855777
-0 2.5576589 -2
-2.0780578 -2 -1.8483851
0 2.5508916 1.0842022e-19
-2.0031171 -1.0842022e-19 -1.8493588
1.0842022e-19 2.5314908 0
-2.0501547 -0 -1.8457651
0 2.5203803 -1.0842022e-19
-1.9774501 -1.0842022e-19 -1.8421565
2 2.5017383 0
-2.0184295 1.0842022e-19 -1.8371023
-3.6893488e+19 2.4787185 -0
-2.036818 1.0842022e-19 -1.8354647
-3.6893488e+19 2.4336138 0
-2.0097942 -1.0842022e-19 -1.8284074
-3.6893488e+19 2.3666043 2
-1.9696463 -2 -1.8186208
-0 2.3168323 2
-1.939826 -3.6893488e+19 -1.8111084
2 2.2780776 -2
-1.9166065 2 -1.8048866
-0 2.2549679 -0
-1.839485 1.0842022e-19 -1.8013684
3.6893488e+19 2.2163332 -0
-1.8211452 0 -1.7999893
-0 2.1838958 -0
-1.8075017 -3.6893488e+19 -1.8006313
-2 2.1505892 3.6893488e+19
-1.7934926 -2 -1.7990454
2 3.2666528 -2
-2.8195231 -3.6893488e+19 2.7380974
1.0842022e-19 3.2654915 -1.0842022e-19
-2.8181314 -1.0842022e-19 2.7036707
0 3.2631764 3.6893488e+19
-2.8153574 -1.0842022e-19 2.6837759
3.6893488e+19 3.3025723 1.0842022e-19
-2.8625646 1.0842022e-19 2.7304316
-1.0842022e-19 3.2659361 1.0842022e-19
-2.8186646 3.6893488e+19 2.6562407
3.6893488e+19 3.3360784 -2
-2.8258834 -3.6893488e+19 2.7460778
-0 3.2928674 -1.0842022e-19
-2.742734 -3.6893488e+19 2.6707098
-1.0842022e-19 3.3275301 0
-2.8492467 -2 2.7167737
2 3.2907012 -0
-2.7390893 -0 2.6505387
-0 3.3221951 2
-2.8435578 -2 2.6900444
-1.0842022e-19 3.27351 3.6893488e+19
-2.7101662 0 2.6108427
2 3.2675397 3.6893488e+19
-2.7001214 0 2.587338
-0 3.2686982 0
-2.7020707 -3.6893488e+19 2.5731397
-2 3.2940941 -2
-2.8135936 -1.0842022e-19 2.5995278
-3.6893488e+19 3.2693458 0
-2.7031603 -3.6893488e+19 2.5582509
3.6893488e+19 3.2920926 -1.0842022e-19
-2.8114593 2 2.5799618
3.6893488e+19 3.2707541 -0
-2.7055295 2 2.544147
-2 3.282496 2
-2.8012266 -2 2.5525267
2 3.2750642 3.6893488e+19
-2.712781 0 2.5328901
-1.0842022e-19 3.2671995 -2
-2.8201783 -2 2.5149395
-3.6893488e+19 3.2577946 1.0842022e-19
-2.7499492 0 2.4889107
-3.6893488e+19 3.2766814 -0
-2.8315403 -3.6893488e+19 2.5080183
-2 3.2571499 -3.6893488e+19
-2.7486987 1.0842022e-19 2.4578102
-2 3.2731388 1.0842022e-19
-2.8272953 3.6893488e+19 2.4772513
-3.6893488e+19 3.2596037 3.6893488e+19
-2.7517288 0 2.4320555
-1.0842022e-19 3.2655997 3.6893488e+19
-2.8182614 1.0842022e-19 2.4328403
0 3.258692 -1.0842022e-19
-2.7508445 -1.0842022e-19 2.4005682
0 3.2410314 -2
-2.7941949 3.6893488e+19 2.3712673
-2 3.2604437 3.6893488e+19
-2.7525432 0 2.3731422
1.0842022e-19 3.2421944 3.6893488e+19
-2.7948918 3.6893488e+19 2.3432782
1.0842022e-19 3.276474 1.0842022e-19
-2.7680871 -3.6893488e+19 2.3641601
-3.6893488e+19 3.243036 -3.6893488e+19
-2.7953961 -0 2.3149753
3.6893488e+19 3.2634757 2
-2.7554832 1.0842022e-19 2.3166208
-3.6893488e+19 3.2429285 -1.0842022e-19
-2.7953317 -1.0842022e-19 2.2860594
-2 3.2599061 -3.6893488e+19
-2.7520218 2 2.2823553
1.0842022e-19 3.2741289 1.0842022e-19
-2.7112074 0 2.2800698
-1.0842022e-19 3.2577839 -2
-2.7748759 -1.0842022e-19 2.2518013
1.0842022e-19 3.2606235 2
-2.6884851 0 2.2229319
-3.6893488e+19 3.2579439 -0
-2.7750466 3.6893488e+19 2.1941757
1.0842022e-19 3.2635128 -3.6893488e+19
-2.6933463 -2 2.1679373
2 3.2810471 -3.6893488e+19
-2.7996814 3.6893488e+19 2.1689284
1.0842022e-19 3.2644205 -3.6893488e+19
-2.6948733 3.6893488e+19 2.1089728
-3.6893488e+19 3.2548018 -1.0842022e-19
-2.7716961 -3.6893488e+19 2.0708749
-2 3.2650712 3.6893488e+19
-2.6959684 -1.0842022e-19 2.0493503
1.0842022e-19 3.2542899 -0
-2.7711501 1.0842022e-19 2.0114591
3.6893488e+19 3.2652662 0
-2.6962965 -1.0842022e-19 1.9890374
2 3.2542481 0
-2.7711058 1.0842022e-19 1.9526687
-1.0842022e-19 3.2645004 3.6893488e+19
-2.695008 -2 1.9280239
-2 3.2572963 -2
-2.7489827 -1.0842022e-19 1.5885711
3.6893488e+19 3.2379506 0
-2.7923493 2 -1.1742493
3.6893488e+19 3.2568555 1.0842022e-19
-2.7481277 -0 -1.6292056
1.0842022e-19 3.2394643 -2
-2.793256 0 -1.7388688
3.6893488e+19 3.2590744 2
-2.7512155 -1.0842022e-19 -1.8091131
3.6893488e+19 3.2481079 0
-2.798435 -2 -1.8625629
-1.0842022e-19 3.259656 -0
-2.7517793 -1.0842022e-19 -1.9018701
2 3.2497222 -2
-2.799402 2 -1.9273643
0 3.2567182 2
-2.7478611 -2 -1.9591104
2 3.2494266 -2
-2.7992249 -2 -1.9854515
-1.0842022e-19 3.2570014 -0
-2.7484107 -1.0842022e-19 -2.0183737
-1.0842022e-19 3.198128 -0
-2.7684901 1.0842022e-19 -2.0135026
2 3.2189927 2
-2.7047658 -2 -2.0487702
-0 2.8465266 -2
-2.3695025 -1.0842022e-19 -1.9011005
-1.0842022e-19 2.803375 -3.6893488e+19
-2.2552061 -2 -1.8892862
1.0842022e-19 2.7791142 2
-2.2976205 -0 -1.8878677
1.0842022e-19 2.7119327 -0
-2.2425604 0 -1.8774676
1.0842022e-19 2.6796472 -0
-2.1114292 2 -1.8714267
2 2.6481061 -1.0842022e-19
-2.1745019 -0 -1.8678027
3.6893488e+19 2.6293004 -0
-2.0690763 0 -1.8642853
-3.6893488e+19 2.6053939 1.0842022e-19
-2.128958 1.0842022e-19 -1.8623852
0 2.5853276 2
-2.0320854 -3.6893488e+19 -1.855777
-0 2.5576589 -2
-2.0780578 -2 -1.8483851
0 2.5508916 1.0842022e-19
-2.0031171 -1.0842022e-19 -1.8493588
1.0842022e-19 2.5314908 0
-2.0501547 -0 -1.8457651
0 2.5203803 -1.0842022e-19
-1.9774501 -1.0842022e-19 -1.8421565
2 2.5017383 0
-2.0184295 1.0842022e-19 -1.8371023
-3.6893488e+19 2.4787185 -0
-2.036818 1.0842022e-19 -1.8354647
-3.6893488e+19 2.4336138 0
-2.0097942 -1.0842022e-19 -1.8284074
-3.6893488e+19 2.3666043 2
-1.9696463 -2 -1.8186208
-0 2.3168323 2
-1.939826 -3.6893488e+19 -1.8111084
2 2.2780776 -2
-1.9166065 2 -1.8048866
-0 2.2549679 -0
-1.839485 1.0842022e-19 -1.8013684
3.6893488e+19 2.2163332 -0
-1.8211452 0 -1.7999893
-0 2.1838958 -0
-1.8075017 -3.6893488e+19 -1.8006313
-2 2.1505892 3.6893488e+19
-1.7934926 -2 -1.7990454
3.6893488e+19 3.2910008 -2
-2.8520222 -2 2.7665427
-0 3.2628646 3.6893488e+19
-2.817986 1.0842022e-19 2.6995363
-1.0842022e-19 3.3006442 -1.0842022e-19
-2.8636878 3.6893488e+19 2.7277465
2 3.3115544 1.0842022e-19
-2.8768859 3.6893488e+19 2.7263017
1.0842022e-19 3.3362374 -1.0842022e-19
-2.8297679 2 2.7466295
-0 3.2907937 1.0842022e-19
-2.7456083 2 2.6679626
-0 3.2892742 2
-2.7430186 1.0842022e-19 2.6487937
-1.0842022e-19 3.3246634 -3.6893488e+19
-2.8498337 1.0842022e-19 2.693727
0 3.2736754 0
-2.716433 1.0842022e-19 2.6112609
-1.0842022e-19 3.2798586 -0
-2.8015554 -2 2.6159077
-1.0842022e-19 3.2903185 -1.0842022e-19
-2.7447984 1.0842022e-19 2.6162624
0 3.2803538 -3.6893488e+19
-2.8020887 2 2.5999758
3.6893488e+19 3.2924531 0
-2.7484365 -0 2.6019025
-1.0842022e-19 3.2935593 -1.0842022e-19
-2.8163183 -2 2.5991371
-2 3.2873731 -0
-2.7397785 0 2.5790646
-0 3.2933526 3.6893488e+19
-2.8160956 2 2.5816178
-1.0842022e-19 3.2883737 2
-2.7414839 -2 2.5634625
3.6893488e+19 3.2869484 -1.0842022e-19
-2.8091948 -1.0842022e-19 2.5406766
1.0842022e-19 3.2676723 -0
-2.8238018 2 2.5156176
-3.6893488e+19 3.2833042 1.0842022e-19
-2.7778535 1.0842022e-19 2.5188165
-3.6893488e+19 3.2730746 -3.6893488e+19
-2.830337 2 2.5048556
2 3.28268 -2
-2.777241 3.6893488e+19 2.5017915
-2 3.2868762 -1.0842022e-19
-2.8470328 -3.6893488e+19 2.5008247
-2 3.282856 0
-2.7774138 2 2.4710543
0 3.2898622 -3.6893488e+19
-2.8506446 0 2.4727523
1.0842022e-19 3.2863574 -3.6893488e+19
-2.7808475 1.0842022e-19 2.4436896
2 3.2407041 2
-2.7968011 3.6893488e+19 2.3713124
3.6893488e+19 3.2853589 -2
-2.7798684 2 2.4090996
-1.0842022e-19 3.2788563 -2
-2.8373311 1.0842022e-19 2.3892803
1.0842022e-19 3.2758286 -1.0842022e-19
-2.7705214 -0 2.3635421
-1.0842022e-19 3.2429459 -3.6893488e+19
-2.798157 2 2.315166
0 3.2758698 1.0842022e-19
-2.7705619 3.6893488e+19 2.3317266
-0 3.2831674 2
-2.8425462 -3.6893488e+19 2.328918
-1.0842022e-19 3.2783353 -2
-2.77298 3.6893488e+19 2.3025694
-1.0842022e-19 3.2826707 -2
-2.7317641 3.6893488e+19 2.2889569
3.6893488e+19 3.2888246 -3.6893488e+19
-2.8112164 -0 2.2823195
-0 3.2610588 2
-2.6949303 -1.0842022e-19 2.2239845
-1.0842022e-19 3.2768226 2
-2.7982841 -3.6893488e+19 2.2270188
3.6893488e+19 3.2945514 -3.6893488e+19
-2.7510061 -0 2.2174242
3.6893488e+19 3.2793729 3.6893488e+19
-2.8010321 3.6893488e+19 2.1667252
-3.6893488e+19 3.3036065 -0
-2.7587228 3.6893488e+19 2.1623998
-0 3.2959743 -2
-2.7522187 -2 2.084435
-1.0842022e-19 3.250824 2
-2.7702699 0 2.0080767
-3.6893488e+19 3.265058 1.0842022e-19
-2.7017465 -0 1.9889823
-1.0842022e-19 3.2540395 -3.6893488e+19
-2.7737346 1.0842022e-19 1.9526446
-0 3.2656984 -0
-2.7028377 3.6893488e+19 1.9289294
-0 3.2658982 -1.0842022e-19
-2.7031782 -0 1.8617874
-1.0842022e-19 3.257375 3.6893488e+19
-2.752423 3.6893488e+19 1.5887728
3.6893488e+19 3.2380447 -3.6893488e+19
-2.7951925 -3.6893488e+19 -1.1744202
3.6893488e+19 3.3304591 1.0842022e-19
-2.824101 -2 -1.6663364
-2 3.2410228 2
-2.796994 -1.0842022e-19 -1.7398183
-0 3.3277867 0
-2.82148 3.6893488e+19 -1.8580928
3.6893488e+19 3.2875001 -3.6893488e+19
-2.8477874 2 -1.8872257
2 3.2599304 -1.0842022e-19
-2.7549291 -3.6893488e+19 -1.9021276
1.0842022e-19 3.2870908 -1.0842022e-19
-2.8472922 1.0842022e-19 -1.9539526
1.0842022e-19 3.3013842 2
-2.7955854 2 -1.9956501
1.0842022e-19 3.2471197 0
-2.8006816 0 -1.9845487
2 3.2563825 0
-2.7514496 2 -2.0178983
-2 3.198612 -1.0842022e-19
-2.7713418 1.0842022e-19 -2.0139952
1.0842022e-19 3.2176623 -0
-2.7086642 -2 -2.0481129
-2 2.6971204 2
-2.1310203 -2 -1.8303967
0 2.7783763 -3.6893488e+19
-2.299958 3.6893488e+19 -1.8875997
2 2.6962025 0
-2.1302381 3.6893488e+19 -1.8555107
-1.0842022e-19 2.7159441 3.6893488e+19
-2.2510338 -2 -1.8786647
0 2.6852632 -3.6893488e+19
-2.1209157 0 -1.8747861
2 2.6477065 2
-2.1785398 3.6893488e+19 -1.8677293
-2 2.6289682 1.0842022e-19
-2.0729434 -1.0842022e-19 -1.8642083
1.0842022e-19 2.6043026 3.6893488e+19
-2.1317708 1.0842022e-19 -1.8618222
-2 2.5852635 0
-2.0356998 -1.0842022e-19 -1.8558609
-0 2.5574431 2
-2.0812786 -2 -1.8483851
2 2.5506032 2
-2.0061634 -2 -1.849268
-3.6893488e+19 2.5314133 3.6893488e+19
-2.0532308 -0 -1.8458594
0 2.5203521 -0
-1.9803845 -2 -1.8422543
-0 2.5019219 1.0842022e-19
-2.0214529 -3.6893488e+19 -1.8374059
-1.0842022e-19 2.4773896 -2
-2.0387478 -2 -1.8350458
-1.0842022e-19 2.4323211 -3.6893488e+19
-2.0114882 -1.0842022e-19 -1.8279608
2 3.2664428 2
-2.8223145 -3.6893488e+19 2.7380974
-0 3.2628646 3.6893488e+19
-2.817986 1.0842022e-19 2.6995363
-1.0842022e-19 3.3006442 -1.0842022e-19
-2.8636878 3.6893488e+19 2.7277465
-3.6893488e+19 3.2653883 -0
-2.821039 -2 2.6557233
1.0842022e-19 3.3362374 -1.0842022e-19
-2.8297679 2 2.7466295
-0 3.2907937 1.0842022e-19
-2.7456083 2 2.6679626
-0 3.2892742 2
-2.7430186 1.0842022e-19 2.6487937
-1.0842022e-19 3.3246634 -3.6893488e+19
-2.8498337 1.0842022e-19 2.693727
0 3.2736754 0
-2.716433 1.0842022e-19 2.6112609
-1.0842022e-19 3.2798586 -0
-2.8015554 -2 2.6159077
-1.0842022e-19 3.2679956 -2
-2.7067528 -3.6893488e+19 2.5881
0 3.2803538 -3.6893488e+19
-2.8020887 2 2.5999758
-0 3.2691088 2
-2.7086501 2 2.573813
-3.6893488e+19 3.2775798 -2
-2.7990999 0 2.5801325
3.6893488e+19 3.269242 -2
-2.7088771 0 2.5583031
2 3.2771633 -2
-2.798651 -0 2.5633166
-3.6893488e+19 3.2698617 1.0842022e-19
-2.7099335 0 2.5433402
3.6893488e+19 3.2869484 -1.0842022e-19
-2.8091948 -1.0842022e-19 2.5406766
1.0842022e-19 3.2676723 -0
-2.8238018 2 2.5156176
2 3.2571328 -0
-2.7521853 2 2.4879665
-3.6893488e+19 3.2730746 -3.6893488e+19
-2.830337 2 2.5048556
3.6893488e+19 3.2572424 -2
-2.7522929 -1.0842022e-19 2.458267
1.0842022e-19 3.273489 3.6893488e+19
-2.8308382 1.0842022e-19 2.4782398
1.0842022e-19 3.2577322 0
-2.7527733 -2 2.429214
0 3.2707791 -3.6893488e+19
-2.8275599 2 2.4416287
0 3.2584515 -2
-2.7534785 -2 2.4004512
2 3.2407041 2
-2.7968011 3.6893488e+19 2.3713124
