# .PCD v0.7 - Point Cloud Data file format
VERSION 0.7
FIELDS x y z
SIZE 4 4 4
TYPE F F F
COUNT 1 1 1
WIDTH 1728
HEIGHT 1
VIEWPOINT 0 0 0 1 0 0 0
POINTS 1728
DATA ascii
2 3.0177293 -2
1.8959106 -2 2.363884
-2 3.0184095 0
1.8962815 -2 2.3494158
3.6893488e+19 3.0404439 1.0842022e-19
2.1566391 1.0842022e-19 2.3709857
-3.6893488e+19 3.018306 0
1.8962251 1.0842022e-19 2.3339322
-3.6893488e+19 3.041436 -0
2.1580281 2 2.3555417
2 3.0191157 0
1.8966663 1.0842022e-19 2.3195746
3.6893488e+19 3.0415835 3.6893488e+19
2.1582346 -0 2.3390405
2 3.019171 -3.6893488e+19
1.8966963 -2 2.3043036
2 3.0419633 3.6893488e+19
2.1587663 -0 2.3228097
-0 3.0191817 1.0842022e-19
1.8967023 -1.0842022e-19 2.289012
0 3.0193651 -3.6893488e+19
1.8968021 1.0842022e-19 2.2739201
-0 2.9963183 2
2.0974379 3.6893488e+19 2.2422371
0 3.0416138 2
1.9089276 -0 2.280026
0 3.0070744 -1.0842022e-19
1.4807118 -0 2.2288992
-3.6893488e+19 3.0075088 0
1.9840207 -0 2.2159016
-1.0842022e-19 3.0065 -2
1.4801965 0 2.1988525
3.6893488e+19 3.0005071 2
1.9776576 3.6893488e+19 2.1749156
1.0842022e-19 3.0073423 2
1.4809524 2 2.1712983
2 2.9904428 3.6893488e+19
1.9728539 0 2.1382647
0 3.0085773 -1.0842022e-19
1.4820607 -3.6893488e+19 2.1441998
-0 2.9858596 -3.6893488e+19
1.9707713 3.6893488e+19 2.1072531
2 3.0088673 -1.0842022e-19
1.4823209 3.6893488e+19 2.1155224
-1.0842022e-19 2.9867804 -2
1.9711897 3.6893488e+19 2.0805247
-0 3.0069644 0
1.4806134 1.0842022e-19 2.0839713
-0 2.9923441 0
1.9737179 -3.6893488e+19 2.0566218
-1.0842022e-19 3.0070102 -3.6893488e+19
1.4806544 3.6893488e+19 2.0551882
1.0842022e-19 2.9898603 0
1.9725893 1.0842022e-19 2.0275586
2 2.9907024 -0
1.4701909 0 2.0138433
-1.0842022e-19 2.9879725 -1.0842022e-19
1.9717314 -0 1.9991056
2 2.9001808 -3.6893488e+19
2.0301385 1.0842022e-19 1.943496
-1.0842022e-19 2.9838164 -1.0842022e-19
1.8818383 -0 1.9696367
0 2.8880286 1.0842022e-19
2.0216317 -3.6893488e+19 1.9158297
2 2.9886127 0
1.8831453 -0 1.9444689
3.6893488e+19 2.8802021 -0
2.0161529 -2 1.8911457
0 2.9866483 -1.0842022e-19
1.88261 0 1.9164761
-0 2.8813729 3.6893488e+19
2.0169725 -1.0842022e-19 1.8653786
3.6893488e+19 2.9936481 2
1.8845174 0 1.8912793
-3.6893488e+19 2.8791032 3.6893488e+19
2.0153837 3.6893488e+19 1.821452
-3.6893488e+19 2.9954448 -1.0842022e-19
1.885007 3.6893488e+19 1.853242
-3.6893488e+19 2.8802373 -0
2.0161777 1.0842022e-19 1.7794274
1.0842022e-19 2.9903491 1.0842022e-19
1.8836185 -3.6893488e+19 1.7961298
0 2.8849642 -1.0842022e-19
2.0194864 3.6893488e+19 1.7264572
2 2.8994119 -2
1.8426768 3.6893488e+19 1.6896144
2 2.8841946 1.0842022e-19
2.0189478 -2 1.6399451
2 2.9011924 -3.6893488e+19
1.8436471 -2 1.5767823
0 2.9569929 2
1.4550645 1.0842022e-19 1.5027776
-3.6893488e+19 2.9993198 -2
1.9768876 -3.6893488e+19 1.225902
-0 2.9555581 -3.6893488e+19
1.4544207 -1.0842022e-19 -1.4017856
0 2.9666142 2
1.9620264 -3.6893488e+19 -1.557109
-2 2.8958542 -3.6893488e+19
1.4276301 -1.0842022e-19 -1.617548
1.0842022e-19 3.0025401 2
1.9795051 -2 -1.7114348
-3.6893488e+19 2.9680264 -2
1.9626681 3.6893488e+19 -1.7752578
-1.0842022e-19 2.9705071 -0
1.9637953 0 -1.8286525
-1.0842022e-19 2.8568318 0
1.4101198 -2 -1.7991167
-0 2.8128772 -3.6893488e+19
1.8921692 2 -1.7954075
0 2.8554358 -2
1.4094932 -1.0842022e-19 -1.83813
2 2.8051891 0
1.8886759 2 -1.8253665
-1.0842022e-19 2.7729785 2
1.3699852 1.0842022e-19 -1.819182
2 2.7695677 -2
1.8699795 -3.6893488e+19 -1.8321519
-3.6893488e+19 2.7577975 0
1.9304662 -3.6893488e+19 -1.8380159
1.0842022e-19 2.7529092 -3.6893488e+19
1.7628337 -3.6893488e+19 -1.847453
-3.6893488e+19 2.7139325 2
1.9123834 1.0842022e-19 -1.8427196
0 2.6655872 -1.0842022e-19
1.7264922 -0 -1.8310422
-3.6893488e+19 2.6143255 1.0842022e-19
1.8775195 -3.6893488e+19 -1.8164507
-3.6893488e+19 2.5882504 2
1.6843443 2 -1.8116536
2 2.5603726 -2
1.8422701 -3.6893488e+19 -1.8055549
0 2.5453527 2
1.6609652 -2 -1.8045508
1.0842022e-19 2.5245821 1.0842022e-19
1.8172158 -0 -1.8001962
-0 2.5114496 -3.6893488e+19
1.6424882 -3.6893488e+19 -1.7986203
3.6893488e+19 2.4935155 -1.0842022e-19
1.7977378 -2 -1.7963506
3.6893488e+19 2.47157 -2
1.6285012 1.0842022e-19 -1.7948341
-3.6893488e+19 2.4503076 -0
1.7826145 0 -1.7940567
3.6893488e+19 2.4115944 -2
1.7690642 3.6893488e+19 -1.7911532
-0 2.2099843 1.0842022e-19
1.081407 2 -1.7109319
-1.0842022e-19 2.2072208 -2
1.0801668 3.6893488e+19 -1.7355416
-3.6893488e+19 2.2088301 -3.6893488e+19
1.080889 3.6893488e+19 -1.756216
2 2.2034256 -2
1.0784638 -0 -1.7675991
-2 2.2060683 -0
1.6596308 -2 -1.7820884
-3.6893488e+19 2.1637981 -0
1.6448356 2 -1.7794818
-2 2.135824 -0
1.6350442 -1.0842022e-19 -1.780241
3.6893488e+19 2.1162035 -3.6893488e+19
1.6281767 -3.6893488e+19 -1.7830391
-3.6893488e+19 3.0532336 -2
1.2509598 3.6893488e+19 2.5307338
-3.6893488e+19 3.0464008 2
2.0065482 -1.0842022e-19 2.5204527
-3.6893488e+19 3.0519469 0
1.2504253 -1.0842022e-19 2.5206869
-0 3.043299 2
2.0038633 0 2.5090215
-1.0842022e-19 3.0539384 2
1.2512525 -3.6893488e+19 2.5135841
1.0842022e-19 3.0420947 0
2.002821 3.6893488e+19 2.4988337
-2 3.0449393 -0
1.2450289 1.0842022e-19 2.4943659
0 3.0442638 -1.0842022e-19
2.0046983 -3.6893488e+19 2.4853799
2 3.0463126 1.0842022e-19
1.2461697 0 2.4794405
2 3.0430262 -2
2.0036271 1.0842022e-19 2.4663053
1.0842022e-19 3.0462017 3.6893488e+19
1.2460775 -2 2.4620919
1.0842022e-19 3.0522177 1.0842022e-19
1.2505378 -0 2.4540038
-0 3.0480545 -3.6893488e+19
1.2476168 -2 2.4305654
0 3.0498638 -0
2.0095453 -0 2.4251683
-0 3.0473249 -2
2.1533601 0 2.4138887
-0 3.0178144 -2
1.8843993 -3.6893488e+19 2.3639677
3.6893488e+19 3.0473392 0
2.1533797 2 2.3967853
0 3.0673599 -3.6893488e+19
1.909263 -1.0842022e-19 2.4131029
-1.0842022e-19 3.0431559 -3.6893488e+19
2.1477044 2 2.3743629
0 3.0748415 2
1.9130176 2 2.4042599
-1.0842022e-19 3.0420578 2
2.1462147 0 2.3562176
2 3.0184288 0
1.8847077 0 2.3187308
-0 3.0422983 -3.6893488e+19
2.1465409 -3.6893488e+19 2.3397927
1.0842022e-19 3.0188236 0
1.8849058 1.0842022e-19 2.3038843
-1.0842022e-19 3.0430181 -2
2.1475174 2 2.3239009
2 3.0532587 -3.6893488e+19
1.9021865 3.6893488e+19 2.3255706
-2 3.0193267 3.6893488e+19
1.8851583 -3.6893488e+19 2.2738569
0 3.0395927 -3.6893488e+19
1.8953284 -0 2.2780607
-1.0842022e-19 3.0503459 2
1.2495205 -0 2.279753
-3.6893488e+19 3.0438569 -3.6893488e+19
2.0043461 -3.6893488e+19 2.2657926
0 3.0208225 -3.6893488e+19
1.224993 -1.0842022e-19 2.2239125
-0 3.0454154 -1.0842022e-19
2.0056951 0 2.2505076
0 3.1122959 1.0842022e-19
1.2754935 3.6893488e+19 2.2965577
3.6893488e+19 3.0576749 -2
2.0163062 0 2.237076
-3.6893488e+19 3.1164961 -1.0842022e-19
1.2772382 2 2.2793593
-2 3.0591843 -3.6893488e+19
2.0176127 -3.6893488e+19 2.2046192
0 3.0071878 0
1.2136657 1.0842022e-19 2.1131489
0 3.059468 2
2.0178583 -3.6893488e+19 2.1701956
-2 3.0066233 -2
1.2131968 -0 2.0835259
-1.0842022e-19 3.0598609 1.0842022e-19
2.0181985 3.6893488e+19 2.1358926
2 3.0077286 -3.6893488e+19
1.2141149 2 2.0560393
-1.0842022e-19 3.1653228 2
2.1094804 3.6893488e+19 2.2205799
-1.0842022e-19 2.9867375 1.0842022e-19
1.9606465 3.6893488e+19 1.998438
3.6893488e+19 3.065855 2
2.1784987 -1.0842022e-19 2.0553744
-2 3.0577288 3.6893488e+19
1.9044299 0 2.0293729
-0 3.0717945 -2
2.1865563 -1.0842022e-19 2.0249834
0 3.0604324 1.0842022e-19
1.9057866 0 1.9970838
1.0842022e-19 3.05231 0
2.1601231 -3.6893488e+19 1.9744062
-1.0842022e-19 3.0814717 1.0842022e-19
1.916345 3.6893488e+19 1.9767644
-2 3.0523376 2
2.1601608 0 1.9405187
2 3.0629585 3.6893488e+19
1.9070543 1.0842022e-19 1.9291182
2 3.0527866 1.0842022e-19
2.1607697 -2 1.9068681
2 2.9974244 -3.6893488e+19
1.8746262 3.6893488e+19 1.8541337
0 3.0585439 -2
2.1685801 2 1.8752811
-2 2.9900174 1.0842022e-19
1.8709092 -3.6893488e+19 1.7959991
0 3.0734413 2
2.1887903 1.0842022e-19 1.8152219
2 2.9938278 3.6893488e+19
1.8728213 -3.6893488e+19 1.7344161
-0 3.0729141 -0
2.1880753 -0 1.7351923
3.6893488e+19 3.1232424 -2
1.937307 -3.6893488e+19 1.6877081
-3.6893488e+19 2.9578078 1.0842022e-19
1.1901681 -3.6893488e+19 1.5030047
2 3.0002277 -3.6893488e+19
1.9665831 -0 1.2263819
-1.0842022e-19 2.9525607 1.0842022e-19
1.1879885 -2 -1.400786
-3.6893488e+19 3.0016272 3.6893488e+19
1.9677947 -2 -1.5713797
2 2.9511666 2
1.1874094 -0 -1.6382186
-3.6893488e+19 3.0020161 -2
1.9681312 0 -1.7109648
-1.0842022e-19 2.9561248 3.6893488e+19
1.189469 -0 -1.7415154
3.6893488e+19 2.9333417 2
1.9375383 -0 -1.7641016
2 2.9704528 -0
1.9535989 0 -1.8285985
3.6893488e+19 2.8968153 -0
1.1648325 1.0842022e-19 -1.8186257
-3.6893488e+19 2.811115 2
1.884642 3.6893488e+19 -1.7944225
-1.0842022e-19 2.8035367 3.6893488e+19
1.1260856 -0 -1.8070087
-0 2.8795636 -0
1.9142646 3.6893488e+19 -1.8741585
2 2.7849684 -1.0842022e-19
1.1117451 3.6893488e+19 -1.8277097
-2 2.7694209 -2
1.8581958 3.6893488e+19 -1.8320082
-3.6893488e+19 2.758728 3.6893488e+19
1.9254993 -2 -1.8387352
2 2.7523077 -0
1.7516174 -3.6893488e+19 -1.8469044
0 2.7155325 -0
1.9078889 -2 -1.8434196
-1.0842022e-19 2.6657484 2
1.7086382 0 -1.831104
0 2.6137888 0
1.8717636 0 -1.8161243
-3.6893488e+19 2.5882802 3.6893488e+19
1.6697618 2 -1.8116536
3.6893488e+19 2.5601962 -1.0842022e-19
1.8354108 -3.6893488e+19 -1.8054104
-3.6893488e+19 2.5460014 -1.0842022e-19
1.6485447 1.0842022e-19 -1.8049295
-2 2.5243974 -2
1.811128 -1.0842022e-19 -1.8000377
-0 2.5110991 2
1.6310294 2 -1.7983724
-3.6893488e+19 2.4931335 -2
1.79225 -0 -1.7961783
1.0842022e-19 2.4711139 1.0842022e-19
1.6114227 -0 -1.7946548
-2 2.449172 3.6893488e+19
1.7773402 3.6893488e+19 -1.7935911
-3.6893488e+19 3.0532336 -2
1.2509598 3.6893488e+19 2.5307338
-3.6893488e+19 3.0464008 2
2.0065482 -1.0842022e-19 2.5204527
-3.6893488e+19 3.0519469 0
1.2504253 -1.0842022e-19 2.5206869
-0 3.043299 2
2.0038633 0 2.5090215
-1.0842022e-19 3.0539384 2
1.2512525 -3.6893488e+19 2.5135841
1.0842022e-19 3.0420947 0
2.002821 3.6893488e+19 2.4988337
-2 3.0449393 -0
1.2450289 1.0842022e-19 2.4943659
0 3.0442638 -1.0842022e-19
2.0046983 -3.6893488e+19 2.4853799
2 3.0463126 1.0842022e-19
1.2461697 0 2.4794405
2 3.0430262 -2
2.0036271 1.0842022e-19 2.4663053
1.0842022e-19 3.0462017 3.6893488e+19
1.2460775 -2 2.4620919
1.0842022e-19 3.0522177 1.0842022e-19
1.2505378 -0 2.4540038
-0 3.0480545 -3.6893488e+19
1.2476168 -2 2.4305654
0 3.0498638 -0
2.0095453 -0 2.4251683
-0 3.0473249 -2
2.1533601 0 2.4138887
-0 3.0178144 -2
1.8843993 -3.6893488e+19 2.3639677
3.6893488e+19 3.0473392 0
2.1533797 2 2.3967853
2 3.0184641 -0
1.8847253 0 2.3494561
-1.0842022e-19 3.0431559 -3.6893488e+19
2.1477044 2 2.3743629
2 3.0166941 1.0842022e-19
1.8838371 -2 2.3318963
-1.0842022e-19 3.0420578 2
2.1462147 0 2.3562176
2 3.0184288 0
1.8847077 0 2.3187308
-0 3.0422983 -3.6893488e+19
2.1465409 -3.6893488e+19 2.3397927
1.0842022e-19 3.0188236 0
1.8849058 1.0842022e-19 2.3038843
-1.0842022e-19 3.0430181 -2
2.1475174 2 2.3239009
-3.6893488e+19 3.019453 3.6893488e+19
1.8852217 -3.6893488e+19 2.2892778
-2 3.0193267 3.6893488e+19
1.8851583 -3.6893488e+19 2.2738569
0 3.0395927 -3.6893488e+19
1.8953284 -0 2.2780607
0 3.0197713 1.0842022e-19
1.2241198 -0 2.2512746
3.6893488e+19 2.9935136 -0
1.9635789 1.0842022e-19 2.1963816
0 3.0208225 -3.6893488e+19
1.224993 -1.0842022e-19 2.2239125
2 2.9963725 1.0842022e-19
1.9648162 2 2.1709158
-0 3.0061624 -0
1.2128139 -1.0842022e-19 2.1693642
3.6893488e+19 3.0576749 -2
2.0163062 0 2.237076
-0 3.0082054 3.6893488e+19
1.2145112 -3.6893488e+19 2.1436307
0 2.9911528 -1.0842022e-19
1.9625572 0 2.1110911
0 3.0071878 0
1.2136657 1.0842022e-19 2.1131489
0 3.059468 2
2.0178583 -3.6893488e+19 2.1701956
-2 3.0066233 -2
1.2131968 -0 2.0835259
2 2.9894311 -1.0842022e-19
1.9618121 -1.0842022e-19 2.0547621
2 3.0077286 -3.6893488e+19
1.2141149 2 2.0560393
2 2.9888752 2
1.9615716 3.6893488e+19 2.0269589
-1.0842022e-19 2.9867375 1.0842022e-19
1.9606465 3.6893488e+19 1.998438
3.6893488e+19 2.8867841 -1.0842022e-19
2.0123615 1.0842022e-19 1.936975
-0 2.9887862 -3.6893488e+19
1.8702912 2 1.9718733
-0 2.888243 3.6893488e+19
2.0133512 -2 1.9158828
3.6893488e+19 2.9891548 -0
1.8704762 -3.6893488e+19 1.9446675
-0 2.8862624 -0
2.0120077 -2 1.8933623
-0 2.992121 3.6893488e+19
1.8719648 2 1.9183334
2 2.8866265 1.0842022e-19
2.0122547 2 1.8686334
0 2.9961264 -0
1.8739748 -2 1.891976
-2 2.8879676 1.0842022e-19
2.0131645 -1.0842022e-19 1.8259989
2 2.9974244 -3.6893488e+19
1.8746262 3.6893488e+19 1.8541337
-3.6893488e+19 2.88624 1.0842022e-19
2.0119927 2 1.7818289
-2 2.9900174 1.0842022e-19
1.8709092 -3.6893488e+19 1.7959991
2 2.8818157 1.0842022e-19
2.0089915 -0 1.724553
2 2.9938278 3.6893488e+19
1.8728213 -3.6893488e+19 1.7344161
-2 2.88254 1.0842022e-19
2.0094829 1.0842022e-19 1.6393102
3.6893488e+19 3.0002441 -2
1.8755819 0 1.6258509
-3.6893488e+19 2.9578078 1.0842022e-19
1.1901681 -3.6893488e+19 1.5030047
2 3.0002277 -3.6893488e+19
1.9665831 -0 1.2263819
-1.0842022e-19 2.9525607 1.0842022e-19
1.1879885 -2 -1.400786
-3.6893488e+19 3.0016272 3.6893488e+19
1.9677947 -2 -1.5713797
2 2.9511666 2
1.1874094 -0 -1.6382186
-3.6893488e+19 3.0020161 -2
1.9681312 0 -1.7109648
-1.0842022e-19 2.9561248 3.6893488e+19
1.189469 -0 -1.7415154
3.6893488e+19 2.9333417 2
1.9375383 -0 -1.7641016
2 2.9704528 -0
1.9535989 0 -1.8285985
-3.6893488e+19 2.802484 -2
1.1256484 -2 -1.7725968
-3.6893488e+19 2.811115 2
1.884642 3.6893488e+19 -1.7944225
-1.0842022e-19 2.8035367 3.6893488e+19
1.1260856 -0 -1.8070087
3.6893488e+19 2.8063571 -3.6893488e+19
1.8825828 -3.6893488e+19 -1.8261032
2 2.7849684 -1.0842022e-19
1.1117451 3.6893488e+19 -1.8277097
-2 2.7694209 -2
1.8581958 3.6893488e+19 -1.8320082
-3.6893488e+19 2.758728 3.6893488e+19
1.9254993 -2 -1.8387352
2 2.7523077 -0
1.7516174 -3.6893488e+19 -1.8469044
0 2.7155325 -0
1.9078889 -2 -1.8434196
-1.0842022e-19 2.6657484 2
1.7086382 0 -1.831104
0 2.6137888 0
1.8717636 0 -1.8161243
-3.6893488e+19 2.5882802 3.6893488e+19
1.6697618 2 -1.8116536
3.6893488e+19 2.5601962 -1.0842022e-19
1.8354108 -3.6893488e+19 -1.8054104
-3.6893488e+19 2.5460014 -1.0842022e-19
1.6485447 1.0842022e-19 -1.8049295
-2 2.5243974 -2
1.811128 -1.0842022e-19 -1.8000377
-0 2.5110991 2
1.6310294 2 -1.7983724
-3.6893488e+19 2.4931335 -2
1.79225 -0 -1.7961783
1.0842022e-19 2.4711139 1.0842022e-19
1.6114227 -0 -1.7946548
-2 2.449172 3.6893488e+19
1.7773402 3.6893488e+19 -1.7935911
-1.0842022e-19 3.0466244 2
1.9942691 2 2.5206194
2 3.0519772 1.0842022e-19
-1.3898791 2 2.5207143
2 3.0427301 -1.0842022e-19
1.991062 -1.0842022e-19 2.5084832
-0 3.0418298 0
1.9903208 -0 2.4983125
-0 3.0445414 2
-1.3864348 -1.0842022e-19 2.4936993
0 3.0441823 -3.6893488e+19
1.9922578 2 2.4851785
3.6893488e+19 3.046159 -3.6893488e+19
-1.387184 -1.0842022e-19 2.4791925
-1.0842022e-19 3.0430973 -0
1.9913645 -0 2.4663539
3.6893488e+19 3.0474589 -2
-1.3877861 -0 2.4640539
2 3.0491974 -3.6893488e+19
1.9963878 -2 2.4587147
-2 3.0509887 -2
-1.3894212 -2 2.4521582
-3.6893488e+19 3.0502644 3.6893488e+19
1.9972667 -0 2.4429936
0 3.048208 1.0842022e-19
-1.3881332 3.6893488e+19 2.4307876
3.6893488e+19 3.0460024 -2
1.9937568 -0 2.4196353
1.0842022e-19 3.0472059 2
2.1406496 2 2.4136324
-1.0842022e-19 3.0558381 0
1.8906453 -3.6893488e+19 2.4156103
3.6893488e+19 3.0476193 -3.6893488e+19
2.1411929 -2 2.3970721
-2 3.0623591 -2
1.893644 -0 2.4065616
-1.0842022e-19 3.0429432 -1.0842022e-19
2.1350467 -3.6893488e+19 2.3740094
-3.6893488e+19 3.0748978 -2
1.8994101 3.6893488e+19 2.4042983
-1.0842022e-19 3.0423064 -3.6893488e+19
2.1342096 -3.6893488e+19 2.3564427
-2 3.018079 2
1.8715621 -0 2.3182905
-3.6893488e+19 3.0433486 -0
2.1355796 0 2.3409393
0 3.0185046 3.6893488e+19
1.8719534 1.0842022e-19 2.3034997
-2 3.0574293 0
2.1540875 1.0842022e-19 2.3397567
-0 3.0201864 1.0842022e-19
1.8735003 0 2.2900424
-1.0842022e-19 3.0742393 3.6893488e+19
2.1761825 2 2.3398662
2 3.0198438 2
1.8731852 2 2.2743611
-0 3.0726101 -3.6893488e+19
2.174041 -2 2.319813
1.0842022e-19 3.0168817 -0
1.8704607 2 2.2562339
-3.6893488e+19 3.0541945 -0
-1.3909062 -0 2.2833381
2 3.0433705 3.6893488e+19
1.9915894 1.0842022e-19 2.265316
-1.0842022e-19 3.0209463 0
-1.3755053 -1.0842022e-19 2.2241299
3.6893488e+19 3.046077 3.6893488e+19
1.9938183 -0 2.2510338
2 3.1177979 3.6893488e+19
-1.420368 0 2.3010619
1.0842022e-19 3.0510402 2
1.9979054 -2 2.2265065
2 3.1145048 -1.0842022e-19
-1.4188426 0 2.2778418
0 3.0612473 0
2.0063109 3.6893488e+19 2.2075891
-1.0842022e-19 3.0597284 1.0842022e-19
2.0050602 3.6893488e+19 2.1704912
0 3.0599973 -0
2.0052814 -3.6893488e+19 2.1360087
-3.6893488e+19 3.1675594 -2
2.0938585 2 2.2230487
1.0842022e-19 2.9879885 -2
1.9509282 2 1.999042
2 3.0606701 0
2.1583471 -0 2.0502958
-2 3.0572228 -3.6893488e+19
1.891282 -0 2.0288916
-2 3.0632498 -1.0842022e-19
2.1617379 -2 2.0176232
1.0842022e-19 3.0603633 0
1.8927262 2 1.9970093
-2 3.0520027 -1.0842022e-19
2.1469545 -1.0842022e-19 1.9741292
1.0842022e-19 2.9958425 3.6893488e+19
1.8530221 2 1.919593
-2 3.051657 -2
2.1465001 -2 1.9400481
-2 2.9938552 0
1.8521084 -1.0842022e-19 1.891315
0 3.0527284 -1.0842022e-19
2.1479082 -2 1.9068036
0 3.0793526 1.0842022e-19
1.9014587 -1.0842022e-19 1.9017011
3.6893488e+19 3.0593586 -1.0842022e-19
2.1566231 -3.6893488e+19 1.8755844
-1.0842022e-19 2.992367 -3.6893488e+19
1.8514239 3.6893488e+19 1.7968055
-3.6893488e+19 2.8814008 3.6893488e+19
2.000658 -3.6893488e+19 1.72426
2 3.0824823 -3.6893488e+19
1.902898 0 1.7828144
-2 3.0737321 -3.6893488e+19
2.1755159 1.0842022e-19 1.7357366
3.6893488e+19 3.001076 -3.6893488e+19
1.8559237 -3.6893488e+19 1.6262592
1.0842022e-19 2.9545574 3.6893488e+19
-1.3355559 1.0842022e-19 1.5020961
2 2.9551852 -3.6893488e+19
-1.3358467 -0 -1.4016607
-0 3.003597 3.6893488e+19
1.9588362 -0 -1.5728896
-3.6893488e+19 2.950666 0
-1.3337535 -1.0842022e-19 -1.6380655
-0 3.0035489 -1.0842022e-19
1.9587965 -3.6893488e+19 -1.7122184
-2 2.9564366 0
-1.3364265 3.6893488e+19 -1.7416809
-2 2.9344001 3.6893488e+19
1.9288634 -3.6893488e+19 -1.7644221
-1.0842022e-19 2.9811249 2
1.9481022 1.0842022e-19 -1.8331883
-1.0842022e-19 2.8860073 1.0842022e-19
-1.3038028 -3.6893488e+19 -1.8133521
3.6893488e+19 2.8716681 2
1.9030336 2 -1.8273696
0 2.8721948 0
1.9032505 2 -1.8692875
-0 2.7845309 -0
-1.2567978 2 -1.8273988
2 2.7688348 -0
1.8463844 -1.0842022e-19 -1.8315293
0 2.7706044 1.0842022e-19
1.9278421 0 -1.8484973
0 2.754199 3.6893488e+19
1.733796 -1.0842022e-19 -1.8485502
-1.0842022e-19 2.7151368 2
1.9028448 2 -1.8431863
-0 2.6665294 -0
1.6915486 -0 -1.8314749
0 2.6187167 -2
1.8673218 3.6893488e+19 -1.8186709
-0 2.5876837 0
1.65529 -0 -1.8113097
-2 2.5601397 0
1.828825 -1.0842022e-19 -1.8053381
2 2.5470216 -1.0842022e-19
1.6365907 1.0842022e-19 -1.8055353
-1.0842022e-19 2.5244575 1.0842022e-19
1.8053745 -1.0842022e-19 -1.8000377
-2 2.5111196 1.0842022e-19
1.6151613 2 -1.7983724
-0 2.4932415 3.6893488e+19
1.78708 -0 -1.7961783
-2 2.470902 2
1.5915529 -1.0842022e-19 -1.7945652
0 2.4487743 -2
1.772468 -1.0842022e-19 -1.7934049
-3.6893488e+19 2.4117799 -1.0842022e-19
1.7603116 3.6893488e+19 -1.7911532
-2 2.212297 -0
-0.98207051 1.0842022e-19 -1.7572069
-3.6893488e+19 2.2049093 -0
-0.98035949 -1.0842022e-19 -1.7680651
-0 2.2072563 -1.0842022e-19
1.6502552 -2 -1.7824266
3.6893488e+19 2.169374 -0
1.637807 -3.6893488e+19 -1.7814927
-2 2.1389296 -0
1.627803 2 -1.7814201
1.0842022e-19 2.1075993 2
1.6100155 0 -1.7792563
-1.0842022e-19 3.0466244 2
1.9942691 2 2.5206194
2 3.0519772 1.0842022e-19
-1.3898791 2 2.5207143
2 3.0427301 -1.0842022e-19
1.991062 -1.0842022e-19 2.5084832
-0 3.0418298 0
1.9903208 -0 2.4983125
-0 3.0445414 2
-1.3864348 -1.0842022e-19 2.4936993
0 3.0441823 -3.6893488e+19
1.9922578 2 2.4851785
3.6893488e+19 3.046159 -3.6893488e+19
-1.387184 -1.0842022e-19 2.4791925
-1.0842022e-19 3.0430973 -0
1.9913645 -0 2.4663539
3.6893488e+19 3.0474589 -2
-1.3877861 -0 2.4640539
2 3.0491974 -3.6893488e+19
1.9963878 -2 2.4587147
-2 3.0509887 -2
-1.3894212 -2 2.4521582
-3.6893488e+19 3.0502644 3.6893488e+19
1.9972667 -0 2.4429936
0 3.048208 1.0842022e-19
-1.3881332 3.6893488e+19 2.4307876
3.6893488e+19 3.0460024 -2
1.9937568 -0 2.4196353
1.0842022e-19 3.0472059 2
2.1406496 2 2.4136324
-3.6893488e+19 3.0205455 0
1.8738307 -1.0842022e-19 2.3676505
3.6893488e+19 3.0476193 -3.6893488e+19
2.1411929 -2 2.3970721
-1.0842022e-19 3.0185468 2
1.8719923 -1.0842022e-19 2.3495362
-1.0842022e-19 3.0429432 -1.0842022e-19
2.1350467 -3.6893488e+19 2.3740094
0 3.0177028 2
1.8712159 0 2.3331256
-1.0842022e-19 3.0423064 -3.6893488e+19
2.1342096 -3.6893488e+19 2.3564427
-2 3.018079 2
1.8715621 -0 2.3182905
-3.6893488e+19 3.0433486 -0
2.1355796 0 2.3409393
0 3.0185046 3.6893488e+19
1.8719534 1.0842022e-19 2.3034997
-2 3.0574293 0
2.1540875 1.0842022e-19 2.3397567
-0 3.0201864 1.0842022e-19
1.8735003 0 2.2900424
-1.0842022e-19 3.0742393 3.6893488e+19
2.1761825 2 2.3398662
2 3.0198438 2
1.8731852 2 2.2743611
-0 3.0726101 -3.6893488e+19
2.174041 -2 2.319813
1.0842022e-19 3.0168817 -0
1.8704607 2 2.2562339
-2 3.0198019 -1.0842022e-19
-1.3749504 -2 2.2513034
2 3.0433705 3.6893488e+19
1.9915894 1.0842022e-19 2.265316
-1.0842022e-19 3.0209463 0
-1.3755053 -1.0842022e-19 2.2241299
0 2.9902341 1.0842022e-19
1.9518529 -2 2.165653
2 3.1177979 3.6893488e+19
-1.420368 0 2.3010619
2 2.9913914 -1.0842022e-19
1.9523294 -0 2.1389036
1.0842022e-19 3.0188134 -1.0842022e-19
-1.3740345 -1.0842022e-19 2.1598029
-3.6893488e+19 2.9925258 2
1.9527966 -0 2.1120505
-3.6893488e+19 2.9947569 -1.0842022e-19
1.9537152 -3.6893488e+19 2.085844
-1.0842022e-19 2.9914901 -2
1.95237 -2 2.0560019
-3.6893488e+19 2.9885068 -1.0842022e-19
1.9511417 -3.6893488e+19 2.0267119
1.0842022e-19 2.9879885 -2
1.9509282 2 1.999042
1.0842022e-19 2.8863714 2
2.0039246 -0 1.9367346
-1.0842022e-19 2.9921305 -0
1.8513151 2 1.9733738
1.0842022e-19 2.8875194 -2
2.004679 1.0842022e-19 1.9155375
-2 2.9903164 3.6893488e+19
1.8504809 1.0842022e-19 1.9451145
-1.0842022e-19 2.8878403 -1.0842022e-19
2.00489 2 1.8939165
1.0842022e-19 2.9958425 3.6893488e+19
1.8530221 2 1.919593
-3.6893488e+19 2.8924372 3.6893488e+19
2.0079112 3.6893488e+19 1.872241
-2 2.9938552 0
1.8521084 -1.0842022e-19 1.891315
2 2.8916013 -2
2.0073617 -2 1.827837
2 2.999337 1.0842022e-19
1.8546292 0 1.8549967
-2 2.8909326 -1.0842022e-19
2.0069222 1.0842022e-19 1.7836995
-1.0842022e-19 2.992367 -3.6893488e+19
1.8514239 3.6893488e+19 1.7968055
-3.6893488e+19 2.8814008 3.6893488e+19
2.000658 -3.6893488e+19 1.72426
2 2.99243 3.6893488e+19
1.8514528 2 1.7337343
-1.0842022e-19 2.883558 -1.0842022e-19
2.0020757 -2 1.6396503
3.6893488e+19 3.001076 -3.6893488e+19
1.8559237 -3.6893488e+19 1.6262592
1.0842022e-19 2.9545574 3.6893488e+19
-1.3355559 1.0842022e-19 1.5020961
2 2.9551852 -3.6893488e+19
-1.3358467 -0 -1.4016607
-0 3.003597 3.6893488e+19
1.9588362 -0 -1.5728896
-3.6893488e+19 2.950666 0
-1.3337535 -1.0842022e-19 -1.6380655
-3.6893488e+19 2.9347622 2
1.9290125 -2 -1.6819463
-2 2.9564366 0
-1.3364265 3.6893488e+19 -1.7416809
-2 2.9344001 3.6893488e+19
1.9288634 -3.6893488e+19 -1.7644221
-1.0842022e-19 2.9811249 2
1.9481022 1.0842022e-19 -1.8331883
-1.0842022e-19 2.8860073 1.0842022e-19
-1.3038028 -3.6893488e+19 -1.8133521
0 2.8071659 -1.0842022e-19
1.8764749 0 -1.7922487
-2 2.8129478 -3.6893488e+19
1.8788556 -2 -1.8304012
-0 2.7845309 -0
-1.2567978 2 -1.8273988
2 2.7688348 -0
1.8463844 -1.0842022e-19 -1.8315293
0 2.7706044 1.0842022e-19
1.9278421 0 -1.8484973
0 2.754199 3.6893488e+19
1.733796 -1.0842022e-19 -1.8485502
-1.0842022e-19 2.7151368 2
1.9028448 2 -1.8431863
-0 2.6665294 -0
1.6915486 -0 -1.8314749
0 2.6187167 -2
1.8673218 3.6893488e+19 -1.8186709
-0 2.5876837 0
1.65529 -0 -1.8113097
-2 2.5601397 0
1.828825 -1.0842022e-19 -1.8053381
2 2.5470216 -1.0842022e-19
1.6365907 1.0842022e-19 -1.8055353
-1.0842022e-19 2.5244575 1.0842022e-19
1.8053745 -1.0842022e-19 -1.8000377
-2 2.5111196 1.0842022e-19
1.6151613 2 -1.7983724
-0 2.4932415 3.6893488e+19
1.78708 -0 -1.7961783
-2 2.470902 2
1.5915529 -1.0842022e-19 -1.7945652
0 2.4487743 -2
1.772468 -1.0842022e-19 -1.7934049
-3.6893488e+19 2.4117799 -1.0842022e-19
1.7603116 3.6893488e+19 -1.7911532
-2 2.212297 -0
-0.98207051 1.0842022e-19 -1.7572069
-3.6893488e+19 2.2049093 -0
-0.98035949 -1.0842022e-19 -1.7680651
-0 2.2072563 -1.0842022e-19
1.6502552 -2 -1.7824266
3.6893488e+19 2.169374 -0
1.637807 -3.6893488e+19 -1.7814927
-2 2.1389296 -0
1.627803 2 -1.7814201
1.0842022e-19 2.1075993 2
1.6100155 0 -1.7792563
-1.0842022e-19 3.0465417 -0
1.9817352 -0 2.5205083
2 3.0515172 0
-1.5459788 3.6893488e+19 2.5203042
2 3.0477979 -3.6893488e+19
1.9827168 -3.6893488e+19 2.5129235
-3.6893488e+19 3.0433991 -2
-1.5413753 3.6893488e+19 2.5044467
1.0842022e-19 3.0416851 1.0842022e-19
1.97794 -2 2.4979997
2 3.0439885 -1.0842022e-19
-1.5417094 2 2.4927766
3.6893488e+19 3.0442514 -1.0842022e-19
1.9799454 -0 2.4852288
-3.6893488e+19 3.0459421 3.6893488e+19
-1.5428174 -0 2.4788456
-1.0842022e-19 3.0433195 -1.0842022e-19
1.9792172 1.0842022e-19 2.4666462
3.6893488e+19 3.0475178 1.0842022e-19
-1.5437108 -3.6893488e+19 2.4641495
2 3.0490835 2
1.9837215 2 2.4584799
2 3.0498192 -1.0842022e-19
-1.5450158 0 2.4504051
3.6893488e+19 3.0493524 2
1.9839317 -3.6893488e+19 2.4415898
2 3.0470676 -2
-1.5434555 1.0842022e-19 2.4291439
0 3.0451193 1.0842022e-19
1.9806236 -0 2.4183283
1.0842022e-19 3.0489264 2
2.1302946 -0 2.4159386
-2 3.0546281 -0
1.8773056 -2 2.4139364
-2 3.0482662 2
2.1294549 3.6893488e+19 2.397851
-2 3.0622582 0
1.8804944 2 2.4064012
-1.0842022e-19 3.04199 -2
2.1214702 3.6893488e+19 2.3727136
1.0842022e-19 3.0749521 -2
1.8857991 -0 2.4043367
2 3.0425224 1.0842022e-19
2.1221476 3.6893488e+19 2.3566306
1.0842022e-19 3.0825891 3.6893488e+19
1.8889906 -2 2.3948548
3.6893488e+19 3.0404203 1.0842022e-19
2.1194732 0 2.3374643
-0 3.0184619 2
1.8493832 -3.6893488e+19 2.3034296
1.0842022e-19 3.020144 1.0842022e-19
1.8507891 2 2.2899759
-3.6893488e+19 3.0753582 2
2.1639214 -2 2.3409667
2 3.0202351 -3.6893488e+19
1.8508651 0 2.2747393
-0 3.0734205 -1.0842022e-19
2.1614561 3.6893488e+19 2.3205485
-1.0842022e-19 3.0185447 -0
1.8494524 -1.0842022e-19 2.257812
-3.6893488e+19 3.0554025 2
-1.548182 -3.6893488e+19 2.2844656
3.6893488e+19 3.0428817 -3.6893488e+19
1.978875 3.6893488e+19 2.2648392
-3.6893488e+19 3.0587494 1.0842022e-19
-1.5500799 -3.6893488e+19 2.270143
2 3.0454021 1.0842022e-19
1.9808446 -3.6893488e+19 2.2504284
-0 3.0490296 2
1.9836794 1.0842022e-19 2.2232621
3.6893488e+19 3.1140974 -0
-1.5814655 0 2.2775335
-2 2.9920311 3.6893488e+19
1.9422511 -2 2.1116393
1.0842022e-19 2.9933293 0
1.9427583 0 2.084831
3.6893488e+19 3.1104965 -3.6893488e+19
-1.5794235 1.0842022e-19 2.2185314
0 2.992115 -3.6893488e+19
1.9422837 3.6893488e+19 2.0563507
2 3.1687975 0
2.0772731 2 2.2243888
-3.6893488e+19 2.9876163 2
1.9405261 3.6893488e+19 1.9988195
-2 3.06142 -3.6893488e+19
2.146189 3.6893488e+19 2.050957
-0 3.0574009 -3.6893488e+19
1.8784643 2 2.0290332
0 3.0622587 -1.0842022e-19
2.1472559 -0 2.0167198
2 2.9906638 3.6893488e+19
1.8300508 -0 1.9452386
0 3.0506976 3.6893488e+19
2.1325479 1.0842022e-19 1.9731133
-1.0842022e-19 2.9945047 -0
1.831656 -0 1.9191233
0 3.0511296 -1.0842022e-19
2.1330974 -2 1.9396756
1.0842022e-19 2.9947026 -2
1.8317386 -3.6893488e+19 1.8915472
1.0842022e-19 3.0545361 -3.6893488e+19
2.1374311 1.0842022e-19 1.9077066
-3.6893488e+19 3.0810311 -3.6893488e+19
1.8883395 -3.6893488e+19 1.9024633
-0 3.0585833 0
2.1425803 1.0842022e-19 1.8752432
1.0842022e-19 2.9915905 0
1.8304381 -2 1.7965221
1.0842022e-19 2.8813572 2
1.9925816 -0 1.7241868
-3.6893488e+19 3.0831933 -3.6893488e+19
1.8892431 0 1.7831405
2 2.8854461 -1.0842022e-19
1.9951825 -0 1.640308
-1.0842022e-19 2.9528973 -0
1.9269603 -3.6893488e+19 1.2048136
-0 3.0042858 1.0842022e-19
1.948714 3.6893488e+19 -1.573401
-1.0842022e-19 2.955162 1.0842022e-19
-1.5040524 -2 -1.639444
-1.0842022e-19 3.0018344 -0
1.9467983 1.0842022e-19 -1.7107558
1.0842022e-19 2.9583077 -1.0842022e-19
-1.5049442 3.6893488e+19 -1.7426735
-0 2.9983058 -1.0842022e-19
1.9447027 -3.6893488e+19 -1.7849118
0 2.9014475 3.6893488e+19
-1.4776453 1.0842022e-19 -1.7760737
1.0842022e-19 2.9924831 -1.0842022e-19
1.9424276 -0 -1.838075
-2 2.8878157 -2
-1.4699153 3.6893488e+19 -1.8142362
0 2.8727777 -2
1.8956552 0 -1.827947
0 2.7883573 3.6893488e+19
-1.4135162 -0 -1.7979083
2 2.8062527 1.0842022e-19
1.864324 -2 -1.8259804
2 2.7895236 -3.6893488e+19
-1.4141775 -1.0842022e-19 -1.8309519
2 2.7683713 3.6893488e+19
1.8347212 3.6893488e+19 -1.8311461
-3.6893488e+19 2.7669904 1.0842022e-19
1.9198329 2 -1.8454659
-3.6893488e+19 2.7510355 0
1.7098181 -3.6893488e+19 -1.8457524
-2 2.7123742 0
1.8970584 -0 -1.8418444
2 2.6669335 -0
1.6742386 1.0842022e-19 -1.8316604
2 2.6173027 -0
1.8586415 3.6893488e+19 -1.8178873
3.6893488e+19 2.5857134 0
1.6402963 -2 -1.8102093
-3.6893488e+19 2.5599568 -0
1.8221638 -0 -1.8051937
2 2.5459216 0
1.6223342 -2 -1.8048537
-1.0842022e-19 2.5243914 -0
1.7995406 2 -1.7999586
1.0842022e-19 2.5113876 3.6893488e+19
1.5934703 3.6893488e+19 -1.7985377
0 2.4953325 1.0842022e-19
1.7825407 -3.6893488e+19 -1.7968675
-1.0842022e-19 2.470438 3.6893488e+19
1.5715984 1.0842022e-19 -1.794386
-2 2.4488692 -1.0842022e-19
1.767763 -1.0842022e-19 -1.7934049
-1.0842022e-19 3.0465417 -0
1.9817352 -0 2.5205083
2 3.0515172 0
-1.5459788 3.6893488e+19 2.5203042
2 3.0477979 -3.6893488e+19
1.9827168 -3.6893488e+19 2.5129235
-3.6893488e+19 3.0433991 -2
-1.5413753 3.6893488e+19 2.5044467
1.0842022e-19 3.0416851 1.0842022e-19
1.97794 -2 2.4979997
2 3.0439885 -1.0842022e-19
-1.5417094 2 2.4927766
3.6893488e+19 3.0442514 -1.0842022e-19
1.9799454 -0 2.4852288
-3.6893488e+19 3.0459421 3.6893488e+19
-1.5428174 -0 2.4788456
-1.0842022e-19 3.0433195 -1.0842022e-19
1.9792172 1.0842022e-19 2.4666462
3.6893488e+19 3.0475178 1.0842022e-19
-1.5437108 -3.6893488e+19 2.4641495
2 3.0490835 2
1.9837215 2 2.4584799
2 3.0498192 -1.0842022e-19
-1.5450158 0 2.4504051
3.6893488e+19 3.0493524 2
1.9839317 -3.6893488e+19 2.4415898
2 3.0470676 -2
-1.5434555 1.0842022e-19 2.4291439
0 3.0451193 1.0842022e-19
1.9806236 -0 2.4183283
1.0842022e-19 3.0489264 2
2.1302946 -0 2.4159386
-2 3.0546281 -0
1.8773056 -2 2.4139364
-2 3.0482662 2
2.1294549 3.6893488e+19 2.397851
-2 3.0622582 0
1.8804944 2 2.4064012
-1.0842022e-19 3.04199 -2
2.1214702 3.6893488e+19 2.3727136
3.6893488e+19 3.0186789 3.6893488e+19
1.8495646 1.0842022e-19 2.3343163
2 3.0425224 1.0842022e-19
2.1221476 3.6893488e+19 2.3566306
-0 3.0189636 3.6893488e+19
1.8498025 0 2.3193178
3.6893488e+19 3.0404203 1.0842022e-19
2.1194732 0 2.3374643
-0 3.0184619 2
1.8493832 -3.6893488e+19 2.3034296
1.0842022e-19 3.020144 1.0842022e-19
1.8507891 2 2.2899759
-3.6893488e+19 3.0753582 2
2.1639214 -2 2.3409667
2 3.0202351 -3.6893488e+19
1.8508651 0 2.2747393
-0 3.0734205 -1.0842022e-19
2.1614561 3.6893488e+19 2.3205485
-1.0842022e-19 3.0185447 -0
1.8494524 -1.0842022e-19 2.257812
-3.6893488e+19 3.0190547 -2
-1.5275705 3.6893488e+19 2.2506096
3.6893488e+19 3.0428817 -3.6893488e+19
1.978875 3.6893488e+19 2.2648392
-0 3.0203228 -2
-1.5282896 -1.0842022e-19 2.2230427
0 2.995327 -2
1.9435388 3.6893488e+19 2.1699159
-3.6893488e+19 2.992512 -2
1.942439 -2 2.1397393
3.6893488e+19 3.1140974 -0
-1.5814655 0 2.2775335
-2 2.9920311 3.6893488e+19
1.9422511 -2 2.1116393
1.0842022e-19 2.9933293 0
1.9427583 0 2.084831
3.6893488e+19 3.1104965 -3.6893488e+19
-1.5794235 1.0842022e-19 2.2185314
0 2.992115 -3.6893488e+19
1.9422837 3.6893488e+19 2.0563507
3.6893488e+19 2.9868898 -2
1.9402422 0 2.0257599
-3.6893488e+19 2.9876163 2
1.9405261 3.6893488e+19 1.9988195
-3.6893488e+19 2.8867018 1.0842022e-19
1.9959815 -3.6893488e+19 1.9368547
1.0842022e-19 2.98755 -0
1.8287495 0 1.9712788
-2 2.8872902 -2
1.9963557 -1.0842022e-19 1.9154046
2 2.9906638 3.6893488e+19
1.8300508 -0 1.9452386
3.6893488e+19 2.888047 2
1.996837 -1.0842022e-19 1.8939626
-1.0842022e-19 2.9945047 -0
1.831656 -0 1.9191233
0 2.8901548 3.6893488e+19
1.9981778 3.6893488e+19 1.8707509
1.0842022e-19 2.9947026 -2
1.8317386 -3.6893488e+19 1.8915472
-1.0842022e-19 2.8924937 3.6893488e+19
1.9996656 -0 1.8282562
0 2.9958131 0
1.8322028 -1.0842022e-19 1.8533571
-0 2.89114 -2
1.9988045 2 1.7837501
1.0842022e-19 2.9915905 0
1.8304381 -2 1.7965221
1.0842022e-19 2.8813572 2
1.9925816 -0 1.7241868
3.6893488e+19 2.9940896 1.0842022e-19
1.8314825 1.0842022e-19 1.7345052
2 2.8854461 -1.0842022e-19
1.9951825 -0 1.640308
-1.0842022e-19 2.9528973 -0
1.9269603 -3.6893488e+19 1.2048136
-0 3.0042858 1.0842022e-19
1.948714 3.6893488e+19 -1.573401
-3.6893488e+19 2.9056022 -1.0842022e-19
-1.4800013 -2 -1.6235217
2 2.9463673 -2
1.9244088 -3.6893488e+19 -1.6867783
2 2.9056904 -1.0842022e-19
-1.4800513 0 -1.7148128
-0 2.9983058 -1.0842022e-19
1.9447027 -3.6893488e+19 -1.7849118
0 2.9014475 3.6893488e+19
-1.4776453 1.0842022e-19 -1.7760737
1.0842022e-19 2.9924831 -1.0842022e-19
1.9424276 -0 -1.838075
-2 2.8878157 -2
-1.4699153 3.6893488e+19 -1.8142362
-1.0842022e-19 2.8053968 -3.6893488e+19
1.8636551 1.0842022e-19 -1.7912637
0 2.7883573 3.6893488e+19
-1.4135162 -0 -1.7979083
2 2.8062527 1.0842022e-19
1.864324 -2 -1.8259804
-0 2.7558696 0
-1.3950938 2 -1.8070123
2 2.7683713 3.6893488e+19
1.8347212 3.6893488e+19 -1.8311461
-3.6893488e+19 2.7669904 1.0842022e-19
1.9198329 2 -1.8454659
-3.6893488e+19 2.7510355 0
1.7098181 -3.6893488e+19 -1.8457524
-2 2.7123742 0
1.8970584 -0 -1.8418444
2 2.6669335 -0
1.6742386 1.0842022e-19 -1.8316604
2 2.6173027 -0
1.8586415 3.6893488e+19 -1.8178873
3.6893488e+19 2.5857134 0
1.6402963 -2 -1.8102093
-3.6893488e+19 2.5599568 -0
1.8221638 -0 -1.8051937
2 2.5459216 0
1.6223342 -2 -1.8048537
-1.0842022e-19 2.5243914 -0
1.7995406 2 -1.7999586
1.0842022e-19 2.5113876 3.6893488e+19
1.5934703 3.6893488e+19 -1.7985377
0 2.4953325 1.0842022e-19
1.7825407 -3.6893488e+19 -1.7968675
-1.0842022e-19 2.470438 3.6893488e+19
1.5715984 1.0842022e-19 -1.794386
-2 2.4488692 -1.0842022e-19
1.767763 -1.0842022e-19 -1.7934049
1.0842022e-19 3.0450873 2
1.9681972 0 2.5191481
0 3.0542572 2
-1.6372998 -1.0842022e-19 2.5227644
-3.6893488e+19 3.0480177 1.0842022e-19
1.9703642 0 2.5130851
-2 3.0445247 0
-1.632908 -1.0842022e-19 2.5054266
-3.6893488e+19 3.0438921 -1.0842022e-19
-1.6326225 1.0842022e-19 2.4926229
0 3.0438907 -1.0842022e-19
1.9673123 -2 2.4845734
-2 3.0472853 2
-1.6341537 -1.0842022e-19 2.4810262
0 3.0437236 -3.6893488e+19
1.9671887 -1.0842022e-19 2.4672306
0 3.0478201 -3.6893488e+19
-1.6343949 -2 2.464628
-0 3.0498872 3.6893488e+19
1.9717464 -3.6893488e+19 2.4596546
-2 3.0472348 0
-1.634131 -0 2.4465294
-2 3.0493896 2
1.9713786 -3.6893488e+19 2.4415898
0 3.0461407 -1.0842022e-19
-1.6336371 1.0842022e-19 2.4278111
-3.6893488e+19 3.0448792 3.6893488e+19
1.9680434 -3.6893488e+19 2.4179361
0 3.0503078 1.0842022e-19
2.1193826 2 2.4177752
0 3.0540321 3.6893488e+19
1.8536003 0 2.4130995
-2 3.0485117 3.6893488e+19
2.1171737 0 2.398097
-0 3.0593183 0
1.8575751 -0 2.4025486
-2 3.0416191 -2
2.1086955 3.6893488e+19 2.3721638
3.6893488e+19 3.0755289 -1.0842022e-19
1.8697636 2 2.4050281
1.0842022e-19 3.042336 -1.0842022e-19
2.1095772 -0 2.3563302
0 3.0197847 -1.0842022e-19
1.8278497 -1.0842022e-19 2.3202715
1.0842022e-19 3.041405 3.6893488e+19
2.1084321 -3.6893488e+19 2.3385389
1.0842022e-19 3.0189126 0
1.8271941 -3.6893488e+19 2.3039191
1.0842022e-19 3.0210905 1.0842022e-19
1.8288317 1.0842022e-19 2.2909729
0 3.0757649 -2
2.1506951 1.0842022e-19 2.3413229
-3.6893488e+19 3.038228 -2
1.8417174 -0 2.2930131
-1.0842022e-19 3.0735795 2
2.1480074 0 2.3206406
2 3.0195549 3.6893488e+19
1.827677 3.6893488e+19 2.258765
-3.6893488e+19 3.0539391 0
-1.6371564 3.6893488e+19 2.2831068
2 3.0509479 3.6893488e+19
-1.6358064 -0 2.2633209
3.6893488e+19 3.0407202 3.6893488e+19
1.9649681 0 2.2428579
0 3.0618329 0
-1.6407185 -0 2.2552574
-2 2.9940023 2
1.9326408 1.0842022e-19 2.1408701
-3.6893488e+19 3.1136563 2
-1.6641045 -1.0842022e-19 2.2772014
-1.0842022e-19 2.9950767 1.0842022e-19
1.933038 3.6893488e+19 2.1138325
-3.6893488e+19 2.9941993 1.0842022e-19
1.9327136 0 2.0853798
-1.0842022e-19 3.1098058 2
-1.6623669 -2 2.2176406
-2 2.9967823 0
1.9336686 -2 2.0592177
2 3.2522063 -3.6893488e+19
-1.7276224 3.6893488e+19 2.2994893
-3.6893488e+19 2.9852066 1.0842022e-19
1.9293889 1.0842022e-19 2.0247724
1.0842022e-19 3.0203209 -1.0842022e-19
-1.6189712 -3.6893488e+19 2.0407002
1.0842022e-19 2.9883003 -0
1.9305326 1.0842022e-19 1.9991374
-3.6893488e+19 3.0608306 1.0842022e-19
2.1323261 -1.0842022e-19 2.0503259
-2 3.0580447 2
1.8566175 0 2.0295994
-2 3.0604246 2
2.1318266 2 2.015099
-1.0842022e-19 3.0598128 1.0842022e-19
1.8579469 -2 1.9965374
-2 3.0525331 0
2.1221201 -0 1.9744294
3.6893488e+19 3.0782034 0
1.8717747 2 1.9744802
-3.6893488e+19 3.049541 -0
2.1184397 -1.0842022e-19 1.9386364
-2 2.9897392 -3.6893488e+19
1.8091162 -1.0842022e-19 1.890118
-1.0842022e-19 3.0520136 -1.0842022e-19
2.1214809 0 1.9063684
0 3.0813963 2
1.8741753 -3.6893488e+19 1.9026215
2 2.8913448 1.0842022e-19
1.9906797 2 1.7838006
2 3.0828915 -0
1.8751497 -3.6893488e+19 1.857285
2 2.8924634 3.6893488e+19
1.9913677 1.0842022e-19 1.7306685
3.6893488e+19 3.0826216 3.6893488e+19
1.8750483 1.0842022e-19 1.7828588
0 2.882098 1.0842022e-19
1.9849929 -1.0842022e-19 1.6390607
2 2.9529538 -2
1.9174644 -3.6893488e+19 1.2048136
-0 2.9508228 -3.6893488e+19
1.9166765 -1.0842022e-19 -1.5508504
-3.6893488e+19 2.9049087 -1.0842022e-19
-1.5577201 2 -1.6231005
2 2.9461107 -0
1.9149344 3.6893488e+19 -1.6866478
-1.0842022e-19 2.9486773 -3.6893488e+19
-1.5774711 -2 -1.7375778
-1.0842022e-19 2.9493644 0
-1.5777813 0 -1.7941085
-1.0842022e-19 2.9311323 -2
1.9093966 3.6893488e+19 -1.8115082
3.6893488e+19 2.9033024 -2
-1.5569952 -1.0842022e-19 -1.8217958
-3.6893488e+19 2.8755693 -1.0842022e-19
1.8888541 -2 -1.8294414
1.0842022e-19 2.8661089 -2
-1.5402111 3.6893488e+19 -1.844534
-1.0842022e-19 2.8007388 1.0842022e-19
1.8473762 -2 -1.8223374
0 2.7874589 1.0842022e-19
-1.5047194 -0 -1.8294863
-0 2.7977147 -3.6893488e+19
1.84514 -3.6893488e+19 -1.8536574
-1.0842022e-19 2.7542872 -2
1.9063884 0 -1.8349333
-0 2.752362 -0
1.6897498 -3.6893488e+19 -1.8469044
-2 2.7128422 -3.6893488e+19
1.8923255 -1.0842022e-19 -1.8420194
3.6893488e+19 2.6682079 0
1.6572243 -3.6893488e+19 -1.8322785
2 2.6170049 2
1.8507105 1.0842022e-19 -1.8176914
1.0842022e-19 2.5856106 -2
1.6261719 -3.6893488e+19 -1.8101405
-1.0842022e-19 2.5601447 0
1.8157412 -1.0842022e-19 -1.8052659
-1.0842022e-19 2.5460653 1.0842022e-19
1.5976102 1.0842022e-19 -1.8049295
-0 2.5256901 0
1.7945514 2 -1.8007506
3.6893488e+19 2.5121517 -0
1.5721107 -0 -1.7990338
-2 2.4929504 -3.6893488e+19
1.7765839 1.0842022e-19 -1.7960061
0 2.4704688 -2
1.5518715 1.0842022e-19 -1.794386
-1.0842022e-19 2.4489613 -0
1.7630571 -1.0842022e-19 -1.7934049
-0 2.4136877 3.6893488e+19
1.7522104 2 -1.7918534
0 2.3539231 -2
-1.2847121 -2 -1.787299
-1.0842022e-19 2.2118137 2
-1.2083992 -0 -1.7702398
0 2.2108865 -0
1.6417241 0 -1.7836103
-0 2.1695487 1.0842022e-19
1.6290127 -3.6893488e+19 -1.7814927
1.0842022e-19 2.1400695 -2
1.6148953 0 -1.7818131
-1.0842022e-19 2.1218827 -1.0842022e-19
1.6037104 1.0842022e-19 -1.7853509
1.0842022e-19 3.0450873 2
1.9681972 0 2.5191481
0 3.0542572 2
-1.6372998 -1.0842022e-19 2.5227644
-3.6893488e+19 3.0480177 1.0842022e-19
1.9703642 0 2.5130851
-2 3.0445247 0
-1.632908 -1.0842022e-19 2.5054266
-3.6893488e+19 3.0438921 -1.0842022e-19
-1.6326225 1.0842022e-19 2.4926229
0 3.0438907 -1.0842022e-19
1.9673123 -2 2.4845734
-2 3.0472853 2
-1.6341537 -1.0842022e-19 2.4810262
0 3.0437236 -3.6893488e+19
1.9671887 -1.0842022e-19 2.4672306
0 3.0478201 -3.6893488e+19
-1.6343949 -2 2.464628
-0 3.0498872 3.6893488e+19
1.9717464 -3.6893488e+19 2.4596546
-2 3.0472348 0
-1.634131 -0 2.4465294
-2 3.0493896 2
1.9713786 -3.6893488e+19 2.4415898
0 3.0461407 -1.0842022e-19
-1.6336371 1.0842022e-19 2.4278111
-3.6893488e+19 3.0448792 3.6893488e+19
1.9680434 -3.6893488e+19 2.4179361
0 3.0503078 1.0842022e-19
2.1193826 2 2.4177752
0 3.0540321 3.6893488e+19
1.8536003 0 2.4130995
-2 3.0485117 3.6893488e+19
2.1171737 0 2.398097
-0 3.0593183 0
1.8575751 -0 2.4025486
-2 3.0416191 -2
2.1086955 3.6893488e+19 2.3721638
-3.6893488e+19 3.0228329 1.0842022e-19
1.8301419 -1.0842022e-19 2.339463
1.0842022e-19 3.042336 -1.0842022e-19
2.1095772 -0 2.3563302
0 3.0197847 -1.0842022e-19
1.8278497 -1.0842022e-19 2.3202715
1.0842022e-19 3.041405 3.6893488e+19
2.1084321 -3.6893488e+19 2.3385389
1.0842022e-19 3.0189126 0
1.8271941 -3.6893488e+19 2.3039191
1.0842022e-19 3.0210905 1.0842022e-19
1.8288317 1.0842022e-19 2.2909729
0 3.0757649 -2
2.1506951 1.0842022e-19 2.3413229
0 3.0209346 -0
1.8287144 3.6893488e+19 2.2754323
-1.0842022e-19 3.0735795 2
2.1480074 0 2.3206406
2 3.0195549 3.6893488e+19
1.827677 3.6893488e+19 2.258765
1.0842022e-19 3.0264692 -0
-1.6245203 0 2.2575197
2 3.0187967 2
-1.6175957 -0 2.2203791
-2 2.9922221 0
1.9319826 -3.6893488e+19 2.1672318
-3.6893488e+19 3.0209534 -3.6893488e+19
-1.6195422 2 2.1935897
-2 2.9940023 2
1.9326408 1.0842022e-19 2.1408701
-3.6893488e+19 3.1136563 2
-1.6641045 -1.0842022e-19 2.2772014
-1.0842022e-19 2.9950767 1.0842022e-19
1.933038 3.6893488e+19 2.1138325
-3.6893488e+19 2.9941993 1.0842022e-19
1.9327136 0 2.0853798
2 3.006804 -0
-1.6067719 3.6893488e+19 2.0837688
-2 2.9967823 0
1.9336686 -2 2.0592177
-2 3.0189722 -1.0842022e-19
-1.6177541 -1.0842022e-19 2.0693984
-3.6893488e+19 2.9852066 1.0842022e-19
1.9293889 1.0842022e-19 2.0247724
1.0842022e-19 3.0203209 -1.0842022e-19
-1.6189712 -3.6893488e+19 2.0407002
1.0842022e-19 2.9883003 -0
1.9305326 1.0842022e-19 1.9991374
1.0842022e-19 2.8849773 1.0842022e-19
1.9867637 3.6893488e+19 1.9359833
-2 2.9905136 0
1.8094075 0 1.9726094
-2 2.888303 2
1.9888091 0 1.9158032
-0 2.9913821 0
1.809734 -2 1.9455117
2 2.8902431 2
1.9900022 1.0842022e-19 1.8947477
-2 2.9828632 3.6893488e+19
1.8065313 -1.0842022e-19 1.9151311
-0 2.8912933 -2
1.990648 -0 1.8714175
-2 2.9897392 -3.6893488e+19
1.8091162 -1.0842022e-19 1.890118
2 2.8905189 3.6893488e+19
1.9901718 -0 1.8271921
-0 2.9884129 0
1.8086177 0 1.8499342
2 2.8913448 1.0842022e-19
1.9906797 2 1.7838006
2 3.0828915 -0
1.8751497 -3.6893488e+19 1.857285
2 2.8924634 3.6893488e+19
1.9913677 1.0842022e-19 1.7306685
3.6893488e+19 3.0826216 3.6893488e+19
1.8750483 1.0842022e-19 1.7828588
0 2.882098 1.0842022e-19
1.9849929 -1.0842022e-19 1.6390607
2 2.9529538 -2
1.9174644 -3.6893488e+19 1.2048136
-0 2.9508228 -3.6893488e+19
1.9166765 -1.0842022e-19 -1.5508504
-3.6893488e+19 2.9049087 -1.0842022e-19
-1.5577201 2 -1.6231005
2 2.9461107 -0
1.9149344 3.6893488e+19 -1.6866478
0 2.9046845 -0
-1.5576189 0 -1.7142833
-2 2.9063148 -0
-1.5583546 2 -1.7779077
-1.0842022e-19 2.9311323 -2
1.9093966 3.6893488e+19 -1.8115082
3.6893488e+19 2.9033024 -2
-1.5569952 -1.0842022e-19 -1.8217958
-3.6893488e+19 2.8755693 -1.0842022e-19
1.8888541 -2 -1.8294414
-2 2.7884777 2
-1.5051792 -3.6893488e+19 -1.7979832
-1.0842022e-19 2.8007388 1.0842022e-19
1.8473762 -2 -1.8223374
-1.0842022e-19 2.7547419 2
-1.479911 0 -1.8062129
0 2.7665963 -2
1.82213 -1.0842022e-19 -1.8297571
-1.0842022e-19 2.7542872 -2
1.9063884 0 -1.8349333
-0 2.752362 -0
1.6897498 -3.6893488e+19 -1.8469044
-2 2.7128422 -3.6893488e+19
1.8923255 -1.0842022e-19 -1.8420194
3.6893488e+19 2.6682079 0
1.6572243 -3.6893488e+19 -1.8322785
2 2.6170049 2
1.8507105 1.0842022e-19 -1.8176914
1.0842022e-19 2.5856106 -2
1.6261719 -3.6893488e+19 -1.8101405
-1.0842022e-19 2.5601447 0
1.8157412 -1.0842022e-19 -1.8052659
-1.0842022e-19 2.5460653 1.0842022e-19
1.5976102 1.0842022e-19 -1.8049295
-0 2.5256901 0
1.7945514 2 -1.8007506
3.6893488e+19 2.5121517 -0
1.5721107 -0 -1.7990338
-2 2.4929504 -3.6893488e+19
1.7765839 1.0842022e-19 -1.7960061
0 2.4704688 -2
1.5518715 1.0842022e-19 -1.794386
-1.0842022e-19 2.4489613 -0
1.7630571 -1.0842022e-19 -1.7934049
-0 2.4136877 3.6893488e+19
1.7522104 2 -1.7918534
0 2.3539231 -2
-1.2847121 -2 -1.787299
-1.0842022e-19 2.2118137 2
-1.2083992 -0 -1.7702398
0 2.2108865 -0
1.6417241 0 -1.7836103
-0 2.1695487 1.0842022e-19
1.6290127 -3.6893488e+19 -1.7814927
1.0842022e-19 2.1400695 -2
1.6148953 0 -1.7818131
-1.0842022e-19 2.1218827 -1.0842022e-19
1.6037104 1.0842022e-19 -1.7853509
-1.0842022e-19 3.0454264 -2
1.9560353 3.6893488e+19 2.5194256
-2 3.0540369 -2
-1.6881989 0 2.5225732
-3.6893488e+19 3.0481138 -1.0842022e-19
1.9579096 -3.6893488e+19 2.5131388
0 3.044107 -3.6893488e+19
1.955115 -2 2.5010064
3.6893488e+19 3.0424268 0
1.9539434 -3.6893488e+19 2.4821031
0 3.0471258 0
-1.683921 2 2.4807785
3.6893488e+19 3.0440643 -2
1.9550853 -0 2.4677176
-3.6893488e+19 3.0487335 -3.6893488e+19
-1.6849161 -3.6893488e+19 2.4660635
-2 3.0502291 3.6893488e+19
1.9593848 0 2.4601247
-1.0842022e-19 3.047044 0
-1.6838704 3.6893488e+19 2.4462526
2 3.0491793 3.6893488e+19
1.9586526 -0 2.4412277
-2 3.0463185 0
-1.6834214 2 2.4280777
-0 3.0437765 3.6893488e+19
1.9548846 -3.6893488e+19 2.4163241
-0 3.0490289 0
1.8247486 -0 2.4062779
1.0842022e-19 3.0417769 1.0842022e-19
2.096585 3.6893488e+19 2.3890381
2 3.0574861 -1.0842022e-19
1.8303978 -0 2.4001408
3.6893488e+19 3.0414615 0
2.0962105 3.6893488e+19 2.3718889
-1.0842022e-19 3.0761034 0
1.8428342 1.0842022e-19 2.4057195
-3.6893488e+19 3.0422704 0
2.0971715 -0 2.35618
-1.0842022e-19 3.0244977 -1.0842022e-19
1.808362 3.6893488e+19 2.3258479
2 3.0414627 -2
2.0962117 -3.6893488e+19 2.3385389
-3.6893488e+19 3.0256102 -2
1.8091052 -2 2.3114707
-3.6893488e+19 3.021199 2
1.8061585 3.6893488e+19 2.2910726
-1.0842022e-19 3.0732026 1.0842022e-19
2.133914 2 2.3385713
2 3.0372841 -3.6893488e+19
1.8169031 -2 2.2920363
-2 3.0705507 -3.6893488e+19
2.1307638 -1.0842022e-19 2.3175762
-0 3.0191982 3.6893488e+19
1.804822 -1.0842022e-19 2.2584076
-3.6893488e+19 3.0516355 -3.6893488e+19
-1.6867125 -1.0842022e-19 2.2809672
0 3.0006371 -0
1.9247984 -1.0842022e-19 2.2031686
-1.0842022e-19 3.050848 3.6893488e+19
-1.6862251 -0 2.2632394
-0 3.0408165 3.6893488e+19
1.9528203 -0 2.2429631
-1.0842022e-19 2.9940605 0
1.9222831 1.0842022e-19 2.1408701
-0 3.0196722 0
-1.6669272 2 2.1611309
0 2.9960678 1.0842022e-19
1.9229829 0 2.1145179
-0 3.0205295 -3.6893488e+19
-1.6674578 2 2.1320052
0 3.0593777 0
1.9657651 3.6893488e+19 2.169858
2 3.1083653 3.6893488e+19
-1.7218282 2 2.2157786
-1.0842022e-19 3.0616693 0
1.9673635 2 2.1379461
-1.0842022e-19 3.2525434 -1.0842022e-19
-1.7813245 -1.0842022e-19 2.2998962
-0 3.0807343 1.0842022e-19
1.9806596 3.6893488e+19 2.1245453
2 3.0222168 -3.6893488e+19
-1.6685022 3.6893488e+19 2.0427456
-3.6893488e+19 3.0780227 3.6893488e+19
1.9787686 -1.0842022e-19 2.0846839
1.0842022e-19 3.0574701 -3.6893488e+19
1.8303871 -3.6893488e+19 2.0290613
-0 2.8876331 -3.6893488e+19
1.9802235 2 1.9154843
-3.6893488e+19 3.061235 3.6893488e+19
1.8329022 -3.6893488e+19 1.9976548
-0 3.0519083 -3.6893488e+19
2.1086195 3.6893488e+19 1.9739214
-2 3.0760062 0
1.8427693 1.0842022e-19 1.9729644
-2 3.0513442 -2
2.1079495 1.0842022e-19 1.9397345
0 2.9867079 2
1.7875582 2 1.8892426
0 2.8900356 0
1.9816505 -3.6893488e+19 1.8269018
1.0842022e-19 3.0806973 -3.6893488e+19
1.8459027 1.0842022e-19 1.9022908
0 2.8909862 0
1.982215 -3.6893488e+19 1.7836236
2 3.082536 2
1.847131 0 1.8570236
1.0842022e-19 3.0581315 3.6893488e+19
2.1160116 -2 1.8060669
-0 2.8820488 1.0842022e-19
1.976907 0 1.6390154
-2 2.9536939 -0
1.9082068 -3.6893488e+19 1.2051241
-1.0842022e-19 2.9546847 -2
1.9085523 1.0842022e-19 -1.552336
-1.0842022e-19 2.9500341 0
1.9069307 -2 -1.6882671
-2 2.9496047 2
-1.6391528 2 -1.7380742
1.0842022e-19 2.9459245 2
1.9054976 -1.0842022e-19 -1.7680674
3.6893488e+19 2.9504793 -0
-1.6394234 3.6893488e+19 -1.7945317
-0 2.9110396 2
-1.6272168 3.6893488e+19 -1.8255757
1.0842022e-19 2.8766747 1.0842022e-19
1.8813496 -1.0842022e-19 -1.8300189
1.0842022e-19 2.818574 -1.0842022e-19
-1.5721973 2 -1.8160343
-1.0842022e-19 2.7980292 1.0842022e-19
1.8328506 -1.0842022e-19 -1.8205364
-3.6893488e+19 2.7548611 3.6893488e+19
-1.5327592 1.0842022e-19 -1.8063017
-3.6893488e+19 2.8056705 0
1.8381798 -0 -1.8597403
-1.0842022e-19 2.7548356 -3.6893488e+19
1.9013523 1.0842022e-19 -1.8353443
-0 2.755933 0
1.670961 -2 -1.8500314
2 2.7130585 -3.6893488e+19
1.8875101 0 -1.8420779
-1.0842022e-19 2.6662364 -1.0842022e-19
1.639021 -2 -1.8312894
0 2.61658 2
1.8427197 0 -1.8174303
3.6893488e+19 2.5865028 -0
1.5997808 3.6893488e+19 -1.810622
3.6893488e+19 2.5604548 2
1.8093858 -3.6893488e+19 -1.8054104
1.0842022e-19 2.5452104 3.6893488e+19
1.5721978 3.6893488e+19 -1.8043994
3.6893488e+19 2.5256205 2
1.7886969 -3.6893488e+19 -1.8006713
3.6893488e+19 2.512167 -1.0842022e-19
1.5501251 -0 -1.7990338
