# .PCD v0.7 - Point Cloud Data file format
VERSION 0.7
FIELDS x y z
SIZE 4 4 4
TYPE F F F
COUNT 1 1 1
WIDTH 1690
HEIGHT 1
VIEWPOINT 0 0 0 1 0 0 0
POINTS 1690
DATA ascii
2.0341787 2 2.1957312
-3.6893488e+19 3.1330664 3.6893488e+19
-1.6829596 -1.0842022e-19 2.168395
0 3.128902 -2
2.0276706 3.6893488e+19 2.1430159
-1.0842022e-19 3.215889 -2
2.284981 0 2.2079875
-1.0842022e-19 3.1230285 -3.6893488e+19
1.8877801 3.6893488e+19 2.0948515
-1.0842022e-19 3.1346221 -0
2.2205415 -2 2.0849342
-0 3.1267579 -1.0842022e-19
1.8891575 0 2.0561373
-3.6893488e+19 3.137217 1.0842022e-19
2.2237163 -0 2.0437627
-0 3.1201091 2
1.8867018 -3.6893488e+19 2.0093541
2 3.138643 -0
2.2254605 -3.6893488e+19 2.0012817
-2 3.1183398 3.6893488e+19
1.8860483 0 1.966949
-2 3.1356907 -3.6893488e+19
2.2218487 -2 1.9561741
-0 3.1185815 2
1.8861376 -0 1.9259279
2 3.1323447 2
2.2177553 -2 1.9115728
-0 3.120086 -1.0842022e-19
1.8866932 -2 1.8853236
1.0842022e-19 3.1302249 -3.6893488e+19
2.2151618 -2 1.8612515
3.6893488e+19 3.11923 -0
1.8863771 2 1.8126104
-0 3.1333826 0
2.2190251 3.6893488e+19 1.7774105
-3.6893488e+19 3.1200428 1.0842022e-19
1.8866774 -0 1.7108661
1.0842022e-19 3.1230466 -3.6893488e+19
-1.6781738 -3.6893488e+19 1.6293111
-3.6893488e+19 3.1223276 -0
2.0228529 -2 1.4340961
-2 3.1137393 0
-1.6737286 3.6893488e+19 -1.3948758
-0 3.129004 -1.0842022e-19
2.0277455 -2 -1.6198101
-3.6893488e+19 3.1145077 -2
-1.6740955 -0 -1.6989139
-2 3.1270149 -3.6893488e+19
2.0262878 3.6893488e+19 -1.7700868
-2 3.1239445 -3.6893488e+19
-1.6786027 1.0842022e-19 -1.8104724
0 3.1279418 -1.0842022e-19
2.026967 -0 -1.8548535
2 3.1194901 -2
-1.6764752 -3.6893488e+19 -1.8828555
-0 3.1521926 -2
2.0447388 -0 -1.9172349
-2 3.0706019 0
-1.6531254 -2 -1.901065
0 3.0628772 0
1.9792858 -0 -1.9150579
-1.0842022e-19 3.0591612 0
-1.6476611 -3.6893488e+19 -1.9301991
3.6893488e+19 3.0506949 2
1.9703584 -1.0842022e-19 -1.9422531
0 2.8498108 -3.6893488e+19
1.8781759 2 -1.8813919
-1.0842022e-19 2.8034155 -3.6893488e+19
1.9355972 3.6893488e+19 -1.8703725
-0 2.7653565 -0
1.6960218 0 -1.853868
-3.6893488e+19 2.7128849 -0
1.8915718 -3.6893488e+19 -1.8381304
2 2.6767209 -2
1.6576116 -0 -1.8329065
2 2.6288574 -2
1.8567444 0 -1.8207116
-1.0842022e-19 2.6098256 2
1.6329036 -0 -1.8204676
1.0842022e-19 2.5794475 0
1.8265208 -1.0842022e-19 -1.8136969
-2 2.5681489 -3.6893488e+19
1.61002 2 -1.8156674
-3.6893488e+19 2.5451052 0
1.805514 0 -1.8106269
0 2.5372114 1.0842022e-19
1.5871662 3.6893488e+19 -1.8132451
-2 2.5142634 -1.0842022e-19
1.7866482 1.0842022e-19 -1.8061051
-0 2.5080376 -1.0842022e-19
1.5656152 -1.0842022e-19 -1.8086246
-1.0842022e-19 2.4845138 0
1.7731869 3.6893488e+19 -1.8046819
-3.6893488e+19 2.4664822 -2
1.5472977 -3.6893488e+19 -1.8040999
1.0842022e-19 3.213048 0
2.0698504 3.6893488e+19 2.6607516
3.6893488e+19 3.2410624 -3.6893488e+19
2.0892012 1.0842022e-19 2.656929
-2 3.2818382 0
2.1393597 -2 2.7007208
3.6893488e+19 3.278862 1.0842022e-19
-1.8050387 2 2.6874888
-3.6893488e+19 3.2225344 -2
2.0764031 1.0842022e-19 2.6141458
-0 3.2527835 3.6893488e+19
-1.7882019 -2 2.631954
-1.0842022e-19 3.211952 -3.6893488e+19
2.0690932 1.0842022e-19 2.5926387
0 3.279459 -3.6893488e+19
-1.805424 1.0842022e-19 2.656141
-2 3.2134595 -1.0842022e-19
2.0701346 3.6893488e+19 2.5803933
3.6893488e+19 3.2465041 3.6893488e+19
2.2932234 -2 2.5974269
2 3.2477427 -3.6893488e+19
1.9129303 2 2.5902739
2 3.2440836 -3.6893488e+19
2.2917938 -2 2.5815136
-2 3.2521524 0
1.9150785 -1.0842022e-19 2.5802999
-3.6893488e+19 3.2477069 1.0842022e-19
1.9129187 0 2.5617428
-3.6893488e+19 3.2416563 -2
1.910938 0 2.5439181
-1.0842022e-19 3.2283416 0
2.2824972 -0 2.529844
-0 3.2398367 0
1.9103425 1.0842022e-19 2.5288765
1.0842022e-19 3.2419827 -0
1.9110448 -3.6893488e+19 2.5161138
-0 3.2218258 -2
1.9044467 3.6893488e+19 2.4836447
-2 3.2277477 0
2.2821465 1.0842022e-19 2.477375
0 3.1484461 -3.6893488e+19
1.8804266 2 2.3858585
0 3.2459073 -3.6893488e+19
-1.7850835 1.0842022e-19 2.4661407
0 3.1388376 2
2.0185895 -2 2.3548183
-1.0842022e-19 3.2504334 -3.6893488e+19
-1.7866846 -3.6893488e+19 2.442503
-0 3.2391608 -1.0842022e-19
2.0878878 -0 2.4187288
-2 3.2506979 -3.6893488e+19
-1.7868553 0 2.4146843
2 3.2367797 -3.6893488e+19
2.0862429 2 2.389225
1.0842022e-19 3.2539208 1.0842022e-19
-1.7889361 3.6893488e+19 2.3914123
3.6893488e+19 3.2347751 2
2.0848584 0 2.3603132
-1.0842022e-19 3.2526689 -0
-1.7881279 1.0842022e-19 2.3610535
0 3.2332418 -2
2.0837991 0 2.3319807
-0 3.1414382 0
-1.7513601 3.6893488e+19 2.2576847
-1.0842022e-19 3.2483342 0
2.0942245 -2 2.3143458
-3.6893488e+19 3.2544701 1.0842022e-19
-1.7892909 -0 2.3064733
3.6893488e+19 3.2383816 1.0842022e-19
2.0873497 -3.6893488e+19 2.2806487
-1.0842022e-19 3.2564681 3.6893488e+19
-1.7905807 3.6893488e+19 2.2801275
-3.6893488e+19 3.2387385 -1.0842022e-19
2.0875962 -2 2.2534423
-0 3.2129636 -2
2.2734151 2 2.2050219
3.6893488e+19 3.2349961 0
1.9087579 -3.6893488e+19 2.1983356
1.0842022e-19 3.2215524 -0
2.2784874 -3.6893488e+19 2.1605532
1.0842022e-19 3.245508 -0
1.9121988 -0 2.1526053
3.6893488e+19 3.2195401 2
2.2772992 -1.0842022e-19 2.1061468
1.0842022e-19 3.2394598 -2
1.910219 3.6893488e+19 2.0929697
-0 3.2185001 2
2.276685 1.0842022e-19 2.0528548
-3.6893488e+19 3.2445927 -2
1.9118992 3.6893488e+19 2.0412941
-3.6893488e+19 3.2182465 0
2.2765353 -1.0842022e-19 2.0002556
2 3.1175721 2
1.865641 3.6893488e+19 1.925436
-1.0842022e-19 3.2037325 0
2.2679636 -3.6893488e+19 1.9417024
-2 3.1155155 3.6893488e+19
1.8642946 -0 1.8836448
-3.6893488e+19 3.2005641 0
2.2660925 -3.6893488e+19 1.8899506
-3.6893488e+19 3.1157835 2
1.8644701 0 1.8108486
-2 3.1345177 2
2.204174 1.0842022e-19 1.7778317
-3.6893488e+19 3.1186893 -2
1.8663725 -2 1.7100828
-0 3.1119137 -0
-1.7336584 1.0842022e-19 1.625455
-0 3.1252747 0
2.0092211 3.6893488e+19 1.4355316
1.0842022e-19 3.1125124 2
-1.7340449 -0 -1.3943903
2 3.1544619 3.6893488e+19
2.029382 2 -1.6306118
3.6893488e+19 3.1134057 -3.6893488e+19
-1.7346216 -3.6893488e+19 -1.6983171
-2 3.1573098 -2
2.0313492 -1.0842022e-19 -1.7817268
-0 3.1245608 -0
-1.7418237 2 -1.8107823
3.6893488e+19 3.1516159 0
2.0274162 -2 -1.8692229
1.0842022e-19 3.1182632 2
-1.7377578 -3.6893488e+19 -1.8824174
3.6893488e+19 3.1539562 -0
2.0290327 3.6893488e+19 -1.9179486
-0 3.1213825 0
-1.7397717 -2 -1.9249964
0 3.15275 -1.0842022e-19
2.0281994 -1.0842022e-19 -1.9624454
-3.6893488e+19 3.0544698 -3.6893488e+19
-1.6965716 -0 -1.9274689
3.6893488e+19 3.0491703 1.0842022e-19
1.9566519 -2 -1.9412559
3.6893488e+19 2.8454854 2
1.8636441 -3.6893488e+19 -1.879752
-2 2.8016701 -3.6893488e+19
1.9281591 0 -1.8689129
0 2.7643111 2
1.6730384 -3.6893488e+19 -1.8529531
0 2.7172079 0
1.8879609 -1.0842022e-19 -1.8400784
-1.0842022e-19 2.6786163 1.0842022e-19
1.6403027 -1.0842022e-19 -1.8338181
-2 2.6317933 1.0842022e-19
1.8504781 -2 -1.8221893
-2 2.6104696 2
1.6109912 2 -1.8208063
-0 2.5801342 -3.6893488e+19
1.8199693 3.6893488e+19 -1.8140529
2 2.5671701 -0
1.582644 2 -1.8150699
0 2.5474007 1.0842022e-19
1.8006377 -1.0842022e-19 -1.8120337
-3.6893488e+19 2.535733 -2
1.5620629 0 -1.8122655
1.0842022e-19 2.5150609 3.6893488e+19
1.7815386 -2 -1.8066157
3.6893488e+19 2.5081768 3.6893488e+19
1.5440224 -1.0842022e-19 -1.8087132
0 2.4808855 1.0842022e-19
1.7669997 -1.0842022e-19 -1.8033011
-1.0842022e-19 2.4660113 -0
1.5275434 3.6893488e+19 -1.8039089
-2 2.4411163 1.0842022e-19
1.7552564 1.0842022e-19 -1.8010043
-0 2.3782983 -3.6893488e+19
-1.3692366 -2 -1.7968761
2 2.3322835 -2
-1.3395286 0 -1.7947718
2 2.2970085 -2
-1.3167543 -0 -1.7936149
-3.6893488e+19 2.2635417 3.6893488e+19
-1.2951477 1.0842022e-19 -1.7896404
1.0842022e-19 2.2223802 0
1.6394882 -0 -1.7865075
3.6893488e+19 2.1844363 1.0842022e-19
1.6282839 1.0842022e-19 -1.7860651
0 2.1490428 -1.0842022e-19
1.6106651 -1.0842022e-19 -1.7845123
-1.0842022e-19 2.1191256 0
1.5929968 3.6893488e+19 -1.7833148
1.0842022e-19 3.213048 0
2.0698504 3.6893488e+19 2.6607516
-1.0842022e-19 3.2164817 -0
2.0722222 3.6893488e+19 2.6365597
-3.6893488e+19 3.2198069 -0
2.0745192 -1.0842022e-19 2.6256618
-2 3.2520459 -2
-1.7877257 0 2.6454189
-3.6893488e+19 3.2225344 -2
2.0764031 1.0842022e-19 2.6141458
-0 3.2527835 3.6893488e+19
-1.7882019 -2 2.631954
-1.0842022e-19 3.211952 -3.6893488e+19
2.0690932 1.0842022e-19 2.5926387
0 3.279459 -3.6893488e+19
-1.805424 1.0842022e-19 2.656141
-2 3.2134595 -1.0842022e-19
2.0701346 3.6893488e+19 2.5803933
3.6893488e+19 3.2465041 3.6893488e+19
2.2932234 -2 2.5974269
1.0842022e-19 3.2139583 -3.6893488e+19
1.9018713 -3.6893488e+19 2.5671775
2 3.2440836 -3.6893488e+19
2.2917938 -2 2.5815136
-3.6893488e+19 3.2114162 1.0842022e-19
1.9010394 -2 2.5522094
-0 3.2142775 -1.0842022e-19
1.9019759 2 2.5408039
-2 3.2205822 1.0842022e-19
1.9040397 -2 2.5313196
-1.0842022e-19 3.2283416 0
2.2824972 -0 2.529844
-0 3.2398367 0
1.9103425 1.0842022e-19 2.5288765
3.6893488e+19 3.1489735 2
1.8805994 2 2.4316103
1.0842022e-19 3.148596 -2
1.8804758 2 2.4085805
-2 3.2277477 0
2.2821465 1.0842022e-19 2.477375
0 3.1484461 -3.6893488e+19
1.8804266 2 2.3858585
-3.6893488e+19 3.13834 3.6893488e+19
-1.7503599 1.0842022e-19 2.3650303
0 3.1388376 2
2.0185895 -2 2.3548183
-2 3.1386797 3.6893488e+19
-1.7504696 2 2.3433886
-2 3.1394162 2
2.0189893 2 2.3333461
2 3.1403995 -3.6893488e+19
-1.7510246 -3.6893488e+19 2.3228834
-3.6893488e+19 3.1399455 -3.6893488e+19
2.0193548 0 2.3117974
-3.6893488e+19 3.1398935 2
-1.7508614 -0 2.3005054
1.0842022e-19 3.1373165 -0
2.0175388 3.6893488e+19 2.2878761
-3.6893488e+19 3.1417022 -3.6893488e+19
-1.7514452 2 2.2798631
3.6893488e+19 3.1381176 -0
2.0180922 2 2.2666316
-0 3.1414382 0
-1.7513601 3.6893488e+19 2.2576847
-1.0842022e-19 3.1347609 -1.0842022e-19
2.0157735 -1.0842022e-19 2.2354093
3.6893488e+19 3.141778 -3.6893488e+19
-1.7514696 -2 2.2218409
-1.0842022e-19 3.1365821 2
2.0170317 -1.0842022e-19 2.1942995
3.6893488e+19 3.1404152 -1.0842022e-19
-1.7510297 1.0842022e-19 2.1764314
-3.6893488e+19 3.1304727 0
2.0128117 3.6893488e+19 2.1445992
-0 3.2129636 -2
2.2734151 2 2.2050219
1.0842022e-19 3.1304111 1.0842022e-19
1.8740464 -1.0842022e-19 2.1016562
1.0842022e-19 3.2215524 -0
2.2784874 -3.6893488e+19 2.1605532
-0 3.1273723 -1.0842022e-19
1.872057 3.6893488e+19 2.0566189
-0 3.1365464 2
2.2065701 -1.0842022e-19 2.043196
1.0842022e-19 3.1166968 -0
1.865068 -3.6893488e+19 2.0069482
1.0842022e-19 3.1403701 1.0842022e-19
2.2110865 -1.0842022e-19 2.0023487
3.6893488e+19 3.1174867 -1.0842022e-19
1.8655851 -3.6893488e+19 1.966434
1.0842022e-19 3.1396916 -1.0842022e-19
2.2102849 2 1.9582717
2 3.1175721 2
1.865641 3.6893488e+19 1.925436
-0 3.1346009 0
2.2042723 -3.6893488e+19 1.9124942
-2 3.1155155 3.6893488e+19
1.8642946 -0 1.8836448
3.6893488e+19 3.1351919 0
2.2049704 0 1.8642906
-3.6893488e+19 3.1157835 2
1.8644701 0 1.8108486
-2 3.1345177 2
2.204174 1.0842022e-19 1.7778317
-3.6893488e+19 3.1186893 -2
1.8663725 -2 1.7100828
-0 3.1119137 -0
-1.7336584 1.0842022e-19 1.625455
-0 3.1252747 0
2.0092211 3.6893488e+19 1.4355316
1.0842022e-19 3.1125124 2
-1.7340449 -0 -1.3943903
-3.6893488e+19 3.1273935 -3.6893488e+19
2.0106845 -3.6893488e+19 -1.6187414
3.6893488e+19 3.0978758 -0
-1.7245953 -3.6893488e+19 -1.6898421
3.6893488e+19 3.1280892 1.0842022e-19
2.0111651 -2 -1.7704831
-0 3.1245608 -0
-1.7418237 2 -1.8107823
1.0842022e-19 3.129297 3.6893488e+19
2.0119994 3.6893488e+19 -1.8556508
3.6893488e+19 3.0778067 2
-1.7116383 -0 -1.8607409
3.6893488e+19 3.1539562 -0
2.0290327 3.6893488e+19 -1.9179486
3.6893488e+19 3.0807147 -0
-1.7135158 -2 -1.9058336
-2 3.0601988 -0
1.9642699 1.0842022e-19 -1.913626
-3.6893488e+19 3.0544698 -3.6893488e+19
-1.6965716 -0 -1.9274689
3.6893488e+19 3.0491703 1.0842022e-19
1.9566519 -2 -1.9412559
3.6893488e+19 2.8454854 2
1.8636441 -3.6893488e+19 -1.879752
-2 2.8016701 -3.6893488e+19
1.9281591 0 -1.8689129
0 2.7643111 2
1.6730384 -3.6893488e+19 -1.8529531
0 2.7172079 0
1.8879609 -1.0842022e-19 -1.8400784
-1.0842022e-19 2.6786163 1.0842022e-19
1.6403027 -1.0842022e-19 -1.8338181
-2 2.6317933 1.0842022e-19
1.8504781 -2 -1.8221893
-2 2.6104696 2
1.6109912 2 -1.8208063
-0 2.5801342 -3.6893488e+19
1.8199693 3.6893488e+19 -1.8140529
2 2.5671701 -0
1.582644 2 -1.8150699
0 2.5474007 1.0842022e-19
1.8006377 -1.0842022e-19 -1.8120337
-3.6893488e+19 2.535733 -2
1.5620629 0 -1.8122655
1.0842022e-19 2.5150609 3.6893488e+19
1.7815386 -2 -1.8066157
3.6893488e+19 2.5081768 3.6893488e+19
1.5440224 -1.0842022e-19 -1.8087132
0 2.4808855 1.0842022e-19
1.7669997 -1.0842022e-19 -1.8033011
-1.0842022e-19 2.4660113 -0
1.5275434 3.6893488e+19 -1.8039089
-2 2.4411163 1.0842022e-19
1.7552564 1.0842022e-19 -1.8010043
-0 2.3782983 -3.6893488e+19
-1.3692366 -2 -1.7968761
2 2.3322835 -2
-1.3395286 0 -1.7947718
2 2.2970085 -2
-1.3167543 -0 -1.7936149
-3.6893488e+19 2.2635417 3.6893488e+19
-1.2951477 1.0842022e-19 -1.7896404
1.0842022e-19 2.2223802 0
1.6394882 -0 -1.7865075
3.6893488e+19 2.1844363 1.0842022e-19
1.6282839 1.0842022e-19 -1.7860651
0 2.1490428 -1.0842022e-19
1.6106651 -1.0842022e-19 -1.7845123
-1.0842022e-19 2.1191256 0
1.5929968 3.6893488e+19 -1.7833148
-1.0842022e-19 3.2269213 -3.6893488e+19
2.0593793 3.6893488e+19 2.686995
0 3.2098675 -0
2.0483165 -3.6893488e+19 2.6578853
-1.0842022e-19 3.2462225 -0
2.0719001 0 2.66116
-1.0842022e-19 3.281517 1.0842022e-19
2.1152411 0 2.7001579
2 3.2800956 -3.6893488e+19
-1.8528694 1.0842022e-19 2.6894372
-1.0842022e-19 3.2217278 2
2.0560105 -0 2.6134841
-3.6893488e+19 3.2527759 3.6893488e+19
-1.8306439 -2 2.631954
3.6893488e+19 3.2120028 -0
2.0497017 1.0842022e-19 2.5926387
-2 3.2796042 3.6893488e+19
-1.8524698 2 2.6563644
-3.6893488e+19 3.2170763 2
2.0529931 -1.0842022e-19 2.5829351
-3.6893488e+19 3.2753522 1.0842022e-19
2.3136144 -2 2.6352804
-3.6893488e+19 3.242193 1.0842022e-19
1.8904463 -2 2.586463
3.6893488e+19 3.2442083 -1.0842022e-19
2.2814407 2 2.5815344
-0 3.2111928 -1.0842022e-19
1.8816004 1.0842022e-19 2.552048
-0 3.2385859 3.6893488e+19
2.278239 -0 2.5637395
-1.0842022e-19 3.2439351 0
1.8909434 -1.0842022e-19 2.5593646
-3.6893488e+19 3.2385032 0
2.278192 2 2.5496943
1.0842022e-19 3.2427318 -0
1.8906 2 2.5445461
3.6893488e+19 3.2282784 0
2.2723691 1.0842022e-19 2.5297539
-1.0842022e-19 3.2450891 1.0842022e-19
1.8912727 0 2.5318527
3.6893488e+19 3.2421312 0
1.8904287 -3.6893488e+19 2.5161808
-3.6893488e+19 3.2161009 -1.0842022e-19
2.2654343 -3.6893488e+19 2.4921386
-3.6893488e+19 3.1496387 -2
1.8530722 1.0842022e-19 2.4096289
1.0842022e-19 3.2501192 -2
1.8927419 3.6893488e+19 2.4844108
2 3.2480338 -2
-1.8275856 -1.0842022e-19 2.4681535
-3.6893488e+19 3.1395936 3.6893488e+19
2.0027299 -0 2.3554695
-3.6893488e+19 3.2492681 -3.6893488e+19
-1.8280877 1.0842022e-19 2.4411037
1.0842022e-19 3.2299004 1.0842022e-19
2.061312 -0 2.4107566
-2 3.2508147 -2
-1.8290483 -0 2.4148898
1.0842022e-19 3.2417111 -0
2.0689735 -3.6893488e+19 2.3931248
0 3.2533534 -2
-1.8311135 3.6893488e+19 2.3905492
2 3.2388701 -1.0842022e-19
2.0671306 -2 2.3633168
-0 3.2521634 -1.0842022e-19
-1.8301455 -0 2.3603418
-3.6893488e+19 3.1388445 1.0842022e-19
2.002244 2 2.2671018
0 3.2703924 -0
-1.8449755 -0 2.3560104
-3.6893488e+19 3.2459297 0
2.0717103 2 2.3127949
2 3.2554598 3.6893488e+19
-1.8328272 -0 2.3076742
0 3.2398057 -3.6893488e+19
2.0677373 3.6893488e+19 2.2814362
-0 3.256211 -1.0842022e-19
-1.8334384 -2 2.279855
-2 3.2434661 -3.6893488e+19
2.070112 3.6893488e+19 2.2558658
-3.6893488e+19 3.1332161 -3.6893488e+19
2.1864665 -3.6893488e+19 2.1265707
3.6893488e+19 3.2348645 -2
1.888355 2 2.1981916
-1.0842022e-19 3.2189963 2
2.2670832 3.6893488e+19 2.1582503
-0 3.2205946 -3.6893488e+19
2.2679932 -2 2.1068788
0 3.2400463 0
1.8898337 -1.0842022e-19 2.0933633
2 3.1418459 -3.6893488e+19
2.1962953 0 2.0032547
3.6893488e+19 3.2462101 3.6893488e+19
1.8915925 0 2.042232
-0 3.2194571 0
2.2673457 2 2.000855
-1.0842022e-19 3.2600148 -3.6893488e+19
1.8983893 2 1.9981891
2 3.2169685 -1.0842022e-19
2.2659283 -3.6893488e+19 1.947257
-2 3.2598126 1.0842022e-19
1.8982741 0 1.9399831
-2 3.1999331 -0
2.256227 -0 1.8897281
-1.0842022e-19 3.1192071 3.6893488e+19
1.835705 0 1.8125787
0 3.1966791 -3.6893488e+19
2.2543738 -1.0842022e-19 1.8025047
0 3.1190517 -0
1.8356162 3.6893488e+19 1.7102786
3.6893488e+19 3.2524915 3.6893488e+19
-1.8304124 -3.6893488e+19 1.6750542
-0 3.125191 -1.0842022e-19
1.9933869 -0 1.4354699
-0 3.1118453 -3.6893488e+19
-1.7721881 -3.6893488e+19 -1.3941289
0 3.1456387 -1.0842022e-19
2.0066512 3.6893488e+19 -1.6277485
-3.6893488e+19 3.1264758 -2
1.9942204 0 -1.7698466
-3.6893488e+19 3.1144891 -0
-1.7732636 -2 -1.8057921
3.6893488e+19 3.1512542 -2
2.010294 -3.6893488e+19 -1.8689761
-1.0842022e-19 3.1223133 2
-1.7764462 -3.6893488e+19 -1.8838778
-3.6893488e+19 3.1515033 0
2.0104558 2 -1.9169105
-2 3.1261814 3.6893488e+19
-1.7780197 1.0842022e-19 -1.927263
0 3.1517956 -2
2.0106452 2 -1.9619187
3.6893488e+19 3.1273129 1.0842022e-19
-1.7784799 -3.6893488e+19 -1.969934
-0 3.0480487 -0
1.9433446 -3.6893488e+19 -1.940518
-3.6893488e+19 3.0506299 -3.6893488e+19
-1.744575 0 -1.9588205
-3.6893488e+19 2.851387 1.0842022e-19
1.8529453 3.6893488e+19 -1.8819541
1.0842022e-19 2.8020389 0
1.9220046 1.0842022e-19 -1.8691646
0 2.7665083 1.0842022e-19
1.6520952 -1.0842022e-19 -1.8548366
3.6893488e+19 2.7156785 2
1.8825969 -2 -1.8393335
-1.0842022e-19 2.6790121 1.0842022e-19
1.6198355 0 -1.8340005
-0 2.628382 0
1.8404803 1.0842022e-19 -1.8203903
-2 2.6104877 -0
1.5807289 2 -1.8208063
1.0842022e-19 2.5804458 2
1.8131816 -3.6893488e+19 -1.8141953
1.0842022e-19 2.5671861 1.0842022e-19
1.5560168 2 -1.8150699
3.6893488e+19 2.5478301 3.6893488e+19
1.7946078 -0 -1.8122681
-0 2.5361211 -2
1.5382881 3.6893488e+19 -1.8125104
2 2.515981 -1.0842022e-19
1.7764703 1.0842022e-19 -1.8072115
-2 2.5080652 -3.6893488e+19
1.5222768 -1.0842022e-19 -1.8086246
2 2.4807286 -0
1.7618822 -0 -1.8032091
-0 2.4687717 0
1.5087631 3.6893488e+19 -1.8049597
-1.0842022e-19 3.2269213 -3.6893488e+19
2.0593793 3.6893488e+19 2.686995
0 3.2098675 -0
2.0483165 -3.6893488e+19 2.6578853
-0 3.2160132 3.6893488e+19
2.0523033 0 2.6361291
2 3.2205629 -0
2.0552547 2 2.626225
1.0842022e-19 3.2531884 0
-1.8309793 -1.0842022e-19 2.6472228
-1.0842022e-19 3.2217278 2
2.0560105 -0 2.6134841
-3.6893488e+19 3.2527759 3.6893488e+19
-1.8306439 -2 2.631954
3.6893488e+19 3.2120028 -0
2.0497017 1.0842022e-19 2.5926387
-2 3.2796042 3.6893488e+19
-1.8524698 2 2.6563644
-3.6893488e+19 3.2170763 2
2.0529931 -1.0842022e-19 2.5829351
-3.6893488e+19 3.2753522 1.0842022e-19
2.3136144 -2 2.6352804
-3.6893488e+19 3.242193 1.0842022e-19
1.8904463 -2 2.586463
3.6893488e+19 3.2442083 -1.0842022e-19
2.2814407 2 2.5815344
-0 3.2111928 -1.0842022e-19
1.8816004 1.0842022e-19 2.552048
-0 3.2385859 3.6893488e+19
2.278239 -0 2.5637395
2 3.2127883 -1.0842022e-19
1.8820556 -1.0842022e-19 2.5398564
-3.6893488e+19 3.2385032 0
2.278192 2 2.5496943
2 3.2205751 -0
1.8842776 2 2.5313013
3.6893488e+19 3.2282784 0
2.2723691 1.0842022e-19 2.5297539
1.0842022e-19 3.218672 2
1.8837346 1.0842022e-19 2.5168135
-0 3.1489625 2
1.8526863 -2 2.4315767
-3.6893488e+19 3.2161009 -1.0842022e-19
2.2654343 -3.6893488e+19 2.4921386
-3.6893488e+19 3.1496387 -2
1.8530722 1.0842022e-19 2.4096289
-2 3.1484349 -2
1.8523852 2 2.3858285
-0 3.1383905 -2
-1.7829859 -3.6893488e+19 2.3650885
-3.6893488e+19 3.1395936 3.6893488e+19
2.0027299 -0 2.3554695
3.6893488e+19 3.1390409 0
-1.7832506 3.6893488e+19 2.3437178
1.0842022e-19 3.1397386 3.6893488e+19
2.0028238 3.6893488e+19 2.3335853
-2 3.2508147 -2
-1.8290483 -0 2.4148898
-3.6893488e+19 3.1402369 -1.0842022e-19
2.0031471 3.6893488e+19 2.311996
-1.0842022e-19 3.1401308 -3.6893488e+19
-1.7836938 -3.6893488e+19 2.3006971
0 3.1385405 -0
2.0020466 1.0842022e-19 2.2887542
3.6893488e+19 3.1381114 0
-1.7828724 -3.6893488e+19 2.2773056
-3.6893488e+19 3.1388445 1.0842022e-19
2.002244 2 2.2671018
-1.0842022e-19 3.137814 -2
-1.7827514 -0 2.2553065
-1.0842022e-19 3.1341805 3.6893488e+19
1.9992185 -3.6893488e+19 2.2346239
1.0842022e-19 3.1423895 0
-1.7846127 -2 2.2225914
-1.0842022e-19 3.1381507 2
2.0017939 2 2.1960533
-0 3.256211 -1.0842022e-19
-1.8334384 -2 2.279855
-1.0842022e-19 3.1337862 3.6893488e+19
1.9989626 -2 2.1479919
-3.6893488e+19 3.1332161 -3.6893488e+19
2.1864665 -3.6893488e+19 2.1265707
2 3.1362321 3.6893488e+19
1.8454211 0 2.1070194
-1.0842022e-19 3.2189963 2
2.2670832 3.6893488e+19 2.1582503
1.0842022e-19 3.1363709 -2
2.1900594 2 2.0430071
0 3.2400463 0
1.8898337 -1.0842022e-19 2.0933633
2 3.1418459 -3.6893488e+19
2.1962953 0 2.0032547
-3.6893488e+19 3.1157877 -2
1.8337536 -2 1.9654226
2 3.1387999 -1.0842022e-19
2.192826 1.0842022e-19 1.9577557
-2 3.1173718 0
1.8346577 1.0842022e-19 1.9253317
3.6893488e+19 3.134269 0
2.1876657 -0 1.9123231
1.0842022e-19 3.1180329 3.6893488e+19
1.8350348 -3.6893488e+19 1.8845584
-0 3.1347353 -3.6893488e+19
2.1881967 -0 1.8639615
-1.0842022e-19 3.1192071 3.6893488e+19
1.835705 0 1.8125787
-3.6893488e+19 3.1350272 -0
2.1885293 -2 1.778005
0 3.1190517 -0
1.8356162 3.6893488e+19 1.7102786
0 3.1113093 -0
-1.77197 -2 1.6252491
-0 3.125191 -1.0842022e-19
1.9933869 -0 1.4354699
-0 3.1118453 -3.6893488e+19
-1.7721881 -3.6893488e+19 -1.3941289
-3.6893488e+19 3.1247809 3.6893488e+19
1.9931209 2 -1.6170275
-3.6893488e+19 3.1264758 -2
1.9942204 0 -1.7698466
-3.6893488e+19 3.1144891 -0
-1.7732636 -2 -1.8057921
2 3.1301191 -1.0842022e-19
1.9965837 1.0842022e-19 -1.8561254
-1.0842022e-19 3.1223133 2
-1.7764462 -3.6893488e+19 -1.8838778
-3.6893488e+19 3.1515033 0
2.0104558 2 -1.9169105
-2 3.1261814 3.6893488e+19
-1.7780197 1.0842022e-19 -1.927263
3.6893488e+19 3.058579 -2
1.9501755 1.0842022e-19 -1.9127536
-1.0842022e-19 3.0546794 -0
-1.7478695 3.6893488e+19 -1.9275963
-0 3.0480487 -0
1.9433446 -3.6893488e+19 -1.940518
-3.6893488e+19 3.0506299 -3.6893488e+19
-1.744575 0 -1.9588205
-3.6893488e+19 2.851387 1.0842022e-19
1.8529453 3.6893488e+19 -1.8819541
1.0842022e-19 2.8020389 0
1.9220046 1.0842022e-19 -1.8691646
0 2.7665083 1.0842022e-19
1.6520952 -1.0842022e-19 -1.8548366
3.6893488e+19 2.7156785 2
1.8825969 -2 -1.8393335
-1.0842022e-19 2.6790121 1.0842022e-19
1.6198355 0 -1.8340005
-0 2.628382 0
1.8404803 1.0842022e-19 -1.8203903
-2 2.6104877 -0
1.5807289 2 -1.8208063
1.0842022e-19 2.5804458 2
1.8131816 -3.6893488e+19 -1.8141953
1.0842022e-19 2.5671861 1.0842022e-19
1.5560168 2 -1.8150699
3.6893488e+19 2.5478301 3.6893488e+19
1.7946078 -0 -1.8122681
-0 2.5361211 -2
1.5382881 3.6893488e+19 -1.8125104
2 2.515981 -1.0842022e-19
1.7764703 1.0842022e-19 -1.8072115
-2 2.5080652 -3.6893488e+19
1.5222768 -1.0842022e-19 -1.8086246
2 2.4807286 -0
1.7618822 -0 -1.8032091
-0 2.4687717 0
1.5087631 3.6893488e+19 -1.8049597
-1.0842022e-19 3.228188 -3.6893488e+19
2.0400877 3.6893488e+19 2.6881106
2 3.2087562 -2
2.0282996 2 2.656858
-2 3.2112551 2
2.0298157 -2 2.6455905
-0 3.2422066 0
2.0485921 1.0842022e-19 2.6577904
-3.6893488e+19 3.281143 -3.6893488e+19
-1.8879797 -0 2.6910968
-3.6893488e+19 3.212081 -1.0842022e-19
2.0303166 -2 2.5926614
1.0842022e-19 3.2798707 3.6893488e+19
-1.8873553 -3.6893488e+19 2.6567664
-1.0842022e-19 3.2546525 3.6893488e+19
2.0589647 -1.0842022e-19 2.6129987
1.0842022e-19 3.2755258 1.0842022e-19
2.3021841 -1.0842022e-19 2.6354523
-0 3.2439084 -1.0842022e-19
1.8653748 -1.0842022e-19 2.587621
2 3.2468512 -3.6893488e+19
2.2724617 1.0842022e-19 2.5832462
1.0842022e-19 3.2478151 -2
1.8672761 -3.6893488e+19 2.5760186
-1.0842022e-19 3.2441552 1.0842022e-19
2.2709835 3.6893488e+19 2.5672576
-3.6893488e+19 3.2432773 -0
1.8650677 -0 2.5589392
3.6893488e+19 3.240103 -2
2.2687612 2 2.5506206
-3.6893488e+19 3.2476048 -3.6893488e+19
1.8671738 -1.0842022e-19 2.5474463
0 3.2184758 1.0842022e-19
1.8529973 0 2.5166903
-3.6893488e+19 3.2169282 -1.0842022e-19
2.2560527 -1.0842022e-19 2.4929218
0 3.2502697 1.0842022e-19
1.8686019 3.6893488e+19 2.4846811
2 3.25073 0
-1.8711073 2 2.4713917
-0 3.2528989 3.6893488e+19
2.0568371 3.6893488e+19 2.461448
-0 3.248287 -0
-1.86955 1.0842022e-19 2.440253
2 3.2284904 -3.6893488e+19
2.040271 -3.6893488e+19 2.4095075
3.6893488e+19 3.252888 -1.0842022e-19
-1.8732255 1.0842022e-19 2.4183347
-2 3.2500756 1.0842022e-19
2.0534117 -1.0842022e-19 2.3998318
1.0842022e-19 3.2537794 3.6893488e+19
-1.8741004 -2 2.3912203
3.6893488e+19 3.2392936 1.0842022e-19
2.0468249 -1.0842022e-19 2.3635941
2 3.2517962 3.6893488e+19
-1.8721539 2 2.3598304
-3.6893488e+19 3.1386979 -3.6893488e+19
1.9857996 -0 2.2669735
-0 3.27141 1.0842022e-19
-1.883203 -3.6893488e+19 2.3573635
-3.6893488e+19 3.2451091 -0
2.0503528 3.6893488e+19 2.3122451
-0 3.2714033 -1.0842022e-19
-1.8831997 -0 2.3268886
-0 3.2406347 -0
2.0476384 -2 2.2818835
-2 3.2562795 3.6893488e+19
-1.8757772 -3.6893488e+19 2.2799401
0 3.242146 -1.0842022e-19
2.0485551 -2 2.2551548
2 3.1327264 0
2.1697569 -2 2.1260204
3.6893488e+19 3.2361021 -2
1.8615756 -3.6893488e+19 2.199316
-1.0842022e-19 3.2211058 1.0842022e-19
2.2583437 0 2.1600115
3.6893488e+19 3.2414038 3.6893488e+19
1.8641559 -0 2.1492333
0 3.2198091 2
2.2576325 -1.0842022e-19 2.1062176
3.6893488e+19 3.2399738 1.0842022e-19
1.8634599 -0 2.0932977
3.6893488e+19 3.2165258 -1.0842022e-19
2.255832 3.6893488e+19 2.0514657
2 3.250442 1.0842022e-19
1.8687698 -3.6893488e+19 2.0449717
1.0842022e-19 3.2213194 2
2.2584608 1.0842022e-19 2.0018039
-3.6893488e+19 3.2605569 -3.6893488e+19
1.8768076 -0 1.9986959
3.6893488e+19 3.216275 -3.6893488e+19
2.2556944 3.6893488e+19 1.946928
-0 3.259902 -2
1.8764888 1.0842022e-19 1.9400402
-1.0842022e-19 3.200639 -1.0842022e-19
2.2442403 2 1.8899217
2 3.1179736 0
1.804085 1.0842022e-19 1.8119438
2 3.1419563 -2
2.1798797 1.0842022e-19 1.78073
3.6893488e+19 3.1161618 -1.0842022e-19
1.8032032 3.6893488e+19 1.7086231
3.6893488e+19 3.1108584 -3.6893488e+19
-1.8021026 -1.0842022e-19 1.6250975
3.6893488e+19 3.1253545 0
1.977705 3.6893488e+19 1.4355316
-3.6893488e+19 3.223881 2
-1.8575721 1.0842022e-19 -1.4387617
0 3.1454921 -2
1.9899211 0 -1.6276881
-1.0842022e-19 3.1121004 1.0842022e-19
-1.8027122 1.0842022e-19 -1.697618
-2 3.1459992 2
1.9902289 2 -1.7773423
-0 3.1136634 1.0842022e-19
-1.8034793 -1.0842022e-19 -1.8053892
-1.0842022e-19 3.149266 -0
1.9922106 -2 -1.8677423
-2 3.1162705 -1.0842022e-19
-1.8047588 2 -1.8817098
-1.0842022e-19 3.1494844 -2
1.9923431 1.0842022e-19 -1.9160541
-1.0842022e-19 3.1247621 0
-1.8089263 2 -1.9266007
-1.0842022e-19 3.1520865 -0
1.9939216 -2 -1.9620503
2 3.0550117 -0
-1.7746941 0 -1.9277966
1.0842022e-19 3.0507941 0
1.9324737 -1.0842022e-19 -1.9422531
3.6893488e+19 3.0502131 -1.0842022e-19
-1.772339 3.6893488e+19 -1.9585385
-3.6893488e+19 2.8472433 -0
1.8356516 -1.0842022e-19 -1.8803846
2 2.7998524 3.6893488e+19
1.9144322 0 -1.8673526
-3.6893488e+19 2.765022 -3.6893488e+19
1.6289806 -0 -1.8535451
0 2.7129004 -3.6893488e+19
1.8769219 -1.0842022e-19 -1.8380158
-0 2.679904 -2
1.5842252 -1.0842022e-19 -1.8344258
-0 2.6288247 0
1.8327389 0 -1.8205831
2 2.6097553 3.6893488e+19
1.5500853 3.6893488e+19 -1.8203999
-0 2.5803819 1.0842022e-19
1.8061739 -1.0842022e-19 -1.8141241
-3.6893488e+19 2.5681968 -3.6893488e+19
1.5298597 2 -1.8156674
-2 2.5487549 -0
1.7888304 0 -1.8128153
-0 2.5361335 3.6893488e+19
1.5142552 3.6893488e+19 -1.8125104
1.0842022e-19 2.5170238 -3.6893488e+19
1.7714297 -1.0842022e-19 -1.8078923
-2 2.5082009 0
1.500661 -1.0842022e-19 -1.8087132
-3.6893488e+19 2.4840453 -3.6893488e+19
1.7577196 -2 -1.8044057
-0 2.4690409 3.6893488e+19
1.4782723 -1.0842022e-19 -1.8050551
-3.6893488e+19 2.4427702 -1.0842022e-19
1.7428051 -0 -1.8015982
3.6893488e+19 2.3795149 2
-1.4362589 1.0842022e-19 -1.7974404
3.6893488e+19 2.3307736 3.6893488e+19
-1.4123375 3.6893488e+19 -1.7940116
2 2.2974837 -1.0842022e-19
-1.3959994 -3.6893488e+19 -1.7938958
0 2.2662411 3.6893488e+19
-1.3806661 3.6893488e+19 -1.7913377
-0 2.2205896 -3.6893488e+19
1.6290302 2 -1.7858353
-3.6893488e+19 2.1801839 -3.6893488e+19
1.610903 -0 -1.784429
2 2.1496811 -0
1.5941759 3.6893488e+19 -1.7847078
-0 2.1119466 -0
1.5734832 2 -1.7801778
-1.0842022e-19 3.228188 -3.6893488e+19
2.0400877 3.6893488e+19 2.6881106
2 3.2087562 -2
2.0282996 2 2.656858
-2 3.2112551 2
2.0298157 -2 2.6455905
-0 3.2422066 0
2.0485921 1.0842022e-19 2.6577904
-0 3.2541602 1.0842022e-19
-1.8744743 -1.0842022e-19 2.6487622
-3.6893488e+19 3.212081 -1.0842022e-19
2.0303166 -2 2.5926614
1.0842022e-19 3.2798707 3.6893488e+19
-1.8873553 -3.6893488e+19 2.6567664
2 3.2179239 2
2.0338612 1.0842022e-19 2.5835049
1.0842022e-19 3.2755258 1.0842022e-19
2.3021841 -1.0842022e-19 2.6354523
-0 3.2439084 -1.0842022e-19
1.8653748 -1.0842022e-19 2.587621
2 3.2468512 -3.6893488e+19
2.2724617 1.0842022e-19 2.5832462
1.0842022e-19 3.2478151 -2
1.8672761 -3.6893488e+19 2.5760186
-1.0842022e-19 3.2441552 1.0842022e-19
2.2709835 3.6893488e+19 2.5672576
-3.6893488e+19 3.2432773 -0
1.8650677 -0 2.5589392
3.6893488e+19 3.240103 -2
2.2687612 2 2.5506206
1.0842022e-19 3.2213681 0
1.8544049 2 2.5317631
0 3.2184758 1.0842022e-19
1.8529973 0 2.5166903
-3.6893488e+19 3.2169282 -1.0842022e-19
2.2560527 -1.0842022e-19 2.4929218
0 3.2502697 1.0842022e-19
1.8686019 3.6893488e+19 2.4846811
2 3.25073 0
-1.8711073 2 2.4713917
-0 3.1376481 -0
1.9851627 0 2.353658
2 3.1345854 0
-1.8137474 0 2.3397939
2 3.1385677 -2
1.9857205 -0 2.3325489
1.0842022e-19 3.1360843 -3.6893488e+19
-1.8144829 1.0842022e-19 2.3193359
-1.0842022e-19 3.139811 -0
1.9864749 -1.0842022e-19 2.3116233
1.0842022e-19 3.2537794 3.6893488e+19
-1.8741004 -2 2.3912203
0 3.1385183 2
1.9856906 2 2.288708
3.6893488e+19 3.1372256 -3.6893488e+19
-1.8150431 2 2.2766831
-3.6893488e+19 3.1386979 -3.6893488e+19
1.9857996 -0 2.2669735
-2 3.2520869 3.6893488e+19
-1.8724393 1.0842022e-19 2.3319211
-2 3.1391699 1.0842022e-19
1.986086 1.0842022e-19 2.2408674
2 3.138823 1.0842022e-19
-1.8158271 -2 2.2183132
2 3.1377547 3.6893488e+19
1.9852273 -2 2.1955521
-2 3.2562795 3.6893488e+19
-1.8757772 -3.6893488e+19 2.2799401
0 3.1345115 -3.6893488e+19
1.9832598 3.6893488e+19 2.1487029
2 3.1327264 0
2.1697569 -2 2.1260204
3.6893488e+19 3.2361021 -2
1.8615756 -3.6893488e+19 2.199316
-1.0842022e-19 3.2211058 1.0842022e-19
2.2583437 0 2.1600115
3.6893488e+19 3.2414038 3.6893488e+19
1.8641559 -0 2.1492333
2 3.1360369 -0
2.1733875 -2 2.0427001
1.0842022e-19 3.1185417 3.6893488e+19
1.8043615 -1.0842022e-19 2.0082169
0 3.1386781 1.0842022e-19
2.1762843 2 2.0011611
-3.6893488e+19 3.1152415 -3.6893488e+19
1.8027554 2 1.9650917
2 3.1391828 2
2.1768379 -1.0842022e-19 1.9579221
-1.0842022e-19 3.1156075 -2
1.8029335 1.0842022e-19 1.9244821
3.6893488e+19 3.216275 -3.6893488e+19
2.2556944 3.6893488e+19 1.946928
0 3.1141129 1.0842022e-19
1.802206 -0 1.8831195
2 3.1347125 1.0842022e-19
2.1719351 -0 1.8639034
2 3.1179736 0
1.804085 1.0842022e-19 1.8119438
2 3.1419563 -2
2.1798797 1.0842022e-19 1.78073
3.6893488e+19 3.1161618 -1.0842022e-19
1.8032032 3.6893488e+19 1.7086231
3.6893488e+19 3.1108584 -3.6893488e+19
-1.8021026 -1.0842022e-19 1.6250975
3.6893488e+19 3.1253545 0
1.977705 3.6893488e+19 1.4355316
-3.6893488e+19 3.1119881 1.0842022e-19
-1.8026571 0 -1.3941913
2 3.1256003 -1.0842022e-19
1.977854 1.0842022e-19 -1.6175317
-1.0842022e-19 3.1121004 1.0842022e-19
-1.8027122 1.0842022e-19 -1.697618
-2 3.1459992 2
1.9902289 2 -1.7773423
-0 3.1136634 1.0842022e-19
-1.8034793 -1.0842022e-19 -1.8053892
3.6893488e+19 3.1309388 3.6893488e+19
1.9810926 -3.6893488e+19 -1.8565998
-2 3.1162705 -1.0842022e-19
-1.8047588 2 -1.8817098
-1.0842022e-19 3.1494844 -2
1.9923431 1.0842022e-19 -1.9160541
0 3.0549569 -0
-1.7746671 2 -1.8937061
-0 3.0623248 3.6893488e+19
1.9394686 0 -1.9147123
2 3.0550117 -0
-1.7746941 0 -1.9277966
1.0842022e-19 3.0507941 0
1.9324737 -1.0842022e-19 -1.9422531
3.6893488e+19 3.0502131 -1.0842022e-19
-1.772339 3.6893488e+19 -1.9585385
-3.6893488e+19 2.8472433 -0
1.8356516 -1.0842022e-19 -1.8803846
2 2.7998524 3.6893488e+19
1.9144322 0 -1.8673526
-3.6893488e+19 2.765022 -3.6893488e+19
1.6289806 -0 -1.8535451
0 2.7129004 -3.6893488e+19
1.8769219 -1.0842022e-19 -1.8380158
-0 2.679904 -2
1.5842252 -1.0842022e-19 -1.8344258
-0 2.6288247 0
1.8327389 0 -1.8205831
2 2.6097553 3.6893488e+19
1.5500853 3.6893488e+19 -1.8203999
-0 2.5803819 1.0842022e-19
1.8061739 -1.0842022e-19 -1.8141241
-3.6893488e+19 2.5681968 -3.6893488e+19
1.5298597 2 -1.8156674
-2 2.5487549 -0
1.7888304 0 -1.8128153
-0 2.5361335 3.6893488e+19
1.5142552 3.6893488e+19 -1.8125104
1.0842022e-19 2.5170238 -3.6893488e+19
1.7714297 -1.0842022e-19 -1.8078923
-2 2.5082009 0
1.500661 -1.0842022e-19 -1.8087132
-3.6893488e+19 2.4840453 -3.6893488e+19
1.7577196 -2 -1.8044057
-0 2.4690409 3.6893488e+19
1.4782723 -1.0842022e-19 -1.8050551
-3.6893488e+19 2.4427702 -1.0842022e-19
1.7428051 -0 -1.8015982
3.6893488e+19 2.3795149 2
-1.4362589 1.0842022e-19 -1.7974404
3.6893488e+19 2.3307736 3.6893488e+19
-1.4123375 3.6893488e+19 -1.7940116
2 2.2974837 -1.0842022e-19
-1.3959994 -3.6893488e+19 -1.7938958
0 2.2662411 3.6893488e+19
-1.3806661 3.6893488e+19 -1.7913377
-0 2.2205896 -3.6893488e+19
1.6290302 2 -1.7858353
-3.6893488e+19 2.1801839 -3.6893488e+19
1.610903 -0 -1.784429
2 2.1496811 -0
1.5941759 3.6893488e+19 -1.7847078
-0 2.1119466 -0
1.5734832 2 -1.7801778
-3.6893488e+19 3.2310042 2
2.021579 2 2.6906486
1.0842022e-19 3.2087698 -0
2.0090251 -2 2.6568308
-1.0842022e-19 3.2134981 1.0842022e-19
2.0116949 1.0842022e-19 2.6474762
-0 3.2694657 1.0842022e-19
-1.9048768 0 2.7040982
0 3.277632 -1.0842022e-19
-1.9095703 -2 2.7017088
-3.6893488e+19 3.2800422 0
-1.9109558 2 2.689389
0 3.2816465 1.0842022e-19
-1.9118778 -3.6893488e+19 2.6756124
-2 3.2106206 -3.6893488e+19
2.0100701 1.0842022e-19 2.5915458
2 3.2803965 -0
-1.9111593 -1.0842022e-19 2.6575484
-2 3.2544003 -3.6893488e+19
2.0372729 3.6893488e+19 2.6126044
0 3.2734702 0
2.2883987 -3.6893488e+19 2.632509
-0 3.2482386 -3.6893488e+19
1.8256468 -0 2.5905685
-2 3.2466311 -3.6893488e+19
2.2618709 1.0842022e-19 2.58304
-1.0842022e-19 3.2503967 3.6893488e+19
1.8266758 2 2.5779574
-1.0842022e-19 3.2438421 -0
2.2604003 -2 2.5670006
1.0842022e-19 3.248451 2
1.8257324 0 2.5621681
-3.6893488e+19 3.2432101 -2
2.260067 3.6893488e+19 2.5524731
-1.0842022e-19 3.2474995 1.0842022e-19
1.8253492 -2 2.5473723
-3.6893488e+19 3.2099986 2
2.2351098 1.0842022e-19 2.518965
3.6893488e+19 3.2169724 -0
2.2424641 1.0842022e-19 2.5097275
-1.0842022e-19 3.2179999 0
2.2435479 2 2.4939661
0 3.2187896 1.0842022e-19
2.2443805 -0 2.4681661
-0 3.2494717 -0
1.8261434 -1.0842022e-19 2.4836297
-0 3.2525508 3.6893488e+19
2.0351846 0 2.4607687
0 3.2470231 3.6893488e+19
-1.8928332 -0 2.4391553
0 3.2301822 0
2.0211148 2 2.4109161
-2 3.2536383 1.0842022e-19
-1.89578 -0 2.4195943
0 3.2514205 1.0842022e-19
2.0339081 -2 2.4019432
-2 3.2533484 3.6893488e+19
-1.8956133 0 2.3905733
3.6893488e+19 3.2385321 -3.6893488e+19
2.0258291 -3.6893488e+19 2.3629932
-3.6893488e+19 3.2515361 1.0842022e-19
-1.8945718 -3.6893488e+19 2.3594744
0 3.2378407 2
2.0254388 2 2.3350365
0 3.2504101 -3.6893488e+19
-1.8939244 1.0842022e-19 2.3297274
3.6893488e+19 3.2444096 -1.0842022e-19
2.0291476 1.0842022e-19 2.311774
0 3.2529311 -3.6893488e+19
-1.8953733 3.6893488e+19 2.3046532
-3.6893488e+19 3.2396226 -1.0842022e-19
2.0264449 -3.6893488e+19 2.281275
0 3.2549436 -3.6893488e+19
-1.89653 -3.6893488e+19 2.2784929
3.6893488e+19 3.2388585 -2
2.0260134 0 2.2534263
-0 3.2180736 -2
2.2436254 -2 2.2097912
-2 3.2366812 1.0842022e-19
1.8209926 -1.0842022e-19 2.1998351
-2 3.2169855 -3.6893488e+19
2.2424779 -1.0842022e-19 2.1563537
-2 3.2428572 -3.6893488e+19
1.8234797 1.0842022e-19 2.1503997
3.6893488e+19 3.2181787 -2
2.2437363 -1.0842022e-19 2.104919
-2 3.2437065 -2
1.8238217 0 2.0959005
1.0842022e-19 3.2190695 3.6893488e+19
2.2446756 3.6893488e+19 2.053056
-2 3.1142244 0
1.7716777 -3.6893488e+19 1.9644848
-1.0842022e-19 3.1420562 -1.0842022e-19
2.1634583 -3.6893488e+19 1.9594203
1.0842022e-19 3.2647831 -2
1.8382628 -3.6893488e+19 2.0027201
3.6893488e+19 3.2043562 -3.6893488e+19
2.2291591 -3.6893488e+19 1.9418603
1.0842022e-19 3.114501 -3.6893488e+19
1.771789 1.0842022e-19 1.8832566
3.6893488e+19 3.197788 -3.6893488e+19
2.2222323 -0 1.8890119
2 3.1164248 -3.6893488e+19
1.7725637 -2 1.8111501
3.6893488e+19 3.1156127 -2
1.7722367 2 1.7083026
-1.0842022e-19 3.1123424 3.6893488e+19
-1.8332582 1.0842022e-19 1.6256175
-2 3.1252656 -1.0842022e-19
1.9618781 -0 1.4354699
-1.0842022e-19 3.2236416 1.0842022e-19
-1.886114 2 -1.4386746
-2 3.1274476 2
1.9631101 -0 -1.6187011
0 3.1092415 2
-1.8314759 0 -1.6960663
-2 3.1553745 -3.6893488e+19
1.9788778 -3.6893488e+19 -1.780934
-1.0842022e-19 3.167726 0
-1.8650903 -3.6893488e+19 -1.8322151
0 3.1544254 -1.0842022e-19
1.9783418 -3.6893488e+19 -1.8708553
2 3.1485238 -0
1.9750098 -3.6893488e+19 -1.9156388
1.0842022e-19 3.1234653 0
-1.8396511 2 -1.9259973
-0 3.1510639 3.6893488e+19
1.976444 3.6893488e+19 -1.9614908
1.0842022e-19 3.0533435 2
-1.7993482 3.6893488e+19 -1.9268318
-3.6893488e+19 3.0504172 0
1.9196181 -3.6893488e+19 -1.9419938
-2 3.0500438 -1.0842022e-19
-1.7974517 -2 -1.9584301
1.0842022e-19 2.8494606 3.6893488e+19
1.8223083 2 -1.8812045
2 2.8017116 -0
1.9090909 -1.0842022e-19 -1.8688122
-1.0842022e-19 2.7662175 -0
1.5894182 -0 -1.8545675
-0 2.71348 0
1.8693906 1.0842022e-19 -1.838245
-2 2.6819158 -1.0842022e-19
1.5489378 -0 -1.8353982
-1.0842022e-19 2.6321278 3.6893488e+19
1.826494 -1.0842022e-19 -1.8222536
3.6893488e+19 2.6130106 3.6893488e+19
1.5211889 -0 -1.8221608
-0 2.5814354 -0
1.7997642 1.0842022e-19 -1.8146938
-1.0842022e-19 2.5682085 0
1.5031465 2 -1.8156674
-0 2.548559 -3.6893488e+19
1.7824285 -1.0842022e-19 -1.8126589
-2 2.5362685 1.0842022e-19
1.4805678 1.0842022e-19 -1.812592
3.6893488e+19 2.5174437 -0
1.7660216 3.6893488e+19 -1.8081477
-0 2.5077124 -1.0842022e-19
1.4575679 3.6893488e+19 -1.8083589
-1.0842022e-19 2.4848759 -0
1.7528362 3.6893488e+19 -1.8046819
3.6893488e+19 2.4698045 0
1.4391961 -0 -1.8053417
-3.6893488e+19 3.2310042 2
2.021579 2 2.6906486
1.0842022e-19 3.2087698 -0
2.0090251 -2 2.6568308
-1.0842022e-19 3.2134981 1.0842022e-19
2.0116949 1.0842022e-19 2.6474762
-0 3.2694657 1.0842022e-19
-1.9048768 0 2.7040982
-2 3.2513154 -0
-1.8944448 -3.6893488e+19 2.6588917
3.6893488e+19 3.2531066 3.6893488e+19
-1.8954743 0 2.6471267
0 3.2816465 1.0842022e-19
-1.9118778 -3.6893488e+19 2.6756124
-2 3.2106206 -3.6893488e+19
2.0100701 1.0842022e-19 2.5915458
2 3.2803965 -0
-1.9111593 -1.0842022e-19 2.6575484
1.0842022e-19 3.2201211 0
2.0154343 -1.0842022e-19 2.5850387
0 3.2734702 0
2.2883987 -3.6893488e+19 2.632509
-0 3.2482386 -3.6893488e+19
1.8256468 -0 2.5905685
-2 3.2466311 -3.6893488e+19
2.2618709 1.0842022e-19 2.58304
-1.0842022e-19 3.2503967 3.6893488e+19
1.8266758 2 2.5779574
0 3.2174859 -2
2.2430055 1.0842022e-19 2.5500824
1.0842022e-19 3.248451 2
1.8257324 0 2.5621681
-3.6893488e+19 3.2432101 -2
2.260067 3.6893488e+19 2.5524731
-1.0842022e-19 3.2474995 1.0842022e-19
1.8253492 -2 2.5473723
-3.6893488e+19 3.2099986 2
2.2351098 1.0842022e-19 2.518965
3.6893488e+19 3.2169724 -0
2.2424641 1.0842022e-19 2.5097275
-1.0842022e-19 3.2179999 0
2.2435479 2 2.4939661
0 3.2187896 1.0842022e-19
2.2443805 -0 2.4681661
-0 3.2494717 -0
1.8261434 -1.0842022e-19 2.4836297
-1.0842022e-19 3.1397953 2
1.9700817 2 2.3555827
0 3.1374569 -2
-1.8476927 -2 2.3423457
1.0842022e-19 3.1368971 -3.6893488e+19
1.9684452 1.0842022e-19 2.3310874
-0 3.1353836 2
-1.8465012 0 2.3187704
-1.0842022e-19 3.1391337 -2
1.9697081 2 2.3110521
0 3.135932 -0
-1.8468163 0 2.2974849
-0 3.1370318 3.6893488e+19
1.9685214 -1.0842022e-19 2.2875757
-3.6893488e+19 3.139636 2
-1.8489454 -0 2.2784176
3.6893488e+19 3.1398244 -2
1.970098 -0 2.2677214
-0 3.139153 -3.6893488e+19
-1.8486676 1.0842022e-19 2.2562087
-3.6893488e+19 3.1404526 -3.6893488e+19
1.9704528 0 2.2424381
2 3.1396472 -1.0842022e-19
-1.8489517 -1.0842022e-19 2.2193265
-3.6893488e+19 3.13639 0
1.9681591 -0 2.1939416
0 3.2549436 -3.6893488e+19
-1.89653 -3.6893488e+19 2.2784929
-3.6893488e+19 3.1329899 2
1.9662393 0 2.1470873
3.6893488e+19 3.1346302 0
2.155627 -0 2.1278243
-1.0842022e-19 3.1246893 -0
1.775892 1.0842022e-19 2.0963221
-2 3.2169855 -3.6893488e+19
2.2424779 -1.0842022e-19 2.1563537
-2 3.1249559 1.0842022e-19
1.7759994 -1.0842022e-19 2.054616
-3.6893488e+19 3.1366343 -0
2.1577406 -0 2.0431015
-0 3.1249547 -3.6893488e+19
1.7759988 -1.0842022e-19 2.0127006
-0 3.1405225 2
2.1618409 -2 2.0023084
-2 3.1142244 0
1.7716777 -3.6893488e+19 1.9644848
-1.0842022e-19 3.1420562 -1.0842022e-19
2.1634583 -3.6893488e+19 1.9594203
-0 3.1143091 -3.6893488e+19
1.7717117 -1.0842022e-19 1.923856
3.6893488e+19 3.2043562 -3.6893488e+19
2.2291591 -3.6893488e+19 1.9418603
1.0842022e-19 3.114501 -3.6893488e+19
1.771789 1.0842022e-19 1.8832566
-0 3.1415455 -1.0842022e-19
2.1629198 -0 1.8681039
2 3.1164248 -3.6893488e+19
1.7725637 -2 1.8111501
3.6893488e+19 3.1156127 -2
1.7722367 2 1.7083026
-1.0842022e-19 3.1123424 3.6893488e+19
-1.8332582 1.0842022e-19 1.6256175
-2 3.1252656 -1.0842022e-19
1.9618781 -0 1.4354699
3.6893488e+19 3.1119099 -3.6893488e+19
-1.8330095 1.0842022e-19 -1.3941664
-2 3.1274476 2
1.9631101 -0 -1.6187011
0 3.1092415 2
-1.8314759 0 -1.6960663
-0 3.1291115 -3.6893488e+19
1.9640495 -3.6893488e+19 -1.7708315
2 3.1237698 0
-1.8398261 1.0842022e-19 -1.8104104
1.0842022e-19 3.1288521 -2
1.963903 1.0842022e-19 -1.8553091
1.0842022e-19 3.1292922 3.6893488e+19
1.9641515 -2 -1.9076456
-0 3.0533507 1.0842022e-19
-1.7993524 -0 -1.8929554
2 3.0661941 0
1.9285258 0 -1.9167368
1.0842022e-19 3.0533435 2
-1.7993482 3.6893488e+19 -1.9268318
-3.6893488e+19 3.0504172 0
1.9196181 -3.6893488e+19 -1.9419938
-2 3.0500438 -1.0842022e-19
-1.7974517 -2 -1.9584301
1.0842022e-19 2.8494606 3.6893488e+19
1.8223083 2 -1.8812045
2 2.8017116 -0
1.9090909 -1.0842022e-19 -1.8688122
-1.0842022e-19 2.7662175 -0
1.5894182 -0 -1.8545675
-0 2.71348 0
1.8693906 1.0842022e-19 -1.838245
-2 2.6819158 -1.0842022e-19
1.5489378 -0 -1.8353982
-1.0842022e-19 2.6321278 3.6893488e+19
1.826494 -1.0842022e-19 -1.8222536
3.6893488e+19 2.6130106 3.6893488e+19
1.5211889 -0 -1.8221608
-0 2.5814354 -0
1.7997642 1.0842022e-19 -1.8146938
-1.0842022e-19 2.5682085 0
1.5031465 2 -1.8156674
-0 2.548559 -3.6893488e+19
1.7824285 -1.0842022e-19 -1.8126589
-2 2.5362685 1.0842022e-19
1.4805678 1.0842022e-19 -1.812592
3.6893488e+19 2.5174437 -0
1.7660216 3.6893488e+19 -1.8081477
-0 2.5077124 -1.0842022e-19
1.4575679 3.6893488e+19 -1.8083589
-1.0842022e-19 2.4848759 -0
1.7528362 3.6893488e+19 -1.8046819
3.6893488e+19 2.4698045 0
1.4391961 -0 -1.8053417
0 3.2324479 0
2.0021093 1.0842022e-19 2.6919315
3.6893488e+19 3.2506747 -1.0842022e-19
2.0119865 2 2.6945505
1.0842022e-19 3.2138755 -3.6893488e+19
1.992404 -0 2.6477642
-3.6893488e+19 3.2786281 -1.0842022e-19
-1.9335548 -3.6893488e+19 2.7033527
2 3.2798595 1.0842022e-19
-1.934366 -0 2.6891243
1.0842022e-19 3.2425971 0
2.0074129 1.0842022e-19 2.6294553
-2 3.2822461 -0
-1.9359382 0 2.6765406
-1.0842022e-19 3.2225468 -2
1.9969354 -2 2.6003575
-2 3.2809048 -3.6893488e+19
-1.9350545 -1.0842022e-19 2.658308
3.6893488e+19 3.2543769 2
2.0158558 -1.0842022e-19 2.6125386
0 3.2481918 -1.0842022e-19
1.7837775 0 2.5905266
2 3.2469001 -2
2.2515349 1.0842022e-19 2.5831637
1.0842022e-19 3.2502346 3.6893488e+19
1.7845033 3.6893488e+19 2.5777352
1.0842022e-19 3.2425094 -2
2.2486248 3.6893488e+19 2.5660915
0 3.2483423 -3.6893488e+19
1.7838254 -1.0842022e-19 2.5620906
3.6893488e+19 3.2422764 -3.6893488e+19
2.248389 -3.6893488e+19 2.5518491
-2 3.247545 -2
1.7835714 2 2.5473909
0 3.2412465 -3.6893488e+19
2.2473462 1.0842022e-19 2.5371871
1.0842022e-19 3.2173605 0
2.2231638 -1.0842022e-19 2.5098991
-1.0842022e-19 3.1345756 0
1.7451345 2 2.4159684
-1.0842022e-19 3.2181721 -2
2.2239854 -3.6893488e+19 2.4940639
-3.6893488e+19 3.2446206 3.6893488e+19
1.7826394 -1.0842022e-19 2.5034647
-3.6893488e+19 3.218776 -0
2.224597 -1.0842022e-19 2.4680734
-0 3.2475941 0
1.7835871 -1.0842022e-19 2.4817975
-0 3.2505977 2
-1.9150889 -2 2.4711874
2 3.2527907 0
2.0141981 3.6893488e+19 2.461165
-1.0842022e-19 3.1385241 -3.6893488e+19
-1.8779759 0 2.3433063
2 3.2299144 3.6893488e+19
2.0007854 -2 2.4106503
-1.0842022e-19 3.2537653 -0
-1.9171757 0 2.4198258
2 3.2521577 1.0842022e-19
2.0135365 3.6893488e+19 2.4030859
-2 3.2536776 -3.6893488e+19
-1.9171178 1.0842022e-19 2.3911006
2 3.2408459 -3.6893488e+19
2.0064976 -1.0842022e-19 2.3646801
-0 3.2505744 0
-1.9150735 2 2.3581181
-3.6893488e+19 3.2390976 2
2.0055842 0 2.33587
3.6893488e+19 3.2497361 3.6893488e+19
-1.9146081 -1.0842022e-19 2.3290303
0 3.2445471 0
2.0084319 1.0842022e-19 2.3118329
-3.6893488e+19 3.2521548 -2
-1.9161147 0 2.3037338
3.6893488e+19 3.2397287 2
2.005914 0 2.281311
-0 3.2523434 3.6893488e+19
-1.9162389 3.6893488e+19 2.2756667
-1.0842022e-19 3.2374682 0
2.0047328 -3.6893488e+19 2.2526829
3.6893488e+19 3.2347138 0
2.2407327 0 2.2260563
-0 3.2374444 -0
1.7803522 1.0842022e-19 2.2005272
-2 3.2166598 1.0842022e-19
2.2224545 2 2.1560016
-0 3.2435896 -3.6893488e+19
1.7823107 -3.6893488e+19 2.1509826
-1.0842022e-19 3.2182269 -1.0842022e-19
2.224041 -1.0842022e-19 2.1048954
-3.6893488e+19 3.2448137 -1.0842022e-19
1.7827009 -3.6893488e+19 2.0966659
-2 3.2198968 -1.0842022e-19
2.2257316 -2 2.053539
3.6893488e+19 3.1254771 -1.0842022e-19
1.7393348 -1.0842022e-19 1.9711047
-3.6893488e+19 3.2202044 -3.6893488e+19
2.226043 3.6893488e+19 2.0011213
-3.6893488e+19 3.26401 -0
1.7932841 1.0842022e-19 2.0019751
3.6893488e+19 3.2023132 -0
2.2079296 3.6893488e+19 1.9409653
0 3.1141057 1.0842022e-19
1.7320865 -2 1.883108
-3.6893488e+19 3.1978638 2
2.2034252 -0 1.8890119
0 3.1154358 3.6893488e+19
1.7329344 0 1.8106422
-1.0842022e-19 3.1176546 -2
1.7343487 1.0842022e-19 1.7094598
2 3.2529583 0
-1.916644 -0 1.6754009
1.0842022e-19 3.1251743 3.6893488e+19
1.9460521 -1.0842022e-19 1.4354081
0 3.2247739 -0
-1.9063858 3.6893488e+19 -1.4391351
0 3.1261697 -1.0842022e-19
1.9465722 3.6893488e+19 -1.6178542
1.0842022e-19 3.1092858 2
-1.8616904 2 -1.6961004
1.0842022e-19 3.1258349 3.6893488e+19
1.9463973 -0 -1.7695582
-2 3.1694856 -0
-1.8881744 0 -1.8330985
3.6893488e+19 3.1543365 1.0842022e-19
1.9612912 0 -1.8707795
2 3.1231391 3.6893488e+19
-1.8708167 3.6893488e+19 -1.8841923
-3.6893488e+19 3.1541169 1.0842022e-19
1.9611765 3.6893488e+19 -1.9179486
-1.0842022e-19 3.0522423 1.0842022e-19
-1.8241113 3.6893488e+19 -1.8924403
0 3.1513183 -0
1.9597139 -3.6893488e+19 -1.9616059
-2 3.053328 -0
-1.8248266 3.6893488e+19 -1.9268318
-1.0842022e-19 3.0499759 1.0842022e-19
1.9067563 3.6893488e+19 -1.9416947
-3.6893488e+19 2.9592824 1.0842022e-19
-1.7762831 -0 -1.9095318
3.6893488e+19 2.851114 -2
1.8084791 3.6893488e+19 -1.8818135
-3.6893488e+19 2.7993953 -2
1.9015565 1.0842022e-19 -1.8668996
-1.0842022e-19 2.7677231 -0
1.5456508 -1.0842022e-19 -1.855859
0 2.7180424 2
1.861927 0 -1.8403076
1.0842022e-19 2.6831763 -2
1.5130565 -1.0842022e-19 -1.8360059
2 2.6328151 -2
1.8187842 -0 -1.8225749
-0 2.6112754 1.0842022e-19
1.4802825 2 -1.8212126
2 2.5816162 2
1.7928669 -1.0842022e-19 -1.814765
0 2.568218 3.6893488e+19
1.452837 2 -1.8156674
3.6893488e+19 2.5481122 -0
1.7759069 1.0842022e-19 -1.8123463
-1.0842022e-19 2.5349066 2
1.4316039 -0 -1.811694
0 2.5143816 3.6893488e+19
1.7588322 2 -1.80602
2 2.5075955 -2
1.4141953 2 -1.8082703
-1.0842022e-19 2.4862003 -1.0842022e-19
1.7461188 1.0842022e-19 -1.8051422
1.0842022e-19 2.4693208 -0
1.3995761 -3.6893488e+19 -1.8051506
-3.6893488e+19 2.4446614 -0
1.7250915 2 -1.8022912
-0 2.3837011 3.6893488e+19
-1.5013874 -2 -1.7993588
0 2.3347094 -2
-1.4704999 0 -1.7960387
-3.6893488e+19 2.2962182 -1.0842022e-19
-1.4451427 3.6893488e+19 -1.7931933
0 2.2647343 -1.0842022e-19
-1.4244016 1.0842022e-19 -1.7904119
3.6893488e+19 2.2207525 -3.6893488e+19
1.6132989 2 -1.7858353
-1.0842022e-19 2.1778793 1.0842022e-19
1.5915962 -1.0842022e-19 -1.78352
2 2.1498194 3.6893488e+19
1.577392 3.6893488e+19 -1.7847078
3.6893488e+19 2.1218312 -3.6893488e+19
1.5632241 1.0842022e-19 -1.7843605
0 3.2324479 0
2.0021093 1.0842022e-19 2.6919315
3.6893488e+19 3.2506747 -1.0842022e-19
2.0119865 2 2.6945505
1.0842022e-19 3.2138755 -3.6893488e+19
1.992404 -0 2.6477642
1.0842022e-19 3.2519457 1.0842022e-19
-1.9159769 -2 2.6599379
-1.0842022e-19 3.2529864 1.0842022e-19
-1.9166626 -3.6893488e+19 2.6469581
1.0842022e-19 3.2425971 0
2.0074129 1.0842022e-19 2.6294553
-2 3.2822461 -0
-1.9359382 0 2.6765406
-1.0842022e-19 3.2225468 -2
1.9969354 -2 2.6003575
1.0842022e-19 3.2725589 -3.6893488e+19
-1.9295564 -0 2.6461768
2 3.220901 -2
