# .PCD v0.7 - Point Cloud Data file format
VERSION 0.7
FIELDS x y z
SIZE 4 4 4
TYPE F F F
COUNT 1 1 1
WIDTH 1712
HEIGHT 1
VIEWPOINT 0 0 0 1 0 0 0
POINTS 1712
DATA ascii
-2 2.5282757 1.0842022e-19
1.8701088 -0 -1.8064743
-3.6893488e+19 2.5095792 -0
1.920646 2 -1.802907
-0 2.5019963 2
1.8469615 0 -1.8035774
3.6893488e+19 2.4709358 0
1.9047953 -3.6893488e+19 -1.7997942
1.0842022e-19 2.4581528 3.6893488e+19
1.8267733 3.6893488e+19 -1.8002942
1.0842022e-19 2.4320803 0
1.8920236 -3.6893488e+19 -1.797694
-2 2.3833625 1.0842022e-19
1.7431504 -1.0842022e-19 -1.7983551
3.6893488e+19 2.3387148 2
1.7148322 -0 -1.7973866
0 2.3015602 1.0842022e-19
1.6912665 -1.0842022e-19 -1.7956502
-3.6893488e+19 2.2723708 3.6893488e+19
1.6727531 1.0842022e-19 -1.7947046
2 2.2344899 -3.6893488e+19
1.7842504 -2 -1.7915328
1.0842022e-19 2.1901112 -1.0842022e-19
1.7696632 -1.0842022e-19 -1.7891042
3.6893488e+19 2.1613545 -3.6893488e+19
1.760211 2 -1.7904311
3.6893488e+19 2.127845 -1.0842022e-19
1.7483932 -3.6893488e+19 -1.788084
-0 3.2990258 -0
2.3793182 -2 2.7801347
3.6893488e+19 3.2582285 -0
2.5250182 1.0842022e-19 2.7289186
-1.0842022e-19 3.2986543 2
2.3788471 -0 2.7709925
-1.0842022e-19 3.2579253 0
2.5246954 2 2.7131045
-2 3.2529979 0
2.3209314 3.6893488e+19 2.6942742
-0 3.2532253 -2
2.3212197 -1.0842022e-19 2.6798525
-3.6893488e+19 3.243047 -3.6893488e+19
2.512552 2 2.6636057
-0 3.2451162 3.6893488e+19
2.513654 -2 2.6508338
0 3.2881048 -0
2.5568368 0 2.6996453
-0 3.290849 -0
2.3689458 1.0842022e-19 2.6929371
-1.0842022e-19 3.2511804 -1.0842022e-19
2.5175118 2 2.6273785
3.6893488e+19 3.250052 -1.0842022e-19
2.51631 2 2.6111445
-3.6893488e+19 3.2757566 0
2.48578 -2 2.6153152
2 3.2581968 -1.0842022e-19
2.5894742 -2 2.58707
1.0842022e-19 3.2740259 0
2.4827309 -0 2.5972507
-2 3.2552192 -3.6893488e+19
2.5855594 -1.0842022e-19 2.5683997
1.0842022e-19 3.2575946 2
2.4537849 1.0842022e-19 2.5616324
0 3.255487 3.6893488e+19
2.5859113 0 2.5539694
2 3.2581811 1.0842022e-19
2.4548182 1.0842022e-19 2.547543
1.0842022e-19 3.2570248 -3.6893488e+19
2.5879331 1.0842022e-19 2.5409734
-0 3.2467973 -3.6893488e+19
2.4375851 -3.6893488e+19 2.5220621
0 3.2566726 -3.6893488e+19
2.5874701 0 2.5258012
3.6893488e+19 3.1641126 -0
2.2626536 1.0842022e-19 2.3933978
0 3.1916747 2
2.4703918 -1.0842022e-19 2.4093616
-2 3.1672616 0
2.2646511 0 2.372736
-0 3.1749244 -3.6893488e+19
2.4525523 -2 2.3696363
0 3.1671727 0
2.2645946 3.6893488e+19 2.3490446
-0 3.1750176 2
2.4526517 -3.6893488e+19 2.3455431
-3.6893488e+19 3.165868 -1.0842022e-19
2.4429073 -1.0842022e-19 2.3144886
3.6893488e+19 3.1680176 1.0842022e-19
2.2651305 1.0842022e-19 2.3025379
0 3.1680124 3.6893488e+19
2.4451909 -1.0842022e-19 2.2923987
-2 3.2639451 0
2.3348181 -3.6893488e+19 2.3523064
3.6893488e+19 3.1627891 3.6893488e+19
2.4396281 0 2.265363
-0 3.1623833 3.6893488e+19
2.2615569 -0 2.2519996
3.6893488e+19 3.1617725 1.0842022e-19
2.4385455 2 2.2328122
1.0842022e-19 3.1623747 2
2.2615514 3.6893488e+19 2.2076101
0 3.1807027 1.0842022e-19
2.4587064 3.6893488e+19 2.2063081
-3.6893488e+19 3.184509 3.6893488e+19
2.5356438 1.0842022e-19 2.1877818
0 3.1593192 -1.0842022e-19
2.3605332 -0 2.1363552
-2 3.1870575 1.0842022e-19
2.5373192 3.6893488e+19 2.1407819
-0 3.1582046 2
2.3595517 2 2.089354
1.0842022e-19 3.1703055 2
2.5263064 -0 2.0781631
-0 3.1591794 -3.6893488e+19
2.3604102 2 2.0441477
0 3.1681256 -1.0842022e-19
2.5248733 -1.0842022e-19 2.0290997
2 3.1596384 2
2.3608146 2 1.9984289
-3.6893488e+19 3.1564138 -2
2.3579743 2 1.9508201
2 3.2007527 -3.6893488e+19
2.5463221 -2 1.9488572
-3.6893488e+19 3.1546898 -0
2.3564558 -0 1.9045191
-1.0842022e-19 3.163862 -3.6893488e+19
2.5220704 2 1.88578
3.6893488e+19 3.1526661 -3.6893488e+19
2.3546731 -1.0842022e-19 1.8420967
2 3.161937 -3.6893488e+19
2.5208049 -3.6893488e+19 1.8021356
3.6893488e+19 3.1543496 2
2.3561561 1.0842022e-19 1.7522339
0 3.1468718 2
2.2517185 -3.6893488e+19 1.6602334
-1.0842022e-19 3.1635683 1.0842022e-19
2.4404581 1.0842022e-19 1.5246416
1.0842022e-19 3.1539199 2
2.2561889 -0 -1.2667199
-2 3.1666639 3.6893488e+19
2.4437549 -1.0842022e-19 -1.5992725
-3.6893488e+19 3.1540015 -2
2.2562406 -3.6893488e+19 -1.6985155
-0 3.1693366 0
2.4466014 1.0842022e-19 -1.7758117
-2 3.1630344 -1.0842022e-19
2.2619698 -1.0842022e-19 -1.8189247
-0 3.1723909 1.0842022e-19
2.4498544 -1.0842022e-19 -1.8719777
-2 3.1056132 1.0842022e-19
2.2011003 -3.6893488e+19 -1.8715607
-0 3.0884998 2
2.3605087 -2 -1.8870728
3.6893488e+19 3.0873034 -0
2.1778738 0 -1.9047005
-2 3.0805063 -0
2.3519955 1.0842022e-19 -1.921052
-1.0842022e-19 3.0819976 -0
2.1711435 -3.6893488e+19 -1.9394554
3.6893488e+19 2.8908141 -1.0842022e-19
2.1662242 -0 -1.8712989
1.0842022e-19 2.8420539 3.6893488e+19
1.9669499 -1.0842022e-19 -1.8585203
2 2.7816517 0
2.0499644 1.0842022e-19 -1.8342489
0 2.7500229 -3.6893488e+19
2.078727 1.0842022e-19 -1.8257632
-2 2.7136679 -2
1.9542022 -0 -1.8228438
-0 2.6542008 -2
1.9280125 1.0842022e-19 -1.8202224
-0 2.6180608 3.6893488e+19
1.9919611 2 -1.8145095
-2 2.6014581 -0
1.9047843 1.0842022e-19 -1.814545
3.6893488e+19 2.5694113 3.6893488e+19
1.9599792 1.0842022e-19 -1.807592
-2 2.559032 -2
1.8860996 -0 -1.8090906
2 2.5348132 -1.0842022e-19
1.9372345 3.6893488e+19 -1.8040005
-2 2.5282757 1.0842022e-19
1.8701088 -0 -1.8064743
-3.6893488e+19 2.5095792 -0
1.920646 2 -1.802907
-0 2.5019963 2
1.8469615 0 -1.8035774
3.6893488e+19 2.4709358 0
1.9047953 -3.6893488e+19 -1.7997942
1.0842022e-19 2.4581528 3.6893488e+19
1.8267733 3.6893488e+19 -1.8002942
1.0842022e-19 2.4320803 0
1.8920236 -3.6893488e+19 -1.797694
-2 2.3833625 1.0842022e-19
1.7431504 -1.0842022e-19 -1.7983551
3.6893488e+19 2.3387148 2
1.7148322 -0 -1.7973866
0 2.3015602 1.0842022e-19
1.6912665 -1.0842022e-19 -1.7956502
-3.6893488e+19 2.2723708 3.6893488e+19
1.6727531 1.0842022e-19 -1.7947046
2 2.2344899 -3.6893488e+19
1.7842504 -2 -1.7915328
1.0842022e-19 2.1901112 -1.0842022e-19
1.7696632 -1.0842022e-19 -1.7891042
3.6893488e+19 2.1613545 -3.6893488e+19
1.760211 2 -1.7904311
3.6893488e+19 2.127845 -1.0842022e-19
1.7483932 -3.6893488e+19 -1.788084
-2 3.2997091 -3.6893488e+19
2.3674953 3.6893488e+19 2.7807174
2 3.2582426 -1.0842022e-19
2.5195048 1.0842022e-19 2.7287786
-1.0842022e-19 3.2992322 3.6893488e+19
2.3669107 3.6893488e+19 2.7714612
1.0842022e-19 3.2580602 1.0842022e-19
2.5193145 -3.6893488e+19 2.7131858
-3.6893488e+19 3.298403 1.0842022e-19
2.3658941 0 2.76195
-1.0842022e-19 3.2498224 2
2.5108101 -3.6893488e+19 2.6838295
0 3.2987597 3.6893488e+19
2.3663311 2 2.7535217
-1.0842022e-19 3.2461002 -3.6893488e+19
2.5088677 -3.6893488e+19 2.6660225
-0 3.2454095 0
2.5085075 -0 2.6509323
-0 3.251508 1.0842022e-19
2.3083925 1.0842022e-19 2.6475408
-1.0842022e-19 3.2879155 -2
2.5504718 -1.0842022e-19 2.6991942
0 3.2890108 1.0842022e-19
2.3543773 2 2.6900473
-1.0842022e-19 3.2875502 -3.6893488e+19
2.5500906 1.0842022e-19 2.6818714
-1.0842022e-19 3.2991946 -1.0842022e-19
2.3668644 -0 2.6882403
-3.6893488e+19 3.2882519 -0
2.550823 -3.6893488e+19 2.6661716
-1.0842022e-19 3.2888632 -3.6893488e+19
2.6235542 3.6893488e+19 2.6605039
-3.6893488e+19 3.2901676 1.0842022e-19
2.6252413 1.0842022e-19 2.6454799
2 3.2613685 -1.0842022e-19
2.5879984 0 2.5910645
-2 3.2577679 -1.0842022e-19
2.5833423 -2 2.5714414
0 3.2573149 -2
2.4423351 -1.0842022e-19 2.5612049
0 3.2550471 -3.6893488e+19
2.5798235 3.6893488e+19 2.5533159
3.6893488e+19 3.2600389 3.6893488e+19
2.4470179 -2 2.5495982
-3.6893488e+19 3.2603843 2
2.447612 0 2.5351083
-0 3.2534797 0
2.5777969 -2 2.5222535
0 3.2640951 0
2.3238263 -3.6893488e+19 2.5008328
-3.6893488e+19 3.2466867 -0
2.5091739 -0 2.4601896
1.0842022e-19 3.2634859 3.6893488e+19
2.3230793 -0 2.4706423
-0 3.2459016 0
2.5087643 1.0842022e-19 2.4312291
-3.6893488e+19 3.2638698 3.6893488e+19
2.3235502 3.6893488e+19 2.4414647
1.0842022e-19 3.2462006 2
2.5089202 -1.0842022e-19 2.4032757
-1.0842022e-19 3.2667222 1.0842022e-19
2.3270478 -2 2.4161
-0 3.16629 -1.0842022e-19
2.4344449 1.0842022e-19 2.3146987
1.0842022e-19 3.2650347 -1.0842022e-19
2.3249784 -2 2.3835559
0 3.2455218 -0
2.5085659 1.0842022e-19 2.3464963
-1.0842022e-19 3.265676 -1.0842022e-19
2.3257649 2 2.3545442
-1.0842022e-19 3.2452221 0
2.5084097 2 2.3182449
-2 3.2652333 -2
2.325222 -2 2.3240917
-0 3.1608026 -3.6893488e+19
2.4287181 3.6893488e+19 2.231508
0 3.2582805 1.0842022e-19
2.3166966 0 2.2865539
-1.0842022e-19 3.1617737 -1.0842022e-19
2.4297316 -1.0842022e-19 2.1861026
1.0842022e-19 3.2512939 -1.0842022e-19
2.57497 3.6893488e+19 2.253078
1.0842022e-19 3.250392 0
2.4304345 -3.6893488e+19 2.2225533
1.0842022e-19 3.2515044 -0
2.5752423 0 2.1995575
-3.6893488e+19 3.2515275 2
2.4323869 -0 2.168087
-2 3.2525039 3.6893488e+19
2.576535 -1.0842022e-19 2.1441276
-1.0842022e-19 3.2528226 -1.0842022e-19
2.434613 3.6893488e+19 2.1133904
-3.6893488e+19 3.1669793 -3.6893488e+19
2.5196161 -0 2.0282154
-2 3.160687 -1.0842022e-19
2.3529942 -0 1.9989936
-2 3.1630499 2
2.5170755 -1.0842022e-19 1.9788632
3.6893488e+19 3.2534835 2
2.4357491 -0 2.0004344
-3.6893488e+19 3.1924345 -2
2.5360754 -2 1.9451039
1.0842022e-19 3.1568248 -1.0842022e-19
2.3496745 -1.0842022e-19 1.9052898
-2 3.1637619 0
2.5175359 -1.0842022e-19 1.8856889
0 3.1531231 -2
2.3464928 -3.6893488e+19 1.8422809
2 3.1592758 3.6893488e+19
2.5146351 -0 1.8009158
2 3.1524768 -2
2.3459373 -3.6893488e+19 1.7516083
2 3.1474516 -2
2.2373445 -3.6893488e+19 1.6604346
-0 3.1976118 0
2.4671328 -3.6893488e+19 1.5369034
1.0842022e-19 3.1509492 -0
2.2416332 0 -1.2656488
0 3.1665297 0
2.434695 -3.6893488e+19 -1.5991224
1.0842022e-19 3.1564837 -2
2.2484193 -3.6893488e+19 -1.6996942
2 3.169358 -1.0842022e-19
2.4376466 3.6893488e+19 -1.7757671
0 3.1599727 1.0842022e-19
2.2513487 -3.6893488e+19 -1.8174475
2 3.171701 2
2.4400918 0 -1.8714888
-1.0842022e-19 3.1645935 -3.6893488e+19
2.2541816 -1.0842022e-19 -1.8936975
-2 3.1898212 2
2.4590025 1.0842022e-19 -1.9280405
2 3.1687257 -1.0842022e-19
2.2567151 2 -1.9420046
-3.6893488e+19 3.0807757 -3.6893488e+19
2.3452013 2 -1.9211321
2 3.082782 -0
2.1580484 -0 -1.939864
-1.0842022e-19 2.8846948 -0
2.1514719 -0 -1.8673584
-0 2.8439918 -3.6893488e+19
1.9608967 2 -1.8597952
2 2.7846591 -1.0842022e-19
2.0470734 -3.6893488e+19 -1.8364098
0 2.7429886 2
2.0687633 3.6893488e+19 -1.822845
-1.0842022e-19 2.7105737 -2
1.9479364 -1.0842022e-19 -1.8214673
0 2.6723351 3.6893488e+19
2.0230792 -3.6893488e+19 -1.8184141
2 2.6541924 -3.6893488e+19
1.9237059 -1.0842022e-19 -1.8201624
3.6893488e+19 2.6179724 3.6893488e+19
1.9879286 -3.6893488e+19 -1.8143827
2 2.6003187 -2
1.9005531 -1.0842022e-19 -1.8138764
-2 2.5681942 -2
1.9557424 -3.6893488e+19 -1.8068182
-2 2.5588725 -3.6893488e+19
1.8827412 0 -1.808943
3.6893488e+19 2.5346892 -2
1.9340782 -1.0842022e-19 -1.8038459
2 2.5284793 -0
1.8643589 0 -1.8065552
-0 2.5098135 -3.6893488e+19
1.9179938 0 -1.8029913
-3.6893488e+19 2.5020683 0
1.8416582 0 -1.8035774
-0 2.4738412 -1.0842022e-19
1.9031913 -1.0842022e-19 -1.8007972
-3.6893488e+19 2.4582837 3.6893488e+19
1.8219523 3.6893488e+19 -1.8002942
-2 3.2997091 -3.6893488e+19
2.3674953 3.6893488e+19 2.7807174
2 3.2582426 -1.0842022e-19
2.5195048 1.0842022e-19 2.7287786
-1.0842022e-19 3.2992322 3.6893488e+19
2.3669107 3.6893488e+19 2.7714612
1.0842022e-19 3.2580602 1.0842022e-19
2.5193145 -3.6893488e+19 2.7131858
3.6893488e+19 3.2529585 0
2.3101711 -3.6893488e+19 2.6941137
-1.0842022e-19 3.2498224 2
2.5108101 -3.6893488e+19 2.6838295
0 3.2987597 3.6893488e+19
2.3663311 2 2.7535217
-1.0842022e-19 3.2461002 -3.6893488e+19
2.5088677 -3.6893488e+19 2.6660225
-0 3.2454095 0
2.5085075 -0 2.6509323
-0 3.251508 1.0842022e-19
2.3083925 1.0842022e-19 2.6475408
-1.0842022e-19 3.2879155 -2
2.5504718 -1.0842022e-19 2.6991942
-2 3.2537758 -2
2.3111732 -0 2.6363988
2 3.2505364 0
2.5114627 3.6893488e+19 2.6262803
-1.0842022e-19 3.2991946 -1.0842022e-19
2.3668644 -0 2.6882403
2 3.2509775 -2
2.5119228 -3.6893488e+19 2.6123555
-1.0842022e-19 3.2888632 -3.6893488e+19
2.6235542 3.6893488e+19 2.6605039
-3.6893488e+19 3.2901676 1.0842022e-19
2.6252413 1.0842022e-19 2.6454799
2 3.2613685 -1.0842022e-19
2.5879984 0 2.5910645
-2 3.2577679 -1.0842022e-19
2.5833423 -2 2.5714414
0 3.2573149 -2
2.4423351 -1.0842022e-19 2.5612049
0 3.2550471 -3.6893488e+19
2.5798235 3.6893488e+19 2.5533159
3.6893488e+19 3.2600389 3.6893488e+19
2.4470179 -2 2.5495982
3.6893488e+19 3.2503631 -1.0842022e-19
2.4303849 -0 2.5241354
-0 3.2534797 0
2.5777969 -2 2.5222535
-2 3.1637332 -3.6893488e+19
2.2536542 0 2.392957
0 3.176343 0
2.4449363 -2 2.3950145
1.0842022e-19 3.1626093 3.6893488e+19
2.2529652 -1.0842022e-19 2.3685043
0 3.1759961 -1.0842022e-19
2.4445741 -2 2.37044
-0 3.1658325 0
2.2549415 -0 2.347852
-3.6893488e+19 3.1757815 2
2.4443505 -3.6893488e+19 2.3460443
0 3.1675203 -2
2.255976 1.0842022e-19 2.3256762
-0 3.16629 -1.0842022e-19
2.4344449 1.0842022e-19 2.3146987
-1.0842022e-19 3.168786 -3.6893488e+19
2.256752 2 2.3030319
2 3.1663358 -2
2.4344926 -0 2.2911251
-2 3.1652198 3.6893488e+19
2.2545657 -3.6893488e+19 2.2770548
-0 3.1633646 -1.0842022e-19
2.431392 -1.0842022e-19 2.2656407
-2 3.1649222 3.6893488e+19
2.2543833 0 2.2534993
-0 3.1608026 -3.6893488e+19
2.4287181 3.6893488e+19 2.231508
1.0842022e-19 3.1643865 2
2.2540548 -1.0842022e-19 2.2097483
-1.0842022e-19 3.1617737 -1.0842022e-19
2.4297316 -1.0842022e-19 2.1861026
-3.6893488e+19 3.1749349 3.6893488e+19
2.5247602 0 2.1779521
1.0842022e-19 3.159126 -3.6893488e+19
2.3516524 -3.6893488e+19 2.1360624
1.0842022e-19 3.2515044 -0
2.5752423 0 2.1995575
3.6893488e+19 3.159997 -3.6893488e+19
2.352401 2 2.0907466
0 3.1695921 3.6893488e+19
2.5213056 3.6893488e+19 2.0774658
-3.6893488e+19 3.15821 1.0842022e-19
2.3508654 -0 2.0433669
-3.6893488e+19 3.1669793 -3.6893488e+19
2.5196161 -0 2.0282154
-2 3.160687 -1.0842022e-19
2.3529942 -0 1.9989936
-2 3.1630499 2
2.5170755 -1.0842022e-19 1.9788632
-1.0842022e-19 3.1602259 2
2.352598 -3.6893488e+19 1.9526457
0 3.1635394 2
2.5173919 3.6893488e+19 1.9323617
1.0842022e-19 3.1568248 -1.0842022e-19
2.3496745 -1.0842022e-19 1.9052898
-2 3.1637619 0
2.5175359 -1.0842022e-19 1.8856889
0 3.1531231 -2
2.3464928 -3.6893488e+19 1.8422809
2 3.1592758 3.6893488e+19
2.5146351 -0 1.8009158
2 3.1524768 -2
2.3459373 -3.6893488e+19 1.7516083
2 3.1474516 -2
2.2373445 -3.6893488e+19 1.6604346
-2 3.1660976 -2
2.4342442 -2 1.5255046
1.0842022e-19 3.1509492 -0
2.2416332 0 -1.2656488
0 3.1665297 0
2.434695 -3.6893488e+19 -1.5991224
1.0842022e-19 3.1564837 -2
2.2484193 -3.6893488e+19 -1.6996942
2 3.169358 -1.0842022e-19
2.4376466 3.6893488e+19 -1.7757671
0 3.1599727 1.0842022e-19
2.2513487 -3.6893488e+19 -1.8174475
2 3.171701 2
2.4400918 0 -1.8714888
-3.6893488e+19 3.1039417 1.0842022e-19
2.1839941 -3.6893488e+19 -1.8703514
2 3.0919318 -3.6893488e+19
2.3568437 2 -1.8884146
-3.6893488e+19 3.0869052 -2
2.1631043 -3.6893488e+19 -1.9044862
-3.6893488e+19 3.0807757 -3.6893488e+19
2.3452013 2 -1.9211321
2 3.082782 -0
2.1580484 -0 -1.939864
-1.0842022e-19 2.8846948 -0
2.1514719 -0 -1.8673584
-0 2.8439918 -3.6893488e+19
1.9608967 2 -1.8597952
2 2.7846591 -1.0842022e-19
2.0470734 -3.6893488e+19 -1.8364098
0 2.7429886 2
2.0687633 3.6893488e+19 -1.822845
-1.0842022e-19 2.7105737 -2
1.9479364 -1.0842022e-19 -1.8214673
0 2.6723351 3.6893488e+19
2.0230792 -3.6893488e+19 -1.8184141
2 2.6541924 -3.6893488e+19
1.9237059 -1.0842022e-19 -1.8201624
3.6893488e+19 2.6179724 3.6893488e+19
1.9879286 -3.6893488e+19 -1.8143827
2 2.6003187 -2
1.9005531 -1.0842022e-19 -1.8138764
-2 2.5681942 -2
1.9557424 -3.6893488e+19 -1.8068182
-2 2.5588725 -3.6893488e+19
1.8827412 0 -1.808943
3.6893488e+19 2.5346892 -2
1.9340782 -1.0842022e-19 -1.8038459
2 2.5284793 -0
1.8643589 0 -1.8065552
-0 2.5098135 -3.6893488e+19
1.9179938 0 -1.8029913
-3.6893488e+19 2.5020683 0
1.8416582 0 -1.8035774
-0 2.4738412 -1.0842022e-19
1.9031913 -1.0842022e-19 -1.8007972
-3.6893488e+19 2.4582837 3.6893488e+19
1.8219523 3.6893488e+19 -1.8002942
-0 3.2966924 3.6893488e+19
2.351285 1.0842022e-19 2.769104
1.0842022e-19 3.257376 -2
2.5131142 1.0842022e-19 2.7118015
2 3.2988427 -0
2.3538308 -3.6893488e+19 2.7622838
-1.0842022e-19 3.2520261 0
2.5076454 3.6893488e+19 2.6873531
-0 3.2987423 3.6893488e+19
2.3537121 0 2.7534571
3.6893488e+19 3.242171 -0
2.5015721 0 2.6625881
2 3.2954199 0
2.3497784 3.6893488e+19 2.7340405
-2 3.2463064 -1.0842022e-19
2.503686 3.6893488e+19 2.6515224
-0 3.2965977 2
2.3511729 -0 2.7187183
1.0842022e-19 3.2871609 1.0842022e-19
2.5435634 2 2.6978652
0 3.2551427 0
2.3020899 0 2.6384032
-2 3.2876475 2
2.5440609 1.0842022e-19 2.6818714
-1.0842022e-19 3.2968316 0
2.35145 -3.6893488e+19 2.6846933
2 3.2878919 -1.0842022e-19
2.5443106 0 2.6655111
-2 3.2889845 -3.6893488e+19
2.6174967 3.6893488e+19 2.6605039
-3.6893488e+19 3.269968 3.6893488e+19
2.4526391 -1.0842022e-19 2.623013
1.0842022e-19 3.2901375 -2
2.6189628 -0 2.6452725
3.6893488e+19 3.2587457 -0
2.5790424 -3.6893488e+19 2.572525
-2 3.2604752 1.0842022e-19
2.436723 0 2.5649397
0 3.2544978 -0
2.5736403 1.0842022e-19 2.5525355
-0 3.2606342 0
2.4369895 -0 2.5502007
0 3.2608881 -3.6893488e+19
2.4374149 -0 2.5355802
0 3.2533722 -3.6893488e+19
2.5722089 3.6893488e+19 2.5220237
1.0842022e-19 3.2515178 -2
2.5698507 1.0842022e-19 2.5055921
-0 3.2649672 -3.6893488e+19
2.3137221 3.6893488e+19 2.5016117
-1.0842022e-19 3.2556181 0
2.5113175 -2 2.4735098
0 3.2632592 1.0842022e-19
2.3116999 -0 2.4701445
-2 3.2583437 -3.6893488e+19
2.5141037 -1.0842022e-19 2.4491522
2 3.2638445 0
2.312393 -1.0842022e-19 2.441335
3.6893488e+19 3.2583466 -2
2.5141065 -3.6893488e+19 2.4197886
-2 3.2677829 2
2.3170562 -2 2.4176724
0 3.2591391 -0
2.5149167 0 2.391665
-1.0842022e-19 3.2651024 3.6893488e+19
2.3138824 -3.6893488e+19 2.3835783
3.6893488e+19 3.1662605 2
2.4255414 -2 2.2909739
-1.0842022e-19 3.2657285 -0
2.3146236 2 2.3545442
-3.6893488e+19 3.1643078 1.0842022e-19
2.4235454 3.6893488e+19 2.2661569
3.6893488e+19 3.2660315 1.0842022e-19
2.3149824 3.6893488e+19 2.3250029
3.6893488e+19 3.1624875 3.6893488e+19
2.4216843 3.6893488e+19 2.2333193
2 3.2619846 -2
2.3101907 3.6893488e+19 2.290606
-1.0842022e-19 3.1620677 3.6893488e+19
2.4212551 3.6893488e+19 2.1862664
-3.6893488e+19 3.2513685 -2
2.5696611 3.6893488e+19 2.253047
-3.6893488e+19 3.2589316 0
2.4341352 2 2.2385345
-0 3.2512403 1.0842022e-19
2.5694981 -3.6893488e+19 2.1988966
-0 3.2514424 -2
2.4215782 0 2.1678293
1.0842022e-19 3.2518549 0
2.5702796 1.0842022e-19 2.1429493
1.0842022e-19 3.1604972 -0
2.3441277 0 2.0449286
0 3.1719344 0
2.5182834 -2 2.0314031
3.6893488e+19 3.2561646 -3.6893488e+19
2.4294953 -0 2.0605314
-1.0842022e-19 3.1686213 -2
2.5161767 -2 1.9818528
1.0842022e-19 3.2571266 -2
2.4311082 2 2.003963
2 3.192744 -1.0842022e-19
2.5315149 0 1.9451584
0 3.1550426 3.6893488e+19
2.339555 2 1.9045665
1.0842022e-19 3.1911201 -3.6893488e+19
2.5304823 1.0842022e-19 1.8946
3.6893488e+19 3.1532352 3.6893488e+19
2.3380399 -3.6893488e+19 1.8422809
1.0842022e-19 3.2427075 -2
2.5632837 -1.0842022e-19 1.8366877
-2 3.1555722 -3.6893488e+19
2.339999 -2 1.7525465
2 3.1874826 2
2.2589905 -1.0842022e-19 1.6765586
3.6893488e+19 3.1616819 0
2.4208608 -1.0842022e-19 1.523857
1.0842022e-19 3.1891117 3.6893488e+19
2.2599549 3.6893488e+19 -1.2790054
-0 3.1648107 -2
2.4240592 0 -1.5981221
-0 3.1545382 3.6893488e+19
2.2289748 -2 -1.6986992
0 3.1671443 -0
2.4264448 2 -1.7749205
-1.0842022e-19 3.1037135 -1.0842022e-19
2.1687982 -0 -1.791006
-0 3.1877429 2
2.4475029 -3.6893488e+19 -1.8778894
0 3.1660464 3.6893488e+19
2.2426004 -2 -1.8941725
0 3.1899703 0
2.4497797 1.0842022e-19 -1.9280405
2 3.165849 2
2.2423668 -3.6893488e+19 -1.9406477
-1.0842022e-19 3.0807328 2
2.3381069 1.0842022e-19 -1.921052
-3.6893488e+19 3.0815706 -2
2.142581 3.6893488e+19 -1.9391357
2 2.8845773 2
2.1431518 2 -1.8672024
1.0842022e-19 2.842067 -1.0842022e-19
1.9525043 -0 -1.8584353
0 2.7810397 -1.0842022e-19
2.0373056 0 -1.8336512
-3.6893488e+19 2.7500501 3.6893488e+19
2.0679846 -0 -1.8256148
-0 2.7159159 2
1.9452932 2 -1.8236909
2 2.6727591 -0
2.0188076 -0 -1.818527
2 2.654429 -1.0842022e-19
1.9195203 1.0842022e-19 -1.8202224
0 2.6181271 3.6893488e+19
1.9840704 -3.6893488e+19 -1.8143827
2 2.6005402 -2
1.8969322 -1.0842022e-19 -1.8139433
-0 2.5680816 2
1.9522495 -3.6893488e+19 -1.8066776
1.0842022e-19 2.5587106 -2
1.8793989 -1.0842022e-19 -1.8087953
-3.6893488e+19 2.5377626 -1.0842022e-19
1.9329715 -3.6893488e+19 -1.8057008
0 2.5290525 -3.6893488e+19
1.858935 -3.6893488e+19 -1.8068781
-2 2.5113988 2
1.9162083 3.6893488e+19 -1.804002
1.0842022e-19 2.5027578 0
1.8368918 -3.6893488e+19 -1.8040159
1.0842022e-19 2.4772367 -1.0842022e-19
1.9017234 1.0842022e-19 -1.8019826
-1.0842022e-19 2.4584112 -1.0842022e-19
1.8171475 3.6893488e+19 -1.8002942
-3.6893488e+19 2.4349041 -1.0842022e-19
1.888265 0 -1.7986753
-1.0842022e-19 2.3810394 -3.6893488e+19
1.725576 -0 -1.7972353
-0 2.3366251 2
1.6992828 -0 -1.7962542
0 2.3041503 -0
1.6800575 2 -1.7970468
2 2.2729733 -0
1.6616007 3.6893488e+19 -1.7950114
0 2.2349014 -1.0842022e-19
1.7791601 -2 -1.7915328
-0 2.1948557 3.6893488e+19
1.7664288 3.6893488e+19 -1.7907326
-0 2.1607351 -3.6893488e+19
1.7555811 0 -1.7900419
1.0842022e-19 2.1267171 0
1.7395324 2 -1.7874593
-0 3.2966924 3.6893488e+19
2.351285 1.0842022e-19 2.769104
1.0842022e-19 3.257376 -2
2.5131142 1.0842022e-19 2.7118015
3.6893488e+19 3.2562356 -3.6893488e+19
2.3033838 1.0842022e-19 2.6997786
-1.0842022e-19 3.2412941 -1.0842022e-19
2.5011239 -1.0842022e-19 2.6762831
-0 3.2987423 3.6893488e+19
2.3537121 0 2.7534571
3.6893488e+19 3.242171 -0
2.5015721 0 2.6625881
2 3.2954199 0
2.3497784 3.6893488e+19 2.7340405
-2 3.2463064 -1.0842022e-19
2.503686 3.6893488e+19 2.6515224
-1.0842022e-19 3.2528877 -0
2.2994201 -0 2.6496427
1.0842022e-19 3.2871609 1.0842022e-19
2.5435634 2 2.6978652
0 3.2551427 0
2.3020899 0 2.6384032
0 3.2488351 -0
2.5049784 2 2.6244731
-1.0842022e-19 3.2968316 0
2.35145 -3.6893488e+19 2.6846933
-0 3.2511845 1.0842022e-19
2.5067849 -1.0842022e-19 2.6125317
-2 3.2889845 -3.6893488e+19
2.6174967 3.6893488e+19 2.6605039
0 3.2465014 -1.0842022e-19
2.4162266 3.6893488e+19 2.5930061
1.0842022e-19 3.2901375 -2
2.6189628 -0 2.6452725
3.6893488e+19 3.2587457 -0
2.5790424 -3.6893488e+19 2.572525
-2 3.2604752 1.0842022e-19
2.436723 0 2.5649397
0 3.2544978 -0
2.5736403 1.0842022e-19 2.5525355
-0 3.2606342 0
2.4369895 -0 2.5502007
0 3.2608881 -3.6893488e+19
2.4374149 -0 2.5355802
0 3.2533722 -3.6893488e+19
2.5722089 3.6893488e+19 2.5220237
1.0842022e-19 3.2515178 -2
2.5698507 1.0842022e-19 2.5055921
2 3.1646197 -1.0842022e-19
2.2409112 0 2.3937211
-3.6893488e+19 3.1760559 -2
2.4355552 0 2.3946154
-0 3.1652305 3.6893488e+19
2.2416346 0 2.3707724
2 3.1764483 -3.6893488e+19
2.4359562 -0 2.370708
-1.0842022e-19 3.1651087 3.6893488e+19
2.2414904 -0 2.347178
3.6893488e+19 3.1755865 2
2.4350753 -2 2.3457687
-2 3.1663618 -1.0842022e-19
2.242974 -1.0842022e-19 2.3247085
1.0842022e-19 3.1659989 -0
2.4252739 -0 2.3143721
2 3.1671927 3.6893488e+19
2.2439578 2 2.3018193
3.6893488e+19 3.1662605 2
2.4255414 -2 2.2909739
-3.6893488e+19 3.1675689 -0
2.2444034 -2 2.2785673
-3.6893488e+19 3.1643078 1.0842022e-19
2.4235454 3.6893488e+19 2.2661569
-3.6893488e+19 3.1670861 -3.6893488e+19
2.2438316 2 2.254771
3.6893488e+19 3.1624875 3.6893488e+19
2.4216843 3.6893488e+19 2.2333193
3.6893488e+19 3.1701889 0
2.2475054 1.0842022e-19 2.216094
-1.0842022e-19 3.1620677 3.6893488e+19
2.4212551 3.6893488e+19 2.1862664
-3.6893488e+19 3.1733885 -0
2.519208 -1.0842022e-19 2.1762154
-3.6893488e+19 3.2589316 0
2.4341352 2 2.2385345
-0 3.1702027 1.0842022e-19
2.5171824 1.0842022e-19 2.1253929
1.0842022e-19 3.1595213 2
2.3433096 1.0842022e-19 2.0902567
-1.0842022e-19 3.1691518 -0
2.5165141 0 2.0769849
1.0842022e-19 3.1604972 -0
2.3441277 0 2.0449286
0 3.1719344 0
2.5182834 -2 2.0314031
-1.0842022e-19 3.1543412 -0
2.3389671 -3.6893488e+19 1.9950781
-1.0842022e-19 3.1686213 -2
2.5161767 -2 1.9818528
1.0842022e-19 3.2571266 -2
2.4311082 2 2.003963
-3.6893488e+19 3.1630034 -0
2.5126047 -1.0842022e-19 1.9320489
0 3.1550426 3.6893488e+19
2.339555 2 1.9045665
-0 3.1664042 -3.6893488e+19
2.5147669 -0 1.8864981
3.6893488e+19 3.1532352 3.6893488e+19
2.3380399 -3.6893488e+19 1.8422809
1.0842022e-19 3.1589231 2
2.5100102 -2 1.8006904
-2 3.1555722 -3.6893488e+19
2.339999 -2 1.7525465
2 3.1506777 -0
2.2244039 -3.6893488e+19 1.6617049
3.6893488e+19 3.1616819 0
2.4208608 -1.0842022e-19 1.523857
0 3.1505921 3.6893488e+19
2.2243025 3.6893488e+19 -1.2654958
-0 3.1648107 -2
2.4240592 0 -1.5981221
-0 3.1545382 3.6893488e+19
2.2289748 -2 -1.6986992
0 3.1671443 -0
2.4264448 2 -1.7749205
-1.0842022e-19 3.1037135 -1.0842022e-19
2.1687982 -0 -1.791006
-0 3.1877429 2
2.4475029 -3.6893488e+19 -1.8778894
-3.6893488e+19 3.102329 -0
2.1671591 1.0842022e-19 -1.8691854
-3.6893488e+19 3.0940926 -3.6893488e+19
2.3517644 -3.6893488e+19 -1.8892422
-1.0842022e-19 3.0867226 -1.0842022e-19
2.1486809 -0 -1.904372
-1.0842022e-19 3.0807328 2
2.3381069 1.0842022e-19 -1.921052
-3.6893488e+19 3.0815706 -2
2.142581 3.6893488e+19 -1.9391357
2 2.8845773 2
2.1431518 2 -1.8672024
1.0842022e-19 2.842067 -1.0842022e-19
1.9525043 -0 -1.8584353
0 2.7810397 -1.0842022e-19
2.0373056 0 -1.8336512
-3.6893488e+19 2.7500501 3.6893488e+19
2.0679846 -0 -1.8256148
-0 2.7159159 2
1.9452932 2 -1.8236909
2 2.6727591 -0
2.0188076 -0 -1.818527
2 2.654429 -1.0842022e-19
1.9195203 1.0842022e-19 -1.8202224
0 2.6181271 3.6893488e+19
1.9840704 -3.6893488e+19 -1.8143827
2 2.6005402 -2
1.8969322 -1.0842022e-19 -1.8139433
-0 2.5680816 2
1.9522495 -3.6893488e+19 -1.8066776
1.0842022e-19 2.5587106 -2
1.8793989 -1.0842022e-19 -1.8087953
-3.6893488e+19 2.5377626 -1.0842022e-19
1.9329715 -3.6893488e+19 -1.8057008
0 2.5290525 -3.6893488e+19
1.858935 -3.6893488e+19 -1.8068781
-2 2.5113988 2
1.9162083 3.6893488e+19 -1.804002
1.0842022e-19 2.5027578 0
1.8368918 -3.6893488e+19 -1.8040159
1.0842022e-19 2.4772367 -1.0842022e-19
1.9017234 1.0842022e-19 -1.8019826
-1.0842022e-19 2.4584112 -1.0842022e-19
1.8171475 3.6893488e+19 -1.8002942
-3.6893488e+19 2.4349041 -1.0842022e-19
1.888265 0 -1.7986753
-1.0842022e-19 2.3810394 -3.6893488e+19
1.725576 -0 -1.7972353
-0 2.3366251 2
1.6992828 -0 -1.7962542
0 2.3041503 -0
1.6800575 2 -1.7970468
2 2.2729733 -0
1.6616007 3.6893488e+19 -1.7950114
0 2.2349014 -1.0842022e-19
1.7791601 -2 -1.7915328
-0 2.1948557 3.6893488e+19
1.7664288 3.6893488e+19 -1.7907326
-0 2.1607351 -3.6893488e+19
1.7555811 0 -1.7900419
1.0842022e-19 2.1267171 0
1.7395324 2 -1.7874593
0 3.2991548 0
2.3424232 -0 2.762511
-3.6893488e+19 3.240355 -2
2.4915328 -0 2.6753366
1.0842022e-19 3.2957003 -1.0842022e-19
2.338469 3.6893488e+19 2.7508314
3.6893488e+19 3.2398341 1.0842022e-19
2.4910107 -1.0842022e-19 2.6605017
-2 3.2953961 -2
2.3381209 -3.6893488e+19 2.7339153
-1.0842022e-19 3.2959318 -1.0842022e-19
2.3387341 -0 2.7175827
0 3.2870672 0
2.5377567 -2 2.6975803
-2 3.2952592 -2
2.3379643 -0 2.6993926
0 3.2861211 3.6893488e+19
2.5368083 2 2.6794465
-1.0842022e-19 3.2977431 3.6893488e+19
2.3408074 -0 2.6859505
-3.6893488e+19 3.2872026 1.0842022e-19
2.5378926 -2 2.6643879
1.0842022e-19 3.2917116 -1.0842022e-19
2.6151106 -0 2.6642175
1.0842022e-19 3.2685506 -1.0842022e-19
2.4396329 1.0842022e-19 2.6209605
-3.6893488e+19 3.2919848 -3.6893488e+19
2.6154528 -0 2.6476359
-1.0842022e-19 3.2614088 1.0842022e-19
2.5771835 0 2.5757191
0 3.2538476 -1.0842022e-19
2.5677195 0 2.5516462
-1.0842022e-19 3.2619619 1.0842022e-19
2.4288471 -0 2.5516536
3.6893488e+19 3.2510738 -3.6893488e+19
2.5642478 -0 2.5338857
-1.0842022e-19 3.2609849 -0
2.4272475 -3.6893488e+19 2.5356138
-0 3.2531638 -1.0842022e-19
2.5668638 -1.0842022e-19 2.5216951
0 3.2514617 -2
2.5647333 -1.0842022e-19 2.5054364
2 3.2648752 -2
2.3031855 -1.0842022e-19 2.5014794
-3.6893488e+19 3.2560823 -2
2.5066974 -1.0842022e-19 2.4742229
1.0842022e-19 3.262671 3.6893488e+19
2.3006625 3.6893488e+19 2.4690106
-3.6893488e+19 3.2567127 0
2.5073295 -0 2.4461784
-3.6893488e+19 3.2632093 -3.6893488e+19
2.3012788 -0 2.4401944
-1.0842022e-19 3.2586579 3.6893488e+19
2.5092793 -0 2.4201646
-3.6893488e+19 3.2685752 1.0842022e-19
2.307421 0 2.4188337
2 3.1656029 1.0842022e-19
2.4166012 -0 2.3139756
-2 3.2657239 2
2.3041573 -2 2.3844092
-3.6893488e+19 3.2590578 -2
2.50968 0 2.3620608
-3.6893488e+19 3.2667232 -0
2.305301 1.0842022e-19 2.355808
0 3.2591155 3.6893488e+19
2.5097377 -2 2.3328152
-0 3.1668186 -3.6893488e+19
2.2271054 -0 2.2545621
2 3.2575212 -0
2.5081396 -0 2.3016489
2 3.2630575 0
2.301105 -2 2.291744
3.6893488e+19 3.256222 -0
2.5068374 2 2.2711847
-2 3.2508955 0
2.5640249 2 2.2524734
-2 3.2564836 1.0842022e-19
2.4198787 -1.0842022e-19 2.2337928
-1.0842022e-19 3.2513218 -2
2.5645583 2 2.1988692
1.0842022e-19 3.2563961 2
2.4197352 1.0842022e-19 2.1759527
-0 3.1692519 -0
2.5123711 2 2.0769367
-2 3.1563463 3.6893488e+19
2.3326063 -1.0842022e-19 2.0418723
2 3.1704314 2
2.5131092 -2 2.0302925
2 3.2565868 1.0842022e-19
2.4200475 -0 2.0609643
2 3.1680424 -1.0842022e-19
2.5116141 -0 1.9814428
-2 3.2749188 3.6893488e+19
2.4500582 0 2.0214677
3.6893488e+19 3.1978221 2
2.5302505 0 1.9473206
-1.0842022e-19 3.1537466 0
2.3304784 3.6893488e+19 1.9040329
3.6893488e+19 3.1964762 -1.0842022e-19
2.5294082 -1.0842022e-19 1.8962992
3.6893488e+19 3.1533685 -0
2.3301687 2 1.8422977
-0 3.1963739 1.0842022e-19
2.5293443 -0 1.8167069
0 3.1547115 1.0842022e-19
2.3312681 1.0842022e-19 1.7522436
-1.0842022e-19 3.1802044 -0
2.2424273 3.6893488e+19 1.6735904
2 3.1619024 -3.6893488e+19
2.4128916 -1.0842022e-19 1.5238906
-1.0842022e-19 3.1828623 -3.6893488e+19
2.2454696 -1.0842022e-19 -1.2767866
2 3.232163 -1.0842022e-19
2.483321 -0 -1.6296349
1.0842022e-19 3.1538622 -0
2.212275 0 -1.698332
-1.0842022e-19 3.1546099 -1.0842022e-19
2.213131 2 -1.814859
0 3.1876307 -2
2.4386816 2 -1.877817
-1.0842022e-19 3.1511309 1.0842022e-19
2.2091489 -1.0842022e-19 -1.8889792
0 3.1908505 1.0842022e-19
2.4419093 -2 -1.9283414
3.6893488e+19 3.0883405 2
2.1372766 -1.0842022e-19 -1.905086
2 3.0810523 2
2.3318474 1.0842022e-19 -1.9211642
-2 3.0812559 0
2.1291676 -3.6893488e+19 -1.9389224
-2 2.8869891 3.6893488e+19
2.1379187 -1.0842022e-19 -1.8686459
1.0842022e-19 2.8440588 0
1.946911 -2 -1.8597527
3.6893488e+19 2.7818081 3.6893488e+19
2.032485 -2 -1.8341569
3.6893488e+19 2.7500234 1.0842022e-19
2.0629332 -2 -1.8255159
-3.6893488e+19 2.716779 3.6893488e+19
1.9410361 -3.6893488e+19 -1.8240085
2 2.6732922 2
2.0148995 3.6893488e+19 -1.8186963
0 2.6542833 0
1.9154588 1.0842022e-19 -1.8201026
2 2.6151879 2
1.9785374 -3.6893488e+19 -1.8127981
3.6893488e+19 2.6013734 3.6893488e+19
1.8938047 -1.0842022e-19 -1.8143444
0 2.5709147 0
1.9508309 2 -1.808225
0 2.5584168 2
1.876224 1.0842022e-19 -1.808574
0 2.5376277 -0
1.9299996 2 -1.8055463
-0 2.529371 3.6893488e+19
1.8536733 -3.6893488e+19 -1.8070396
0 2.5114999 3.6893488e+19
1.9136486 3.6893488e+19 -1.804002
2 2.5026979 1.0842022e-19
1.8318406 2 -1.8039283
-2 2.4752071 3.6893488e+19
1.8986942 1.0842022e-19 -1.801162
-3.6893488e+19 2.4590225 2
1.8128617 3.6893488e+19 -1.8004835
0 3.2991548 0
2.3424232 -0 2.762511
-3.6893488e+19 3.240355 -2
2.4915328 -0 2.6753366
1.0842022e-19 3.2957003 -1.0842022e-19
2.338469 3.6893488e+19 2.7508314
3.6893488e+19 3.2398341 1.0842022e-19
2.4910107 -1.0842022e-19 2.6605017
-2 3.2953961 -2
2.3381209 -3.6893488e+19 2.7339153
-1.0842022e-19 3.2508073 0
2.2870831 -1.0842022e-19 2.6462843
0 3.2870672 0
2.5377567 -2 2.6975803
-2 3.2952592 -2
2.3379643 -0 2.6993926
0 3.2861211 3.6893488e+19
2.5368083 2 2.6794465
-1.0842022e-19 3.2977431 3.6893488e+19
2.3408074 -0 2.6859505
-3.6893488e+19 3.2872026 1.0842022e-19
2.5378926 -2 2.6643879
1.0842022e-19 3.2917116 -1.0842022e-19
2.6151106 -0 2.6642175
1.0842022e-19 3.2685506 -1.0842022e-19
2.4396329 1.0842022e-19 2.6209605
-3.6893488e+19 3.2919848 -3.6893488e+19
2.6154528 -0 2.6476359
1.0842022e-19 3.2533681 -2
2.5671194 -1.0842022e-19 2.5657001
0 3.2538476 -1.0842022e-19
2.5677195 0 2.5516462
-1.0842022e-19 3.2619619 1.0842022e-19
2.4288471 -0 2.5516536
3.6893488e+19 3.2510738 -3.6893488e+19
2.5642478 -0 2.5338857
-1.0842022e-19 3.2609849 -0
2.4272475 -3.6893488e+19 2.5356138
-0 3.2531638 -1.0842022e-19
2.5668638 -1.0842022e-19 2.5216951
0 3.2514617 -2
2.5647333 -1.0842022e-19 2.5054364
-2 3.1647553 -0
2.2247438 -0 2.3937798
-3.6893488e+19 3.2560823 -2
2.5066974 -1.0842022e-19 2.4742229
-3.6893488e+19 3.1642821 -1.0842022e-19
2.2242022 -3.6893488e+19 2.3698595
1.0842022e-19 3.1767654 -0
2.4277904 -1.0842022e-19 2.3708687
0 3.1663609 -1.0842022e-19
2.2265813 3.6893488e+19 2.3481631
-1.0842022e-19 3.1769831 1.0842022e-19
2.4280088 -3.6893488e+19 2.346796
-0 3.1681113 1.0842022e-19
2.2285852 -1.0842022e-19 2.3260148
2 3.1656029 1.0842022e-19
2.4166012 -0 2.3139756
2 3.1668634 -2
2.2271566 -3.6893488e+19 2.3015273
-1.0842022e-19 3.1649375 -2
2.4159341 2 2.2899594
-3.6893488e+19 3.2667232 -0
2.305301 1.0842022e-19 2.355808
2 3.1653018 1.0842022e-19
2.4162993 -1.0842022e-19 2.2667127
-0 3.1668186 -3.6893488e+19
2.2271054 -0 2.2545621
3.6893488e+19 3.1661408 -1.0842022e-19
2.4171402 -0 2.2374489
3.6893488e+19 3.1681492 -3.6893488e+19
2.2286284 0 2.2137489
0 3.1635878 -0
2.4145811 3.6893488e+19 2.1877401
1.0842022e-19 3.1676972 3.6893488e+19
2.5113981 1.0842022e-19 2.1703238
-2 3.1626952 -3.6893488e+19
2.3378029 3.6893488e+19 2.1392236
-1.0842022e-19 3.1673746 0
2.5111964 -2 2.1227224
2 3.1591284 2
2.3348835 3.6893488e+19 2.089844
-0 3.1692519 -0
2.5123711 2 2.0769367
-2 3.1563463 3.6893488e+19
2.3326063 -1.0842022e-19 2.0418723
2 3.1704314 2
2.5131092 -2 2.0302925
-2 3.1571774 -2
2.3332865 0 1.9967347
2 3.1680424 -1.0842022e-19
2.5116141 -0 1.9814428
3.6893488e+19 3.1541052 -2
2.3307717 3.6893488e+19 1.9495161
-0 3.1619284 -1.0842022e-19
2.5077879 -1.0842022e-19 1.931505
-1.0842022e-19 3.1537466 0
2.3304784 3.6893488e+19 1.9040329
0 3.1638179 -2
2.5089703 0 1.8855979
3.6893488e+19 3.1533685 -0
2.3301687 2 1.8422977
-1.0842022e-19 3.1591735 -0
2.5060639 3.6893488e+19 1.8007302
0 3.1547115 1.0842022e-19
2.3312681 1.0842022e-19 1.7522436
-2 3.1596947 -0
2.2189512 0 1.6653147
2 3.1619024 -3.6893488e+19
2.4128916 -1.0842022e-19 1.5238906
3.6893488e+19 3.1597028 0
2.2189605 0 -1.2686656
1.0842022e-19 3.1814661 -2
2.4325023 -0 -1.6070089
1.0842022e-19 3.1538622 -0
2.212275 0 -1.698332
-1.0842022e-19 3.1546099 -1.0842022e-19
2.213131 2 -1.814859
0 3.1876307 -2
2.4386816 2 -1.877817
-1.0842022e-19 3.1511309 1.0842022e-19
2.2091489 -1.0842022e-19 -1.8889792
0 3.0923085 -0
2.3431306 1.0842022e-19 -1.8884773
3.6893488e+19 3.0883405 2
2.1372766 -1.0842022e-19 -1.905086
2 3.0810523 2
2.3318474 1.0842022e-19 -1.9211642
-2 3.0812559 0
2.1291676 -3.6893488e+19 -1.9389224
-2 2.8869891 3.6893488e+19
2.1379187 -1.0842022e-19 -1.8686459
1.0842022e-19 2.8440588 0
1.946911 -2 -1.8597527
3.6893488e+19 2.7818081 3.6893488e+19
2.032485 -2 -1.8341569
3.6893488e+19 2.7500234 1.0842022e-19
2.0629332 -2 -1.8255159
-3.6893488e+19 2.716779 3.6893488e+19
1.9410361 -3.6893488e+19 -1.8240085
2 2.6732922 2
2.0148995 3.6893488e+19 -1.8186963
0 2.6542833 0
1.9154588 1.0842022e-19 -1.8201026
2 2.6151879 2
1.9785374 -3.6893488e+19 -1.8127981
3.6893488e+19 2.6013734 3.6893488e+19
1.8938047 -1.0842022e-19 -1.8143444
0 2.5709147 0
1.9508309 2 -1.808225
0 2.5584168 2
1.876224 1.0842022e-19 -1.808574
0 2.5376277 -0
1.9299996 2 -1.8055463
-0 2.529371 3.6893488e+19
1.8536733 -3.6893488e+19 -1.8070396
0 2.5114999 3.6893488e+19
1.9136486 3.6893488e+19 -1.804002
2 2.5026979 1.0842022e-19
1.8318406 2 -1.8039283
-2 2.4752071 3.6893488e+19
1.8986942 1.0842022e-19 -1.801162
-3.6893488e+19 2.4590225 2
1.8128617 3.6893488e+19 -1.8004835
-2 3.2969103 -2
2.3273363 1.0842022e-19 2.7604938
-1.0842022e-19 3.240181 -0
2.4809179 3.6893488e+19 2.6750474
3.6893488e+19 3.2953124 -0
2.3255746 0 2.7504563
3.6893488e+19 3.2953746 2
2.3256433 1.0842022e-19 2.7166164
1.0842022e-19 3.2899318 -3.6893488e+19
2.5344527 -1.0842022e-19 2.7018998
1.0842022e-19 3.2954056 2
2.3256774 1.0842022e-19 2.6995325
-3.6893488e+19 3.2857261 0
2.5303268 -2 2.6787143
-1.0842022e-19 3.2977979 0
2.328315 -0 2.6859505
2 3.2679322 -2
2.4272652 0 2.6200082
1.0842022e-19 3.2550228 -1.0842022e-19
2.5637121 3.6893488e+19 2.5823803
0 3.2645085 -1.0842022e-19
2.4218054 2 2.5848274
3.6893488e+19 3.2535322 1.0842022e-19
2.5618787 -1.0842022e-19 2.5657761
3.6893488e+19 3.2649 -1.0842022e-19
2.4224298 1.0842022e-19 2.5701237
2 3.2538133 2
2.5622244 -3.6893488e+19 2.5514827
-0 3.2618928 3.6893488e+19
2.4176345 -1.0842022e-19 2.5514941
-3.6893488e+19 3.2508852 -2
2.5586226 -2 2.5335572
3.6893488e+19 3.2636731 -1.0842022e-19
2.4204733 3.6893488e+19 2.5384793
-1.0842022e-19 3.2517817 -2
2.5597253 -2 2.520102
0 3.2608945 -1.0842022e-19
2.4160423 3.6893488e+19 2.5205591
0 3.251564 -3.6893488e+19
2.5594573 -1.0842022e-19 2.5054364
-2 3.2634223 1.0842022e-19
2.2904167 2 2.5000541
0 3.2568283 -1.0842022e-19
2.5019748 -2 2.4754493
-0 3.2630446 -0
2.2900002 3.6893488e+19 2.4695914
-2 3.2572279 -2
2.502367 -3.6893488e+19 2.4469285
2 3.2633665 -1.0842022e-19
2.290355 -1.0842022e-19 2.4403758
2 3.2577546 3.6893488e+19
2.5028837 0 2.418561
2 3.2696643 -0
2.2972982 -3.6893488e+19 2.4204543
-2 3.2605078 -1.0842022e-19
2.505585 1.0842022e-19 2.3934841
-3.6893488e+19 3.2664249 -2
2.2937269 3.6893488e+19 2.3853524
-3.6893488e+19 3.2593274 3.6893488e+19
2.504427 3.6893488e+19 2.3623197
0 3.2680774 1.0842022e-19
2.2955487 -3.6893488e+19 2.3575482
-0 3.2589986 1.0842022e-19
2.5041044 2 2.3325572
0 3.2618692 -2
2.2887042 -3.6893488e+19 2.3198018
0 3.2572801 -3.6893488e+19
2.502418 1.0842022e-19 2.3012686
-2 3.2631369 -0
2.290102 -0 2.2917786
-2 3.2554696 1.0842022e-19
2.5006421 -2 2.2703004
3.6893488e+19 3.2527394 -3.6893488e+19
2.5609033 -1.0842022e-19 2.2542253
0 3.2576692 -1.0842022e-19
2.4108989 -1.0842022e-19 2.2359002
-0 3.2534287 3.6893488e+19
2.5617514 1.0842022e-19 2.2024481
-2 3.2565725 3.6893488e+19
2.4091504 2 2.1761332
-2 3.1671703 2
2.5065877 0 2.0751812
1.0842022e-19 3.1511109 0
2.3198211 -0 2.0380354
-2 3.1597393 -3.6893488e+19
2.502017 2 2.0230534
-1.0842022e-19 3.2575247 2
2.4106688 1.0842022e-19 2.0620186
2 3.1651256 2
2.5053301 1.0842022e-19 1.9797345
3.6893488e+19 3.2462749 -0
2.395699 2 1.9949576
0 3.2496955 -0
2.3984263 -1.0842022e-19 1.9405878
1.0842022e-19 3.1602805 -2
2.5023499 1.0842022e-19 1.8843842
1.0842022e-19 3.1994278 2
2.5264282 2 1.81794
3.6893488e+19 3.1511805 1.0842022e-19
2.3198767 -1.0842022e-19 1.7511001
0 3.1658807 -3.6893488e+19
2.208498 0 1.6677798
-0 3.1666269 3.6893488e+19
2.4087539 -3.6893488e+19 1.5255494
-0 3.1661069 -1.0842022e-19
2.2087476 -3.6893488e+19 -1.2708843
-0 3.1867552 0
2.4285018 1.0842022e-19 -1.6097767
0 3.1557448 3.6893488e+19
2.1973236 3.6893488e+19 -1.6992197
-1.0842022e-19 3.187011 -3.6893488e+19
2.4287527 -0 -1.7819608
0 3.1532195 0
2.1945395 1.0842022e-19 -1.8141717
-1.0842022e-19 3.1885791 -0
2.4302912 0 -1.8780525
2 3.1517971 -3.6893488e+19
2.1929712 -0 -1.8891844
1.0842022e-19 3.1887612 -1.0842022e-19
2.4304698 -3.6893488e+19 -1.9274385
-3.6893488e+19 3.0898674 3.6893488e+19
2.1246955 -0 -1.9057573
3.6893488e+19 3.081656 1.0842022e-19
2.3253887 -3.6893488e+19 -1.9214205
1.0842022e-19 3.0817533 0
2.1157498 3.6893488e+19 -1.9391712
-1.0842022e-19 2.8858752 -3.6893488e+19
2.1285832 1.0842022e-19 -1.8678657
-2 2.8475482 -1.0842022e-19
1.9415817 -2 -1.86209
-2 2.7826433 2
2.0273023 1.0842022e-19 -1.8347087
-0 2.7505569 2
2.0582187 1.0842022e-19 -1.8258622
-0 2.7118101 -0
1.9341094 3.6893488e+19 -1.8218379
-0 2.6734643 2
2.0104589 3.6893488e+19 -1.8186963
1.0842022e-19 2.6527762 -0
1.9105744 -1.0842022e-19 -1.8193238
-2 2.6154597 -2
1.9747822 -1.0842022e-19 -1.8128616
1.0842022e-19 2.6010942 3.6893488e+19
1.8899704 1.0842022e-19 -1.8141439
-2 2.5707986 -2
1.9473127 2 -1.8080844
3.6893488e+19 2.5611033 -2
1.8730546 1.0842022e-19 -1.810124
-1.0842022e-19 2.5356505 -1.0842022e-19
1.9256942 3.6893488e+19 -1.8042324
-2 2.528825 -3.6893488e+19
1.8473179 3.6893488e+19 -1.8066359
-3.6893488e+19 2.511483 1.0842022e-19
1.9108297 -3.6893488e+19 -1.8039178
3.6893488e+19 2.5046234 3.6893488e+19
1.828021 -1.0842022e-19 -1.8052438
-1.0842022e-19 2.4754004 1.0842022e-19
1.8962016 1.0842022e-19 -1.801162
-3.6893488e+19 2.4581535 0
1.8076518 -0 -1.8001049
-1.0842022e-19 2.4347572 -1.0842022e-19
1.8837024 -2 -1.798479
0 2.3856387 -0
1.7125785 -3.6893488e+19 -1.799251
-3.6893488e+19 2.3379841 0
1.6863097 2 -1.7968833
-2 2.3032725 2
1.6671753 3.6893488e+19 -1.7964882
1.0842022e-19 2.2723329 2
1.6501201 -3.6893488e+19 -1.794551
1.0842022e-19 2.2299263 -1.0842022e-19
1.7725934 2 -1.7896936
0 2.1976388 -2
1.7626638 2 -1.7916373
-3.6893488e+19 2.158637 -0
1.7506696 -3.6893488e+19 -1.7890687
-0 2.126049 -3.6893488e+19
1.7312953 0 -1.7870427
-2 3.2969103 -2
2.3273363 1.0842022e-19 2.7604938
-1.0842022e-19 3.240181 -0
2.4809179 3.6893488e+19 2.6750474
3.6893488e+19 3.2953124 -0
2.3255746 0 2.7504563
3.6893488e+19 3.2953746 2
2.3256433 1.0842022e-19 2.7166164
-0 3.2489183 -3.6893488e+19
2.48949 3.6893488e+19 2.6388175
1.0842022e-19 3.2954056 2
2.3256774 1.0842022e-19 2.6995325
-3.6893488e+19 3.2857261 0
2.5303268 -2 2.6787143
-1.0842022e-19 3.2977979 0
2.328315 -0 2.6859505
2 3.2679322 -2
2.4272652 0 2.6200082
1.0842022e-19 3.2550228 -1.0842022e-19
2.5637121 3.6893488e+19 2.5823803
-3.6893488e+19 3.2478385 -2
2.3969457 1.0842022e-19 2.565094
3.6893488e+19 3.2535322 1.0842022e-19
2.5618787 -1.0842022e-19 2.5657761
0 3.2508779 3.6893488e+19
2.400069 -3.6893488e+19 2.5531781
2 3.2538133 2
2.5622244 -3.6893488e+19 2.5514827
-2 3.250488 3.6893488e+19
2.3994477 -1.0842022e-19 2.5383649
-3.6893488e+19 3.2508852 -2
2.5586226 -2 2.5335572
3.6893488e+19 3.2636731 -1.0842022e-19
2.4204733 3.6893488e+19 2.5384793
-1.0842022e-19 3.2517817 -2
2.5597253 -2 2.520102
0 3.2608945 -1.0842022e-19
2.4160423 3.6893488e+19 2.5205591
0 3.251564 -3.6893488e+19
2.5594573 -1.0842022e-19 2.5054364
-0 3.1617358 0
2.2039287 0 2.390841
0 3.2568283 -1.0842022e-19
2.5019748 -2 2.4754493
-0 3.1630881 1.0842022e-19
2.2054195 -2 2.3687255
-2 3.2572279 -2
2.502367 -3.6893488e+19 2.4469285
-1.0842022e-19 3.1675537 -2
2.2103426 -3.6893488e+19 2.3490963
1.0842022e-19 3.2478256 1.0842022e-19
2.4884181 3.6893488e+19 2.4042029
-0 3.1652715 -1.0842022e-19
2.2078266 1.0842022e-19 2.323741
2 3.249491 2
2.490052 -3.6893488e+19 2.3772278
-1.0842022e-19 3.1660707 3.6893488e+19
2.2087078 -2 2.3008986
1.0842022e-19 3.1637437 -0
2.405925 -2 2.289031
0 3.2680774 1.0842022e-19
2.2955487 -3.6893488e+19 2.3575482
-0 3.1646638 -3.6893488e+19
2.4068277 1.0842022e-19 2.2662165
0 3.1637869 0
2.2061899 0 2.2526641
-3.6893488e+19 3.1647911 2
2.4069529 -0 2.2357101
-3.6893488e+19 3.1656446 -0
2.2082381 0 2.2108865
2 3.1655483 -1.0842022e-19
2.4076955 2 2.1896722
1.0842022e-19 3.1713815 -3.6893488e+19
2.5091777 0 2.1738589
3.6893488e+19 3.1629908 0
2.3292935 0 2.1393993
2 3.1677604 2
2.5069506 0 2.1229153
0 3.1640813 -2
2.3301628 3.6893488e+19 2.0938671
-2 3.1671703 2
2.5065877 0 2.0751812
1.0842022e-19 3.1511109 0
2.3198211 -0 2.0380354
-2 3.1597393 -3.6893488e+19
2.502017 2 2.0230534
0 3.1534634 2
2.3216968 -2 1.9944192
2 3.1651256 2
2.5053301 1.0842022e-19 1.9797345
-2 3.1539323 2
2.3220708 0 1.949378
3.6893488e+19 3.1526723 0
2.3210661 -3.6893488e+19 1.9035823
1.0842022e-19 3.1602805 -2
2.5023499 1.0842022e-19 1.8843842
-0 3.1667213 0
2.5063117 -0 1.803899
3.6893488e+19 3.1511805 1.0842022e-19
2.3198767 -1.0842022e-19 1.7511001
-2 3.1520386 2
2.1932378 -1.0842022e-19 1.6621954
-0 3.1666269 3.6893488e+19
2.4087539 -3.6893488e+19 1.5255494
-0 3.1661069 -1.0842022e-19
2.2087476 -3.6893488e+19 -1.2708843
1.0842022e-19 3.16312 0
2.4053133 3.6893488e+19 -1.5970716
0 3.1557448 3.6893488e+19
2.1973236 3.6893488e+19 -1.6992197
-1.0842022e-19 3.187011 -3.6893488e+19
2.4287527 -0 -1.7819608
0 3.1532195 0
2.1945395 1.0842022e-19 -1.8141717
-1.0842022e-19 3.1885791 -0
2.4302912 0 -1.8780525
2 3.1517971 -3.6893488e+19
2.1929712 -0 -1.8891844
2 3.0914896 -0
2.3350363 -0 -1.8881011
-3.6893488e+19 3.0898674 3.6893488e+19
2.1246955 -0 -1.9057573
3.6893488e+19 3.081656 1.0842022e-19
2.3253887 -3.6893488e+19 -1.9214205
2 3.0682313 2
2.1008422 -3.6893488e+19 -1.9314607
-1.0842022e-19 2.8858752 -3.6893488e+19
2.1285832 1.0842022e-19 -1.8678657
-2 2.8475482 -1.0842022e-19
1.9415817 -2 -1.86209
-2 2.7826433 2
2.0273023 1.0842022e-19 -1.8347087
-0 2.7505569 2
2.0582187 1.0842022e-19 -1.8258622
-0 2.7118101 -0
1.9341094 3.6893488e+19 -1.8218379
-0 2.6734643 2
2.0104589 3.6893488e+19 -1.8186963
1.0842022e-19 2.6527762 -0
1.9105744 -1.0842022e-19 -1.8193238
-2 2.6154597 -2
1.9747822 -1.0842022e-19 -1.8128616
1.0842022e-19 2.6010942 3.6893488e+19
1.8899704 1.0842022e-19 -1.8141439
-2 2.5707986 -2
1.9473127 2 -1.8080844
3.6893488e+19 2.5611033 -2
1.8730546 1.0842022e-19 -1.810124
-1.0842022e-19 2.5356505 -1.0842022e-19
1.9256942 3.6893488e+19 -1.8042324
-2 2.528825 -3.6893488e+19
1.8473179 3.6893488e+19 -1.8066359
-3.6893488e+19 2.511483 1.0842022e-19
1.9108297 -3.6893488e+19 -1.8039178
3.6893488e+19 2.5046234 3.6893488e+19
1.828021 -1.0842022e-19 -1.8052438
-1.0842022e-19 2.4754004 1.0842022e-19
1.8962016 1.0842022e-19 -1.801162
-3.6893488e+19 2.4581535 0
1.8076518 -0 -1.8001049
-1.0842022e-19 2.4347572 -1.0842022e-19
1.8837024 -2 -1.798479
0 2.3856387 -0
1.7125785 -3.6893488e+19 -1.799251
-3.6893488e+19 2.3379841 0
1.6863097 2 -1.7968833
-2 2.3032725 2
1.6671753 3.6893488e+19 -1.7964882
1.0842022e-19 2.2723329 2
1.6501201 -3.6893488e+19 -1.794551
1.0842022e-19 2.2299263 -1.0842022e-19
1.7725934 2 -1.7896936
0 2.1976388 -2
1.7626638 2 -1.7916373
-3.6893488e+19 2.158637 -0
1.7506696 -3.6893488e+19 -1.7890687
-0 2.126049 -3.6893488e+19
1.7312953 0 -1.7870427
1.0842022e-19 3.2540252 1.0842022e-19
2.4876413 2 2.7203519
-1.0842022e-19 3.3027983 -3.6893488e+19
2.3210728 -2 2.7744939
2 3.2432792 -3.6893488e+19
2.4734633 1.0842022e-19 2.677598
0 3.2529454 -1.0842022e-19
2.2682111 -1.0842022e-19 2.678973
1.0842022e-19 3.2940197 1.0842022e-19
2.3117645 0 2.7143936
1.0842022e-19 3.2895517 1.0842022e-19
2.52792 -2 2.701164
-2 3.2955344 2
2.3133707 -2 2.6996489
-1.0842022e-19 3.2879217 2
2.5263555 1.0842022e-19 2.6818714
-0 3.2977893 -2
2.3157616 -3.6893488e+19 2.6858606
-1.0842022e-19 3.2675567 1.0842022e-19
2.415339 1.0842022e-19 2.6193945
-2 3.2564995 -0
2.3981745 -3.6893488e+19 2.5893488
2 3.2553535 0
2.558641 -1.0842022e-19 2.5826783
0 3.2648993 0
2.4112136 -2 2.5852356
-0 3.2536945 3.6893488e+19
2.5566359 -0 2.5658522
0 3.2628767 3.6893488e+19
2.4080739 3.6893488e+19 2.5675967
-2 3.253777 -3.6893488e+19
2.5567355 -2 2.5513194
0 3.2613754 2
2.4057434 -1.0842022e-19 2.5508208
-2 3.2450857 -2
2.5492003 -3.6893488e+19 2.5296676
-0 3.2518671 -3.6893488e+19
2.5544269 -3.6893488e+19 2.5200856
1.0842022e-19 3.2515879 1.0842022e-19
2.5540895 2 2.5053587
0 3.2630975 3.6893488e+19
2.278976 1.0842022e-19 2.499403
-3.6893488e+19 3.2569714 -2
2.4932971 2 2.4755635
-1.0842022e-19 3.2636335 -3.6893488e+19
2.2795444 -0 2.4705594
-1.0842022e-19 3.2568624 -3.6893488e+19
2.4930878 0 2.4461517
2 3.2666385 1.0842022e-19
2.2827308 3.6893488e+19 2.4457681
-1.0842022e-19 3.2638872 -3.6893488e+19
2.5032864 -3.6893488e+19 2.4283834
0 3.2668724 0
2.2829788 2 2.4160275
-3.6893488e+19 3.2602508 -1.0842022e-19
2.4995925 1.0842022e-19 2.392971
2 3.2666585 1.0842022e-19
2.282752 -0 2.3856218
2 3.2600591 1.0842022e-19
2.4992244 2 2.3632264
3.6893488e+19 3.2683268 -0
2.2845209 -1.0842022e-19 2.3578176
-1.0842022e-19 3.2594366 -0
2.4980295 3.6893488e+19 2.3330138
0 3.27087 -3.6893488e+19
2.2872174 0 2.3307354
3.6893488e+19 3.2570059 1.0842022e-19
2.4933634 -2 2.3008518
-0 3.2716758 -0
2.2880721 -3.6893488e+19 2.3011935
-3.6893488e+19 3.2556746 -0
2.4908078 1.0842022e-19 2.2704315
-1.0842022e-19 3.2546136 0
2.5577469 1.0842022e-19 2.2560084
0 3.2589931 2
2.4020452 -0 2.238271
-3.6893488e+19 3.2541623 2
2.5572014 1.0842022e-19 2.2035768
1.0842022e-19 3.2568562 -3.6893488e+19
2.3987279 -1.0842022e-19 2.1764941
-0 3.2519701 0
2.5545516 -3.6893488e+19 2.1426606
-3.6893488e+19 3.2593038 3.6893488e+19
2.4025278 2 2.1223135
-0 3.2454526 -2
2.549422 -2 2.0800414
-1.0842022e-19 3.2590053 -0
2.4020643 1.0842022e-19 2.0637317
3.6893488e+19 3.1676075 -3.6893488e+19
2.502377 0 1.9810158
-2 3.244755 -2
2.3840139 3.6893488e+19 1.9941444
-1.0842022e-19 3.1576583 -2
2.4927289 2 1.9294788
2 3.1513457 1.0842022e-19
2.3115125 -1.0842022e-19 1.903037
