# .PCD v0.7 - Point Cloud Data file format
VERSION 0.7
FIELDS x y z
SIZE 4 4 4
TYPE F F F
COUNT 1 1 1
WIDTH 1713
HEIGHT 1
VIEWPOINT 0 0 0 1 0 0 0
POINTS 1713
DATA ascii
-3.6893488e+19 2.7655375 -2
2.0312903 0 -1.8752238
3.6893488e+19 2.7114406 -0
1.8950367 -3.6893488e+19 -1.8543478
-3.6893488e+19 2.6735144 0
1.9743196 1.0842022e-19 -1.8486422
1.0842022e-19 2.6329081 -2
1.8657058 3.6893488e+19 -1.836825
-0 2.605334 -3.6893488e+19
1.9382069 -2 -1.8327212
2 2.578414 1.0842022e-19
1.8314495 2 -1.8251488
-1.0842022e-19 2.5572166 2
1.912721 -0 -1.8219769
1.0842022e-19 2.5422173 1.0842022e-19
1.8086953 -0 -1.8195375
1.0842022e-19 2.5233352 2
1.8947753 -3.6893488e+19 -1.8157341
0 2.5122538 -0
1.7898594 -2 -1.8143717
-1.0842022e-19 2.5013254 2
1.8831176 2 -1.8146302
-1.0842022e-19 2.4782732 2
1.7753274 0 -1.8111722
0 2.4547186 -0
1.8658471 0 -1.8094591
3.6893488e+19 2.3966937 0
1.6520462 -1.0842022e-19 -1.8071166
1.0842022e-19 2.3380668 -2
1.6295754 -0 -1.7993569
3.6893488e+19 2.2986166 2
1.6039097 -3.6893488e+19 -1.7959913
1.0842022e-19 2.266417 -0
1.5792265 0 -1.7927637
1.0842022e-19 2.2248566 2
1.7507567 -3.6893488e+19 -1.7893595
0 2.1871257 0
1.7315289 1.0842022e-19 -1.7889884
-1.0842022e-19 2.1577613 0
1.7159758 -0 -1.7898699
-1.0842022e-19 2.1245985 3.6893488e+19
1.6984106 -1.0842022e-19 -1.7874525
0 3.2770543 -2
2.4497247 3.6893488e+19 2.7537265
0 3.2361155 0
2.3945403 3.6893488e+19 2.6808772
-0 3.2441657 -0
2.1288111 1.0842022e-19 2.650244
-1.0842022e-19 3.2769678 -0
2.4495845 0 2.6923666
-3.6893488e+19 3.2450035 -0
2.1294534 -1.0842022e-19 2.63656
-3.6893488e+19 3.2300894 0
2.3896496 0 2.6194251
-0 3.2533236 3.6893488e+19
2.1383791 2 2.6309896
2 3.2072914 0
2.3711462 -3.6893488e+19 2.5753784
-3.6893488e+19 3.2352867 -1.0842022e-19
2.3050637 -2 2.5806134
1.0842022e-19 3.1973422 1.0842022e-19
2.4738803 3.6893488e+19 2.5500073
-1.0842022e-19 3.2350192 1.0842022e-19
2.3048956 -2 2.5664887
-2 3.2293622 1.0842022e-19
2.5039001 -3.6893488e+19 2.5576427
3.6893488e+19 3.2057891 -0
2.2865207 -1.0842022e-19 2.5343454
-2 3.1931283 3.6893488e+19
2.4694166 3.6893488e+19 2.5216219
2 3.235209 3.6893488e+19
2.3050148 0 2.5388131
-2 3.1966221 -1.0842022e-19
2.4731176 3.6893488e+19 2.5109258
-0 3.2364085 1.0842022e-19
2.305769 1.0842022e-19 2.5256355
-1.0842022e-19 3.199456 -1.0842022e-19
2.4761195 -3.6893488e+19 2.4993713
1.0842022e-19 3.2041771 -3.6893488e+19
2.4811206 1.0842022e-19 2.4786096
2 3.2081153 0
2.4852927 -1.0842022e-19 2.4565694
-3.6893488e+19 3.1204746 0
2.21578 -3.6893488e+19 2.356643
-2 3.2364955 3.6893488e+19
2.1229315 2 2.4536591
3.6893488e+19 3.1257963 -1.0842022e-19
2.3050032 0 2.3411527
-3.6893488e+19 3.1241496 1.0842022e-19
2.0368109 -0 2.3277378
2 3.1244752 3.6893488e+19
2.303931 3.6893488e+19 2.3187129
2 3.2469263 3.6893488e+19
2.1309273 3.6893488e+19 2.4072261
-3.6893488e+19 3.1270628 3.6893488e+19
2.3060312 -0 2.2995555
-2 3.1246526 -0
2.0371964 -2 2.2859039
-2 3.1285827 3.6893488e+19
2.3072648 2 2.279351
3.6893488e+19 3.1280329 -1.0842022e-19
2.0397875 0 2.2671971
0 3.1278555 3.6893488e+19
2.3066745 -2 2.2574663
-1.0842022e-19 3.1284118 -3.6893488e+19
2.0400779 0 2.2423749
0 3.1261168 1.0842022e-19
2.3052633 -2 2.2201226
0 3.1288972 1.0842022e-19
2.0404501 -0 2.2004366
-2 3.1233029 1.0842022e-19
2.3029797 1.0842022e-19 2.17452
-3.6893488e+19 3.2500389 1.0842022e-19
2.1333435 0 2.2691913
-1.0842022e-19 3.120096 -3.6893488e+19
2.3003767 -1.0842022e-19 2.1291897
0 3.121083 1.0842022e-19
2.3930972 -3.6893488e+19 2.1106074
-2 3.1133566 -1.0842022e-19
2.2068307 3.6893488e+19 2.080729
-0 3.1246016 0
2.3968246 1.0842022e-19 2.0717485
-0 3.1135538 0
2.2070787 -0 2.0401142
-3.6893488e+19 3.122658 -3.6893488e+19
2.3947656 3.6893488e+19 2.028043
2 3.1108074 -0
2.2036257 -1.0842022e-19 1.9974725
-3.6893488e+19 3.1257718 -1.0842022e-19
2.3980641 -0 1.9880062
-0 3.1026244 -0
2.1933377 3.6893488e+19 1.9523431
0 3.2054727 2
2.4824932 1.0842022e-19 1.9871807
-2 3.1021743 0
2.1927719 3.6893488e+19 1.9126458
-1.0842022e-19 3.1236491 1.0842022e-19
2.3958156 1.0842022e-19 1.9024936
3.6893488e+19 3.1016135 -0
2.1920667 3.6893488e+19 1.8710374
-1.0842022e-19 3.1274228 2
2.3998132 3.6893488e+19 1.8481065
-3.6893488e+19 3.1039011 -0
2.194943 -3.6893488e+19 1.7934291
2 3.1345248 0
2.4073365 1.0842022e-19 1.7657503
-1.0842022e-19 3.1027765 -1.0842022e-19
2.1935289 0 1.6778752
1.0842022e-19 3.1013124 1.0842022e-19
2.0193045 0 1.5716817
-2 3.1117988 -3.6893488e+19
2.2936425 3.6893488e+19 1.2892603
3.6893488e+19 3.0996602 1.0842022e-19
2.018038 -0 -1.4832697
2 3.1147459 -3.6893488e+19
2.2960343 -2 -1.6428525
1.0842022e-19 3.0989275 2
2.0174763 -0 -1.7140388
-1.0842022e-19 3.1108665 3.6893488e+19
2.292886 1.0842022e-19 -1.7765958
-3.6893488e+19 3.101486 -2
2.0194376 -2 -1.8113232
3.6893488e+19 3.1117575 1.0842022e-19
2.2936091 -0 -1.8580979
1.0842022e-19 3.1049633 -1.0842022e-19
2.0221031 1.0842022e-19 -1.8837326
2 3.1354737 2
2.3128576 1.0842022e-19 -1.9174335
-0 3.0450554 0
1.9761798 0 -1.8941371
-0 3.13766 -3.6893488e+19
2.3146319 0 -1.9618801
-2 3.0437689 -2
1.9751936 -3.6893488e+19 -1.9263537
-1.0842022e-19 3.043092 -3.6893488e+19
2.2257578 0 -1.9431009
-2 3.0399742 3.6893488e+19
1.9722848 0 -1.9565072
-2 2.9104812 3.6893488e+19
2.0831542 0 -1.9082737
-1.0842022e-19 2.8452754 1.0842022e-19
2.1157587 -2 -1.8933464
-1.0842022e-19 2.7949569 -3.6893488e+19
1.9354175 1.0842022e-19 -1.8800431
-3.6893488e+19 2.7655375 -2
2.0312903 0 -1.8752238
3.6893488e+19 2.7114406 -0
1.8950367 -3.6893488e+19 -1.8543478
-3.6893488e+19 2.6735144 0
1.9743196 1.0842022e-19 -1.8486422
1.0842022e-19 2.6329081 -2
1.8657058 3.6893488e+19 -1.836825
-0 2.605334 -3.6893488e+19
1.9382069 -2 -1.8327212
2 2.578414 1.0842022e-19
1.8314495 2 -1.8251488
-1.0842022e-19 2.5572166 2
1.912721 -0 -1.8219769
1.0842022e-19 2.5422173 1.0842022e-19
1.8086953 -0 -1.8195375
1.0842022e-19 2.5233352 2
1.8947753 -3.6893488e+19 -1.8157341
0 2.5122538 -0
1.7898594 -2 -1.8143717
-1.0842022e-19 2.5013254 2
1.8831176 2 -1.8146302
-1.0842022e-19 2.4782732 2
1.7753274 0 -1.8111722
0 2.4547186 -0
1.8658471 0 -1.8094591
3.6893488e+19 2.3966937 0
1.6520462 -1.0842022e-19 -1.8071166
1.0842022e-19 2.3380668 -2
1.6295754 -0 -1.7993569
3.6893488e+19 2.2986166 2
1.6039097 -3.6893488e+19 -1.7959913
1.0842022e-19 2.266417 -0
1.5792265 0 -1.7927637
1.0842022e-19 2.2248566 2
1.7507567 -3.6893488e+19 -1.7893595
0 2.1871257 0
1.7315289 1.0842022e-19 -1.7889884
-1.0842022e-19 2.1577613 0
1.7159758 -0 -1.7898699
-1.0842022e-19 2.1245985 3.6893488e+19
1.6984106 -1.0842022e-19 -1.7874525
-2 3.2763944 -3.6893488e+19
2.4377272 -2 2.7530601
-3.6893488e+19 3.2743127 1.0842022e-19
2.149039 1.0842022e-19 2.6943026
-1.0842022e-19 3.2750835 3.6893488e+19
2.4356513 -2 2.6892493
2 3.2755966 -2
2.1509063 -1.0842022e-19 2.6644399
3.6893488e+19 3.2461586 0
2.3928845 -1.0842022e-19 2.6173048
-1.0842022e-19 3.261266 -0
2.13006 3.6893488e+19 2.627811
1.0842022e-19 3.2429559 -3.6893488e+19
2.3903482 1.0842022e-19 2.6006691
0 3.2135363 -2
2.4818077 -3.6893488e+19 2.5741792
3.6893488e+19 3.2369454 -3.6893488e+19
2.29652 -2 2.5816805
-1.0842022e-19 3.2309599 1.0842022e-19
2.4999185 -0 2.5724494
-0 3.2348957 -3.6893488e+19
2.2952719 -1.0842022e-19 2.5663483
-3.6893488e+19 3.2263331 -0
2.4951093 -3.6893488e+19 2.5556006
0 3.2366037 0
2.2963121 0 2.5535119
-2 3.2265434 1.0842022e-19
2.4953279 2 2.5420105
3.6893488e+19 3.235424 2
2.2955937 -2 2.5388863
-2 3.1980536 -3.6893488e+19
2.4657149 -3.6893488e+19 2.511678
-3.6893488e+19 3.23721 1.0842022e-19
2.2966814 3.6893488e+19 2.5260375
2 3.1993854 -0
2.4670992 -2 2.4991326
-3.6893488e+19 3.1215258 3.6893488e+19
2.2024734 -0 2.3998177
-0 3.2000515 -3.6893488e+19
2.4677916 -0 2.4741099
-2 3.1235025 -1.0842022e-19
2.2048807 3.6893488e+19 2.3806965
2 3.2348609 -3.6893488e+19
2.2952507 -2 2.4666703
1.0842022e-19 3.2373264 1.0842022e-19
2.1044533 -3.6893488e+19 2.4543817
-0 3.2452309 0
2.3921499 0 2.4494667
-0 3.2361274 -0
2.1035812 -1.0842022e-19 2.4257765
-0 3.2191675 2
2.3715115 -1.0842022e-19 2.3992069
1.0842022e-19 3.2457409 1.0842022e-19
2.1105735 1.0842022e-19 2.4062083
-2 3.2411344 -0
2.388906 1.0842022e-19 2.3900836
-2 3.2457404 1.0842022e-19
2.1105733 0 2.3782651
-2 3.2282994 -3.6893488e+19
2.3787425 1.0842022e-19 2.352844
2 3.2403359 3.6893488e+19
2.1066422 2 2.3465343
2 3.2266417 -3.6893488e+19
2.3774297 0 2.3246987
-0 3.2386031 2
2.105382 -0 2.3178394
-1.0842022e-19 3.2314072 -1.0842022e-19
2.3812034 -3.6893488e+19 2.3007908
-2 3.2434754 -0
2.1089258 0 2.2932909
-3.6893488e+19 3.2269101 0
2.3776426 0 2.2711046
0 3.2472074 0
2.1116402 2 2.2676153
1.0842022e-19 3.2245269 0
2.3757553 0 2.2360675
3.6893488e+19 3.120707 -2
2.3853195 1.0842022e-19 2.1101267
0 3.2244878 0
2.2889342 -3.6893488e+19 2.1817992
-2 3.2171876 2
2.4856033 -2 2.1511426
1.0842022e-19 3.2312927 3.6893488e+19
2.2930779 -2 2.1339965
-1.0842022e-19 3.2026453 -3.6893488e+19
2.4704876 3.6893488e+19 2.0876138
-0 3.2316034 0
2.2932673 -1.0842022e-19 2.0802622
1.0842022e-19 3.2044215 0
2.4723339 -3.6893488e+19 2.0377288
-2 3.1152093 -3.6893488e+19
2.1947806 3.6893488e+19 1.959525
-1.0842022e-19 3.2049992 1.0842022e-19
2.4729345 0 1.9868582
-2 3.2556386 -2
2.3113368 -3.6893488e+19 1.9860802
-3.6893488e+19 3.1895387 1.0842022e-19
2.4568646 2 1.9293269
1.0842022e-19 3.1023655 -2
2.1791382 -0 1.8715168
3.6893488e+19 3.1863832 -3.6893488e+19
2.4535844 0 1.8789386
3.6893488e+19 3.1040928 -1.0842022e-19
2.181242 2 1.7934885
2 3.1845071 -1.0842022e-19
2.4516344 -3.6893488e+19 1.7839946
-1.0842022e-19 3.1056476 -2
2.1831355 0 1.6792889
-1.0842022e-19 3.2479808 0
2.1122029 -3.6893488e+19 1.6393809
1.0842022e-19 3.1086845 2
2.2840252 3.6893488e+19 1.2878064
0 3.1015732 3.6893488e+19
2.0057142 -0 -1.4845191
-0 3.1139023 3.6893488e+19
2.288157 -0 -1.6424873
-3.6893488e+19 3.1000597 -2
2.0046134 -3.6893488e+19 -1.7147089
-1.0842022e-19 3.113225 -2
2.2876205 -0 -1.7775491
2 3.1573048 -0
2.0462501 1.0842022e-19 -1.8408881
3.6893488e+19 3.1409171 3.6893488e+19
2.3095486 1.0842022e-19 -1.8759125
0 3.1546576 -1.0842022e-19
2.0443246 3.6893488e+19 -1.9024374
1.0842022e-19 3.1404178 0
2.3091533 -3.6893488e+19 -1.9195393
-0 3.0414071 1.0842022e-19
1.9619529 3.6893488e+19 -1.8923386
3.6893488e+19 3.137351 -2
2.3067248 -3.6893488e+19 -1.9616592
0 3.0419309 3.6893488e+19
1.9623338 2 -1.9252303
2 3.0402122 1.0842022e-19
2.2096105 -3.6893488e+19 -1.9411565
-3.6893488e+19 3.0391653 2
1.9603224 0 -1.9559076
1.0842022e-19 2.9066682 -3.6893488e+19
2.072021 -3.6893488e+19 -1.9067649
-2 2.8343685 2
2.0975487 2 -1.8887738
-3.6893488e+19 2.7951994 -0
1.9297585 -0 -1.8801254
-2 2.7656846 -1.0842022e-19
2.0261574 -2 -1.8752528
-1.0842022e-19 2.7115278 -1.0842022e-19
1.8905212 -3.6893488e+19 -1.8543478
2 2.6740215 1.0842022e-19
1.9703678 3.6893488e+19 -1.8488381
1.0842022e-19 2.6332293 -1.0842022e-19
1.8583633 2 -1.8369626
3.6893488e+19 2.6027281 2
1.933316 -3.6893488e+19 -1.8311317
-0 2.5787246 0
1.8251734 -3.6893488e+19 -1.8253002
-0 2.5575624 1.0842022e-19
1.909843 2 -1.8221353
2 2.5417757 1.0842022e-19
1.8026737 3.6893488e+19 -1.8192068
-2 2.5249047 0
1.8928705 0 -1.8167681
3.6893488e+19 2.512924 0
1.7851048 -2 -1.8148198
-0 2.5015295 1.0842022e-19
1.8807222 1.0842022e-19 -1.8147233
0 2.4786119 3.6893488e+19
1.7707227 0 -1.8112688
3.6893488e+19 2.4546177 -2
1.8612689 -3.6893488e+19 -1.809359
-2 3.2763944 -3.6893488e+19
2.4377272 -2 2.7530601
0 3.2437327 -2
2.1091127 3.6893488e+19 2.6498475
-1.0842022e-19 3.2750835 3.6893488e+19
2.4356513 -2 2.6892493
2 3.2755966 -2
2.1509063 -1.0842022e-19 2.6644399
3.6893488e+19 3.2461586 0
2.3928845 -1.0842022e-19 2.6173048
-1.0842022e-19 3.261266 -0
2.13006 3.6893488e+19 2.627811
1.0842022e-19 3.2429559 -3.6893488e+19
2.3903482 1.0842022e-19 2.6006691
0 3.2135363 -2
2.4818077 -3.6893488e+19 2.5741792
3.6893488e+19 3.2369454 -3.6893488e+19
2.29652 -2 2.5816805
3.6893488e+19 3.1969659 -1.0842022e-19
2.4645844 -3.6893488e+19 2.5496588
-0 3.2348957 -3.6893488e+19
2.2952719 -1.0842022e-19 2.5663483
2 3.2016964 -1.0842022e-19
2.4695013 -1.0842022e-19 2.5397944
0 3.2366037 0
2.2963121 0 2.5535119
-2 3.2265434 1.0842022e-19
2.4953279 2 2.5420105
3.6893488e+19 3.235424 2
2.2955937 -2 2.5388863
-2 3.1980536 -3.6893488e+19
2.4657149 -3.6893488e+19 2.511678
-3.6893488e+19 3.23721 1.0842022e-19
2.2966814 3.6893488e+19 2.5260375
2 3.1993854 -0
2.4670992 -2 2.4991326
-3.6893488e+19 3.1215258 3.6893488e+19
2.2024734 -0 2.3998177
-0 3.2000515 -3.6893488e+19
2.4677916 -0 2.4741099
-2 3.1235025 -1.0842022e-19
2.2048807 3.6893488e+19 2.3806965
-1.0842022e-19 3.1206067 1.0842022e-19
2.201354 -2 2.3567026
1.0842022e-19 3.2373264 1.0842022e-19
2.1044533 -3.6893488e+19 2.4543817
-0 3.2452309 0
2.3921499 0 2.4494667
-3.6893488e+19 3.1257129 -1.0842022e-19
2.023272 -1.0842022e-19 2.3290696
-3.6893488e+19 3.1241958 0
2.296308 -3.6893488e+19 2.318397
-1.0842022e-19 3.1259282 2
2.0234287 -0 2.3080342
1.0842022e-19 3.1275578 3.6893488e+19
2.29897 -3.6893488e+19 2.299875
-2 3.1272438 -3.6893488e+19
2.0243855 -0 2.2878485
-1.0842022e-19 3.126353 -0
2.2980161 -2 2.2776375
2 3.1279206 3.6893488e+19
2.0248778 1.0842022e-19 2.2670872
-3.6893488e+19 3.1276381 -2
2.2990336 3.6893488e+19 2.2572553
-2 3.1275837 0
2.0246329 -3.6893488e+19 2.2412412
1.0842022e-19 3.1286273 -1.0842022e-19
2.2998168 1.0842022e-19 2.2231448
0 3.128598 -1.0842022e-19
2.0253704 1.0842022e-19 2.2000296
3.6893488e+19 3.1213162 -1.0842022e-19
2.2940276 1.0842022e-19 2.172157
0 3.2472074 0
2.1116402 2 2.2676153
-0 3.1104107 -1.0842022e-19
2.285392 -2 2.1191759
3.6893488e+19 3.120707 -2
2.3853195 1.0842022e-19 2.1101267
-3.6893488e+19 3.1110299 -1.0842022e-19
2.1896906 0 2.0785491
-3.6893488e+19 3.122277 -2
2.3869514 -3.6893488e+19 2.0696492
2 3.1114752 -3.6893488e+19
2.1902328 3.6893488e+19 2.0384009
-3.6893488e+19 3.1250064 0
2.3897886 1.0842022e-19 2.0297055
2 3.1136775 3.6893488e+19
2.192915 1.0842022e-19 1.9993939
-2 3.1261091 1.0842022e-19
2.3909347 -2 1.9881434
-2 3.1152093 -3.6893488e+19
2.1947806 3.6893488e+19 1.959525
-2 3.1294241 2
2.3943803 3.6893488e+19 1.9475162
2 3.1049197 1.0842022e-19
2.1822491 -2 1.9138826
3.6893488e+19 3.122313 2
2.3869889 -3.6893488e+19 1.9018995
1.0842022e-19 3.1023655 -2
2.1791382 -0 1.8715168
3.6893488e+19 3.1863832 -3.6893488e+19
2.4535844 0 1.8789386
3.6893488e+19 3.1040928 -1.0842022e-19
2.181242 2 1.7934885
-0 3.1361046 -0
2.401324 -2 1.7662832
-1.0842022e-19 3.1056476 -2
2.1831355 0 1.6792889
2 3.1004784 -0
2.0049179 3.6893488e+19 1.5711924
1.0842022e-19 3.1086845 2
2.2840252 3.6893488e+19 1.2878064
0 3.1015732 3.6893488e+19
2.0057142 -0 -1.4845191
-0 3.1139023 3.6893488e+19
2.288157 -0 -1.6424873
-3.6893488e+19 3.1000597 -2
2.0046134 -3.6893488e+19 -1.7147089
-1.0842022e-19 3.113225 -2
2.2876205 -0 -1.7775491
-0 3.1126382 -1.0842022e-19
2.0137622 2 -1.8172131
1.0842022e-19 3.1129656 -2
2.287415 1.0842022e-19 -1.858819
-2 3.1123378 3.6893488e+19
2.0135438 3.6893488e+19 -1.8864954
-2 3.1166985 2
2.2903712 -0 -1.9092393
-0 3.0414071 1.0842022e-19
1.9619529 3.6893488e+19 -1.8923386
3.6893488e+19 3.137351 -2
2.3067248 -3.6893488e+19 -1.9616592
0 3.0419309 3.6893488e+19
1.9623338 2 -1.9252303
2 3.0402122 1.0842022e-19
2.2096105 -3.6893488e+19 -1.9411565
-3.6893488e+19 3.0391653 2
1.9603224 0 -1.9559076
1.0842022e-19 2.9066682 -3.6893488e+19
2.072021 -3.6893488e+19 -1.9067649
-2 2.8343685 2
2.0975487 2 -1.8887738
-3.6893488e+19 2.7951994 -0
1.9297585 -0 -1.8801254
-2 2.7656846 -1.0842022e-19
2.0261574 -2 -1.8752528
-1.0842022e-19 2.7115278 -1.0842022e-19
1.8905212 -3.6893488e+19 -1.8543478
2 2.6740215 1.0842022e-19
1.9703678 3.6893488e+19 -1.8488381
1.0842022e-19 2.6332293 -1.0842022e-19
1.8583633 2 -1.8369626
3.6893488e+19 2.6027281 2
1.933316 -3.6893488e+19 -1.8311317
-0 2.5787246 0
1.8251734 -3.6893488e+19 -1.8253002
-0 2.5575624 1.0842022e-19
1.909843 2 -1.8221353
2 2.5417757 1.0842022e-19
1.8026737 3.6893488e+19 -1.8192068
-2 2.5249047 0
1.8928705 0 -1.8167681
3.6893488e+19 2.512924 0
1.7851048 -2 -1.8148198
-0 2.5015295 1.0842022e-19
1.8807222 1.0842022e-19 -1.8147233
0 2.4786119 3.6893488e+19
1.7707227 0 -1.8112688
3.6893488e+19 2.4546177 -2
1.8612689 -3.6893488e+19 -1.809359
2 3.2761316 2
2.425622 0 2.7527549
-2 3.2747576 -1.0842022e-19
2.1265991 3.6893488e+19 2.6949716
2 3.2748795 0
2.423692 2 2.6888111
-1.0842022e-19 3.2769463 2
2.1295991 3.6893488e+19 2.6824486
-2 3.2742169 1.0842022e-19
2.1258581 -3.6893488e+19 2.6623175
3.6893488e+19 3.245429 -3.6893488e+19
2.3818204 -1.0842022e-19 2.6166708
-2 3.2761822 3.6893488e+19
2.1285517 -2 2.6493347
-3.6893488e+19 3.2418261 -1.0842022e-19
2.3790438 1.0842022e-19 2.599776
0 3.2367337 -1.0842022e-19
2.2861292 1.0842022e-19 2.5814714
0 3.23048 -1.0842022e-19
2.4891791 2 2.5720191
3.6893488e+19 3.2377594 -3.6893488e+19
2.2867322 0 2.5681543
-3.6893488e+19 3.2271366 -0
2.4857755 3.6893488e+19 2.5560131
1.0842022e-19 3.2372534 2
2.2864349 -3.6893488e+19 2.5538573
-3.6893488e+19 3.2263362 -3.6893488e+19
2.4849606 2 2.5417852
2 3.2342861 -3.6893488e+19
2.2846904 2 2.5381527
-0 3.2232089 -3.6893488e+19
2.4817765 -3.6893488e+19 2.5262764
-0 3.2241971 0
2.4827828 -1.0842022e-19 2.5132568
-2 3.1210117 1.0842022e-19
2.1862032 -3.6893488e+19 2.3991861
0 3.2159724 -3.6893488e+19
2.4744089 0 2.4907165
1.0842022e-19 3.1240396 0
2.1897631 -1.0842022e-19 2.3811691
0 3.2348013 1.0842022e-19
2.2849934 2 2.4665215
3.6893488e+19 3.2427478 0
2.0876946 0 2.4593837
-2 3.2309537 -2
2.3706646 -0 2.4363971
3.6893488e+19 3.2428875 -1.0842022e-19
2.0877903 0 2.4316475
-1.0842022e-19 3.2250102 2
2.3660841 -2 2.4040749
3.6893488e+19 3.2450838 -3.6893488e+19
2.0892954 2 2.405623
0 3.2399602 -1.0842022e-19
2.3776057 1.0842022e-19 2.3890512
-2 3.1268523 -3.6893488e+19
2.0082679 0 2.2875166
-3.6893488e+19 3.2261915 1.0842022e-19
2.3669946 1.0842022e-19 2.3511992
3.6893488e+19 3.2397707 2
2.0856543 -2 2.3460946
-3.6893488e+19 3.2263916 -2
2.3671486 -0 2.3244452
2 3.2403712 -1.0842022e-19
2.0860658 -1.0842022e-19 2.3189526
-0 3.2302589 -2
2.3701291 -0 2.2999966
3.6893488e+19 3.2435949 0
2.0882752 1.0842022e-19 2.2933278
0 3.2300732 0
2.3699861 2 2.2728326
-0 3.1120379 2
1.9981153 -2 2.1396792
-2 3.2251449 -2
2.3661878 3.6893488e+19 2.2365761
2 3.2207191 -0
2.4792416 0 2.2071302
3.6893488e+19 3.228688 1.0842022e-19
2.2813997 2 2.1855364
-3.6893488e+19 3.2162306 3.6893488e+19
2.4746721 -1.0842022e-19 2.1501861
-0 3.2290835 3.6893488e+19
2.2816322 0 2.1321592
-1.0842022e-19 3.2135434 0
2.4719362 2 2.0956259
0 3.2326632 1.0842022e-19
2.2837365 3.6893488e+19 2.080924
1.0842022e-19 3.2051322 -2
2.4633725 1.0842022e-19 2.0380819
-3.6893488e+19 3.1127269 -0
2.1764627 -0 1.95806
-3.6893488e+19 3.1933477 -1.0842022e-19
2.4513748 -0 1.980715
3.6893488e+19 3.2571685 3.6893488e+19
2.3023562 0 1.9874465
3.6893488e+19 3.1859682 -2
2.4438615 1.0842022e-19 1.9278102
-3.6893488e+19 3.1464303 -1.0842022e-19
2.2160881 1.0842022e-19 1.8886453
2 3.1856005 -1.0842022e-19
2.4434872 1.0842022e-19 1.8786639
-0 3.1026976 -0
2.1646709 2 1.7927917
-0 3.1409464 -3.6893488e+19
2.3980246 -1.0842022e-19 1.7680067
0 3.1054993 -2
2.1679647 -1.0842022e-19 1.6791788
1.0842022e-19 3.2487879 0
2.0918341 0 1.6395907
2 3.1081853 1.0842022e-19
2.2760487 -1.0842022e-19 1.2875382
3.6893488e+19 3.2151656 -1.0842022e-19
2.0687916 3.6893488e+19 -1.5301279
-3.6893488e+19 3.1335607 3.6893488e+19
2.2956052 0 -1.6501462
1.0842022e-19 3.0975091 -1.0842022e-19
1.9881582 0 -1.7131199
-3.6893488e+19 3.1120427 -1.0842022e-19
2.2790215 -2 -1.7770137
0 3.1583197 -3.6893488e+19
2.0298333 3.6893488e+19 -1.841401
-0 3.1036041 -1.0842022e-19
2.2725179 3.6893488e+19 -1.8527302
0 3.1525819 -2
2.0259011 1.0842022e-19 -1.901638
-1.0842022e-19 3.1397402 -1.0842022e-19
2.3003676 -2 -1.9192019
1.0842022e-19 3.0413785 -2
1.9496902 -1.0842022e-19 -1.8923081
1.0842022e-19 3.140528 -1.0842022e-19
2.3009746 -3.6893488e+19 -1.9633405
-1.0842022e-19 3.0417461 -3.6893488e+19
1.9499422 -2 -1.9250991
-0 3.0380175 -3.6893488e+19
2.1939425 -3.6893488e+19 -1.9396625
3.6893488e+19 3.0393548 -2
1.9483033 -0 -1.9560186
2 2.9020495 1.0842022e-19
2.0598543 0 -1.9049449
-3.6893488e+19 2.8385677 -1.0842022e-19
2.0946977 0 -1.8904693
-2 2.794137 1.0842022e-19
1.9229103 -2 -1.8796316
-3.6893488e+19 2.7622461 -2
2.0169942 -1.0842022e-19 -1.8721805
3.6893488e+19 2.7122405 2
1.8858654 -2 -1.8546569
1.0842022e-19 2.6709473 -3.6893488e+19
1.9642843 -2 -1.8471403
-2 2.6334286 3.6893488e+19
1.8504009 1.0842022e-19 -1.8370314
-3.6893488e+19 2.6024759 -3.6893488e+19
1.9294288 -0 -1.830915
0 2.5789135 2
1.8183538 0 -1.825376
-2 2.5564299 0
1.9059891 2 -1.8213433
1.0842022e-19 2.5419571 -3.6893488e+19
1.7966287 -2 -1.8192894
3.6893488e+19 2.5249975 -1.0842022e-19
1.8899882 0 -1.8167681
3.6893488e+19 2.5130997 -0
1.7796648 -1.0842022e-19 -1.8149095
0 2.5017378 -3.6893488e+19
1.8781477 0 -1.8148164
3.6893488e+19 2.4769685 -0
1.7651944 -2 -1.8105928
0 2.4555113 -0
1.8568792 2 -1.8096591
0 2.3930628 3.6893488e+19
1.6346887 -0 -1.8054082
-1.0842022e-19 2.3406217 -1.0842022e-19
1.6084381 -2 -1.8006343
3.6893488e+19 2.2991798 3.6893488e+19
1.5800368 -1.0842022e-19 -1.7962744
-2 2.2672184 -2
1.5581326 2 -1.7932297
-1.0842022e-19 2.2310352 3.6893488e+19
1.7448723 3.6893488e+19 -1.7913886
0 2.1864381 0
1.72217 0 -1.7886227
2 2.1599751 -1.0842022e-19
1.7086989 2 -1.790656
-2 2.1238751 -2
1.6903222 -1.0842022e-19 -1.7870321
2 3.2761316 2
2.425622 0 2.7527549
-0 3.2436979 1.0842022e-19
2.0883458 -0 2.6497731
2 3.2748795 0
2.423692 2 2.6888111
-1.0842022e-19 3.2769463 2
2.1295991 3.6893488e+19 2.6824486
-2 3.2742169 1.0842022e-19
2.1258581 -3.6893488e+19 2.6623175
1.0842022e-19 3.207618 -2
2.35268 0 2.5886867
-2 3.2761822 3.6893488e+19
2.1285517 -2 2.6493347
-3.6893488e+19 3.2418261 -1.0842022e-19
2.3790438 1.0842022e-19 2.599776
0 3.2367337 -1.0842022e-19
2.2861292 1.0842022e-19 2.5814714
0 3.23048 -1.0842022e-19
2.4891791 2 2.5720191
3.6893488e+19 3.2377594 -3.6893488e+19
2.2867322 0 2.5681543
1.0842022e-19 3.2022467 -1.0842022e-19
2.4604347 2 2.5400498
1.0842022e-19 3.2372534 2
2.2864349 -3.6893488e+19 2.5538573
-1.0842022e-19 3.1977108 -2
2.4558167 -0 2.5242503
2 3.2342861 -3.6893488e+19
2.2846904 2 2.5381527
2 3.2039726 -3.6893488e+19
2.4621918 0 2.5150456
-0 3.2241971 0
2.4827828 -1.0842022e-19 2.5132568
-2 3.1210117 1.0842022e-19
2.1862032 -3.6893488e+19 2.3991861
0 3.1974676 -1.0842022e-19
2.455569 -0 2.4712288
1.0842022e-19 3.1240396 0
2.1897631 -1.0842022e-19 2.3811691
-1.0842022e-19 3.1217933 0
2.1871221 -3.6893488e+19 2.3577745
-2 3.1252747 1.0842022e-19
2.0071869 -0 2.3498647
-2 3.208977 1.0842022e-19
2.3537276 0 2.4164565
1.0842022e-19 3.1250427 -3.6893488e+19
2.0070276 -0 2.3284445
3.6893488e+19 3.1238277 2
2.2881041 -0 2.3180025
-3.6893488e+19 3.1260648 3.6893488e+19
2.0077283 -2 2.3081105
1.0842022e-19 3.1263852 2
2.2900751 -3.6893488e+19 2.2988672
-2 3.1268523 -3.6893488e+19
2.0082679 0 2.2875166
-1.0842022e-19 3.125644 -0
2.2895038 3.6893488e+19 2.2770436
-0 3.1283064 -1.0842022e-19
2.0092645 0 2.267329
1.0842022e-19 3.1262782 2
2.2899926 1.0842022e-19 2.2562633
-0 3.1282499 1.0842022e-19
2.0092258 -2 2.2420509
1.0842022e-19 3.125685 -1.0842022e-19
2.2895353 -0 2.2193477
2 3.1287663 3.6893488e+19
2.0095797 1.0842022e-19 2.2001777
1.0842022e-19 3.1227145 -2
2.287246 1.0842022e-19 2.1736383
-0 3.1120379 2
1.9981153 -2 2.1396792
3.6893488e+19 3.1120241 1.0842022e-19
2.2790072 1.0842022e-19 2.1207337
-3.6893488e+19 3.1242976 0
2.3810747 -2 2.1134923
-1.0842022e-19 3.1089537 3.6893488e+19
2.1720264 -1.0842022e-19 2.0765955
3.6893488e+19 3.1233313 1.0842022e-19
2.3800907 2 2.0704465
0 3.1105812 1.0842022e-19
2.1739397 -3.6893488e+19 2.037631
-2 3.1243896 -3.6893488e+19
2.3811681 -3.6893488e+19 2.0291512
0 3.2326632 1.0842022e-19
2.2837365 3.6893488e+19 2.080924
-3.6893488e+19 3.1240675 -0
2.3808403 -1.0842022e-19 1.986771
-3.6893488e+19 3.1127269 -0
2.1764627 -0 1.95806
2 3.1168487 -2
2.3734906 2 1.9409055
-2 3.1078241 0
2.1706984 -0 1.9151914
-3.6893488e+19 3.1139162 -1.0842022e-19
2.3705051 -1.0842022e-19 1.8984237
-1.0842022e-19 3.1026525 -0
2.164618 3.6893488e+19 1.8716694
-3.6893488e+19 3.1149943 -0
2.3716028 2 1.8406178
-0 3.1026976 -0
2.1646709 2 1.7927917
-0 3.1409464 -3.6893488e+19
2.3980246 -1.0842022e-19 1.7680067
0 3.1054993 -2
2.1679647 -1.0842022e-19 1.6791788
1.0842022e-19 3.0981462 -3.6893488e+19
1.9885948 -1.0842022e-19 1.5698643
2 3.1081853 1.0842022e-19
2.2760487 -1.0842022e-19 1.2875382
-0 3.1011143 -1.0842022e-19
1.990629 -0 -1.4841859
-2 3.1143687 2
2.2808142 2 -1.6426334
1.0842022e-19 3.0975091 -1.0842022e-19
1.9881582 0 -1.7131199
-3.6893488e+19 3.1120427 -1.0842022e-19
2.2790215 -2 -1.7770137
-2 3.1134605 2
1.9990903 -3.6893488e+19 -1.8176266
-0 3.1036041 -1.0842022e-19
2.2725179 3.6893488e+19 -1.8527302
2 3.1117556 0
1.9979218 -3.6893488e+19 -1.8862602
0 3.1175077 -1.0842022e-19
2.2832332 0 -1.9095498
1.0842022e-19 3.0413785 -2
1.9496902 -1.0842022e-19 -1.8923081
-0 3.0932119 -3.6893488e+19
2.2645087 0 -1.9374925
-1.0842022e-19 3.0417461 -3.6893488e+19
1.9499422 -2 -1.9250991
-0 3.0380175 -3.6893488e+19
2.1939425 -3.6893488e+19 -1.9396625
3.6893488e+19 3.0393548 -2
1.9483033 -0 -1.9560186
2 2.9020495 1.0842022e-19
2.0598543 0 -1.9049449
-3.6893488e+19 2.8385677 -1.0842022e-19
2.0946977 0 -1.8904693
-2 2.794137 1.0842022e-19
1.9229103 -2 -1.8796316
-3.6893488e+19 2.7622461 -2
2.0169942 -1.0842022e-19 -1.8721805
3.6893488e+19 2.7122405 2
1.8858654 -2 -1.8546569
1.0842022e-19 2.6709473 -3.6893488e+19
1.9642843 -2 -1.8471403
-2 2.6334286 3.6893488e+19
1.8504009 1.0842022e-19 -1.8370314
-3.6893488e+19 2.6024759 -3.6893488e+19
1.9294288 -0 -1.830915
0 2.5789135 2
1.8183538 0 -1.825376
-2 2.5564299 0
1.9059891 2 -1.8213433
1.0842022e-19 2.5419571 -3.6893488e+19
1.7966287 -2 -1.8192894
3.6893488e+19 2.5249975 -1.0842022e-19
1.8899882 0 -1.8167681
3.6893488e+19 2.5130997 -0
1.7796648 -1.0842022e-19 -1.8149095
0 2.5017378 -3.6893488e+19
1.8781477 0 -1.8148164
3.6893488e+19 2.4769685 -0
1.7651944 -2 -1.8105928
0 2.4555113 -0
1.8568792 2 -1.8096591
0 2.3930628 3.6893488e+19
1.6346887 -0 -1.8054082
-1.0842022e-19 2.3406217 -1.0842022e-19
1.6084381 -2 -1.8006343
3.6893488e+19 2.2991798 3.6893488e+19
1.5800368 -1.0842022e-19 -1.7962744
-2 2.2672184 -2
1.5581326 2 -1.7932297
-1.0842022e-19 2.2310352 3.6893488e+19
1.7448723 3.6893488e+19 -1.7913886
0 2.1864381 0
1.72217 0 -1.7886227
2 2.1599751 -1.0842022e-19
1.7086989 2 -1.790656
-2 2.1238751 -2
1.6903222 -1.0842022e-19 -1.7870321
3.6893488e+19 3.27617 0
2.4139965 -0 2.752727
3.6893488e+19 3.276222 -3.6893488e+19
2.4140742 -0 2.7393017
1.0842022e-19 3.241946 -0
2.0664814 3.6893488e+19 2.6483111
-0 3.2804856 1.0842022e-19
2.1108873 -0 2.6879275
-1.0842022e-19 3.2476544 -0
2.3730078 2 2.632654
-3.6893488e+19 3.2734795 2
2.1018729 -2 2.661164
-1.0842022e-19 3.2451851 -1.0842022e-19
2.3711569 0 2.6163993
-2 3.2733853 -2
2.1017516 3.6893488e+19 2.6452477
-2 3.2386091 0
2.3662281 1.0842022e-19 2.5974016
0 3.2368565 -2
2.2759409 -3.6893488e+19 2.5814922
-1.0842022e-19 3.2301795 2
2.4786465 -3.6893488e+19 2.5717115
-3.6893488e+19 3.2368977 3.6893488e+19
2.2759645 0 2.5675323
-0 3.2022734 -2
2.4508293 -2 2.5399711
2 3.2398405 -2
2.2776322 -0 2.555413
0 3.2251754 -0
2.4736581 2 2.540978
1.0842022e-19 3.233021 0
2.2737672 1.0842022e-19 2.5373456
-2 3.2235799 -1.0842022e-19
2.4720678 -2 2.5264018
-3.6893488e+19 3.2252138 -3.6893488e+19
2.4736965 -3.6893488e+19 2.5137341
-3.6893488e+19 3.2363827 1.0842022e-19
2.2756727 0 2.5116098
0 3.1961393 3.6893488e+19
2.4447148 2 2.4696751
3.6893488e+19 3.2356508 -2
2.2752576 3.6893488e+19 2.4948142
3.6893488e+19 3.2204478 2
2.4689457 3.6893488e+19 2.4683974
-1.0842022e-19 3.2330668 1.0842022e-19
2.2737932 3.6893488e+19 2.4647646
-1.0842022e-19 3.1251605 1.0842022e-19
1.9913504 1.0842022e-19 2.3497202
-0 3.2297132 3.6893488e+19
2.3595603 -1.0842022e-19 2.435163
3.6893488e+19 3.2454243 1.0842022e-19
2.0687191 1.0842022e-19 2.4338219
-2 3.226923 -2
2.3574688 0 2.4056013
-1.0842022e-19 3.1264474 -0
1.9921783 -2 2.3083904
-0 3.2314124 2
2.3608339 2 2.3821688
-1.0842022e-19 3.2503037 -1.0842022e-19
2.0720537 1.0842022e-19 2.3818932
-3.6893488e+19 3.226465 0
2.3571258 1.0842022e-19 2.3513134
3.6893488e+19 3.2501218 -0
2.0718195 -0 2.353457
3.6893488e+19 3.2362452 1.0842022e-19
2.3644562 3.6893488e+19 2.3310735
-3.6893488e+19 3.1264858 -3.6893488e+19
1.992203 -3.6893488e+19 2.2397029
2 3.2376063 1.0842022e-19
2.3654764 3.6893488e+19 2.3045104
-3.6893488e+19 3.2466378 0
2.0695 -0 2.295104
0 3.2283616 -3.6893488e+19
2.358547 -0 2.2717922
-2 3.2669938 2
2.093528 -1.0842022e-19 2.2873473
1.0842022e-19 3.2281511 1.0842022e-19
2.3583894 -1.0842022e-19 2.2395325
-2 3.2174075 3.6893488e+19
2.4659152 3.6893488e+19 2.2037644
2 3.2328556 -2
2.2736733 -2 2.189245
3.6893488e+19 3.2169421 2
2.4654512 -1.0842022e-19 2.1506643
-3.6893488e+19 3.2296722 3.6893488e+19
2.2718692 3.6893488e+19 2.1325564
1.0842022e-19 3.122407 -3.6893488e+19
2.3712177 -0 2.0275812
-1.0842022e-19 3.2325363 0
2.2734926 -1.0842022e-19 2.0807745
2 3.2163136 -0
2.4648247 3.6893488e+19 2.0450618
-3.6893488e+19 3.1026711 -2
2.1497748 0 1.9522538
-2 3.1932461 0
2.4418311 3.6893488e+19 1.9805861
-1.0842022e-19 3.2578092 -1.0842022e-19
2.2922428 -0 1.987993
-2 3.185616 1.0842022e-19
2.4342253 -2 1.9276079
-1.0842022e-19 3.184504 -2
2.4331167 2 1.8782977
-0 3.1027331 1.0842022e-19
2.1498451 -2 1.7927768
-3.6893488e+19 3.1034467 2
2.1506541 -0 1.6781107
1.0842022e-19 3.0972786 0
1.9734132 3.6893488e+19 1.5693575
-0 3.1522381 0
2.3014903 2 1.3074832
2 3.2190881 0
2.0517764 -2 -1.5314189
-3.6893488e+19 3.1049387 2
2.2660379 -1.0842022e-19 -1.6389074
1.0842022e-19 3.0996077 3.6893488e+19
1.9749116 -0 -1.7143835
1.0842022e-19 3.101773 3.6893488e+19
2.263665 0 -1.7726649
1.0842022e-19 3.1011369 -3.6893488e+19
1.9758953 1.0842022e-19 -1.8110751
-2 3.1188414 -3.6893488e+19
2.2764583 0 -1.8624843
-0 3.104147 -0
1.9778318 3.6893488e+19 -1.8833798
1.0842022e-19 3.1174126 -0
2.2753873 -1.0842022e-19 -1.9094688
3.6893488e+19 3.1121638 -3.6893488e+19
1.9829892 2 -1.9268602
1.0842022e-19 3.1200087 0
2.2773333 2 -1.9520808
3.6893488e+19 3.0418715 3.6893488e+19
1.9377685 -3.6893488e+19 -1.9251553
3.6893488e+19 3.0382447 2
2.1820972 3.6893488e+19 -1.9397649
2 3.0388248 1.0842022e-19
1.9358084 3.6893488e+19 -1.9556189
-0 2.9039521 3.6893488e+19
2.0527749 -3.6893488e+19 -1.9056393
-0 2.8436966 -3.6893488e+19
2.0925992 3.6893488e+19 -1.8925501
-0 2.7951887 -1.0842022e-19
1.9173074 2 -1.8800706
-1.0842022e-19 2.7638187 -1.0842022e-19
2.0129764 -3.6893488e+19 -1.8735806
1.0842022e-19 2.712079 -2
1.8809488 -0 -1.8545333
2 2.6736856 3.6893488e+19
1.9611664 -0 -1.8485116
2 2.6338744 1.0842022e-19
1.8425728 -3.6893488e+19 -1.8372376
-3.6893488e+19 2.6025922 1.0842022e-19
1.9257333 -0 -1.830915
0 2.5789757 -1.0842022e-19
1.8114572 0 -1.825376
1.0842022e-19 2.5565312 1.0842022e-19
1.9027762 2 -1.8213433
-3.6893488e+19 2.5421364 2
1.7905775 2 -1.8193722
-1.0842022e-19 2.5237288 -3.6893488e+19
1.8864274 -1.0842022e-19 -1.8158203
-0 2.5127769 -0
1.773937 2 -1.8146406
-0 2.5004623 -1.0842022e-19
1.8746626 0 -1.8137923
-2 2.4768105 3.6893488e+19
1.7601236 -3.6893488e+19 -1.8104962
-0 2.4578831 -2
1.8532106 -0 -1.8105594
3.6893488e+19 3.27617 0
2.4139965 -0 2.752727
3.6893488e+19 3.276222 -3.6893488e+19
2.4140742 -0 2.7393017
1.0842022e-19 3.241946 -0
2.0664814 3.6893488e+19 2.6483111
-0 3.2804856 1.0842022e-19
2.1108873 -0 2.6879275
-1.0842022e-19 3.2476544 -0
2.3730078 2 2.632654
-1.0842022e-19 3.266053 -3.6893488e+19
2.0923173 1.0842022e-19 2.6499987
1.0842022e-19 3.207732 2
2.3430846 0 2.5886867
-2 3.2733853 -2
2.1017516 3.6893488e+19 2.6452477
-2 3.2386091 0
2.3662281 1.0842022e-19 2.5974016
0 3.2368565 -2
2.2759409 -3.6893488e+19 2.5814922
-1.0842022e-19 3.2301795 2
2.4786465 -3.6893488e+19 2.5717115
-3.6893488e+19 3.2368977 3.6893488e+19
2.2759645 0 2.5675323
-0 3.2022734 -2
2.4508293 -2 2.5399711
2 3.2398405 -2
2.2776322 -0 2.555413
1.0842022e-19 3.2005873 -3.6893488e+19
2.4491484 -2 2.5259211
1.0842022e-19 3.233021 0
2.2737672 1.0842022e-19 2.5373456
-1.0842022e-19 3.2049203 -0
2.4534678 3.6893488e+19 2.5155113
-3.6893488e+19 3.2252138 -3.6893488e+19
2.4736965 -3.6893488e+19 2.5137341
3.6893488e+19 3.1210511 -2
2.1706095 -0 2.399153
0 3.1961393 3.6893488e+19
2.4447148 2 2.4696751
-1.0842022e-19 3.1214509 -3.6893488e+19
2.1710627 -3.6893488e+19 2.3784595
3.6893488e+19 3.2204478 2
2.4689457 3.6893488e+19 2.4683974
1.0842022e-19 3.1214304 -3.6893488e+19
2.1710393 3.6893488e+19 2.3573577
-1.0842022e-19 3.1251605 1.0842022e-19
1.9913504 1.0842022e-19 2.3497202
-0 3.2297132 3.6893488e+19
2.3595603 -1.0842022e-19 2.435163
3.6893488e+19 3.124773 0
1.9911011 -0 2.3281727
-3.6893488e+19 3.1254368 2
2.2814019 -0 2.3192918
-1.0842022e-19 3.1264474 -0
1.9921783 -2 2.3083904
1.0842022e-19 3.1270053 -2
2.2825773 -0 2.2992852
-0 3.1281989 1.0842022e-19
1.9933051 2 2.2885125
3.6893488e+19 3.1226392 -3.6893488e+19
2.2793047 3.6893488e+19 2.2747591
3.6893488e+19 3.1285653 -0
1.9935408 2 2.2674828
1.0842022e-19 3.1252558 -2
2.281266 -3.6893488e+19 2.2555032
-3.6893488e+19 3.1264858 -3.6893488e+19
1.992203 -3.6893488e+19 2.2397029
-0 3.126616 1.0842022e-19
2.2822857 2 2.2203939
-3.6893488e+19 3.1273127 1.0842022e-19
1.992735 -2 2.1984012
3.6893488e+19 3.1229935 -1.0842022e-19
2.2795703 -1.0842022e-19 2.1738498
2 3.1147878 -1.0842022e-19
1.9846773 -2 2.1425962
-0 3.1218331 -2
2.2787006 -0 2.1306839
-2 3.1248856 3.6893488e+19
2.3736887 -0 2.1139431
-2 3.1106088 2
2.1587727 -2 2.0780394
-3.6893488e+19 3.123857 2
2.3726635 1.0842022e-19 2.070792
0 3.1109607 -1.0842022e-19
2.1591713 3.6893488e+19 2.0378795
1.0842022e-19 3.122407 -3.6893488e+19
2.3712177 -0 2.0275812
2 3.1013291 2
2.1482534 1.0842022e-19 1.9908332
-2 3.1159797 -1.0842022e-19
2.3648112 2 1.9815753
-3.6893488e+19 3.1026711 -2
2.1497748 0 1.9522538
3.6893488e+19 3.1152031 -1.0842022e-19
2.364037 -2 1.9399863
-3.6893488e+19 3.1046512 0
2.1520195 -0 1.9136957
-2 3.1128273 -2
2.3616688 -1.0842022e-19 1.8979307
-0 3.1145878 0
2.3634238 1.0842022e-19 1.8403065
-0 3.1027331 1.0842022e-19
2.1498451 -2 1.7927768
-3.6893488e+19 3.1034467 2
2.1506541 -0 1.6781107
1.0842022e-19 3.0972786 0
1.9734132 3.6893488e+19 1.5693575
-3.6893488e+19 3.1063142 2
2.2670689 -3.6893488e+19 1.2866489
-2 3.1001844 -0
1.9752827 3.6893488e+19 -1.4835404
-3.6893488e+19 3.1049387 2
2.2660379 -1.0842022e-19 -1.6389074
1.0842022e-19 3.0996077 3.6893488e+19
1.9749116 -0 -1.7143835
1.0842022e-19 3.101773 3.6893488e+19
2.263665 0 -1.7726649
1.0842022e-19 3.1011369 -3.6893488e+19
1.9758953 1.0842022e-19 -1.8110751
-1.0842022e-19 3.1015768 -3.6893488e+19
2.2635179 3.6893488e+19 -1.8513682
-0 3.104147 -0
1.9778318 3.6893488e+19 -1.8833798
1.0842022e-19 3.1174126 -0
2.2753873 -1.0842022e-19 -1.9094688
3.6893488e+19 3.1121638 -3.6893488e+19
1.9829892 2 -1.9268602
1.0842022e-19 3.1200087 0
2.2773333 2 -1.9520808
3.6893488e+19 3.0418715 3.6893488e+19
1.9377685 -3.6893488e+19 -1.9251553
3.6893488e+19 3.0382447 2
2.1820972 3.6893488e+19 -1.9397649
2 3.0388248 1.0842022e-19
1.9358084 3.6893488e+19 -1.9556189
-0 2.9039521 3.6893488e+19
2.0527749 -3.6893488e+19 -1.9056393
-0 2.8436966 -3.6893488e+19
2.0925992 3.6893488e+19 -1.8925501
-0 2.7951887 -1.0842022e-19
1.9173074 2 -1.8800706
-1.0842022e-19 2.7638187 -1.0842022e-19
2.0129764 -3.6893488e+19 -1.8735806
1.0842022e-19 2.712079 -2
1.8809488 -0 -1.8545333
2 2.6736856 3.6893488e+19
1.9611664 -0 -1.8485116
2 2.6338744 1.0842022e-19
1.8425728 -3.6893488e+19 -1.8372376
-3.6893488e+19 2.6025922 1.0842022e-19
1.9257333 -0 -1.830915
0 2.5789757 -1.0842022e-19
1.8114572 0 -1.825376
1.0842022e-19 2.5565312 1.0842022e-19
1.9027762 2 -1.8213433
-3.6893488e+19 2.5421364 2
1.7905775 2 -1.8193722
-1.0842022e-19 2.5237288 -3.6893488e+19
1.8864274 -1.0842022e-19 -1.8158203
-0 2.5127769 -0
1.773937 2 -1.8146406
-0 2.5004623 -1.0842022e-19
1.8746626 0 -1.8137923
-2 2.4768105 3.6893488e+19
1.7601236 -3.6893488e+19 -1.8104962
-0 2.4578831 -2
1.8532106 -0 -1.8105594
1.0842022e-19 3.2755542 3.6893488e+19
2.4014201 -1.0842022e-19 2.7521024
2 3.2749972 -1.0842022e-19
2.4006088 0 2.7370143
-1.0842022e-19 3.244261 -0
2.0472143 -0 2.6501448
-0 3.251348 -2
2.3661573 -2 2.6364369
2 3.2668321 -2
2.0709085 3.6893488e+19 2.651129
1.0842022e-19 3.2437136 0
2.3596146 -3.6893488e+19 2.6152217
0 3.2740126 0
2.0795443 -2 2.6461139
-3.6893488e+19 3.2387273 0
2.3559828 1.0842022e-19 2.5974016
2 3.2369144 -3.6893488e+19
2.2657158 1.0842022e-19 2.5814714
2 3.226265 -0
2.4646072 -3.6893488e+19 2.5689857
-3.6893488e+19 3.2399406 0
2.2673676 2 2.5694585
-2 3.2011328 2
2.4400904 -3.6893488e+19 2.5391464
2 3.2397449 -1.0842022e-19
2.2672606 2 2.5552979
3.6893488e+19 3.2252982 -3.6893488e+19
2.4636641 -1.0842022e-19 2.5409591
-3.6893488e+19 3.2319369 3.6893488e+19
2.2629998 -0 2.5366485
3.6893488e+19 3.2223208 -1.0842022e-19
2.4607596 -3.6893488e+19 2.5255778
0 3.2258174 1.0842022e-19
2.2596602 -2 2.5194297
-3.6893488e+19 3.2253673 2
2.4637318 -3.6893488e+19 2.5137341
-3.6893488e+19 3.2381091 -2
2.2663679 1.0842022e-19 2.5124905
-0 3.2201216 -0
2.4586143 -3.6893488e+19 2.4947627
0 3.235028 1.0842022e-19
2.2646866 0 2.4940896
1.0842022e-19 3.221585 -3.6893488e+19
2.4600418 2 2.469378
2 3.2306166 -3.6893488e+19
2.262279 0 2.462323
1.0842022e-19 3.2465739 -2
2.048605 -3.6893488e+19 2.462853
-3.6893488e+19 3.2285304 -2
2.3485553 1.0842022e-19 2.4339852
0 3.2461889 -0
2.0483735 2 2.4344471
-3.6893488e+19 3.2275336 3.6893488e+19
2.3478293 -3.6893488e+19 2.4060221
-3.6893488e+19 3.2670877 -2
2.0712161 -3.6893488e+19 2.4375587
-0 3.2416873 -2
2.3581386 -1.0842022e-19 2.3902309
0 3.2688262 -0
2.0733068 3.6893488e+19 2.4101112
0 3.2280681 -2
2.3482184 -0 2.3524098
-1.0842022e-19 3.2500384 1.0842022e-19
2.0507116 2 2.3533032
0 3.2376964 -3.6893488e+19
2.3552315 -0 2.3319812
3.6893488e+19 3.245548 3.6893488e+19
2.0479882 -1.0842022e-19 2.3222518
-3.6893488e+19 3.2374139 3.6893488e+19
2.355026 -2 2.3043165
0 3.2485261 3.6893488e+19
2.0497789 3.6893488e+19 2.2961957
2 3.2270494 -0
2.3474765 2 2.2709811
2 3.2674417 -3.6893488e+19
2.0716417 2 2.2878001
-1.0842022e-19 3.2281425 3.6893488e+19
2.3482728 2 2.2394054
0 3.2186115 0
2.4571412 -2 2.2047861
1.0842022e-19 3.2328191 1.0842022e-19
2.2634811 -2 2.1891317
-0 3.2165043 -3.6893488e+19
2.4550855 1.0842022e-19 2.1501596
2 3.2301023 -2
2.2619984 0 2.1328297
-0 3.2029698 -0
2.4418824 0 2.0875216
2 3.2334342 1.0842022e-19
2.2638168 -2 2.0813296
1.0842022e-19 3.1138973 -1.0842022e-19
2.35499 -1.0842022e-19 1.9801831
-3.6893488e+19 3.1032963 0
2.1355977 -2 1.9525753
-2 3.1845841 2
2.4239469 -1.0842022e-19 1.9760069
-0 3.258199 0
2.2818058 -3.6893488e+19 1.9883094
-3.6893488e+19 3.1861289 -2
2.4254537 0 1.9277596
3.6893488e+19 3.1301198 -2
2.1648734 3.6893488e+19 1.8828915
-3.6893488e+19 3.188025 0
2.4273036 1.0842022e-19 1.8792956
1.0842022e-19 3.1048238 0
2.1372647 -0 1.7937405
-2 3.0970016 2
1.9586627 3.6893488e+19 1.5691828
-3.6893488e+19 3.143497 1.0842022e-19
2.2866182 -0 1.3034744
3.6893488e+19 3.2154822 -1.0842022e-19
2.0299087 -2 -1.5302007
0 3.1015482 1.0842022e-19
1.9613967 -3.6893488e+19 -1.7155514
-3.6893488e+19 3.1103222 -2
2.262454 1.0842022e-19 -1.7762171
-2 3.1015785 -1.0842022e-19
1.9614149 2 -1.8112901
1.0842022e-19 3.1155393 -2
2.2662539 2 -1.8603011
1.0842022e-19 3.1046515 1.0842022e-19
1.9632628 -2 -1.8835561
2 3.1162882 -2
2.2667994 1.0842022e-19 -1.9089423
2 3.1064575 3.6893488e+19
1.9643488 2 -1.9240558
-1.0842022e-19 3.1184497 -0
2.268374 -2 -1.9511807
-3.6893488e+19 3.041714 -1.0842022e-19
1.9254166 3.6893488e+19 -1.925043
1.0842022e-19 3.0394962 2
2.1717305 3.6893488e+19 -1.9405426
-3.6893488e+19 3.0396652 2
1.9241847 -3.6893488e+19 -1.9561962
1.0842022e-19 2.9028687 0
2.0434444 0 -1.9051844
-3.6893488e+19 2.8381693 -2
2.0798919 0 -1.8902124
-2 2.7976706 -1.0842022e-19
1.912443 0 -1.8811404
1.0842022e-19 2.7647092 -2
2.0082297 -2 -1.874339
-2 2.710794 3.6893488e+19
1.8757309 2 -1.8538533
1.0842022e-19 2.6629267 1.0842022e-19
1.9514097 -0 -1.8427655
1.0842022e-19 2.6350641 3.6893488e+19
1.8351349 1.0842022e-19 -1.8378567
-0 2.6022112 -2
1.921795 2 -1.830626
-0 2.5790355 1.0842022e-19
1.8045594 0 -1.825376
0 2.5576198 2
1.900045 -0 -1.8219769
1.0842022e-19 2.5416927 -1.0842022e-19
1.7841808 1.0842022e-19 -1.8190415
-3.6893488e+19 2.5264132 0
1.8848238 -1.0842022e-19 -1.8176295
-1.0842022e-19 2.5117068 2
1.7678171 -3.6893488e+19 -1.813834
-3.6893488e+19 2.5005431 -2
1.8694106 0 -1.8137923
3.6893488e+19 2.4761527 -0
1.7549216 -2 -1.8102065
2 2.4558089 -1.0842022e-19
1.8473259 2 -1.8096591
-0 2.3948829 2
1.6124552 3.6893488e+19 -1.8062055
-0 2.3404458 3.6893488e+19
1.5797205 2 -1.8005066
-3.6893488e+19 2.2992427 3.6893488e+19
1.5549439 -1.0842022e-19 -1.7962744
2 2.2655473 -1.0842022e-19
1.5346817 -3.6893488e+19 -1.7921423
-0 2.229882 -0
1.7340679 0 -1.7908814
1.0842022e-19 2.1876991 -2
1.7134926 1.0842022e-19 -1.7889884
2 2.158783 -1.0842022e-19
1.6993885 -3.6893488e+19 -1.7900664
-3.6893488e+19 2.1236341 -2
1.6822443 -2 -1.786822
1.0842022e-19 3.2755542 3.6893488e+19
2.4014201 -1.0842022e-19 2.7521024
2 3.2749972 -1.0842022e-19
2.4006088 0 2.7370143
-1.0842022e-19 3.244261 -0
2.0472143 -0 2.6501448
-0 3.251348 -2
2.3661573 -2 2.6364369
2 3.2668321 -2
2.0709085 3.6893488e+19 2.651129
3.6893488e+19 3.2066491 1.0842022e-19
2.3326173 -0 2.5878036
0 3.2740126 0
2.0795443 -2 2.6461139
-3.6893488e+19 3.2387273 0
2.3559828 1.0842022e-19 2.5974016
2 3.2369144 -3.6893488e+19
2.2657158 1.0842022e-19 2.5814714
2 3.226265 -0
2.4646072 -3.6893488e+19 2.5689857
-3.6893488e+19 3.2399406 0
2.2673676 2 2.5694585
-2 3.2011328 2
2.4400904 -3.6893488e+19 2.5391464
2 3.2397449 -1.0842022e-19
2.2672606 2 2.5552979
-1.0842022e-19 3.2019901 1.0842022e-19
2.4409268 2 2.526691
-3.6893488e+19 3.2319369 3.6893488e+19
2.2629998 -0 2.5366485
0 3.2052209 -2
2.4440782 0 2.5156009
0 3.2258174 1.0842022e-19
2.2596602 -2 2.5194297
-3.6893488e+19 3.2253673 2
2.4637318 -3.6893488e+19 2.5137341
0 3.121366 3.6893488e+19
2.1553192 -1.0842022e-19 2.3994188
-0 3.2201216 -0
2.4586143 -3.6893488e+19 2.4947627
0 3.235028 1.0842022e-19
2.2646866 0 2.4940896
1.0842022e-19 3.221585 -3.6893488e+19
2.4600418 2 2.469378
1.0842022e-19 3.1203527 0
2.1542134 2 2.356256
0 3.1257882 -2
1.9759729 2 2.3502696
-0 3.1379826 0
2.2826016 1.0842022e-19 2.3518662
0 3.2461889 -0
2.0483735 2 2.4344471
1.0842022e-19 3.1367621 0
2.2817125 1.0842022e-19 2.3288438
2 3.2468657 -3.6893488e+19
2.0487804 -2 2.406997
-1.0842022e-19 3.1241233 -3.6893488e+19
2.2725065 3.6893488e+19 2.2969255
1.0842022e-19 3.2508578 0
2.051697 -1.0842022e-19 2.3826993
3.6893488e+19 3.1260145 2
2.2738841 2 2.2771807
-2 3.126924 1.0842022e-19
1.9766561 -1.0842022e-19 2.2662959
-2 3.1242301 3.6893488e+19
2.2725844 -0 2.2547433
-3.6893488e+19 3.1259017 2
1.9760413 1.0842022e-19 2.2388935
-2 3.1255591 3.6893488e+19
2.2735524 -1.0842022e-19 2.2189603
-0 3.1280675 -2
1.9773436 -1.0842022e-19 2.1992524
3.6893488e+19 3.1261261 2
2.2739654 1.0842022e-19 2.1773062
2 3.1194675 2
1.9721721 1.0842022e-19 2.1475923
3.6893488e+19 3.1151214 1.0842022e-19
2.2659497 -2 2.1237218
-1.0842022e-19 3.1277006 1.0842022e-19
2.3684556 0 2.1165576
2 3.1077175 -2
2.1404228 -3.6893488e+19 2.0753498
1.0842022e-19 3.1208184 1.0842022e-19
2.3617418 -0 2.0680816
-3.6893488e+19 3.1091268 -3.6893488e+19
2.1419611 -1.0842022e-19 2.0363648
1.0842022e-19 3.1170425 -2
2.3580582 0 2.0234945
-2 3.1014864 -3.6893488e+19
2.1336222 3.6893488e+19 1.9908972
1.0842022e-19 3.1138973 -1.0842022e-19
2.35499 -1.0842022e-19 1.9801831
-3.6893488e+19 3.1032963 0
2.1355977 -2 1.9525753
-0 3.1163132 0
2.357347 -3.6893488e+19 1.9405023
2 3.102067 -3.6893488e+19
2.1342556 -1.0842022e-19 1.9124732
-2 3.1102777 -3.6893488e+19
2.351459 3.6893488e+19 1.8968438
1.0842022e-19 3.1040616 -2
2.1364326 0 1.872563
0 3.1134961 -2
2.3545985 -2 1.8395923
1.0842022e-19 3.1048238 0
2.1372647 -0 1.7937405
-2 3.0970016 2
1.9586627 3.6893488e+19 1.5691828
-0 3.1086102 -3.6893488e+19
2.2612069 -3.6893488e+19 1.2876511
1.0842022e-19 3.0991898 -0
1.9599785 -2 -1.4828532
0 3.1015482 1.0842022e-19
1.9613967 -3.6893488e+19 -1.7155514
-3.6893488e+19 3.1103222 -2
2.262454 1.0842022e-19 -1.7762171
-2 3.1015785 -1.0842022e-19
1.9614149 2 -1.8112901
1.0842022e-19 3.1155393 -2
2.2662539 2 -1.8603011
1.0842022e-19 3.1046515 1.0842022e-19
1.9632628 -2 -1.8835561
2 3.1162882 -2
2.2667994 1.0842022e-19 -1.9089423
2 3.1064575 3.6893488e+19
1.9643488 2 -1.9240558
-1.0842022e-19 3.1184497 -0
2.268374 -2 -1.9511807
-3.6893488e+19 3.041714 -1.0842022e-19
1.9254166 3.6893488e+19 -1.925043
1.0842022e-19 3.0394962 2
2.1717305 3.6893488e+19 -1.9405426
-3.6893488e+19 3.0396652 2
1.9241847 -3.6893488e+19 -1.9561962
1.0842022e-19 2.9028687 0
2.0434444 0 -1.9051844
-3.6893488e+19 2.8381693 -2
2.0798919 0 -1.8902124
-2 2.7976706 -1.0842022e-19
1.912443 0 -1.8811404
1.0842022e-19 2.7647092 -2
2.0082297 -2 -1.874339
-2 2.710794 3.6893488e+19
1.8757309 2 -1.8538533
1.0842022e-19 2.6629267 1.0842022e-19
1.9514097 -0 -1.8427655
1.0842022e-19 2.6350641 3.6893488e+19
1.8351349 1.0842022e-19 -1.8378567
-0 2.6022112 -2
1.921795 2 -1.830626
-0 2.5790355 1.0842022e-19
1.8045594 0 -1.825376
0 2.5576198 2
1.900045 -0 -1.8219769
1.0842022e-19 2.5416927 -1.0842022e-19
1.7841808 1.0842022e-19 -1.8190415
-3.6893488e+19 2.5264132 0
1.8848238 -1.0842022e-19 -1.8176295
-1.0842022e-19 2.5117068 2
1.7678171 -3.6893488e+19 -1.813834
-3.6893488e+19 2.5005431 -2
1.8694106 0 -1.8137923
3.6893488e+19 2.4761527 -0
1.7549216 -2 -1.8102065
2 2.4558089 -1.0842022e-19
1.8473259 2 -1.8096591
-0 2.3948829 2
1.6124552 3.6893488e+19 -1.8062055
-0 2.3404458 3.6893488e+19
1.5797205 2 -1.8005066
-3.6893488e+19 2.2992427 3.6893488e+19
1.5549439 -1.0842022e-19 -1.7962744
2 2.2655473 -1.0842022e-19
1.5346817 -3.6893488e+19 -1.7921423
-0 2.229882 -0
1.7340679 0 -1.7908814
1.0842022e-19 2.1876991 -2
1.7134926 1.0842022e-19 -1.7889884
2 2.158783 -1.0842022e-19
1.6993885 -3.6893488e+19 -1.7900664
-3.6893488e+19 2.1236341 -2
1.6822443 -2 -1.786822
0 3.2760136 0
2.3904226 3.6893488e+19 2.7524633
-3.6893488e+19 3.2736483 -3.6893488e+19
2.3870769 -3.6893488e+19 2.7345114
-0 3.2418704 2
2.3478765 2 2.6137729
-3.6893488e+19 3.2740231 2
2.0565464 -1.0842022e-19 2.6460917
-0 3.238873 -1.0842022e-19
2.3457565 -0 2.5974233
1.0842022e-19 3.257004 -3.6893488e+19
2.4904931 -0 2.6090081
-1.0842022e-19 3.2367845 -3.6893488e+19
2.2553935 -2 2.5813248
0 3.2395959 2
2.2568686 1.0842022e-19 2.5691776
-1.0842022e-19 3.2416487 -3.6893488e+19
2.2579455 -1.0842022e-19 2.5564308
1.0842022e-19 3.2252951 1.0842022e-19
2.4535513 -3.6893488e+19 2.5408652
1.0842022e-19 3.230356 3.6893488e+19
2.2520208 -3.6893488e+19 2.5356579
-1.0842022e-19 3.2260551 -2
2.2495289 3.6893488e+19 2.5195172
0 3.22561 -0
2.4538517 3.6893488e+19 2.5137854
-1.0842022e-19 3.2350423 2
2.2544796 -3.6893488e+19 2.5107954
2 3.2328238 1.0842022e-19
2.2533157 -3.6893488e+19 2.4917579
0 3.2328682 -0
2.2533388 -1.0842022e-19 2.4644072
-1.0842022e-19 3.2473345 2
2.0281811 1.0842022e-19 2.4635181
0 3.2299423 0
2.3394403 -1.0842022e-19 2.435163
-1.0842022e-19 3.2463601 1.0842022e-19
2.0276361 2 2.4345558
0 3.2299368 -3.6893488e+19
2.3394363 2 2.4079695
-3.6893488e+19 3.2670665 1.0842022e-19
2.0487642 -1.0842022e-19 2.4374824
-1.0842022e-19 3.2320139 -2
2.3409054 3.6893488e+19 2.3824637
-2 3.2699864 -1.0842022e-19
2.0520306 -3.6893488e+19 2.4118421
1.0842022e-19 3.2307534 2
2.340014 -1.0842022e-19 2.354306
0 3.2504978 1.0842022e-19
2.0302289 2 2.3539186
-3.6893488e+19 3.2384002 -0
2.3454223 -1.0842022e-19 2.3323822
3.6893488e+19 3.2469025 -0
2.0279393 2 2.323102
0 3.2379322 -0
2.3450911 1.0842022e-19 2.3045685
-2 3.2506413 3.6893488e+19
2.0303895 1.0842022e-19 2.2978055
3.6893488e+19 3.2264473 -2
2.3369684 1.0842022e-19 2.2705755
-1.0842022e-19 3.1274173 0
1.9611062 -2 2.1561086
-1.0842022e-19 3.2237194 -0
2.3350391 1.0842022e-19 2.2347641
-2 3.2185736 3.6893488e+19
2.4471374 -0 2.2046058
-2 3.2432709 -1.0842022e-19
2.2587967 -3.6893488e+19 2.1985593
3.6893488e+19 3.216435 3.6893488e+19
2.4450965 0 2.1499736
3.6893488e+19 3.105546 2
2.1230776 -1.0842022e-19 2.0334597
-1.0842022e-19 3.213311 0
2.4421155 -1.0842022e-19 2.0951178
-2 3.2352324 -0
2.2545793 -0 2.0825038
0 3.1129892 2
2.3463831 0 1.9795362
-2 3.1031401 1.0842022e-19
