# .PCD v0.7 - Point Cloud Data file format
VERSION 0.7
FIELDS x y z
SIZE 4 4 4
TYPE F F F
COUNT 1 1 1
WIDTH 1696
HEIGHT 1
VIEWPOINT 0 0 0 1 0 0 0
POINTS 1696
DATA ascii
-2 3.1724906 0
2.3311441 -2 2.4014158
3.6893488e+19 3.1416526 2
2.4764075 2 2.3634
3.6893488e+19 3.1713758 -1.0842022e-19
2.3302701 0 2.3764317
0 3.1429698 3.6893488e+19
2.4780097 3.6893488e+19 2.3421831
-0 3.1713517 -1.0842022e-19
2.3302512 1.0842022e-19 2.3525236
-2 3.2045195 -2
2.5264394 -3.6893488e+19 2.3698585
2 3.1721425 2
2.3308711 -1.0842022e-19 2.329293
-2 3.13903 1.0842022e-19
2.4732175 2 2.2944179
-3.6893488e+19 3.168112 -2
2.3277121 -0 2.3025126
-0 3.1445992 -2
2.4799917 1.0842022e-19 2.2761908
-0 3.1708128 2
2.329829 -0 2.2807119
3.6893488e+19 3.1431029 -0
2.4781716 -1.0842022e-19 2.2528179
-1.0842022e-19 3.143157 0
2.4782376 3.6893488e+19 2.2110894
-0 3.2429011 0
2.3863311 -3.6893488e+19 2.2732399
-3.6893488e+19 3.1386292 -1.0842022e-19
2.4727299 -1.0842022e-19 2.1617212
-0 3.1698618 -3.6893488e+19
2.5581036 3.6893488e+19 2.1731939
-0 3.1399455 1.0842022e-19
2.4021506 0 2.1177835
1.0842022e-19 3.1424165 1.0842022e-19
2.4046988 2 2.0758448
-1.0842022e-19 3.2764843 -3.6893488e+19
2.6557803 3.6893488e+19 2.1815641
-2 3.1443744 -2
2.406718 2 2.0330212
2 3.1516724 0
2.5447559 -2 2.0178409
-0 3.1419475 -3.6893488e+19
2.4042151 0 1.9871224
-0 3.1538048 -0
2.5463207 -2 1.9734118
-3.6893488e+19 3.1397789 -1.0842022e-19
2.4019787 -1.0842022e-19 1.9419291
-2 3.1495583 -1.0842022e-19
2.5432045 3.6893488e+19 1.9257061
0 3.1454298 -1.0842022e-19
2.4078064 -3.6893488e+19 1.9002043
0 3.1516831 -2
2.5447636 1.0842022e-19 1.8810691
2 3.1507533 -1.0842022e-19
2.4132965 2 1.8392874
-1.0842022e-19 3.1526821 0
2.5454969 -3.6893488e+19 1.7964283
-1.0842022e-19 3.137742 0
2.3998783 0 1.7401903
-0 3.1449142 -0
2.3095298 3.6893488e+19 1.6552728
1.0842022e-19 3.1334662 3.6893488e+19
2.4664495 -3.6893488e+19 1.5054518
2 3.142029 -1.0842022e-19
2.3072684 1.0842022e-19 -1.297974
1.0842022e-19 3.1323826 -3.6893488e+19
2.4651313 2 -1.5900061
3.6893488e+19 3.1420171 -1.0842022e-19
2.3072591 3.6893488e+19 -1.6973437
-3.6893488e+19 3.1297975 3.6893488e+19
2.461987 0 -1.7640992
2 3.1424527 -0
2.3076005 2 -1.8117672
0 3.1284611 2
2.4603612 2 -1.849016
-2 3.1497407 -2
2.3133128 -0 -1.8899281
0 3.1302876 2
2.4625831 -0 -1.905477
-0 3.1480849 1.0842022e-19
2.3120151 1.0842022e-19 -1.9339955
-3.6893488e+19 3.1322801 -2
2.4650068 -3.6893488e+19 -1.9494519
1.0842022e-19 3.1465347 -1.0842022e-19
2.3107998 3.6893488e+19 -1.9777699
3.6893488e+19 3.1089699 3.6893488e+19
2.4366522 -0 -1.9778446
-1.0842022e-19 3.0902777 -1.0842022e-19
2.2667062 2 -1.9836464
3.6893488e+19 3.0219557 0
2.3308079 0 -1.9533502
-3.6893488e+19 2.9081655 3.6893488e+19
2.1709409 0 -1.925124
3.6893488e+19 2.8405728 2
2.2498395 2 -1.9070259
1.0842022e-19 2.7967529 -0
2.056041 0 -1.8940641
-0 2.7509205 0
2.1182621 3.6893488e+19 -1.8799706
-3.6893488e+19 2.7189286 3.6893488e+19
1.9918029 3.6893488e+19 -1.8770611
-2 2.6743417 -1.0842022e-19
2.0613911 0 -1.8689647
-3.6893488e+19 2.6506987 1.0842022e-19
1.9566202 -3.6893488e+19 -1.8647933
1.0842022e-19 2.6146717 -1.0842022e-19
2.0176039 -2 -1.8554513
2 2.5962358 -2
1.9285363 -0 -1.8517852
-2 2.5679116 1.0842022e-19
1.9832906 0 -1.8440444
-0 2.5516968 0
1.9055699 1.0842022e-19 -1.8397001
-2 2.5318429 -2
1.9568225 1.0842022e-19 -1.8352991
-1.0842022e-19 2.5207734 -0
1.8896242 -1.0842022e-19 -1.8330461
2 2.5044937 1.0842022e-19
1.936753 -2 -1.8294542
-1.0842022e-19 2.4854288 -1.0842022e-19
1.8751556 -2 -1.8252696
-2 2.4649158 -2
1.8071982 3.6893488e+19 -1.8227262
-2 2.4429877 2
1.8847129 0 -1.8209766
-2 2.425745 -2
1.7918473 -0 -1.8181394
-1.0842022e-19 2.368017 3.6893488e+19
1.769224 -2 -1.8128701
2 2.3178103 -3.6893488e+19
1.7490965 -3.6893488e+19 -1.8053693
-2 2.2832255 -3.6893488e+19
1.7219894 -0 -1.8019614
0 2.2494009 -0
1.8082355 -1.0842022e-19 -1.7973949
3.6893488e+19 2.2041571 3.6893488e+19
1.7916352 0 -1.7950553
-0 2.1662867 2
1.7777401 -3.6893488e+19 -1.7931089
0 2.1333485 1.0842022e-19
1.7656547 -2 -1.791136
-1.0842022e-19 3.2730064 3.6893488e+19
2.5762322 1.0842022e-19 2.7535303
1.0842022e-19 3.1793375 1.0842022e-19
2.327425 -0 2.639797
1.0842022e-19 3.235929 -1.0842022e-19
2.540333 0 2.6868646
2 3.2344642 -2
2.3694661 0 2.6756046
-2 3.2633986 -0
2.4017508 1.0842022e-19 2.6973581
-1.0842022e-19 3.2580652 3.6893488e+19
2.393616 2 2.6732173
0 3.2503896 2
2.5492058 2 2.6559637
3.6893488e+19 3.2325358 -1.0842022e-19
2.3679955 3.6893488e+19 2.6036077
3.6893488e+19 3.1839175 2
2.5092573 -1.0842022e-19 2.5637381
-0 3.181154 1.0842022e-19
2.5617206 0 2.5570161
3.6893488e+19 3.2340887 -2
2.4889257 -0 2.5848992
-1.0842022e-19 3.2441127 1.0842022e-19
2.6072392 -2 2.5874326
-2 3.2357879 2
2.4906421 3.6893488e+19 2.5720346
1.0842022e-19 3.2476549 2
2.6098001 3.6893488e+19 2.5753701
-2 3.2364247 0
2.4912853 2 2.5584331
2 3.2469547 -3.6893488e+19
2.6092937 -2 2.5604806
-0 3.2292199 -2
2.4840083 0 2.5400763
-3.6893488e+19 3.1960843 -1.0842022e-19
2.572515 -3.6893488e+19 2.5157745
-1.0842022e-19 3.2294643 1.0842022e-19
2.4842553 2 2.5264575
1.0842022e-19 3.2123976 2
2.5843093 3.6893488e+19 2.5121219
-1.0842022e-19 3.2341394 0
2.4889772 -3.6893488e+19 2.5152826
-0 3.2521787 -0
2.614646 -2 2.5213537
0 3.2265916 1.0842022e-19
2.4813538 1.0842022e-19 2.4950318
-1.0842022e-19 3.2306702 -1.0842022e-19
2.4854732 -1.0842022e-19 2.4718277
3.6893488e+19 3.2406261 -3.6893488e+19
2.3741653 -3.6893488e+19 2.4660344
3.6893488e+19 3.145185 -2
2.4722307 0 2.3665328
2 3.2379885 -3.6893488e+19
2.3721538 -0 2.4358289
-1.0842022e-19 3.1998827 -0
2.5187962 -0 2.3915861
-0 3.2414179 -2
2.3747692 0 2.4110403
2 3.2005169 -0
2.5191751 2 2.3664567
1.0842022e-19 3.2433727 2
2.37626 -3.6893488e+19 2.3847587
-3.6893488e+19 3.2008524 -1.0842022e-19
2.5193756 -3.6893488e+19 2.3410702
1.0842022e-19 3.2378695 2
2.3720632 3.6893488e+19 2.3528941
-3.6893488e+19 3.2035372 -2
2.5209796 3.6893488e+19 2.3173177
-2 3.2405818 3.6893488e+19
2.3741317 3.6893488e+19 2.3271699
0 3.2025058 -0
2.5203633 -2 2.2909069
-2 3.2383411 2
2.3724229 -3.6893488e+19 2.2981422
-3.6893488e+19 3.2032077 1.0842022e-19
2.5207829 0 2.2656531
-1.0842022e-19 3.2535734 3.6893488e+19
2.3867648 -1.0842022e-19 2.2810659
-0 3.1399548 0
2.465981 2 2.1629624
0 3.1722722 2
2.555299 3.6893488e+19 2.1754203
-0 3.234848 -1.0842022e-19
2.4896927 0 2.2071395
2 3.1763132 3.6893488e+19
2.5582206 -3.6893488e+19 2.1310103
3.6893488e+19 3.1440029 1.0842022e-19
2.3979399 -3.6893488e+19 2.0770526
-1.0842022e-19 3.1752374 -0
2.5574429 -0 2.081718
-2 3.2238598 3.6893488e+19
2.4785948 3.6893488e+19 2.0899498
2 3.152878 -1.0842022e-19
2.5412772 2 2.0185168
0 3.1464472 1.0842022e-19
2.4004085 -0 1.9897643
3.6893488e+19 3.2776196 -3.6893488e+19
2.651433 -3.6893488e+19 2.0570488
-2 3.3045919 3.6893488e+19
2.6904347 -3.6893488e+19 2.0177612
1.0842022e-19 3.1495295 -0
2.4035215 3.6893488e+19 1.9017109
-0 3.304934 0
2.6909294 3.6893488e+19 1.9489049
2 3.2071826 -3.6893488e+19
2.4617507 0 1.8693792
1.0842022e-19 3.304585 -0
2.6904244 2 1.8796049
0 3.2081234 1.0842022e-19
2.4627011 -0 1.7668468
-1.0842022e-19 3.1490893 -3.6893488e+19
2.3043568 0 1.6568748
-0 3.1330304 -2
2.4577065 -2 1.5052521
-1.0842022e-19 3.1430926 2
2.2997837 -2 -1.2983993
1.0842022e-19 3.1322556 -2
2.4567804 -2 -1.5898497
0 3.2514927 -1.0842022e-19
2.3835909 2 -1.7515708
-2 3.1320491 -1.0842022e-19
2.4565339 0 -1.7648686
3.6893488e+19 3.1424277 1.0842022e-19
2.2992766 -1.0842022e-19 -1.811708
-3.6893488e+19 3.1293521 3.6893488e+19
2.4533112 2 -1.8494548
-0 3.2750313 -2
2.4194934 1.0842022e-19 -1.9424992
-3.6893488e+19 3.1303141 0
2.4544609 -3.6893488e+19 -1.9054265
1.0842022e-19 3.1487455 -2
2.3040946 -3.6893488e+19 -1.9342541
2 3.1344392 -0
2.4593899 -0 -1.9504992
3.6893488e+19 3.1463242 -1.0842022e-19
2.302248 -2 -1.9775913
-3.6893488e+19 3.1071351 0
2.4267628 -2 -1.9765905
2 3.0897734 0
2.2591209 -2 -1.983241
-1.0842022e-19 3.02478 -1.0842022e-19
2.3283515 0 -1.9553809
2 2.8717599 -0
2.268779 0 -1.9001973
3.6893488e+19 2.9059491 -2
2.1600053 1.0842022e-19 -1.9241148
1.0842022e-19 2.8437443 3.6893488e+19
2.2470481 0 -1.9084126
-1.0842022e-19 2.7912815 2
2.0441921 -3.6893488e+19 -1.8913605
3.6893488e+19 2.7505493 -1.0842022e-19
2.1122899 -3.6893488e+19 -1.8797163
-1.0842022e-19 2.7193329 -1.0842022e-19
1.9870113 -1.0842022e-19 -1.8771281
-0 2.6738081 0
2.0564096 1.0842022e-19 -1.8685416
-3.6893488e+19 2.6513274 -1.0842022e-19
1.9526688 3.6893488e+19 -1.8650893
-0 2.6149683 -1.0842022e-19
2.0138688 -1.0842022e-19 -1.8555288
2 2.5961044 -0
1.9247813 -2 -1.8516233
-1.0842022e-19 2.5672054 -3.6893488e+19
1.9793367 3.6893488e+19 -1.8434535
-1.0842022e-19 2.5516741 -3.6893488e+19
1.9023442 -3.6893488e+19 -1.8396121
3.6893488e+19 2.5318551 -2
1.9537787 -3.6893488e+19 -1.8352077
-0 2.520864 -0
1.8867853 -1.0842022e-19 -1.8330461
-2 2.5046151 3.6893488e+19
1.9340845 -2 -1.8294542
-1.0842022e-19 2.4855912 -3.6893488e+19
1.8702216 -2 -1.8252696
-0 2.4637961 1.0842022e-19
1.8018521 -1.0842022e-19 -1.8222001
-3.6893488e+19 2.4431627 0
1.8823906 0 -1.8209766
-1.0842022e-19 3.2730064 3.6893488e+19
2.5762322 1.0842022e-19 2.7535303
1.0842022e-19 3.1793375 1.0842022e-19
2.327425 -0 2.639797
-2 3.1878066 -0
2.5115809 -0 2.6436012
1.0842022e-19 3.179821 -2
2.3277936 2 2.6276002
-2 3.2633986 -0
2.4017508 1.0842022e-19 2.6973581
-1.0842022e-19 3.2580652 3.6893488e+19
2.393616 2 2.6732173
0 3.2503896 2
2.5492058 2 2.6559637
3.6893488e+19 3.2325358 -1.0842022e-19
2.3679955 3.6893488e+19 2.6036077
3.6893488e+19 3.1839175 2
2.5092573 -1.0842022e-19 2.5637381
-0 3.181154 1.0842022e-19
2.5617206 0 2.5570161
3.6893488e+19 3.2340887 -2
2.4889257 -0 2.5848992
-0 3.2059011 -0
2.5796125 -0 2.5613377
-2 3.2357879 2
2.4906421 3.6893488e+19 2.5720346
0 3.2092173 1.0842022e-19
2.58201 2 2.5502393
-2 3.2364247 0
2.4912853 2 2.5584331
2 3.2084749 -3.6893488e+19
2.5814731 -3.6893488e+19 2.5364397
-0 3.2292199 -2
2.4840083 0 2.5400763
-3.6893488e+19 3.1960843 -1.0842022e-19
2.572515 -3.6893488e+19 2.5157745
-1.0842022e-19 3.2294643 1.0842022e-19
2.4842553 2 2.5264575
1.0842022e-19 3.2123976 2
2.5843093 3.6893488e+19 2.5121219
2 3.1903 3.6893488e+19
2.4446995 -3.6893488e+19 2.482522
-0 3.2521787 -0
2.614646 -2 2.5213537
-1.0842022e-19 3.1973176 -3.6893488e+19
2.4517872 1.0842022e-19 2.4646254
1.0842022e-19 3.1471732 -2
2.4011416 -1.0842022e-19 2.3898666
3.6893488e+19 3.2406261 -3.6893488e+19
2.3741653 -3.6893488e+19 2.4660344
3.6893488e+19 3.145185 -2
2.4722307 0 2.3665328
-0 3.1703694 1.0842022e-19
2.3205857 3.6893488e+19 2.3754375
-3.6893488e+19 3.1435244 -0
2.4702466 -3.6893488e+19 2.3425307
1.0842022e-19 3.1727271 -0
2.3223836 -3.6893488e+19 2.3535845
3.6893488e+19 3.1431644 -0
2.4698162 3.6893488e+19 2.3198054
-1.0842022e-19 3.1734569 3.6893488e+19
2.3229403 -0 2.3302348
-2 3.1427841 -3.6893488e+19
2.4693618 -0 2.2971416
1.0842022e-19 3.2378695 2
2.3720632 3.6893488e+19 2.3528941
-1.0842022e-19 3.1443856 2
2.4712756 -3.6893488e+19 2.2759321
0 3.1703305 -0
2.3205559 -3.6893488e+19 2.280319
2 3.1410091 0
2.4672408 0 2.2513721
-3.6893488e+19 3.1596444 3.6893488e+19
2.3124065 -1.0842022e-19 2.2500963
1.0842022e-19 3.1382878 3.6893488e+19
2.4639888 -0 2.2051988
-1.0842022e-19 3.2535734 3.6893488e+19
2.3867648 -1.0842022e-19 2.2810659
-0 3.1399548 0
2.465981 2 2.1629624
0 3.1722722 2
2.555299 3.6893488e+19 2.1754203
1.0842022e-19 3.1406331 -2
2.3945363 1.0842022e-19 2.1183088
2 3.1763132 3.6893488e+19
2.5582206 -3.6893488e+19 2.1310103
3.6893488e+19 3.1440029 1.0842022e-19
2.3979399 -3.6893488e+19 2.0770526
-1.0842022e-19 3.1752374 -0
2.5574429 -0 2.081718
2 3.1444445 -0
2.3983858 -3.6893488e+19 2.0329766
2 3.152878 -1.0842022e-19
2.5412772 2 2.0185168
0 3.1464472 1.0842022e-19
2.4004085 -0 1.9897643
-1.0842022e-19 3.155442 -3.6893488e+19
2.5431309 -1.0842022e-19 1.9742106
-3.6893488e+19 3.1496875 0
2.5389707 -2 1.9256791
1.0842022e-19 3.1495295 -0
2.4035215 3.6893488e+19 1.9017109
1.0842022e-19 3.1531968 2
2.5415077 1.0842022e-19 1.8815002
2 3.1492753 0
2.403265 2 1.8384258
-0 3.1523516 -0
2.5408967 1.0842022e-19 1.796206
0 3.1383059 0
2.3921859 -2 1.740459
-1.0842022e-19 3.1490893 -3.6893488e+19
2.3043568 0 1.6568748
-0 3.1330304 -2
2.4577065 -2 1.5052521
-1.0842022e-19 3.1430926 2
2.2997837 -2 -1.2983993
1.0842022e-19 3.1322556 -2
2.4567804 -2 -1.5898497
3.6893488e+19 3.1448228 -0
2.3011031 2 -1.6987058
-2 3.1320491 -1.0842022e-19
2.4565339 0 -1.7648686
3.6893488e+19 3.1424277 1.0842022e-19
2.2992766 -1.0842022e-19 -1.811708
-3.6893488e+19 3.1293521 3.6893488e+19
2.4533112 2 -1.8494548
0 3.1489091 -2
2.3042192 3.6893488e+19 -1.8896016
-3.6893488e+19 3.1303141 0
2.4544609 -3.6893488e+19 -1.9054265
1.0842022e-19 3.1487455 -2
2.3040946 -3.6893488e+19 -1.9342541
2 3.1344392 -0
2.4593899 -0 -1.9504992
3.6893488e+19 3.1463242 -1.0842022e-19
2.302248 -2 -1.9775913
-3.6893488e+19 3.1071351 0
2.4267628 -2 -1.9765905
2 3.0897734 0
2.2591209 -2 -1.983241
-1.0842022e-19 3.02478 -1.0842022e-19
2.3283515 0 -1.9553809
2 2.8717599 -0
2.268779 0 -1.9001973
3.6893488e+19 2.9059491 -2
2.1600053 1.0842022e-19 -1.9241148
1.0842022e-19 2.8437443 3.6893488e+19
2.2470481 0 -1.9084126
-1.0842022e-19 2.7912815 2
2.0441921 -3.6893488e+19 -1.8913605
3.6893488e+19 2.7505493 -1.0842022e-19
2.1122899 -3.6893488e+19 -1.8797163
-1.0842022e-19 2.7193329 -1.0842022e-19
1.9870113 -1.0842022e-19 -1.8771281
-0 2.6738081 0
2.0564096 1.0842022e-19 -1.8685416
-3.6893488e+19 2.6513274 -1.0842022e-19
1.9526688 3.6893488e+19 -1.8650893
-0 2.6149683 -1.0842022e-19
2.0138688 -1.0842022e-19 -1.8555288
2 2.5961044 -0
1.9247813 -2 -1.8516233
-1.0842022e-19 2.5672054 -3.6893488e+19
1.9793367 3.6893488e+19 -1.8434535
-1.0842022e-19 2.5516741 -3.6893488e+19
1.9023442 -3.6893488e+19 -1.8396121
3.6893488e+19 2.5318551 -2
1.9537787 -3.6893488e+19 -1.8352077
-0 2.520864 -0
1.8867853 -1.0842022e-19 -1.8330461
-2 2.5046151 3.6893488e+19
1.9340845 -2 -1.8294542
-1.0842022e-19 2.4855912 -3.6893488e+19
1.8702216 -2 -1.8252696
-0 2.4637961 1.0842022e-19
1.8018521 -1.0842022e-19 -1.8222001
-3.6893488e+19 2.4431627 0
1.8823906 0 -1.8209766
-0 3.2735343 0
2.5710025 -3.6893488e+19 2.7539217
-2 3.2314656 -2
2.3569958 3.6893488e+19 2.6870167
-3.6893488e+19 3.2372341 3.6893488e+19
2.5358934 -0 2.6878681
-2 3.2346442 2
2.3593528 0 2.675658
-1.0842022e-19 3.2636919 0
2.3910434 2 2.6977458
3.6893488e+19 3.2527189 2
2.5465748 3.6893488e+19 2.674418
-0 3.260324 -1.0842022e-19
2.3860488 0 2.6768165
-2 3.2483661 1.0842022e-19
2.5424254 -2 2.6538508
-1.0842022e-19 3.1814368 2
2.5031533 -2 2.5743883
-1.0842022e-19 3.2314608 -3.6893488e+19
2.3569922 -2 2.6027329
-2 3.1810117 1.0842022e-19
2.5029039 -0 2.5615163
3.6893488e+19 3.2344 3.6893488e+19
2.4789259 -3.6893488e+19 2.5850048
2 3.2442238 0
2.6019719 2 2.5873499
3.6893488e+19 3.2345393 -3.6893488e+19
2.4790635 -0 2.5711017
-3.6893488e+19 3.24476 1.0842022e-19
2.6023538 -1.0842022e-19 2.5733254
-1.0842022e-19 3.2350521 -3.6893488e+19
2.4795706 -0 2.557462
2 3.2457287 2
2.6030436 -0 2.5595691
-0 3.2318611 -3.6893488e+19
2.4764156 1.0842022e-19 2.5415795
-1.0842022e-19 3.2326608 1.0842022e-19
2.4772065 -1.0842022e-19 2.5282094
-1.0842022e-19 3.2136509 1.0842022e-19
2.5801988 -0 2.5127089
-1.0842022e-19 3.2342365 -0
2.4787643 -2 2.515249
-2 3.2523124 2
2.6093793 -0 2.5213702
0 3.2275474 -3.6893488e+19
2.4721506 2 2.4958622
-1.0842022e-19 3.2276647 1.0842022e-19
2.590179 -3.6893488e+19 2.4862342
-3.6893488e+19 3.232059 0
2.4766116 1.0842022e-19 2.4730363
2 3.2544122 -2
2.3772817 -3.6893488e+19 2.4832015
1.0842022e-19 3.2353723 -2
2.5348008 -0 2.4500065
3.6893488e+19 3.2532394 3.6893488e+19
2.3755426 0 2.4522316
-1.0842022e-19 3.216996 3.6893488e+19
2.5240183 1.0842022e-19 2.4063241
-3.6893488e+19 3.2452219 -1.0842022e-19
2.3671958 -3.6893488e+19 2.41412
-3.6893488e+19 3.2029374 1.0842022e-19
2.5157692 1.0842022e-19 2.3682828
-0 3.2483876 -2
2.3695431 1.0842022e-19 2.3885741
-0 3.1984723 0
2.5131493 -1.0842022e-19 2.339138
-3.6893488e+19 3.2468531 -2
2.3684053 -3.6893488e+19 2.3593037
-3.6893488e+19 3.2043293 -2
2.5165858 -0 2.3177485
-3.6893488e+19 3.2421291 2
2.3649027 -0 2.3281209
0 3.1427636 1.0842022e-19
2.4609222 0 2.2524021
-1.0842022e-19 3.2416573 -1.0842022e-19
2.3645527 3.6893488e+19 2.3000929
-3.6893488e+19 3.1382532 1.0842022e-19
2.4556293 0 2.204982
-1.0842022e-19 3.2500794 2
2.5434773 1.0842022e-19 2.2647316
2 3.1742518 2
2.5521398 -2 2.1772137
-2 3.2340159 0
2.4785464 2 2.2062056
3.6893488e+19 3.1758685 -1.0842022e-19
2.5532911 -2 2.130434
2 3.1431718 3.6893488e+19
2.3887286 1.0842022e-19 2.076256
3.6893488e+19 3.1736858 -1.0842022e-19
2.5517366 0 2.0803523
1.0842022e-19 3.2242939 1.0842022e-19
2.4689341 1.0842022e-19 2.0901499
0 3.1539283 -0
2.5376658 2 2.0190902
-1.0842022e-19 3.146081 -3.6893488e+19
2.3916049 -1.0842022e-19 1.9894645
0 3.2782576 0
2.6463339 3.6893488e+19 2.0576098
0 3.1452317 2
2.5314724 -2 1.9236388
1.0842022e-19 3.1505594 1.0842022e-19
2.3960328 -0 1.9020522
-1.0842022e-19 3.1537554 -1.0842022e-19
2.5375428 -0 1.8816205
-1.0842022e-19 3.2076113 -0
2.45244 0 1.8695283
1.0842022e-19 3.1506951 -2
2.5353632 -0 1.7954209
-0 3.1405418 3.6893488e+19
2.3861284 -3.6893488e+19 1.7417644
0 3.1506503 1.0842022e-19
2.2970731 1.0842022e-19 1.6574495
1.0842022e-19 3.132066 -2
2.4483681 -2 1.5048738
-3.6893488e+19 3.2557473 3.6893488e+19
2.379262 0 -1.3505729
2 3.1329913 3.6893488e+19
2.4494541 -0 -1.5901798
-3.6893488e+19 3.2520368 1.0842022e-19
2.3737595 -3.6893488e+19 -1.7518134
3.6893488e+19 3.1325066 -2
2.4488852 2 -1.7649817
-1.0842022e-19 3.1470046 -1.0842022e-19
2.2943699 -1.0842022e-19 -1.8138391
3.6893488e+19 3.1275518 3.6893488e+19
2.4430707 3.6893488e+19 -1.8483028
-0 3.2559047 -0
2.3794951 2 -1.929068
-3.6893488e+19 3.1299362 -0
2.445869 1.0842022e-19 -1.9052119
2 3.2554398 3.6893488e+19
2.3788056 2 -1.9860114
1.0842022e-19 3.1357009 -0
2.4526339 -3.6893488e+19 -1.9510791
1.0842022e-19 3.1450536 -2
2.2929232 2 -1.9768058
-0 3.1065013 -2
2.4183671 -0 -1.9761007
3.6893488e+19 3.0900126 1.0842022e-19
2.2521117 -1.0842022e-19 -1.9833477
1.0842022e-19 3.0331643 -3.6893488e+19
2.3323033 3.6893488e+19 -1.9615654
-3.6893488e+19 2.9024274 3.6893488e+19
2.1478798 -2 -1.9225478
-0 2.844213 3.6893488e+19
2.2402771 -3.6893488e+19 -1.908554
-0 2.7934201 -3.6893488e+19
2.0401042 2 -1.8923519
-3.6893488e+19 2.7499833 3.6893488e+19
2.1060736 -0 -1.8793668
3.6893488e+19 2.7204769 3.6893488e+19
1.9825801 -3.6893488e+19 -1.8773962
0 2.6732709 2
2.0514412 1.0842022e-19 -1.8681185
2 2.6536858 1.0842022e-19
1.949562 2 -1.8664211
0 2.6140358 3.6893488e+19
2.0092556 -0 -1.8548317
2 2.5965886 -0
1.9213359 -1.0842022e-19 -1.8518661
3.6893488e+19 2.5684583 -0
1.9767967 2 -1.8442132
-3.6893488e+19 2.5517728 2
1.8991814 -3.6893488e+19 -1.8396121
3.6893488e+19 2.5319877 3.6893488e+19
1.9508234 -3.6893488e+19 -1.8352077
-0 2.5210762 -3.6893488e+19
1.8840064 1.0842022e-19 -1.833141
-0 2.5044899 -0
1.9312403 -0 -1.8292576
1.0842022e-19 2.4892058 3.6893488e+19
1.8668387 -3.6893488e+19 -1.8266943
-3.6893488e+19 2.4663858 2
1.7979074 0 -1.8232524
0 2.4433348 0
1.8800673 0 -1.8209766
-1.0842022e-19 2.4262052 -2
1.7830107 2 -1.8182516
-3.6893488e+19 2.3694355 -0
1.7619641 -1.0842022e-19 -1.8135002
-1.0842022e-19 2.3177226 -3.6893488e+19
1.7355841 -3.6893488e+19 -1.8052294
0 2.2845972 1.0842022e-19
1.7110224 -0 -1.8027295
-1.0842022e-19 2.2484181 -2
1.8024794 -0 -1.7968928
-0 2.2016828 -0
1.7858377 -2 -1.7939686
-2 2.1676469 2
1.773718 0 -1.7934986
-1.0842022e-19 2.1332302 -0
1.7614627 1.0842022e-19 -1.7909276
-2 3.1828272 3.6893488e+19
2.5039692 -1.0842022e-19 2.6517935
-3.6893488e+19 3.179261 -0
2.3182874 1.0842022e-19 2.6396317
1.0842022e-19 3.1842642 3.6893488e+19
2.5048122 0 2.640265
-2 3.1801395 -2
2.3189387 1.0842022e-19 2.6277871
-1.0842022e-19 3.2636919 0
2.3910434 2 2.6977458
3.6893488e+19 3.2527189 2
2.5465748 3.6893488e+19 2.674418
-0 3.260324 -1.0842022e-19
2.3860488 0 2.6768165
-2 3.2483661 1.0842022e-19
2.5424254 -2 2.6538508
-1.0842022e-19 3.1814368 2
2.5031533 -2 2.5743883
-1.0842022e-19 3.2314608 -3.6893488e+19
2.3569922 -2 2.6027329
-2 3.1810117 1.0842022e-19
2.5029039 -0 2.5615163
3.6893488e+19 3.2344 3.6893488e+19
2.4789259 -3.6893488e+19 2.5850048
1.0842022e-19 3.2053571 -0
2.5742919 -3.6893488e+19 2.5608199
3.6893488e+19 3.2345393 -3.6893488e+19
2.4790635 -0 2.5711017
3.6893488e+19 3.2095547 1.0842022e-19
2.5772815 2 2.5503187
-1.0842022e-19 3.1860628 -3.6893488e+19
2.4311349 -1.0842022e-19 2.5264089
2 3.208508 -1.0842022e-19
2.5765359 0 2.5363259
-0 3.2318611 -3.6893488e+19
2.4764156 1.0842022e-19 2.5415795
-1.0842022e-19 3.2326608 1.0842022e-19
2.4772065 -1.0842022e-19 2.5282094
-1.0842022e-19 3.2136509 1.0842022e-19
2.5801988 -0 2.5127089
2 3.1891227 -0
2.4341602 -2 2.4810743
-2 3.2523124 2
2.6093793 -0 2.5213702
1.0842022e-19 3.197741 -2
2.4426811 -2 2.4649127
-1.0842022e-19 3.2276647 1.0842022e-19
2.590179 -3.6893488e+19 2.4862342
-3.6893488e+19 3.232059 0
2.4766116 1.0842022e-19 2.4730363
-0 3.1557987 -3.6893488e+19
2.3008904 1.0842022e-19 2.3853641
2 3.1438332 -3.6893488e+19
2.4621773 -3.6893488e+19 2.3651371
3.6893488e+19 3.1598344 -3.6893488e+19
2.3038828 1.0842022e-19 2.3659384
-3.6893488e+19 3.1423552 -3.6893488e+19
2.460443 -2 2.3413806
0 3.1723361 -1.0842022e-19
2.3131526 0 2.3531706
-1.0842022e-19 3.1445782 -0
2.4630518 0 2.3208311
2 3.1732516 0
2.3138316 -2 2.3299932
-3.6893488e+19 3.1436753 -1.0842022e-19
2.4619923 -3.6893488e+19 2.2977002
1.0842022e-19 3.1735897 3.6893488e+19
2.3140821 -1.0842022e-19 2.3063226
3.6893488e+19 3.1883729 3.6893488e+19
2.5072231 -1.0842022e-19 2.3065889
-3.6893488e+19 3.2421291 2
2.3649027 -0 2.3281209
0 3.1427636 1.0842022e-19
2.4609222 0 2.2524021
1.0842022e-19 3.1714427 3.6893488e+19
2.3124902 -0 2.257236
-3.6893488e+19 3.1382532 1.0842022e-19
2.4556293 0 2.204982
0 3.1372986 2
2.4545088 1.0842022e-19 2.1599903
2 3.1742518 2
2.5521398 -2 2.1772137
2 3.1412873 -2
2.3868654 -3.6893488e+19 2.1188047
3.6893488e+19 3.1758685 -1.0842022e-19
2.5532911 -2 2.130434
2 3.1431718 3.6893488e+19
2.3887286 1.0842022e-19 2.076256
3.6893488e+19 3.1736858 -1.0842022e-19
2.5517366 0 2.0803523
2 3.1463397 2
2.3918607 1.0842022e-19 2.0342433
0 3.1539283 -0
2.5376658 2 2.0190902
-1.0842022e-19 3.146081 -3.6893488e+19
2.3916049 -1.0842022e-19 1.9894645
0 3.2782576 0
2.6463339 3.6893488e+19 2.0576098
0 3.1452317 2
2.5314724 -2 1.9236388
1.0842022e-19 3.1505594 1.0842022e-19
2.3960328 -0 1.9020522
-1.0842022e-19 3.1537554 -1.0842022e-19
2.5375428 -0 1.8816205
3.6893488e+19 3.1512046 -2
2.3966706 3.6893488e+19 1.8393868
1.0842022e-19 3.1506951 -2
2.5353632 -0 1.7954209
-0 3.1405418 3.6893488e+19
2.3861284 -3.6893488e+19 1.7417644
0 3.1506503 1.0842022e-19
2.2970731 1.0842022e-19 1.6574495
1.0842022e-19 3.132066 -2
2.4483681 -2 1.5048738
-2 3.1450565 0
2.2929256 -1.0842022e-19 -1.2992227
2 3.1329913 3.6893488e+19
2.4494541 -0 -1.5901798
3.6893488e+19 3.1444223 -0
2.2924552 -3.6893488e+19 -1.6984552
3.6893488e+19 3.1325066 -2
2.4488852 2 -1.7649817
-1.0842022e-19 3.1470046 -1.0842022e-19
2.2943699 -1.0842022e-19 -1.8138391
3.6893488e+19 3.1275518 3.6893488e+19
2.4430707 3.6893488e+19 -1.8483028
-2 3.1480739 1.0842022e-19
2.2951629 2 -1.8892751
-3.6893488e+19 3.1299362 -0
2.445869 1.0842022e-19 -1.9052119
-1.0842022e-19 3.1481905 -2
2.2952492 -1.0842022e-19 -1.9339523
1.0842022e-19 3.1357009 -0
2.4526339 -3.6893488e+19 -1.9510791
1.0842022e-19 3.1450536 -2
2.2929232 2 -1.9768058
-0 3.1065013 -2
2.4183671 -0 -1.9761007
3.6893488e+19 3.0900126 1.0842022e-19
2.2521117 -1.0842022e-19 -1.9833477
1.0842022e-19 3.0331643 -3.6893488e+19
2.3323033 3.6893488e+19 -1.9615654
-3.6893488e+19 2.9024274 3.6893488e+19
2.1478798 -2 -1.9225478
-0 2.844213 3.6893488e+19
2.2402771 -3.6893488e+19 -1.908554
-0 2.7934201 -3.6893488e+19
2.0401042 2 -1.8923519
-3.6893488e+19 2.7499833 3.6893488e+19
2.1060736 -0 -1.8793668
3.6893488e+19 2.7204769 3.6893488e+19
1.9825801 -3.6893488e+19 -1.8773962
0 2.6732709 2
2.0514412 1.0842022e-19 -1.8681185
2 2.6536858 1.0842022e-19
1.949562 2 -1.8664211
0 2.6140358 3.6893488e+19
2.0092556 -0 -1.8548317
2 2.5965886 -0
1.9213359 -1.0842022e-19 -1.8518661
3.6893488e+19 2.5684583 -0
1.9767967 2 -1.8442132
-3.6893488e+19 2.5517728 2
1.8991814 -3.6893488e+19 -1.8396121
3.6893488e+19 2.5319877 3.6893488e+19
1.9508234 -3.6893488e+19 -1.8352077
-0 2.5210762 -3.6893488e+19
1.8840064 1.0842022e-19 -1.833141
-0 2.5044899 -0
1.9312403 -0 -1.8292576
1.0842022e-19 2.4892058 3.6893488e+19
1.8668387 -3.6893488e+19 -1.8266943
-3.6893488e+19 2.4663858 2
1.7979074 0 -1.8232524
0 2.4433348 0
1.8800673 0 -1.8209766
-1.0842022e-19 2.4262052 -2
1.7830107 2 -1.8182516
-3.6893488e+19 2.3694355 -0
1.7619641 -1.0842022e-19 -1.8135002
-1.0842022e-19 2.3177226 -3.6893488e+19
1.7355841 -3.6893488e+19 -1.8052294
0 2.2845972 1.0842022e-19
1.7110224 -0 -1.8027295
-1.0842022e-19 2.2484181 -2
1.8024794 -0 -1.7968928
-0 2.2016828 -0
1.7858377 -2 -1.7939686
-2 2.1676469 2
1.773718 0 -1.7934986
-1.0842022e-19 2.1332302 -0
1.7614627 1.0842022e-19 -1.7909276
0 3.2732618 -1.0842022e-19
2.5648322 2 2.7535722
-2 3.2312469 1.0842022e-19
2.3466599 3.6893488e+19 2.6867137
-1.0842022e-19 3.1813498 1.0842022e-19
2.4969699 -1.0842022e-19 2.6374981
-1.0842022e-19 3.2327535 -2
2.3477449 1.0842022e-19 2.6738958
1.0842022e-19 3.2660511 -2
2.5565245 0 2.7122993
-3.6893488e+19 3.1531465 -0
2.2904012 -3.6893488e+19 2.5921869
2 3.2603102 1.0842022e-19
2.3750219 -1.0842022e-19 2.6766913
-3.6893488e+19 3.2493749 0
2.5376718 -3.6893488e+19 2.6545141
2 3.1836083 -2
2.4995718 -2 2.5758967
3.6893488e+19 3.2340257 3.6893488e+19
2.3486614 0 2.6045272
3.6893488e+19 3.1804757 0
2.4959629 3.6893488e+19 2.5610104
-0 3.2354026 0
2.5904424 -3.6893488e+19 2.5953228
3.6893488e+19 3.2347999 -0
2.4690051 1.0842022e-19 2.5851741
3.6893488e+19 3.2031395 0
2.5678144 -1.0842022e-19 2.5591631
2 3.2332864 2
2.467541 -1.0842022e-19 2.5701687
-3.6893488e+19 3.2353914 2
2.4695776 2 2.5575786
-1.0842022e-19 3.2064385 0
2.5701282 3.6893488e+19 2.5349016
2 3.2321997 -2
2.4664896 2 2.5416908
1.0842022e-19 3.2339826 0
2.4682145 1.0842022e-19 2.528882
0 3.2346685 1.0842022e-19
2.468878 1.0842022e-19 2.5154006
3.6893488e+19 3.2517123 0
2.6030824 2 2.5205994
0 3.2278235 -0
2.462256 0 2.49599
-3.6893488e+19 3.2327678 -2
2.4670393 -3.6893488e+19 2.4735799
-0 3.252943 -1.0842022e-19
2.3644083 -0 2.4802964
1.0842022e-19 3.2357724 3.6893488e+19
2.5298357 -1.0842022e-19 2.4502058
-2 3.2522018 1.0842022e-19
2.3633406 -3.6893488e+19 2.4502709
1.0842022e-19 3.2332888 -0
2.528405 -1.0842022e-19 2.4203398
2 3.2484982 1.0842022e-19
2.3590865 1.0842022e-19 2.41676
-1.0842022e-19 3.206403 -3.6893488e+19
2.512917 2 2.3709593
2 3.2480423 -3.6893488e+19
2.358758 0 2.388212
0 3.1978734 2
2.5080035 -0 2.3385561
1.0842022e-19 3.2459803 -1.0842022e-19
2.3572726 -2 2.3585865
-0 3.2131617 1.0842022e-19
2.5168107 0 2.3238025
-2 3.2456279 3.6893488e+19
2.3570189 0 2.3303747
0 3.1431291 0
2.4529347 -0 2.2525406
-0 3.2452509 3.6893488e+19
2.3567474 -3.6893488e+19 2.3022139
2 3.1395736 -1.0842022e-19
2.4488382 -3.6893488e+19 2.2063551
-1.0842022e-19 3.1570077 1.0842022e-19
2.2931826 3.6893488e+19 2.2009165
-0 3.2498558 -2
2.5379486 2 2.2644703
-0 3.2485178 1.0842022e-19
2.5996408 -1.0842022e-19 2.2508829
-2 3.2312288 -3.6893488e+19
2.4655504 3.6893488e+19 2.2034333
-0 3.2464774 -3.6893488e+19
2.5982096 1.0842022e-19 2.1933048
-2 3.142616 -3.6893488e+19
2.3798246 -0 2.0756905
1.0842022e-19 3.2083473 -2
2.5714667 -3.6893488e+19 2.1072125
0 3.2215326 1.0842022e-19
2.4561701 3.6893488e+19 2.0880611
0 3.2100887 3.6893488e+19
2.5726881 2 2.0563614
-1.0842022e-19 3.1458979 2
2.3829997 -3.6893488e+19 1.9892771
-3.6893488e+19 3.153589 3.6893488e+19
2.3904402 1.0842022e-19 1.9485343
-1.0842022e-19 3.1510599 -3.6893488e+19
2.3879933 3.6893488e+19 1.9021934
-2 3.1526499 -3.6893488e+19
2.5324028 -1.0842022e-19 1.8811994
-2 3.2077579 2
2.4428444 0 1.8695283
0 3.1503575 -2
2.5307949 -1.0842022e-19 1.7951984
-1.0842022e-19 3.1430867 3.6893488e+19
2.38028 -1.0842022e-19 1.7432619
3.6893488e+19 3.1491899 1.0842022e-19
2.2875512 2 1.6568381
-0 3.13515 2
2.4437418 -0 1.5058722
-2 3.1346836 1.0842022e-19
2.4432046 -0 -1.5910484
3.6893488e+19 3.2519417 -1.0842022e-19
2.3629656 2 -1.7517352
1.0842022e-19 3.1311369 2
2.4391181 -0 -1.7644273
-3.6893488e+19 3.1454191 -1.0842022e-19
2.2848349 -2 -1.8130399
3.6893488e+19 3.1294584 -1.0842022e-19
2.4371843 0 -1.8493451
3.6893488e+19 3.2552969 3.6893488e+19
2.3677995 1.0842022e-19 -1.9286
0 3.1291845 3.6893488e+19
2.4368687 3.6893488e+19 -1.9048457
-0 3.256372 -0
2.3693483 2 -1.986816
-2 3.1352603 1.0842022e-19
2.4438691 1.0842022e-19 -1.9507731
3.6893488e+19 3.1447749 0
2.2843709 1.0842022e-19 -1.9765916
-1.0842022e-19 3.106359 0
2.4105711 2 -1.9759244
-3.6893488e+19 3.0900939 -1.0842022e-19
2.2399642 -1.0842022e-19 -1.9833477
-0 3.0392354 2
2.333236 2 -1.9660192
-3.6893488e+19 2.9143908 3.6893488e+19
2.1508901 -2 -1.9276204
1.0842022e-19 2.842037 2
2.2297826 3.6893488e+19 -1.9074787
0 2.7926471 -3.6893488e+19
2.0331125 -0 -1.8919313
3.6893488e+19 2.7513976 3.6893488e+19
2.1026409 -0 -1.8800341
-3.6893488e+19 2.7195132 0
1.9771084 -0 -1.8770946
3.6893488e+19 2.6735897 -2
2.0470891 -1.0842022e-19 -1.868189
2 2.6525776 1.0842022e-19
1.9447309 -2 -1.8656812
-1.0842022e-19 2.6137133 1.0842022e-19
2.0050943 1.0842022e-19 -1.8545219
-3.6893488e+19 2.5974417 0
1.9180611 1.0842022e-19 -1.8523518
0 2.5686059 -3.6893488e+19
1.9734576 2 -1.8442132
0 2.5519934 -1.0842022e-19
1.8960772 1.0842022e-19 -1.8397001
1.0842022e-19 2.5291758 2
1.9458029 -2 -1.8330152
1.0842022e-19 2.5214102 -3.6893488e+19
1.8812838 0 -1.8333306
3.6893488e+19 2.5027699 3.6893488e+19
1.9272829 2 -1.8277832
-3.6893488e+19 2.4873872 -0
1.8607541 -1.0842022e-19 -1.8258802
0 2.4667454 -2
1.7931068 -2 -1.8233576
-3.6893488e+19 2.4432576 1.0842022e-19
1.8776723 1.0842022e-19 -1.8208679
-3.6893488e+19 3.1798267 -1.0842022e-19
2.4952152 -2 2.6488562
-2 3.2312469 1.0842022e-19
2.3466599 3.6893488e+19 2.6867137
-1.0842022e-19 3.1813498 1.0842022e-19
2.4969699 -1.0842022e-19 2.6374981
0 3.1803644 -0
2.3100071 0 2.6278939
1.0842022e-19 3.2660511 -2
2.5565245 0 2.7122993
-3.6893488e+19 3.1531465 -0
2.2904012 -3.6893488e+19 2.5921869
0 3.2521374 0
2.3632476 3.6893488e+19 2.6632948
-3.6893488e+19 3.2493749 0
2.5376718 -3.6893488e+19 2.6545141
2 3.1836083 -2
2.4995718 -2 2.5758967
3.6893488e+19 3.2340257 3.6893488e+19
2.3486614 0 2.6045272
3.6893488e+19 3.1804757 0
2.4959629 3.6893488e+19 2.5610104
-0 3.2354026 0
2.5904424 -3.6893488e+19 2.5953228
3.6893488e+19 3.2347999 -0
2.4690051 1.0842022e-19 2.5851741
3.6893488e+19 3.2031395 0
2.5678144 -1.0842022e-19 2.5591631
2 3.2332864 2
2.467541 -1.0842022e-19 2.5701687
2 3.1875818 -2
2.4233253 1.0842022e-19 2.527283
-1.0842022e-19 3.2064385 0
2.5701282 3.6893488e+19 2.5349016
2 3.2321997 -2
2.4664896 2 2.5416908
1.0842022e-19 3.2339826 0
2.4682145 1.0842022e-19 2.528882
-3.6893488e+19 3.1926141 -2
2.4281938 -3.6893488e+19 2.4847441
3.6893488e+19 3.2517123 0
2.6030824 2 2.5205994
-0 3.1965306 1.0842022e-19
2.4319828 3.6893488e+19 2.4635074
-3.6893488e+19 3.2327678 -2
2.4670393 -3.6893488e+19 2.4735799
1.0842022e-19 3.1537323 -2
2.290823 1.0842022e-19 2.3833098
3.6893488e+19 3.1432457 -3.6893488e+19
2.453069 0 2.3644538
-0 3.1521063 3.6893488e+19
2.2896519 3.6893488e+19 2.358952
3.6893488e+19 3.1441963 3.6893488e+19
2.4541643 1.0842022e-19 2.3428519
-0 3.1578565 3.6893488e+19
2.2937939 -3.6893488e+19 2.3409805
-2 3.1452825 -3.6893488e+19
2.4554157 -0 2.3212812
0 3.1577399 -2
2.2937098 -1.0842022e-19 2.3178232
0 3.1467204 -0
2.4570723 2 2.2998886
2 3.1730711 -1.0842022e-19
2.3047535 -1.0842022e-19 2.3058743
-0 3.2131617 1.0842022e-19
2.5168107 0 2.3238025
-1.0842022e-19 3.1403236 3.6893488e+19
2.2811644 0 2.2601812
0 3.1431291 0
2.4529347 -0 2.2525406
0 3.1716368 -3.6893488e+19
2.3037202 -2 2.2572927
2 3.1395736 -1.0842022e-19
2.4488382 -3.6893488e+19 2.2063551
-1.0842022e-19 3.1570077 1.0842022e-19
2.2931826 3.6893488e+19 2.2009165
3.6893488e+19 3.139298 -3.6893488e+19
2.4485207 -0 2.1619499
-3.6893488e+19 3.1420369 -0
2.5249593 -1.0842022e-19 2.1445913
-1.0842022e-19 3.1460273 -0
2.3831248 3.6893488e+19 2.123153
-0 3.2464774 -3.6893488e+19
2.5982096 1.0842022e-19 2.1933048
-2 3.142616 -3.6893488e+19
2.3798246 -0 2.0756905
-1.0842022e-19 3.1577408 -3.6893488e+19
2.5359733 3.6893488e+19 2.0677726
-0 3.1436772 -0
2.3808513 2 2.0322435
-0 3.1551301 -3.6893488e+19
2.5341423 -2 2.0197659
-1.0842022e-19 3.1458979 2
2.3829997 -3.6893488e+19 1.9892771
-3.6893488e+19 3.153589 3.6893488e+19
2.3904402 1.0842022e-19 1.9485343
-1.0842022e-19 3.1510599 -3.6893488e+19
2.3879933 3.6893488e+19 1.9021934
-2 3.1526499 -3.6893488e+19
2.5324028 -1.0842022e-19 1.8811994
1.0842022e-19 3.1503406 -1.0842022e-19
2.3872974 2 1.8388566
0 3.1503575 -2
2.5307949 -1.0842022e-19 1.7951984
-1.0842022e-19 3.1430867 3.6893488e+19
2.38028 -1.0842022e-19 1.7432619
3.6893488e+19 3.1491899 1.0842022e-19
2.2875512 2 1.6568381
-0 3.13515 2
2.4437418 -0 1.5058722
-2 3.1346836 1.0842022e-19
2.4432046 -0 -1.5910484
3.6893488e+19 3.2519417 -1.0842022e-19
2.3629656 2 -1.7517352
1.0842022e-19 3.1311369 2
2.4391181 -0 -1.7644273
-3.6893488e+19 3.1454191 -1.0842022e-19
2.2848349 -2 -1.8130399
3.6893488e+19 3.1294584 -1.0842022e-19
2.4371843 0 -1.8493451
2 3.1472981 1.0842022e-19
2.2861884 -2 -1.8889703
0 3.1291845 3.6893488e+19
2.4368687 3.6893488e+19 -1.9048457
2 3.1475704 -2
2.2863843 1.0842022e-19 -1.9336219
-2 3.1352603 1.0842022e-19
2.4438691 1.0842022e-19 -1.9507731
3.6893488e+19 3.1447749 0
2.2843709 1.0842022e-19 -1.9765916
-1.0842022e-19 3.106359 0
2.4105711 2 -1.9759244
-3.6893488e+19 3.0900939 -1.0842022e-19
2.2399642 -1.0842022e-19 -1.9833477
-0 3.0392354 2
2.333236 2 -1.9660192
-3.6893488e+19 2.9143908 3.6893488e+19
2.1508901 -2 -1.9276204
1.0842022e-19 2.842037 2
2.2297826 3.6893488e+19 -1.9074787
0 2.7926471 -3.6893488e+19
2.0331125 -0 -1.8919313
3.6893488e+19 2.7513976 3.6893488e+19
2.1026409 -0 -1.8800341
-3.6893488e+19 2.7195132 0
1.9771084 -0 -1.8770946
3.6893488e+19 2.6735897 -2
2.0470891 -1.0842022e-19 -1.868189
2 2.6525776 1.0842022e-19
1.9447309 -2 -1.8656812
-1.0842022e-19 2.6137133 1.0842022e-19
2.0050943 1.0842022e-19 -1.8545219
-3.6893488e+19 2.5974417 0
1.9180611 1.0842022e-19 -1.8523518
0 2.5686059 -3.6893488e+19
1.9734576 2 -1.8442132
0 2.5519934 -1.0842022e-19
1.8960772 1.0842022e-19 -1.8397001
1.0842022e-19 2.5291758 2
1.9458029 -2 -1.8330152
1.0842022e-19 2.5214102 -3.6893488e+19
1.8812838 0 -1.8333306
3.6893488e+19 2.5027699 3.6893488e+19
1.9272829 2 -1.8277832
-3.6893488e+19 2.4873872 -0
1.8607541 -1.0842022e-19 -1.8258802
0 2.4667454 -2
1.7931068 -2 -1.8233576
-3.6893488e+19 2.4432576 1.0842022e-19
1.8776723 1.0842022e-19 -1.8208679
1.0842022e-19 3.252933 -0
2.3544161 -3.6893488e+19 2.7238595
1.0842022e-19 3.1803088 -0
2.4871778 -0 2.649164
-1.0842022e-19 3.2310479 -1.0842022e-19
2.3370283 -3.6893488e+19 2.6864381
2 3.2329497 1.0842022e-19
2.3383608 1.0842022e-19 2.6739759
2 3.2657809 -0
2.5509062 2 2.7116687
-1.0842022e-19 3.2522225 -1.0842022e-19
2.3534207 -3.6893488e+19 2.6633446
-2 3.2494886 -2
2.5327501 -2 2.654465
-1.0842022e-19 3.208554 3.6893488e+19
2.509578 -2 2.6079023
3.6893488e+19 3.2549038 3.6893488e+19
2.3571777 1.0842022e-19 2.6380925
-0 3.1854632 1.0842022e-19
2.4930136 0 2.5771768
-3.6893488e+19 3.2399292 -3.6893488e+19
2.5273387 -0 2.6038408
-1.0842022e-19 3.2354274 1.0842022e-19
2.585566 1.0842022e-19 2.5951936
-3.6893488e+19 3.2348499 -0
2.4594295 2 2.5851107
0 3.2031808 -2
2.5632744 2 2.5590596
-1.0842022e-19 3.2322948 0
2.4570084 2 2.5694184
-1.0842022e-19 3.2356255 -1.0842022e-19
2.4601643 -1.0842022e-19 2.5576367
-3.6893488e+19 3.2099504 -0
2.5679543 0 2.5369716
-1.0842022e-19 3.2346117 -1.0842022e-19
2.4592037 -0 2.5430641
2 3.2340014 -0
2.4586253 2 2.5288112
3.6893488e+19 3.2331805 0
2.4578476 0 2.5145085
0 3.2279942 2
2.4529331 1.0842022e-19 2.496022
-0 3.2298903 -1.0842022e-19
2.4547298 1.0842022e-19 2.4706194
3.6893488e+19 3.2519314 2
2.3530128 -2 2.4782715
2 3.235235 0
2.5246816 2 2.4495509
-3.6893488e+19 3.2519317 -0
2.3530133 3.6893488e+19 2.4496911
-0 3.2328115 -3.6893488e+19
2.5233095 -2 2.4197781
-3.6893488e+19 3.2533283 -3.6893488e+19
2.3549702 -2 2.4234889
-0 3.145359 -2
2.4476092 -2 2.3212311
0 3.2502217 -1.0842022e-19
2.3506169 -1.0842022e-19 2.3899987
-1.0842022e-19 3.2121394 1.0842022e-19
2.5116076 -1.0842022e-19 2.3492181
-0 3.2456849 -0
2.3472831 -2 2.3582952
2 3.2120905 -2
2.5115798 -1.0842022e-19 2.3229406
-3.6893488e+19 3.2429123 3.6893488e+19
2.3453407 -0 2.3284931
0 3.1441917 2
2.4462876 -3.6893488e+19 2.2531347
-3.6893488e+19 3.2467864 -1.0842022e-19
2.3480549 -2 2.3030851
2 3.2582891 -1.0842022e-19
2.5424242 -0 2.30246
-1.0842022e-19 3.1574688 3.6893488e+19
2.2854779 -2 2.2013292
3.6893488e+19 3.2516515 -0
2.5349095 -1.0842022e-19 2.2662013
1.0842022e-19 3.2487302 3.6893488e+19
2.5947618 -1.0842022e-19 2.2508829
2 3.2336934 1.0842022e-19
2.4583335 2 2.205622
-0 3.2567844 -3.6893488e+19
2.6050196 0 2.2083707
-3.6893488e+19 3.2018063 2
2.5623245 3.6893488e+19 2.1019652
-3.6893488e+19 3.2231586 3.6893488e+19
2.4483511 0 2.0891278
-1.0842022e-19 3.2049925 2
2.564527 -0 2.052839
-1.0842022e-19 3.1445873 -0
2.3738992 -1.0842022e-19 1.9884152
1.0842022e-19 3.2568543 -0
2.6051161 -1.0842022e-19 2.0336964
-1.0842022e-19 3.1555994 -3.6893488e+19
2.3843338 -2 1.9494647
0 3.2559547 -3.6893488e+19
2.6038723 2 1.9746996
-0 3.1515186 1.0842022e-19
2.3804672 3.6893488e+19 1.9023229
-2 3.2557964 0
2.6036539 3.6893488e+19 1.9166265
-1.0842022e-19 3.1968458 -0
2.4234178 2 1.8636292
0 3.2556722 -1.0842022e-19
2.6034818 -2 1.8422883
-2 3.145467 1.0842022e-19
2.374733 0 1.7446635
1.0842022e-19 3.1481249 2
2.2789314 -3.6893488e+19 1.6563855
-1.0842022e-19 3.1352844 -0
2.4362032 -0 1.5058722
-2 3.1368601 -3.6893488e+19
2.4379871 1.0842022e-19 -1.5921949
2 3.1383142 -3.6893488e+19
2.2720578 -3.6893488e+19 -1.6952927
-1.0842022e-19 3.1309605 -1.0842022e-19
2.4313078 3.6893488e+19 -1.7643142
-1.0842022e-19 3.2707307 3.6893488e+19
2.379355 2 -1.8787169
-1.0842022e-19 3.1289103 1.0842022e-19
2.4289868 -1.0842022e-19 -1.8489428
-2 3.2864914 -0
2.4014392 2 -1.9503794
0 3.130183 -3.6893488e+19
2.4304273 1.0842022e-19 -1.9051993
-1.0842022e-19 3.1451361 -2
2.2768373 -3.6893488e+19 -1.9324579
-1.0842022e-19 3.1361063 -3.6893488e+19
2.4371336 -0 -1.9511436
2 3.2153583 1.0842022e-19
2.326036 2 -2.0170467
-2 3.105896 1.0842022e-19
2.402931 2 -1.9755521
-3.6893488e+19 3.0901055 0
2.2265649 -1.0842022e-19 -1.983305
1.0842022e-19 2.9685919 -0
2.3239279 3.6893488e+19 -1.9390619
3.6893488e+19 2.9208961 -2
2.1488285 -1.0842022e-19 -1.9303559
-3.6893488e+19 2.8430433 -2
2.2242777 -2 -1.9078748
3.6893488e+19 2.7936001 0
2.0282068 2 -1.8923519
-0 2.7556841 3.6893488e+19
2.1034985 3.6893488e+19 -1.882195
-2 2.7212608 -1.0842022e-19
1.9732764 -0 -1.8775303
-1.0842022e-19 2.6749988 2
2.043793 3.6893488e+19 -1.8688941
-2 2.6515813 -0
1.9402633 -2 -1.8650153
3.6893488e+19 2.6154647 -3.6893488e+19
2.0026381 -1.0842022e-19 -1.8555288
1.0842022e-19 2.5982859 0
1.9150127 -3.6893488e+19 -1.8528373
1.0842022e-19 2.5681279 1.0842022e-19
1.9699153 -2 -1.8437911
3.6893488e+19 2.5525763 0
1.8933562 -3.6893488e+19 -1.8400515
3.6893488e+19 2.5294173 -1.0842022e-19
1.9431554 0 -1.8331066
-2 2.5216131 3.6893488e+19
1.8786863 -0 -1.8334254
0 2.5031228 -3.6893488e+19
1.9249785 2 -1.8279798
-3.6893488e+19 2.4845662 -2
1.8545803 -3.6893488e+19 -1.824659
-0 2.466599 2
1.7884526 0 -1.8232524
-0 2.4443967 -0
1.8757819 3.6893488e+19 -1.8213027
1.0842022e-19 2.4271424 -0
1.7746307 -3.6893488e+19 -1.818588
-1.0842022e-19 2.3693573 -1.0842022e-19
1.7543882 -2 -1.8133742
-2 2.3173745 -0
1.7223567 1.0842022e-19 -1.8049499
3.6893488e+19 2.2834966 1.0842022e-19
1.6986214 -0 -1.8019614
3.6893488e+19 2.2483757 -1.0842022e-19
1.7972584 3.6893488e+19 -1.7967254
1.0842022e-19 2.2030537 3.6893488e+19
1.7815933 2 -1.7943308
-0 2.1689849 2
1.7698178 1.0842022e-19 -1.7938882
-2 2.1326072 -2
1.7572442 -3.6893488e+19 -1.7905107
1.0842022e-19 3.252933 -0
2.3544161 -3.6893488e+19 2.7238595
1.0842022e-19 3.1803088 -0
2.4871778 -0 2.649164
-1.0842022e-19 3.2310479 -1.0842022e-19
2.3370283 -3.6893488e+19 2.6864381
0 3.1801233 1.0842022e-19
2.3013499 2 2.6276002
2 3.2657809 -0
2.5509062 2 2.7116687
-1.0842022e-19 3.2522225 -1.0842022e-19
2.3534207 -3.6893488e+19 2.6633446
-2 3.2494886 -2
2.5327501 -2 2.654465
-1.0842022e-19 3.208554 3.6893488e+19
2.509578 -2 2.6079023
3.6893488e+19 3.2549038 3.6893488e+19
2.3571777 1.0842022e-19 2.6380925
-0 3.1854632 1.0842022e-19
2.4930136 0 2.5771768
-1.0842022e-19 3.1816616 0
2.4887097 -0 2.5617583
-1.0842022e-19 3.2354274 1.0842022e-19
2.585566 1.0842022e-19 2.5951936
-3.6893488e+19 3.2348499 -0
2.4594295 2 2.5851107
0 3.2031808 -2
2.5632744 2 2.5590596
-1.0842022e-19 3.2322948 0
2.4570084 2 2.5694184
3.6893488e+19 3.1870048 3.6893488e+19
2.4140928 -1.0842022e-19 2.5268362
-3.6893488e+19 3.2099504 -0
2.5679543 0 2.5369716
-2 3.1901739 -3.6893488e+19
2.4170957 -0 2.5161908
2 3.2340014 -0
2.4586253 2 2.5288112
-3.6893488e+19 3.1922209 -2
2.4190354 2 2.4841719
-1.0842022e-19 3.1962919 3.6893488e+19
2.422893 -2 2.463124
-0 3.2298903 -1.0842022e-19
2.4547298 1.0842022e-19 2.4706194
-3.6893488e+19 3.1558912 -1.0842022e-19
2.2843726 -2 2.3852758
2 3.1416001 -3.6893488e+19
2.4433534 -2 2.3628018
1.0842022e-19 3.1517606 -3.6893488e+19
2.2814784 -3.6893488e+19 2.3585653
-2 3.1451952 2
2.4474239 3.6893488e+19 2.3436007
-3.6893488e+19 3.2533283 -3.6893488e+19
2.3549702 -2 2.4234889
-0 3.145359 -2
2.4476092 -2 2.3212311
-2 3.1567438 -3.6893488e+19
2.2849698 -3.6893488e+19 2.316978
1.0842022e-19 3.1454418 2
2.4477029 -1.0842022e-19 2.2988176
-0 3.1596446 1.0842022e-19
2.2870023 0 2.296103
0 3.1463683 -1.0842022e-19
2.4487517 -3.6893488e+19 2.2770092
0 3.1393847 -0
2.2728078 2 2.2594988
0 3.1441917 2
2.4462876 -3.6893488e+19 2.2531347
-3.6893488e+19 3.2467864 -1.0842022e-19
2.3480549 -2 2.3030851
-0 3.140512 -3.6893488e+19
2.4421215 -3.6893488e+19 2.2072947
-1.0842022e-19 3.1574688 3.6893488e+19
2.2854779 -2 2.2013292
-0 3.1386311 3.6893488e+19
2.4399922 -3.6893488e+19 2.1611006
-0 3.1421425 -1.0842022e-19
2.52108 2 2.1445296
-2 3.1452448 0
2.3745224 -2 2.1223066
3.6893488e+19 3.1460843 -0
2.5238049 -3.6893488e+19 2.103513
0 3.1613903 0
2.5343857 -3.6893488e+19 2.0704801
2 3.1430795 -1.0842022e-19
2.3724704 -1.0842022e-19 2.0317323
-2 3.1574872 -0
2.5316875 2 2.02122
-1.0842022e-19 3.1445873 -0
2.3738992 -1.0842022e-19 1.9884152
1.0842022e-19 3.2568543 -0
2.6051161 -1.0842022e-19 2.0336964
-1.0842022e-19 3.1555994 -3.6893488e+19
2.3843338 -2 1.9494647
2 3.1768579 -0
2.545078 -1.0842022e-19 1.9373667
-0 3.1515186 1.0842022e-19
2.3804672 3.6893488e+19 1.9023229
3.6893488e+19 3.147249 3.6893488e+19
2.52461 -1.0842022e-19 1.8793844
-3.6893488e+19 3.1489682 3.6893488e+19
2.3780506 2 1.8380612
-3.6893488e+19 3.1500351 0
2.5265362 -0 1.7949891
-2 3.145467 1.0842022e-19
2.374733 0 1.7446635
1.0842022e-19 3.1481249 2
2.2789314 -3.6893488e+19 1.6563855
-1.0842022e-19 3.1352844 -0
2.4362032 -0 1.5058722
-2 3.1368601 -3.6893488e+19
2.4379871 1.0842022e-19 -1.5921949
2 3.1383142 -3.6893488e+19
2.2720578 -3.6893488e+19 -1.6952927
-1.0842022e-19 3.1309605 -1.0842022e-19
2.4313078 3.6893488e+19 -1.7643142
-3.6893488e+19 3.1429214 -3.6893488e+19
2.2752857 -1.0842022e-19 -1.8118116
-1.0842022e-19 3.1289103 1.0842022e-19
2.4289868 -1.0842022e-19 -1.8489428
-1.0842022e-19 3.1473532 -2
2.2783906 3.6893488e+19 -1.8889594
0 3.130183 -3.6893488e+19
2.4304273 1.0842022e-19 -1.9051993
-1.0842022e-19 3.1451361 -2
2.2768373 -3.6893488e+19 -1.9324579
-1.0842022e-19 3.1361063 -3.6893488e+19
2.4371336 -0 -1.9511436
-3.6893488e+19 3.1442695 2
2.2762303 -1.0842022e-19 -1.9762523
-2 3.105896 1.0842022e-19
2.402931 2 -1.9755521
-3.6893488e+19 3.0901055 0
2.2265649 -1.0842022e-19 -1.983305
1.0842022e-19 2.9685919 -0
2.3239279 3.6893488e+19 -1.9390619
3.6893488e+19 2.9208961 -2
2.1488285 -1.0842022e-19 -1.9303559
-3.6893488e+19 2.8430433 -2
2.2242777 -2 -1.9078748
3.6893488e+19 2.7936001 0
2.0282068 2 -1.8923519
-0 2.7556841 3.6893488e+19
2.1034985 3.6893488e+19 -1.882195
-2 2.7212608 -1.0842022e-19
1.9732764 -0 -1.8775303
-1.0842022e-19 2.6749988 2
2.043793 3.6893488e+19 -1.8688941
-2 2.6515813 -0
1.9402633 -2 -1.8650153
3.6893488e+19 2.6154647 -3.6893488e+19
2.0026381 -1.0842022e-19 -1.8555288
1.0842022e-19 2.5982859 0
1.9150127 -3.6893488e+19 -1.8528373
1.0842022e-19 2.5681279 1.0842022e-19
1.9699153 -2 -1.8437911
3.6893488e+19 2.5525763 0
1.8933562 -3.6893488e+19 -1.8400515
3.6893488e+19 2.5294173 -1.0842022e-19
1.9431554 0 -1.8331066
-2 2.5216131 3.6893488e+19
1.8786863 -0 -1.8334254
0 2.5031228 -3.6893488e+19
1.9249785 2 -1.8279798
-3.6893488e+19 2.4845662 -2
1.8545803 -3.6893488e+19 -1.824659
-0 2.466599 2
1.7884526 0 -1.8232524
-0 2.4443967 -0
1.8757819 3.6893488e+19 -1.8213027
1.0842022e-19 2.4271424 -0
1.7746307 -3.6893488e+19 -1.818588
-1.0842022e-19 2.3693573 -1.0842022e-19
1.7543882 -2 -1.8133742
-2 2.3173745 -0
1.7223567 1.0842022e-19 -1.8049499
3.6893488e+19 2.2834966 1.0842022e-19
1.6986214 -0 -1.8019614
3.6893488e+19 2.2483757 -1.0842022e-19
1.7972584 3.6893488e+19 -1.7967254
1.0842022e-19 2.2030537 3.6893488e+19
1.7815933 2 -1.7943308
-0 2.1689849 2
1.7698178 1.0842022e-19 -1.7938882
-2 2.1326072 -2
1.7572442 -3.6893488e+19 -1.7905107
1.0842022e-19 3.2539151 0
2.3450661 -3.6893488e+19 2.7255919
-2 3.1804969 0
2.478188 -2 2.6491919
3.6893488e+19 3.2311263 3.6893488e+19
2.326921 2 2.6864107
-0 3.2335455 2
2.3285649 -2 2.674403
-3.6893488e+19 3.264214 -3.6893488e+19
2.543484 -0 2.7087786
3.6893488e+19 3.1819851 2
2.479841 -1.0842022e-19 2.6123414
-0 3.2507999 0
2.3408327 3.6893488e+19 2.6609204
2 3.2489135 -1.0842022e-19
2.5270917 -2 2.6538508
-0 3.2548084 -1.0842022e-19
2.3462801 -0 2.6378596
1.0842022e-19 3.1869318 3.6893488e+19
2.4853356 1.0842022e-19 2.5781596
-0 3.2371233 -1.0842022e-19
2.5205436 3.6893488e+19 2.601685
-3.6893488e+19 3.2356758 3.6893488e+19
2.5804968 -0 2.5952151
-1.0842022e-19 3.2316639 -3.6893488e+19
2.4461734 3.6893488e+19 2.5828063
-3.6893488e+19 3.1849616 3.6893488e+19
2.4029124 3.6893488e+19 2.5254574
-2 3.2101877 -1.0842022e-19
2.5631523 -2 2.5369904
-3.6893488e+19 3.1920588 0
2.4094868 -0 2.5172486
-3.6893488e+19 3.2377677 -3.6893488e+19
2.5819201 0 2.5400844
-2 3.1932487 1.0842022e-19
2.410589 3.6893488e+19 2.4851482
-3.6893488e+19 3.2275558 -2
2.442368 -2 2.495415
2 3.2292981 -2
2.4439819 0 2.4698944
3.6893488e+19 3.2535036 -2
2.3445067 -3.6893488e+19 2.4811473
3.6893488e+19 3.2348905 3.6893488e+19
2.5193036 -0 2.4490666
-0 3.2520351 -3.6893488e+19
2.3425112 -3.6893488e+19 2.4497738
-3.6893488e+19 3.233912 2
2.5187602 3.6893488e+19 2.4205806
-1.0842022e-19 3.2538657 2
2.3449991 -3.6893488e+19 2.4242911
0 3.2326312 2
2.5180488 2 2.3919961
-1.0842022e-19 3.2471163 0
2.3377862 -0 2.3873184
-2 3.2116928 1.0842022e-19
2.5064199 -2 2.3487525
2 3.2493944 2
2.339334 0 2.3608952
-0 3.211736 -0
2.5064437 3.6893488e+19 2.3225744
3.6893488e+19 3.2456615 -1.0842022e-19
2.3367975 -1.0842022e-19 2.3302505
-0 3.1460335 -0
2.4399066 1.0842022e-19 2.2542243
3.6893488e+19 3.2460294 0
2.3370476 -1.0842022e-19 2.3025548
1.0842022e-19 3.258276 0
2.5368881 0 2.3023336
-3.6893488e+19 3.2496037 2
2.3394763 -3.6893488e+19 2.2766283
0 3.2415349 2
2.5229938 2 2.2598815
-3.6893488e+19 3.2569642 -2
2.5997224 2 2.2584124
-1.0842022e-19 3.2279537 -0
2.4427366 3.6893488e+19 2.2000773
2 3.2564385 0
2.5990069 -3.6893488e+19 2.2075472
-0 3.2142482 1.0842022e-19
2.4300411 -1.0842022e-19 2.1348813
-0 3.2083485 1.0842022e-19
2.5619009 3.6893488e+19 2.1069012
-0 3.2121706 1.0842022e-19
2.4281166 -0 2.0811505
-1.0842022e-19 3.2038119 -3.6893488e+19
2.5588136 2 2.0519176
2 3.1578302 -2
2.37778 1.0842022e-19 1.9963412
-3.6893488e+19 3.2565231 -3.6893488e+19
2.599122 2 2.0332036
1.0842022e-19 3.1529005 1.0842022e-19
2.3732135 2 1.9480766
-0 3.2560697 -3.6893488e+19
2.5985048 2 1.9746996
0 3.1511765 -3.6893488e+19
2.3716164 -0 1.9021463
-0 3.2560501 2
2.5984783 3.6893488e+19 1.9167167
-3.6893488e+19 3.2118192 1.0842022e-19
2.4277911 1.0842022e-19 1.8715498
0 3.2556331 1.0842022e-19
2.5979106 1.0842022e-19 1.8421575
