# .PCD v0.7 - Point Cloud Data file format
VERSION 0.7
FIELDS x y z
SIZE 4 4 4
TYPE F F F
COUNT 1 1 1
WIDTH 1701
HEIGHT 1
VIEWPOINT 0 0 0 1 0 0 0
POINTS 1701
DATA ascii
2.174458 2 1.915162
0 3.0246053 -3.6893488e+19
1.9046724 -2 1.8857263
-1.0842022e-19 3.0502717 -3.6893488e+19
2.1759176 -1.0842022e-19 1.8820715
3.6893488e+19 3.1383359 2
1.9687318 1.0842022e-19 1.8985612
3.6893488e+19 3.1106663 0
2.2557919 -1.0842022e-19 1.8614612
-0 3.0259769 2
1.9054451 -3.6893488e+19 1.774533
1.0842022e-19 3.112483 0
2.2570803 2 1.7814428
3.6893488e+19 3.0293443 -3.6893488e+19
1.9073417 2 1.6779735
3.6893488e+19 3.0279286 -1.0842022e-19
1.5402669 2 1.6049322
2 3.0287499 1.0842022e-19
2.008425 1.0842022e-19 1.4627674
0 3.0289657 -0
1.5408835 -2 -1.1452886
0 3.0312448 0
2.0107379 3.6893488e+19 -1.5190161
1.0842022e-19 3.0292704 -0
1.5410647 0 -1.6336786
0 3.0295455 -1.0842022e-19
2.0091624 -2 -1.696521
-1.0842022e-19 3.028749 2
1.5407548 3.6893488e+19 -1.7539109
3.6893488e+19 3.0292366 -0
2.0088761 3.6893488e+19 -1.7855543
-3.6893488e+19 3.0290577 -1.0842022e-19
1.5409384 -2 -1.8163193
-0 3.0263879 -2
2.0062351 -0 -1.8457097
3.6893488e+19 3.0283847 -2
1.5405381 1.0842022e-19 -1.876502
-0 3.0215936 0
2.0017905 3.6893488e+19 -1.8888059
-3.6893488e+19 3.0279167 -2
1.5402598 -0 -1.9073225
3.6893488e+19 2.9793334 -1.0842022e-19
1.9721915 -1.0842022e-19 -1.8993015
1.0842022e-19 2.9584589 0
1.5113086 -1.0842022e-19 -1.9053658
-0 2.9484632 -1.0842022e-19
1.9578818 3.6893488e+19 -1.914781
1.0842022e-19 2.8381979 1.0842022e-19
1.9898568 1.0842022e-19 -1.8840358
0 2.7844892 3.6893488e+19
1.7852396 -3.6893488e+19 -1.8656729
-2 2.7559013 0
1.9314905 2 -1.8565714
-2 2.7208655 3.6893488e+19
1.7576084 -1.0842022e-19 -1.8505341
2 2.6732388 2
1.9000847 2 -1.8402828
-3.6893488e+19 2.6415083 -3.6893488e+19
1.7205186 -1.0842022e-19 -1.8344568
0 2.520503 0
1.8168463 3.6893488e+19 -1.7930328
3.6893488e+19 2.5129063 -2
1.8114585 3.6893488e+19 -1.8031281
3.6893488e+19 2.5031977 2
1.8045729 0 -1.810837
-2 2.4631865 -1.0842022e-19
1.7892506 0 -1.8080647
3.6893488e+19 2.3922703 3.6893488e+19
1.2332588 1.0842022e-19 -1.8015529
0 2.3382936 -2
1.2011621 0 -1.7963955
0 2.2940938 3.6893488e+19
1.1748793 -3.6893488e+19 -1.7906969
-2 2.2626071 -1.0842022e-19
1.1561562 -3.6893488e+19 -1.7879232
-3.6893488e+19 2.2238631 3.6893488e+19
1.6680367 -0 -1.7861835
-1.0842022e-19 2.1888988 2
1.655638 1.0842022e-19 -1.7869602
-3.6893488e+19 2.1535337 3.6893488e+19
1.6430972 -3.6893488e+19 -1.7856187
2 2.1250994 -3.6893488e+19
1.633014 -1.0842022e-19 -1.7852449
-1.0842022e-19 3.1211581 1.0842022e-19
1.4425244 3.6893488e+19 2.5968964
-1.0842022e-19 3.1181247 1.0842022e-19
2.0758057 -2 2.5891705
-2 3.1207173 1.0842022e-19
1.4422958 -2 2.5856013
-2 3.1387463 0
2.0940566 3.6893488e+19 2.5967586
2 3.1227891 -2
1.4433703 1.0842022e-19 2.5765655
-3.6893488e+19 3.1275051 3.6893488e+19
2.0841076 -1.0842022e-19 2.5756822
-1.0842022e-19 3.1220956 3.6893488e+19
1.4430107 3.6893488e+19 2.5651021
-0 3.1167905 2
2.0746248 -0 2.5557349
3.6893488e+19 3.1227889 -3.6893488e+19
1.4433702 -2 2.5548429
3.6893488e+19 3.1143768 -3.6893488e+19
2.0724883 1.0842022e-19 2.5431228
-1.0842022e-19 3.1326928 -3.6893488e+19
1.4485075 1.0842022e-19 2.5518415
2 3.1386805 2
2.0939982 -0 2.5513959
-3.6893488e+19 3.1140828 -3.6893488e+19
1.4388543 -2 2.5266294
-1.0842022e-19 3.1068339 2
2.0658128 3.6893488e+19 2.5163772
3.6893488e+19 3.1127117 1.0842022e-19
1.4381431 -2 2.5151234
0 3.1089475 -0
2.0676832 1.0842022e-19 2.5075948
2 3.1356573 0
2.265373 2 2.5217948
-0 3.111623 3.6893488e+19
1.9385127 -3.6893488e+19 2.4977148
-2 3.1310232 -1.0842022e-19
2.2621841 -1.0842022e-19 2.5075486
2 3.1116164 0
1.9385092 2 2.476954
2 3.1965339 -0
2.3072624 0 2.5389946
2 3.1119921 0
1.9387051 -1.0842022e-19 2.456728
-2 3.1260338 -1.0842022e-19
2.2587509 -2 2.4651608
2 3.1137092 -3.6893488e+19
1.9396001 3.6893488e+19 2.4381163
0 3.1224549 0
2.2562883 -2 2.4394152
-3.6893488e+19 3.1124432 2
1.9389403 2 2.4159291
-1.0842022e-19 3.1174619 1.0842022e-19
2.2528527 3.6893488e+19 2.4125314
1.0842022e-19 3.1211445 2
2.2553866 -1.0842022e-19 2.3955071
1.0842022e-19 3.1101279 -3.6893488e+19
1.9377332 -0 2.3723359
2 3.1176174 -0
2.2529595 3.6893488e+19 2.3708258
3.6893488e+19 3.1079321 -3.6893488e+19
1.9365885 -2 2.3497803
-2 3.110723 3.6893488e+19
1.4371116 1.0842022e-19 2.3421185
-0 3.1099789 -1.0842022e-19
2.0685961 -0 2.3317406
-2 3.1271312 0
1.4456228 1.0842022e-19 2.3363678
1.0842022e-19 3.1097004 -1.0842022e-19
2.0683496 -3.6893488e+19 2.3111453
2 3.1165681 2
1.4401435 -2 2.3062627
-1.0842022e-19 3.1116698 -0
2.0700927 -0 2.2924259
-2 3.1150219 1.0842022e-19
1.4393415 -3.6893488e+19 2.2844088
-1.0842022e-19 3.1877158 1.0842022e-19
2.1373966 -0 2.3292346
-0 3.1128645 2
1.4382224 0 2.262311
3.6893488e+19 3.0536721 1.0842022e-19
2.0187624 0 2.1726203
1.0842022e-19 3.0724752 -3.6893488e+19
1.4172719 3.6893488e+19 2.1799917
2 3.0426514 -2
2.0090084 1.0842022e-19 2.1243672
1.0842022e-19 3.120048 3.6893488e+19
1.4419485 -0 2.2018843
-0 3.1101506 -3.6893488e+19
2.068748 -1.0842022e-19 2.1702437
-3.6893488e+19 3.1215451 1.0842022e-19
1.4427252 3.6893488e+19 2.1620555
-3.6893488e+19 3.0474319 3.6893488e+19
2.0132396 0 2.0636718
2 3.1273098 0
2.259629 -2 2.1275659
1.0842022e-19 3.1277714 -2
1.9469306 -2 2.1056826
3.6893488e+19 3.1265318 -3.6893488e+19
2.2590935 -0 2.0844932
-1.0842022e-19 3.1244235 2
1.9451855 -2 2.0606141
2 3.0700371 1.0842022e-19
2.1904387 1.0842022e-19 1.9983782
0 3.120868 3.6893488e+19
1.943332 2 2.0161841
-2 3.1249502 2
2.2580054 -2 1.9989316
3.6893488e+19 3.1264679 2
1.9462513 -3.6893488e+19 1.9781147
2 3.1115446 -0
2.2475617 -0 1.9495027
3.6893488e+19 3.0260968 -0
1.8939282 -2 1.8864515
0 3.1115291 -2
2.2475402 -3.6893488e+19 1.9089785
0 3.0318637 3.6893488e+19
1.8969344 -1.0842022e-19 1.8406395
-2 3.1096592 2
2.2449672 0 1.8607471
-1.0842022e-19 3.0310605 3.6893488e+19
1.8965157 -0 1.777274
1.0842022e-19 3.0308058 -0
1.8963829 -2 1.6788887
2 3.0733988 -3.6893488e+19
1.417751 1.0842022e-19 1.6337738
-2 3.063488 -0
2.0274498 2 1.4892472
3.6893488e+19 3.0751867 -2
1.4186784 0 -1.1693597
-1.0842022e-19 3.0572777 -3.6893488e+19
2.0219533 3.6893488e+19 -1.5323235
-3.6893488e+19 3.0735214 -2
1.4178146 -2 -1.6548588
3.6893488e+19 3.0545161 1.0842022e-19
2.0195093 2 -1.7140437
0 3.0734968 0
1.4178019 1.0842022e-19 -1.7746037
2 3.029902 -0
1.9977248 2 -1.785913
2 3.0733314 3.6893488e+19
1.417716 -2 -1.8466709
1.0842022e-19 3.0518198 0
2.017123 2 -1.8659825
1.0842022e-19 3.027575 -2
1.3939816 1.0842022e-19 -1.876133
2 3.0508556 0
2.0162697 3.6893488e+19 -1.9037383
1.0842022e-19 3.0495343 0
2.0151002 1.0842022e-19 -1.9365687
0 2.958463 0
1.3628105 -1.0842022e-19 -1.9053658
0 2.9437921 -2
1.9463871 -1.0842022e-19 -1.9130404
-0 2.9602385 -1.0842022e-19
2.0666926 -2 -1.9323616
-2 2.7795238 1.0842022e-19
1.7707148 1.0842022e-19 -1.8614516
-1.0842022e-19 2.7204084 3.6893488e+19
1.7452221 3.6893488e+19 -1.8502952
-0 2.6415431 -0
1.7041099 -1.0842022e-19 -1.8344568
-1.0842022e-19 2.5151136 2
1.8074262 0 -1.7747253
-1.0842022e-19 2.5160947 2
1.8081013 -1.0842022e-19 -1.7902566
1.0842022e-19 2.5133388 1.0842022e-19
1.8062049 -3.6893488e+19 -1.8033803
-3.6893488e+19 2.5036275 2
1.7995226 2 -1.81111
-0 2.4637883 -2
1.7845676 2 -1.8082606
-1.0842022e-19 3.1211581 1.0842022e-19
1.4425244 3.6893488e+19 2.5968964
-1.0842022e-19 3.1181247 1.0842022e-19
2.0758057 -2 2.5891705
-2 3.1207173 1.0842022e-19
1.4422958 -2 2.5856013
-2 3.1387463 0
2.0940566 3.6893488e+19 2.5967586
2 3.1227891 -2
1.4433703 1.0842022e-19 2.5765655
-3.6893488e+19 3.1275051 3.6893488e+19
2.0841076 -1.0842022e-19 2.5756822
-1.0842022e-19 3.1220956 3.6893488e+19
1.4430107 3.6893488e+19 2.5651021
-0 3.1167905 2
2.0746248 -0 2.5557349
3.6893488e+19 3.1227889 -3.6893488e+19
1.4433702 -2 2.5548429
3.6893488e+19 3.1143768 -3.6893488e+19
2.0724883 1.0842022e-19 2.5431228
-1.0842022e-19 3.1326928 -3.6893488e+19
1.4485075 1.0842022e-19 2.5518415
3.6893488e+19 3.116226 3.6893488e+19
2.0741251 2 2.5339839
-3.6893488e+19 3.1140828 -3.6893488e+19
1.4388543 -2 2.5266294
-1.0842022e-19 3.1068339 2
2.0658128 3.6893488e+19 2.5163772
3.6893488e+19 3.1127117 1.0842022e-19
1.4381431 -2 2.5151234
0 3.1089475 -0
2.0676832 1.0842022e-19 2.5075948
2 3.1356573 0
2.265373 2 2.5217948
-0 3.111623 3.6893488e+19
1.9385127 -3.6893488e+19 2.4977148
-2 3.1310232 -1.0842022e-19
2.2621841 -1.0842022e-19 2.5075486
2 3.1116164 0
1.9385092 2 2.476954
2 3.1294324 2
2.2610896 -1.0842022e-19 2.4911335
2 3.1119921 0
1.9387051 -1.0842022e-19 2.456728
-2 3.1260338 -1.0842022e-19
2.2587509 -2 2.4651608
2 3.1137092 -3.6893488e+19
1.9396001 3.6893488e+19 2.4381163
0 3.1224549 0
2.2562883 -2 2.4394152
-3.6893488e+19 3.1124432 2
1.9389403 2 2.4159291
-1.0842022e-19 3.1174619 1.0842022e-19
2.2528527 3.6893488e+19 2.4125314
1.0842022e-19 3.1211445 2
2.2553866 -1.0842022e-19 2.3955071
1.0842022e-19 3.1101279 -3.6893488e+19
1.9377332 -0 2.3723359
2 3.1176174 -0
2.2529595 3.6893488e+19 2.3708258
3.6893488e+19 3.1079321 -3.6893488e+19
1.9365885 -2 2.3497803
3.6893488e+19 3.0752218 2
1.4186966 -1.0842022e-19 2.3084481
-0 3.1099789 -1.0842022e-19
2.0685961 -0 2.3317406
0 3.0755138 -1.0842022e-19
1.418848 3.6893488e+19 2.2903295
-2 3.0522785 3.6893488e+19
2.017529 3.6893488e+19 2.2614748
-3.6893488e+19 3.0760074 0
1.4191042 -3.6893488e+19 2.2723749
-0 3.0522504 -2
2.017504 3.6893488e+19 2.2387655
0 3.0748684 3.6893488e+19
1.4185133 0 2.253123
2 3.0529528 -3.6893488e+19
2.0181255 2 2.2057412
1.0842022e-19 3.0754857 3.6893488e+19
1.4188335 1.0842022e-19 2.2205803
3.6893488e+19 3.0536721 1.0842022e-19
2.0187624 0 2.1726203
1.0842022e-19 3.0724752 -3.6893488e+19
1.4172719 3.6893488e+19 2.1799917
2 3.0426514 -2
2.0090084 1.0842022e-19 2.1243672
-1.0842022e-19 3.0676379 0
1.4147629 0 2.1378839
-1.0842022e-19 3.0483775 2
2.0140765 2 2.0981636
2 3.0675187 0
1.414701 -2 2.1021383
-3.6893488e+19 3.0474319 3.6893488e+19
2.0132396 0 2.0636718
0 3.068361 0
2.188132 -1.0842022e-19 2.0685771
1.0842022e-19 3.1277714 -2
1.9469306 -2 2.1056826
0 3.0694864 -1.0842022e-19
2.1896806 3.6893488e+19 2.0338166
-0 3.0285406 2
1.8952022 3.6893488e+19 1.9810717
2 3.0700371 1.0842022e-19
2.1904387 1.0842022e-19 1.9983782
-0 3.0285721 -2
1.8952185 0 1.9499404
-2 3.0502276 3.6893488e+19
2.1631768 -0 1.9493229
-3.6893488e+19 3.0288084 3.6893488e+19
1.8953418 3.6893488e+19 1.9189396
-1.0842022e-19 3.0494978 -2
2.1621723 3.6893488e+19 1.915265
3.6893488e+19 3.0260968 -0
1.8939282 -2 1.8864515
3.6893488e+19 3.0516477 -1.0842022e-19
2.1651309 -0 1.8826463
0 3.0318637 3.6893488e+19
1.8969344 -1.0842022e-19 1.8406395
-2 3.1096592 2
2.2449672 0 1.8607471
-1.0842022e-19 3.0310605 3.6893488e+19
1.8965157 -0 1.777274
1.0842022e-19 3.0308058 -0
1.8963829 -2 1.6788887
3.6893488e+19 3.0282435 -3.6893488e+19
1.3943284 -3.6893488e+19 1.6051906
3.6893488e+19 3.0244853 3.6893488e+19
1.9929309 -3.6893488e+19 1.4594811
-3.6893488e+19 3.0283742 0
1.3943963 -2 -1.1449794
-1.0842022e-19 3.0299447 1.0842022e-19
1.9977627 0 -1.5183293
1.0842022e-19 3.0291791 -0
1.3948137 -0 -1.6336336
-1.0842022e-19 3.0305853 1.0842022e-19
1.9983296 -1.0842022e-19 -1.6972228
-1.0842022e-19 3.0285952 3.6893488e+19
1.3945109 2 -1.7538387
2 3.029902 -0
1.9977248 2 -1.785913
1.0842022e-19 3.0282481 3.6893488e+19
1.3943307 0 -1.8157625
-0 3.0264289 1.0842022e-19
1.9946511 -0 -1.8457097
1.0842022e-19 3.027575 -2
1.3939816 1.0842022e-19 -1.876133
-2 3.0260935 1.0842022e-19
1.9943542 2 -1.8910848
2 2.9802775 -2
1.9625326 3.6893488e+19 -1.8995734
0 2.958463 0
1.3628105 -1.0842022e-19 -1.9053658
0 2.9437921 -2
1.9463871 -1.0842022e-19 -1.9130404
-3.6893488e+19 2.8418202 3.6893488e+19
1.9852085 3.6893488e+19 -1.8854405
-2 2.7795238 1.0842022e-19
1.7707148 1.0842022e-19 -1.8614516
-1.0842022e-19 2.7204084 3.6893488e+19
1.7452221 3.6893488e+19 -1.8502952
-0 2.6415431 -0
1.7041099 -1.0842022e-19 -1.8344568
-1.0842022e-19 2.5151136 2
1.8074262 0 -1.7747253
-1.0842022e-19 2.5160947 2
1.8081013 -1.0842022e-19 -1.7902566
1.0842022e-19 2.5133388 1.0842022e-19
1.8062049 -3.6893488e+19 -1.8033803
-3.6893488e+19 2.5036275 2
1.7995226 2 -1.81111
-0 2.4637883 -2
1.7845676 2 -1.8082606
-3.6893488e+19 3.1217978 -0
-1.2253015 -0 2.5974936
-3.6893488e+19 3.1357553 0
2.0752039 0 2.6053643
2 3.1236441 1.0842022e-19
-1.2264203 -2 2.5882502
3.6893488e+19 3.1341712 -0
2.0738683 -0 2.5926292
3.6893488e+19 3.121546 1.0842022e-19
-1.2251489 -3.6893488e+19 2.564636
0 3.1172702 3.6893488e+19
2.0596201 -2 2.5560913
0 3.1190484 -1.0842022e-19
2.0611191 2 2.5468388
-0 3.1323256 3.6893488e+19
-1.2316811 0 2.5515513
-3.6893488e+19 3.1370502 -0
2.0762954 -1.0842022e-19 2.5500894
2 3.1156187 -0
-1.221557 -2 2.5277958
1.0842022e-19 3.1119158 -1.0842022e-19
2.0551062 3.6893488e+19 2.5201325
1.0842022e-19 3.1128047 -1.0842022e-19
-1.2198517 -1.0842022e-19 2.5151908
-1.0842022e-19 3.1092439 2
2.0528538 -2 2.507771
-0 3.1347306 3.6893488e+19
2.2566197 -3.6893488e+19 2.5210814
3.6893488e+19 3.1118681 0
1.9234678 -2 2.4980114
2 3.1318755 -1.0842022e-19
2.2547152 -2 2.5080674
3.6893488e+19 3.1118617 0
1.9234647 -1.0842022e-19 2.4772384
1.0842022e-19 3.1970019 -0
2.2981553 2 2.5392332
1.0842022e-19 3.1112504 -0
1.9231715 -2 2.4557548
-2 3.1264558 -0
2.2511003 1.0842022e-19 2.4655797
2 3.1138625 -1.0842022e-19
1.9244237 -1.0842022e-19 2.4382651
-3.6893488e+19 3.1180696 2
2.2410135 2 2.4341457
3.6893488e+19 3.1114836 -0
1.9232833 2 2.4147937
-2 3.1175742 0
2.2403526 -0 2.4125659
-0 3.119498 -3.6893488e+19
2.2429187 2 2.3936653
-0 3.1103432 0
1.9227368 -0 2.3725281
-0 3.1154432 1.0842022e-19
2.2375097 1.0842022e-19 2.368551
3.6893488e+19 3.1059771 -0
1.9206437 0 2.3478415
-2 3.168972 0
-1.2519441 2 2.3973625
3.6893488e+19 3.1103709 0
2.0538039 3.6893488e+19 2.3320549
2 3.1701157 -0
-1.2522905 -0 2.3747053
-3.6893488e+19 3.1091616 -1.0842022e-19
2.0527844 3.6893488e+19 2.3106356
0 3.1682875 -2
-1.2517365 -1.0842022e-19 2.349473
-2 3.1097648 3.6893488e+19
2.053293 -3.6893488e+19 2.2908444
-1.0842022e-19 3.1149604 -2
-1.2211581 -0 2.2843604
3.6893488e+19 3.1136134 2
2.0565374 1.0842022e-19 2.2734587
-1.0842022e-19 3.1690114 -3.6893488e+19
-1.2519559 1.0842022e-19 2.3028984
3.6893488e+19 3.053 -1.0842022e-19
2.0054383 -2 2.1716251
0 3.168767 3.6893488e+19
-1.2518818 -3.6893488e+19 2.2791934
-2 3.0472033 3.6893488e+19
2.0005517 3.6893488e+19 2.1301365
-3.6893488e+19 3.0689783 3.6893488e+19
-1.193294 -1.0842022e-19 2.1395199
0 3.1059687 0
2.0500927 0 2.1653054
1.0842022e-19 3.0692651 -0
-1.1934677 -0 2.1040745
-0 3.0495293 -2
2.0025125 -0 2.0658388
2 3.1283259 2
2.2523477 -1.0842022e-19 2.1284988
-2 3.1273656 0
1.9308968 0 2.1052718
3.6893488e+19 3.20488 -1.0842022e-19
2.3034101 -1.0842022e-19 2.1540043
-2 3.123955 2
1.9292618 2 2.0602002
-1.0842022e-19 3.207906 -0
2.3054285 2 2.1052983
1.0842022e-19 3.12146 -0
1.9280657 0 2.0165873
-0 3.1267447 -2
2.2512929 -3.6893488e+19 2.0000675
-1.0842022e-19 3.1241577 1.0842022e-19
1.929359 -1.0842022e-19 1.9766964
1.0842022e-19 3.1251013 -3.6893488e+19
2.2501967 0 1.9569376
3.6893488e+19 3.0260258 -1.0842022e-19
1.8823177 3.6893488e+19 1.8864052
-0 3.1221623 -2
2.2464731 -3.6893488e+19 1.9136181
3.6893488e+19 3.0297945 3.6893488e+19
1.8841243 -0 1.839039
-0 3.1256492 -3.6893488e+19
2.2505622 0 1.8711735
1.0842022e-19 3.0654695 3.6893488e+19
1.9012257 2 1.7959023
0 3.0331793 3.6893488e+19
2.1277676 -3.6893488e+19 1.7443225
1.0842022e-19 3.0657802 -1.0842022e-19
1.9013746 -1.0842022e-19 1.7011528
-2 3.0712118 -3.6893488e+19
-1.1946474 -2 1.6328689
-3.6893488e+19 3.0651238 0
2.0156593 -2 1.4904616
-0 3.0276873 -3.6893488e+19
-1.1682725 2 -1.1446214
0 3.0631881 -2
2.0140271 0 -1.5353268
-2 3.0691471 3.6893488e+19
-1.1933963 1.0842022e-19 -1.6527648
-2 3.0638893 -2
2.0146184 -1.0842022e-19 -1.720601
2 3.0706851 1.0842022e-19
-1.1943283 -0 -1.7733032
0 3.0686629 2
2.0186427 -1.0842022e-19 -1.8081703
0 3.0735195 -0
-1.1960458 -2 -1.8467994
-2 3.0507081 -3.6893488e+19
2.0035062 2 -1.865061
3.6893488e+19 3.0294809 2
-1.1693594 -1.0842022e-19 -1.8769988
-2 3.0513971 2
2.0040872 2 -1.9039932
-0 3.0331352 0
-1.1715739 -0 -1.9102749
0 3.0544724 -3.6893488e+19
2.0066795 -1.0842022e-19 -1.9396176
-0 2.9585261 -2
-1.1389284 1.0842022e-19 -1.905387
2 2.9621446 3.6893488e+19
2.0582557 -2 -1.9330763
-3.6893488e+19 2.7881558 -1.0842022e-19
1.7631325 3.6893488e+19 -1.8687335
2 2.5149093 3.6893488e+19
1.8016975 3.6893488e+19 -1.7396148
3.6893488e+19 2.7248123 3.6893488e+19
1.7276094 -2 -1.8523856
-0 2.5146744 -2
1.8015409 -1.0842022e-19 -1.7595675
-1.0842022e-19 2.6475592 -2
1.6905768 -0 -1.8376577
-2 2.5154209 -3.6893488e+19
1.8020388 1.0842022e-19 -1.7748656
-2 2.5152843 -0
1.8019477 3.6893488e+19 -1.7897168
3.6893488e+19 2.513273 2
1.8006061 -1.0842022e-19 -1.8032962
3.6893488e+19 2.5023193 2
1.7932999 -2 -1.8101089
-3.6893488e+19 2.464139 3.6893488e+19
1.779793 -3.6893488e+19 -1.8083584
-2 2.3925228 1.0842022e-19
-0.93143022 0 -1.8016647
3.6893488e+19 2.3395371 -3.6893488e+19
-0.91537607 3.6893488e+19 -1.7970238
2 2.2958298 3.6893488e+19
-0.90213323 -3.6893488e+19 -1.7916732
1.0842022e-19 2.262363 -3.6893488e+19
-0.89199311 1.0842022e-19 -1.78777
-1.0842022e-19 2.2260418 1.0842022e-19
1.6587627 0 -1.7868516
-2 2.1866462 2
1.645624 -0 -1.7860564
-1.0842022e-19 2.1532269 -0
1.6344784 -1.0842022e-19 -1.7854242
2 2.1257558 -3.6893488e+19
1.6253166 3.6893488e+19 -1.7854531
-3.6893488e+19 3.1217978 -0
-1.2253015 -0 2.5974936
1.0842022e-19 3.1169908 3.6893488e+19
2.0593846 -2 2.5880778
2 3.1236441 1.0842022e-19
-1.2264203 -2 2.5882502
3.6893488e+19 3.1341712 -0
2.0738683 -0 2.5926292
3.6893488e+19 3.121546 1.0842022e-19
-1.2251489 -3.6893488e+19 2.564636
0 3.1172702 3.6893488e+19
2.0596201 -2 2.5560913
0 3.1190484 -1.0842022e-19
2.0611191 2 2.5468388
-0 3.1323256 3.6893488e+19
-1.2316811 0 2.5515513
3.6893488e+19 3.1159713 -3.6893488e+19
2.0585251 0 2.5337465
2 3.1156187 -0
-1.221557 -2 2.5277958
1.0842022e-19 3.1119158 -1.0842022e-19
2.0551062 3.6893488e+19 2.5201325
1.0842022e-19 3.1128047 -1.0842022e-19
-1.2198517 -1.0842022e-19 2.5151908
-1.0842022e-19 3.1092439 2
2.0528538 -2 2.507771
-0 3.1347306 3.6893488e+19
2.2566197 -3.6893488e+19 2.5210814
3.6893488e+19 3.1118681 0
1.9234678 -2 2.4980114
2 3.1318755 -1.0842022e-19
2.2547152 -2 2.5080674
3.6893488e+19 3.1118617 0
1.9234647 -1.0842022e-19 2.4772384
-1.0842022e-19 3.1291475 0
2.2528958 0 2.4906561
1.0842022e-19 3.1112504 -0
1.9231715 -2 2.4557548
-2 3.1264558 -0
2.2511003 1.0842022e-19 2.4655797
2 3.1138625 -1.0842022e-19
1.9244237 -1.0842022e-19 2.4382651
-3.6893488e+19 3.1180696 2
2.2410135 2 2.4341457
3.6893488e+19 3.1114836 -0
1.9232833 2 2.4147937
-2 3.1175742 0
2.2403526 -0 2.4125659
-0 3.119498 -3.6893488e+19
2.2429187 2 2.3936653
-0 3.1103432 0
1.9227368 -0 2.3725281
-0 3.1154432 1.0842022e-19
2.2375097 1.0842022e-19 2.368551
3.6893488e+19 3.1059771 -0
1.9206437 0 2.3478415
1.0842022e-19 3.1098549 2
-1.2180643 -1.0842022e-19 2.3412943
-1.0842022e-19 3.0527995 -3.6893488e+19
2.0052693 3.6893488e+19 2.2790072
2 3.1701157 -0
-1.2522905 -0 2.3747053
0 3.053004 -1.0842022e-19
2.0054417 -0 2.2620652
-2 3.1157606 2
-1.2216431 0 2.3055878
1.0842022e-19 3.0532868 -0
2.0056801 -0 2.2403719
-1.0842022e-19 3.0764551 1.0842022e-19
-1.1978248 -3.6893488e+19 2.2543588
3.6893488e+19 3.0515664 -0
2.0042298 -1.0842022e-19 2.2035913
2 3.0743659 2
-1.1965587 0 2.2189605
3.6893488e+19 3.053 -1.0842022e-19
2.0054383 -2 2.1716251
-0 3.0690501 -2
-1.1933374 -3.6893488e+19 2.1754239
-2 3.0472033 3.6893488e+19
2.0005517 3.6893488e+19 2.1301365
-3.6893488e+19 3.0689783 3.6893488e+19
-1.193294 -1.0842022e-19 2.1395199
-2 3.0475171 -2
2.0008161 3.6893488e+19 2.0971105
1.0842022e-19 3.0692651 -0
-1.1934677 -0 2.1040745
-0 3.0495293 -2
2.0025125 -0 2.0658388
-0 3.0677166 -0
2.1738412 -2 2.0678618
2 3.0281131 1.0842022e-19
1.8833183 -1.0842022e-19 2.0118301
-3.6893488e+19 3.0686553 0
2.1750937 2 2.0330157
2 3.0270038 2
1.8827865 2 1.9797779
2 3.0693305 2
2.1759942 -1.0842022e-19 1.9977747
-3.6893488e+19 3.0273778 0
1.8829659 -0 1.949067
-2 3.0492363 0
2.1491883 1.0842022e-19 1.9486208
1.0842022e-19 3.027458 -0
1.8830042 0 1.9181075
-3.6893488e+19 3.0478835 0
2.1473837 3.6893488e+19 1.9143378
3.6893488e+19 3.0260258 -1.0842022e-19
1.8823177 3.6893488e+19 1.8864052
-0 3.0508118 -3.6893488e+19
2.1512897 0 1.8822495
3.6893488e+19 3.0297945 3.6893488e+19
1.8841243 -0 1.839039
-2 3.0590816 1.0842022e-19
2.162322 -0 1.8275498
-0 3.0291471 -0
1.883814 -3.6893488e+19 1.776225
0 3.0331793 3.6893488e+19
2.1277676 -3.6893488e+19 1.7443225
3.6893488e+19 3.0254877 -2
1.8820597 3.6893488e+19 1.6754864
-1.0842022e-19 3.0277753 2
-1.1683259 1.0842022e-19 1.604803
-0 3.0238376 1.0842022e-19
1.9808537 2 1.4589573
-0 3.0276873 -3.6893488e+19
-1.1682725 2 -1.1446214
1.0842022e-19 3.0304213 3.6893488e+19
1.9864038 1.0842022e-19 -1.5185529
0 3.0281172 3.6893488e+19
-1.168533 -0 -1.6331251
3.6893488e+19 3.0321229 1.0842022e-19
1.9878384 1.0842022e-19 -1.6982756
2 3.0277834 0
-1.1683308 -0 -1.7534629
0 3.0686629 2
2.0186427 -1.0842022e-19 -1.8081703
-0 3.0284359 3.6893488e+19
-1.1687262 2 -1.815891
2 3.0258753 3.6893488e+19
1.9825715 0 -1.8452365
3.6893488e+19 3.0294809 2
-1.1693594 -1.0842022e-19 -1.8769988
-2 3.0250096 1.0842022e-19
1.9818418 -1.0842022e-19 -1.890511
-0 3.0331352 0
-1.1715739 -0 -1.9102749
-2 2.9823411 2
1.9533143 3.6893488e+19 -1.9001949
-0 2.9585261 -2
-1.1389284 1.0842022e-19 -1.905387
-1.0842022e-19 2.8374171 -3.6893488e+19
1.9750611 2 -1.8836662
-3.6893488e+19 2.7881558 -1.0842022e-19
1.7631325 3.6893488e+19 -1.8687335
2 2.5149093 3.6893488e+19
1.8016975 3.6893488e+19 -1.7396148
3.6893488e+19 2.7248123 3.6893488e+19
1.7276094 -2 -1.8523856
-0 2.5146744 -2
1.8015409 -1.0842022e-19 -1.7595675
-1.0842022e-19 2.6475592 -2
1.6905768 -0 -1.8376577
-2 2.5154209 -3.6893488e+19
1.8020388 1.0842022e-19 -1.7748656
-2 2.5152843 -0
1.8019477 3.6893488e+19 -1.7897168
3.6893488e+19 2.513273 2
1.8006061 -1.0842022e-19 -1.8032962
3.6893488e+19 2.5023193 2
1.7932999 -2 -1.8101089
-3.6893488e+19 2.464139 3.6893488e+19
1.779793 -3.6893488e+19 -1.8083584
-2 2.3925228 1.0842022e-19
-0.93143022 0 -1.8016647
3.6893488e+19 2.3395371 -3.6893488e+19
-0.91537607 3.6893488e+19 -1.7970238
2 2.2958298 3.6893488e+19
-0.90213323 -3.6893488e+19 -1.7916732
1.0842022e-19 2.262363 -3.6893488e+19
-0.89199311 1.0842022e-19 -1.78777
-1.0842022e-19 2.2260418 1.0842022e-19
1.6587627 0 -1.7868516
-2 2.1866462 2
1.645624 -0 -1.7860564
-1.0842022e-19 2.1532269 -0
1.6344784 -1.0842022e-19 -1.7854242
2 2.1257558 -3.6893488e+19
1.6253166 3.6893488e+19 -1.7854531
-2 3.1190877 -3.6893488e+19
-1.5260606 -1.0842022e-19 2.5949624
3.6893488e+19 3.1350162 -3.6893488e+19
2.0584862 -2 2.6046357
2 3.1180341 2
-1.5256294 -1.0842022e-19 2.5831733
0 3.1324558 1.0842022e-19
2.0564349 -2 2.5910535
3.6893488e+19 3.1215136 -0
-1.5270535 2 2.5646102
-0 3.1202221 -3.6893488e+19
2.0466328 -1.0842022e-19 2.5585103
2 3.132432 -0
-1.5315222 0 2.5627296
0 3.1193426 -2
2.045928 0 2.5470357
3.6893488e+19 3.131496 0
-1.5311391 -0 2.5508983
0 3.1373167 -0
2.0603294 0 2.5502558
-3.6893488e+19 3.115586 -3.6893488e+19
-1.5246274 -3.6893488e+19 2.5277724
0 3.112087 -2
2.0401146 -1.0842022e-19 2.5202241
-1.0842022e-19 3.1142168 -1.0842022e-19
-1.524067 -3.6893488e+19 2.5162244
1.0842022e-19 3.1129787 3.6893488e+19
2.0408292 3.6893488e+19 2.510416
-3.6893488e+19 3.1121414 -2
1.908488 3.6893488e+19 2.4983504
1.0842022e-19 3.1118271 -0
1.9083505 -2 2.4771571
-2 3.1923923 -0
2.2857966 0 2.5361896
1.0842022e-19 3.1106911 -2
1.9078532 -0 2.4550152
-1.0842022e-19 3.1273675 -1.0842022e-19
2.2375779 -2 2.4666073
-0 3.1111095 2
1.9080365 -0 2.4349167
-3.6893488e+19 3.1180251 0
2.2255073 -1.0842022e-19 2.4340003
-0 3.1097789 2
1.9074541 -1.0842022e-19 2.4128067
1.0842022e-19 3.1181157 1.0842022e-19
2.2256241 -0 2.4130852
-3.6893488e+19 3.1198857 1.0842022e-19
2.2279112 -3.6893488e+19 2.3939941
1.0842022e-19 3.1104321 2
1.90774 1.0842022e-19 2.3725922
-2 3.1059725 -1.0842022e-19
1.9057883 -3.6893488e+19 2.347811
-0 3.1698079 3.6893488e+19
-1.5468194 3.6893488e+19 2.3981571
1.0842022e-19 3.1106982 -1.0842022e-19
2.0390019 -2 2.3323119
-3.6893488e+19 3.1690886 1.0842022e-19
-1.5465251 3.6893488e+19 2.3737912
3.6893488e+19 3.1095822 2
2.0381079 0 2.3109577
-0 3.1686273 -3.6893488e+19
-1.5463362 -2 2.3497586
1.0842022e-19 3.1099684 0
2.0384173 2 2.2909701
-1.0842022e-19 3.1125326 2
-1.5233778 2 2.2824702
1.0842022e-19 3.1143768 -2
2.0419493 2 2.2739961
2 3.1702855 -2
-1.5470148 1.0842022e-19 2.3038208
3.6893488e+19 3.16836 2
-1.5462269 -3.6893488e+19 2.2789235
-1.0842022e-19 3.1291919 -2
2.0538197 3.6893488e+19 2.2349386
-1.0842022e-19 3.0701609 3.6893488e+19
-1.5060358 2 2.1409659
1.0842022e-19 3.1007245 -2
2.0310106 0 2.1591322
-2 3.0687335 -3.6893488e+19
-1.5054516 3.6893488e+19 2.1034868
-0 3.1203275 0
2.0467174 3.6893488e+19 2.1404397
-0 3.1250181 -2
2.2345424 1.0842022e-19 2.1251094
1.0842022e-19 3.1234024 3.6893488e+19
1.9134163 3.6893488e+19 2.1015141
1.0842022e-19 3.1265404 -3.6893488e+19
2.2365091 3.6893488e+19 2.0843551
-0 3.1209881 -1.0842022e-19
1.9123597 1.0842022e-19 2.0577161
-2 3.0657585 0
2.1579762 3.6893488e+19 1.9949509
0 3.1225176 1.0842022e-19
1.9130291 -1.0842022e-19 2.0173261
2 3.1275723 1.0842022e-19
2.2378426 -3.6893488e+19 2.0005631
-2 3.1259961 2
1.9145515 0 1.9777933
0 3.126956 -2
2.237046 0 1.9579163
-1.0842022e-19 3.0253906 0
1.8660448 -0 1.8860812
0 3.1226468 3.6893488e+19
2.2314785 3.6893488e+19 1.9137961
-1.0842022e-19 3.0285661 -3.6893488e+19
1.8688241 -3.6893488e+19 1.8380834
1.0842022e-19 3.1261656 -3.6893488e+19
2.2360249 2 1.8714591
-2 3.0649619 3.6893488e+19
1.8878404 3.6893488e+19 1.7956146
0 3.0657725 -1.0842022e-19
1.888195 -1.0842022e-19 1.7011329
1.0842022e-19 3.0689292 3.6893488e+19
-1.5055317 1.0842022e-19 1.6319253
0 3.0620763 -2
2.0000446 -3.6893488e+19 1.4881041
3.6893488e+19 3.1357479 1.0842022e-19
-1.5328794 0 -1.200901
2 3.0614197 -2
1.9995186 -1.0842022e-19 -1.5344002
-2 3.0666456 -1.0842022e-19
-1.5045971 0 -1.6515682
3.6893488e+19 3.0650549 -2
2.0024312 -1.0842022e-19 -1.7213905
3.6893488e+19 3.073277 -3.6893488e+19
-1.5073111 -1.0842022e-19 -1.7745025
2 3.0678005 -1.0842022e-19
2.004631 -0 -1.8076502
3.6893488e+19 3.0727992 -0
-1.5071156 1.0842022e-19 -1.8463068
-0 3.0502803 1.0842022e-19
1.9905936 3.6893488e+19 -1.8646874
-0 3.0292609 -3.6893488e+19
-1.4785924 1.0842022e-19 -1.8768995
3.6893488e+19 3.0517495 2
1.9917706 1.0842022e-19 -1.9041526
-3.6893488e+19 3.0325091 -2
-1.4812514 -1.0842022e-19 -1.9099213
3.6893488e+19 3.0519869 3.6893488e+19
1.9919609 1.0842022e-19 -1.9380447
3.6893488e+19 2.959523 0
-1.4380741 2 -1.9057256
-2 2.9718497 -2
1.9390299 1.0842022e-19 -1.9233006
-0 2.9601901 -0
2.0472944 -2 -1.932263
2 2.7858067 1.0842022e-19
1.7500808 -2 -1.8667283
1.0842022e-19 2.5158367 -0
1.7967372 0 -1.7404023
3.6893488e+19 2.7194843 0
1.7054658 1.0842022e-19 -1.8498174
1.0842022e-19 2.5146067 -3.6893488e+19
1.7959425 3.6893488e+19 -1.7595043
3.6893488e+19 2.6470902 -0
1.6737831 0 -1.837391
-3.6893488e+19 2.5159748 -1.0842022e-19
1.7968265 3.6893488e+19 -1.7751462
-1.0842022e-19 2.515341 0
1.7964171 3.6893488e+19 -1.7897168
3.6893488e+19 2.5153158 -2
1.7964007 3.6893488e+19 -1.8046412
3.6893488e+19 2.502001 -3.6893488e+19
1.787799 3.6893488e+19 -1.8098359
3.6893488e+19 2.4612625 2
1.7739936 1.0842022e-19 -1.8071831
-2 3.1190877 -3.6893488e+19
-1.5260606 -1.0842022e-19 2.5949624
-3.6893488e+19 3.1163402 -0
2.0435226 1.0842022e-19 2.5874336
2 3.1180341 2
-1.5256294 -1.0842022e-19 2.5831733
0 3.1324558 1.0842022e-19
2.0564349 -2 2.5910535
3.6893488e+19 3.1215136 -0
-1.5270535 2 2.5646102
-0 3.1202221 -3.6893488e+19
2.0466328 -1.0842022e-19 2.5585103
2 3.132432 -0
-1.5315222 0 2.5627296
0 3.1193426 -2
2.045928 0 2.5470357
3.6893488e+19 3.131496 0
-1.5311391 -0 2.5508983
0 3.1176138 0
2.044543 -3.6893488e+19 2.5349815
-3.6893488e+19 3.115586 -3.6893488e+19
-1.5246274 -3.6893488e+19 2.5277724
0 3.112087 -2
2.0401146 -1.0842022e-19 2.5202241
-1.0842022e-19 3.1142168 -1.0842022e-19
-1.524067 -3.6893488e+19 2.5162244
1.0842022e-19 3.1129787 3.6893488e+19
2.0408292 3.6893488e+19 2.510416
-3.6893488e+19 3.1121414 -2
1.908488 3.6893488e+19 2.4983504
1.0842022e-19 3.1118271 -0
1.9083505 -2 2.4771571
-2 3.1923923 -0
2.2857966 0 2.5361896
1.0842022e-19 3.1106911 -2
1.9078532 -0 2.4550152
-1.0842022e-19 3.1273675 -1.0842022e-19
2.2375779 -2 2.4666073
-0 3.1111095 2
1.9080365 -0 2.4349167
-3.6893488e+19 3.1180251 0
2.2255073 -1.0842022e-19 2.4340003
-0 3.1097789 2
1.9074541 -1.0842022e-19 2.4128067
1.0842022e-19 3.1181157 1.0842022e-19
2.2256241 -0 2.4130852
-3.6893488e+19 3.1198857 1.0842022e-19
2.2279112 -3.6893488e+19 2.3939941
1.0842022e-19 3.1104321 2
1.90774 1.0842022e-19 2.3725922
-2 3.1059725 -1.0842022e-19
1.9057883 -3.6893488e+19 2.347811
-0 3.1698079 3.6893488e+19
-1.5468194 3.6893488e+19 2.3981571
1.0842022e-19 3.1106982 -1.0842022e-19
2.0390019 -2 2.3323119
-3.6893488e+19 3.1690886 1.0842022e-19
-1.5465251 3.6893488e+19 2.3737912
-0 3.0474279 2
1.9883081 -1.0842022e-19 2.2572081
0 3.1156657 -0
-1.52466 2 2.3055098
-0 3.0489178 -3.6893488e+19
1.9895017 -1.0842022e-19 2.2332432
2 3.0759871 3.6893488e+19
-1.5084203 2 2.2539954
1.0842022e-19 3.1143768 -2
2.0419493 2 2.2739961
1.0842022e-19 3.0752668 3.6893488e+19
-1.5081255 0 2.2202654
2 3.0713842 1.0842022e-19
-1.5065365 -0 2.1785383
-1.0842022e-19 3.1291919 -2
2.0538197 3.6893488e+19 2.2349386
-1.0842022e-19 3.0701609 3.6893488e+19
-1.5060358 2 2.1409659
1.0842022e-19 3.1007245 -2
2.0310106 0 2.1591322
-2 3.0687335 -3.6893488e+19
-1.5054516 3.6893488e+19 2.1034868
-0 3.1203275 0
2.0467174 3.6893488e+19 2.1404397
-0 3.0695877 2
2.1629236 -0 2.0696654
0 3.0289135 -0
1.8691281 -2 2.0125639
-2 3.0696254 -1.0842022e-19
2.1629722 3.6893488e+19 2.0338166
-0 3.0273364 3.6893488e+19
1.8677478 -3.6893488e+19 1.9800366
-2 3.0657585 0
2.1579762 3.6893488e+19 1.9949509
2 3.0266497 1.0842022e-19
1.8671467 -2 1.9485295
-3.6893488e+19 3.0552757 2
2.1444318 1.0842022e-19 1.9525862
-3.6893488e+19 3.0257928 -2
1.8663968 1.0842022e-19 1.9170862
-0 3.0503755 2
2.1381004 2 1.9156771
-1.0842022e-19 3.0253906 0
1.8660448 -0 1.8860812
1.0842022e-19 3.0498798 -0
2.1374598 2 1.8818115
-1.0842022e-19 3.0285661 -3.6893488e+19
1.8688241 -3.6893488e+19 1.8380834
-1.0842022e-19 3.0576217 -1.0842022e-19
2.1474628 -2 1.82655
-2 3.028918 0
1.8691323 3.6893488e+19 1.7760897
0 3.0242276 -3.6893488e+19
1.8650266 2 1.6746707
2 3.0275552 -0
-1.4771962 -2 1.6046219
0 3.02531 -3.6893488e+19
1.9705864 -3.6893488e+19 1.4600526
1.0842022e-19 3.0278423 3.6893488e+19
-1.4774312 -3.6893488e+19 -1.1447027
-0 3.0268383 3.6893488e+19
1.9718111 1.0842022e-19 -1.5166998
0 3.0280221 -1.0842022e-19
-1.4775783 0 -1.6330802
1.0842022e-19 3.0333154 -2
1.9770006 -3.6893488e+19 -1.6990869
-0 3.0294068 -2
-1.4787118 -3.6893488e+19 -1.7542143
2 3.0324755 -1.0842022e-19
1.9763277 2 -1.7873478
1.0842022e-19 3.0280285 0
-1.4775836 2 -1.8156126
2 3.0251634 -3.6893488e+19
1.970469 -3.6893488e+19 -1.8446387
-0 3.0292609 -3.6893488e+19
-1.4785924 1.0842022e-19 -1.8768995
1.0842022e-19 3.0254521 2
1.9707004 -0 -1.8907182
-3.6893488e+19 3.0325091 -2
-1.4812514 -1.0842022e-19 -1.9099213
1.0842022e-19 2.9800355 -1.0842022e-19
1.9423093 0 -1.899457
3.6893488e+19 2.959523 0
-1.4380741 2 -1.9057256
-2 2.9718497 -2
1.9390299 1.0842022e-19 -1.9233006
-1.0842022e-19 2.8415337 0
1.9706395 3.6893488e+19 -1.885268
2 2.7858067 1.0842022e-19
1.7500808 -2 -1.8667283
1.0842022e-19 2.5158367 -0
1.7967372 0 -1.7404023
3.6893488e+19 2.7194843 0
1.7054658 1.0842022e-19 -1.8498174
1.0842022e-19 2.5146067 -3.6893488e+19
1.7959425 3.6893488e+19 -1.7595043
3.6893488e+19 2.6470902 -0
1.6737831 0 -1.837391
-3.6893488e+19 2.5159748 -1.0842022e-19
1.7968265 3.6893488e+19 -1.7751462
-1.0842022e-19 2.515341 0
1.7964171 3.6893488e+19 -1.7897168
3.6893488e+19 2.5153158 -2
1.7964007 3.6893488e+19 -1.8046412
3.6893488e+19 2.502001 -3.6893488e+19
1.787799 3.6893488e+19 -1.8098359
3.6893488e+19 2.4612625 2
1.7739936 1.0842022e-19 -1.8071831
0 3.1203616 2
-1.6378793 -3.6893488e+19 2.5961568
-3.6893488e+19 3.1349132 1.0842022e-19
2.0422339 1.0842022e-19 2.6044958
0 3.1193099 1.0842022e-19
-1.6374878 2 2.5843322
-3.6893488e+19 3.1253781 3.6893488e+19
-1.6397469 -3.6893488e+19 2.5788383
-0 3.1215703 -1.0842022e-19
-1.6383293 3.6893488e+19 2.564662
-3.6893488e+19 3.1183746 -1.0842022e-19
2.0296774 1.0842022e-19 2.5569317
-3.6893488e+19 3.1308353 -2
-1.6417785 3.6893488e+19 2.5614276
3.6893488e+19 3.1195121 -0
2.0305409 -3.6893488e+19 2.5471339
-0 3.1309702 -3.6893488e+19
-1.6418287 2 2.5504873
-1.0842022e-19 3.1346998 -0
2.0420718 0 2.5481892
-1.0842022e-19 3.1126959 -0
-1.6350255 0 2.5255799
-3.6893488e+19 3.1121638 -3.6893488e+19
2.0249619 -1.0842022e-19 2.520247
2 3.1138437 -1.0842022e-19
-1.6354527 -3.6893488e+19 2.5159547
2 3.1129022 -2
2.0255225 -1.0842022e-19 2.5103278
2 3.1132438 2
1.8937367 -1.0842022e-19 2.4998331
0 3.1118827 -3.6893488e+19
1.893198 2 2.4771979
-1.0842022e-19 3.1052535 3.6893488e+19
1.8905749 -1.0842022e-19 2.4481251
1.0842022e-19 3.1275077 -2
2.2218378 0 2.4666836
-1.0842022e-19 3.1112268 2
1.8929386 -1.0842022e-19 2.4350283
1.0842022e-19 3.1181018 -3.6893488e+19
2.2100816 -1.0842022e-19 2.4340003
-0 3.1103292 -0
1.8925834 -0 2.4134099
1.0842022e-19 3.1180072 -1.0842022e-19
2.2099633 3.6893488e+19 2.4128776
3.6893488e+19 3.1217232 -0
2.214608 0 2.395869
-1.0842022e-19 3.1102707 -1.0842022e-19
1.8925602 1.0842022e-19 2.3724
-2 3.1074233 0
1.8914336 3.6893488e+19 2.3492048
3.6893488e+19 3.1106822 -2
2.0238371 1.0842022e-19 2.3322549
-0 3.1140506 0
-1.6355299 3.6893488e+19 2.3247058
-3.6893488e+19 3.1093798 -0
2.0228484 -1.0842022e-19 2.3107429
-2 3.1147909 1.0842022e-19
-1.6358055 -0 2.3047826
2 3.1102939 -3.6893488e+19
2.0235422 -2 2.2911959
-0 3.1191843 0
-1.637441 1.0842022e-19 2.2876563
-0 3.1104453 1.0842022e-19
2.0236573 -0 2.2710052
-3.6893488e+19 3.0762899 -3.6893488e+19
-1.6179444 2 2.2217503
-1.0842022e-19 3.1142175 -1.0842022e-19
2.0265212 0 2.2533386
1.0842022e-19 3.0653079 3.6893488e+19
-1.6097674 -1.0842022e-19 2.1704409
-3.6893488e+19 3.0999913 0
2.0157206 -0 2.1975377
-2 3.1193569 2
-1.6375053 3.6893488e+19 2.2010472
3.6893488e+19 3.0974381 0
2.013782 -0 2.1552467
3.6893488e+19 3.0672646 1.0842022e-19
-1.6112244 -1.0842022e-19 2.1018617
-0 3.1204994 -0
2.0312905 2 2.1405711
0 3.1264334 -1.0842022e-19
2.220495 -0 2.1264465
2 3.1262658 2
1.8988895 2 2.1041856
-0 3.1259344 2
2.2198715 1.0842022e-19 2.0837476
-2 3.1223238 -0
1.8973297 -0 2.0588028
-2 3.1312358 -3.6893488e+19
2.2264977 3.6893488e+19 2.0456836
3.6893488e+19 3.0263877 3.6893488e+19
1.843735 -3.6893488e+19 1.9483279
-2 3.1300788 1.0842022e-19
2.2250516 -1.0842022e-19 2.0021741
2 3.0250938 2
1.842711 3.6893488e+19 1.9166512
1.0842022e-19 3.0256593 -0
1.8431585 -3.6893488e+19 1.8862046
-3.6893488e+19 3.1255894 1.0842022e-19
2.2194405 -1.0842022e-19 1.9150552
-2 3.0264614 0
1.8437934 -0 1.836459
0 3.1242504 -3.6893488e+19
2.2177665 0 1.8701533
-1.0842022e-19 3.0641088 -3.6893488e+19
1.8735877 3.6893488e+19 1.7951409
-1.0842022e-19 3.0255895 -0
1.8431033 1.0842022e-19 1.6755263
3.6893488e+19 3.0684566 -2
-1.6121119 -1.0842022e-19 1.6317314
-2 3.0589945 3.6893488e+19
1.9845949 1.0842022e-19 1.4857229
2 3.1249623 3.6893488e+19
-1.6395921 3.6893488e+19 -1.195286
3.6893488e+19 3.0249696 -1.0842022e-19
1.9587624 3.6893488e+19 -1.5157253
-1.0842022e-19 3.0697668 0
-1.6130875 -1.0842022e-19 -1.6530639
3.6893488e+19 3.031666 0
1.9638466 -1.0842022e-19 -1.6979027
-2 3.0272474 -2
-1.581429 -3.6893488e+19 -1.7532172
-0 3.0336175 1.0842022e-19
-1.586172 0 -1.8194467
-1.0842022e-19 3.0543129 0
1.9810406 1.0842022e-19 -1.8678753
3.6893488e+19 3.0323501 -1.0842022e-19
-1.5852282 2 -1.8783047
-0 3.0534728 -2
1.9804026 0 -1.9050132
1.0842022e-19 3.0320375 0
-1.5849955 1.0842022e-19 -1.9096562
0 3.0509963 1.0842022e-19
1.9785224 1.0842022e-19 -1.9374038
3.6893488e+19 2.9610162 1.0842022e-19
-1.5466285 -1.0842022e-19 -1.9062334
1.0842022e-19 2.9693532 2
1.9281712 2 -1.9223616
2 2.9564273 -1.0842022e-19
2.0352387 -3.6893488e+19 -1.9307351
0 2.7868869 1.0842022e-19
1.7270441 -1.0842022e-19 -1.8676254
1.0842022e-19 2.515892 2
1.7911661 0 -1.7404023
-3.6893488e+19 2.7188926 0
1.6855423 -3.6893488e+19 -1.8495187
3.6893488e+19 2.5156567 -3.6893488e+19
1.791019 1.0842022e-19 -1.76001
1.0842022e-19 2.6469927 1.0842022e-19
1.6570913 -1.0842022e-19 -1.8373243
0 2.5160303 0
1.7912525 3.6893488e+19 -1.7751462
2 2.5153964 -3.6893488e+19
1.7908562 3.6893488e+19 -1.7897168
0 2.5152469 -3.6893488e+19
1.7907628 2 -1.8045572
2 2.5036669 -1.0842022e-19
1.7835261 0 -1.8110191
-3.6893488e+19 2.4606142 -0
1.7689277 2 -1.8068893
3.6893488e+19 2.3915226 2
-1.2707572 2 -1.8012174
0 2.3390355 1.0842022e-19
-1.2512171 2 -1.7967725
-3.6893488e+19 2.2953296 -3.6893488e+19
-1.2198924 0 -1.7913944
-2 2.2621114 3.6893488e+19
-1.1951593 -0 -1.7876167
1.0842022e-19 2.221328 -3.6893488e+19
1.6472753 -1.0842022e-19 -1.7851813
-0 2.1838889 -0
1.6355768 -1.0842022e-19 -1.7849718
2 2.1533971 -2
1.626049 -1.0842022e-19 -1.7854242
2 2.1254268 0
1.6096185 -1.0842022e-19 -1.7852449
0 3.1203616 2
-1.6378793 -3.6893488e+19 2.5961568
-3.6893488e+19 3.1349132 1.0842022e-19
2.0422339 1.0842022e-19 2.6044958
0 3.1193099 1.0842022e-19
-1.6374878 2 2.5843322
-3.6893488e+19 3.1253781 3.6893488e+19
-1.6397469 -3.6893488e+19 2.5788383
-0 3.1215703 -1.0842022e-19
-1.6383293 3.6893488e+19 2.564662
-3.6893488e+19 3.1183746 -1.0842022e-19
2.0296774 1.0842022e-19 2.5569317
-3.6893488e+19 3.1308353 -2
-1.6417785 3.6893488e+19 2.5614276
3.6893488e+19 3.1195121 -0
2.0305409 -3.6893488e+19 2.5471339
-0 3.1309702 -3.6893488e+19
-1.6418287 2 2.5504873
-1.0842022e-19 3.1346998 -0
2.0420718 0 2.5481892
-1.0842022e-19 3.1126959 -0
-1.6350255 0 2.5255799
-3.6893488e+19 3.1121638 -3.6893488e+19
2.0249619 -1.0842022e-19 2.520247
2 3.1138437 -1.0842022e-19
-1.6354527 -3.6893488e+19 2.5159547
2 3.1129022 -2
2.0255225 -1.0842022e-19 2.5103278
2 3.1132438 2
1.8937367 -1.0842022e-19 2.4998331
0 3.1118827 -3.6893488e+19
1.893198 2 2.4771979
-1.0842022e-19 3.1052535 3.6893488e+19
1.8905749 -1.0842022e-19 2.4481251
1.0842022e-19 3.1275077 -2
2.2218378 0 2.4666836
-1.0842022e-19 3.1112268 2
1.8929386 -1.0842022e-19 2.4350283
1.0842022e-19 3.1181018 -3.6893488e+19
2.2100816 -1.0842022e-19 2.4340003
-0 3.1103292 -0
1.8925834 -0 2.4134099
1.0842022e-19 3.1180072 -1.0842022e-19
2.2099633 3.6893488e+19 2.4128776
3.6893488e+19 3.1217232 -0
2.214608 0 2.395869
-1.0842022e-19 3.1102707 -1.0842022e-19
1.8925602 1.0842022e-19 2.3724
-2 3.1074233 0
1.8914336 3.6893488e+19 2.3492048
3.6893488e+19 3.1106822 -2
2.0238371 1.0842022e-19 2.3322549
-1.0842022e-19 3.0731485 -3.6893488e+19
-1.6156054 3.6893488e+19 2.2882242
-1.0842022e-19 3.0486763 0
1.9767611 1.0842022e-19 2.2582548
-3.6893488e+19 3.0737958 1.0842022e-19
-1.6160874 -3.6893488e+19 2.2705312
2 3.1102939 -3.6893488e+19
2.0235422 -2 2.2911959
-0 3.1191843 0
-1.637441 1.0842022e-19 2.2876563
-0 3.1104453 1.0842022e-19
2.0236573 -0 2.2710052
-3.6893488e+19 3.0762899 -3.6893488e+19
-1.6179444 2 2.2217503
-1.0842022e-19 3.1142175 -1.0842022e-19
2.0265212 0 2.2533386
1.0842022e-19 3.0653079 3.6893488e+19
-1.6097674 -1.0842022e-19 2.1704409
-3.6893488e+19 3.0999913 0
2.0157206 -0 2.1975377
3.6893488e+19 3.0672905 3.6893488e+19
-1.6112437 -0 2.1374652
3.6893488e+19 3.0974381 0
2.013782 -0 2.1552467
3.6893488e+19 3.0672646 1.0842022e-19
-1.6112244 -1.0842022e-19 2.1018617
1.0842022e-19 3.0990388 2
2.0149972 -0 2.1179478
0 3.1264334 -1.0842022e-19
2.220495 -0 2.1264465
2 3.1262658 2
1.8988895 2 2.1041856
-0 3.1259344 2
2.2198715 1.0842022e-19 2.0837476
-3.6893488e+19 3.0297887 0
1.8464267 -3.6893488e+19 1.9820549
0 3.0622146 -2
2.1402295 -2 1.9921511
3.6893488e+19 3.0263877 3.6893488e+19
1.843735 -3.6893488e+19 1.9483279
0 3.0648959 -2
2.1435807 1.0842022e-19 1.9589267
2 3.0250938 2
1.842711 3.6893488e+19 1.9166512
1.0842022e-19 3.0256593 -0
1.8431585 -3.6893488e+19 1.8862046
-3.6893488e+19 3.1255894 1.0842022e-19
2.2194405 -1.0842022e-19 1.9150552
-2 3.0264614 0
1.8437934 -0 1.836459
-0 3.0528889 -0
2.1285737 1.0842022e-19 1.8234079
2 3.0278752 3.6893488e+19
1.8449122 -3.6893488e+19 1.7755144
-1.0842022e-19 3.0255895 -0
1.8431033 1.0842022e-19 1.6755263
3.6893488e+19 3.0684566 -2
-1.6121119 -1.0842022e-19 1.6317314
-3.6893488e+19 3.0297775 2
1.9624128 3.6893488e+19 1.4634341
2 3.1249623 3.6893488e+19
-1.6395921 3.6893488e+19 -1.195286
3.6893488e+19 3.0249696 -1.0842022e-19
1.9587624 3.6893488e+19 -1.5157253
2 3.0270188 0
-1.5812588 -3.6893488e+19 -1.6326015
3.6893488e+19 3.031666 0
1.9638466 -1.0842022e-19 -1.6979027
-2 3.0272474 -2
-1.581429 -3.6893488e+19 -1.7532172
-0 3.0336175 1.0842022e-19
-1.586172 0 -1.8194467
1.0842022e-19 3.0264468 -0
1.9598839 -1.0842022e-19 -1.8456349
3.6893488e+19 3.0323501 -1.0842022e-19
-1.5852282 2 -1.8783047
-1.0842022e-19 3.0257368 3.6893488e+19
1.959345 -3.6893488e+19 -1.8908457
1.0842022e-19 3.0320375 0
-1.5849955 1.0842022e-19 -1.9096562
-2 2.97966 -3.6893488e+19
1.9320837 -0 -1.899321
3.6893488e+19 2.9610162 1.0842022e-19
-1.5466285 -1.0842022e-19 -1.9062334
1.0842022e-19 2.9693532 2
1.9281712 2 -1.9223616
-0 2.8349457 -3.6893488e+19
1.9593203 -3.6893488e+19 -1.8826311
0 2.7868869 1.0842022e-19
1.7270441 -1.0842022e-19 -1.8676254
0 2.5161409 -3.6893488e+19
1.7913215 -0 -1.7406273
-3.6893488e+19 2.7188926 0
1.6855423 -3.6893488e+19 -1.8495187
3.6893488e+19 2.5156567 -3.6893488e+19
1.791019 1.0842022e-19 -1.76001
1.0842022e-19 2.6469927 1.0842022e-19
1.6570913 -1.0842022e-19 -1.8373243
0 2.5160303 0
1.7912525 3.6893488e+19 -1.7751462
2 2.5153964 -3.6893488e+19
1.7908562 3.6893488e+19 -1.7897168
0 2.5152469 -3.6893488e+19
1.7907628 2 -1.8045572
2 2.5036669 -1.0842022e-19
1.7835261 0 -1.8110191
-3.6893488e+19 2.4606142 -0
1.7689277 2 -1.8068893
3.6893488e+19 2.3915226 2
-1.2707572 2 -1.8012174
0 2.3390355 1.0842022e-19
-1.2512171 2 -1.7967725
-3.6893488e+19 2.2953296 -3.6893488e+19
-1.2198924 0 -1.7913944
-2 2.2621114 3.6893488e+19
-1.1951593 -0 -1.7876167
1.0842022e-19 2.221328 -3.6893488e+19
1.6472753 -1.0842022e-19 -1.7851813
-0 2.1838889 -0
1.6355768 -1.0842022e-19 -1.7849718
2 2.1533971 -2
1.626049 -1.0842022e-19 -1.7854242
2 2.1254268 0
1.6096185 -1.0842022e-19 -1.7852449
-2 3.1202936 -1.0842022e-19
-1.6999328 2 2.5961001
0 3.1329215 0
2.0246394 -3.6893488e+19 2.6026185
-1.0842022e-19 3.1192114 0
-1.6993486 0 2.5842495
-2 3.1246386 0
-1.7022789 -3.6893488e+19 2.5781965
0 3.1184804 -3.6893488e+19
2.0142817 -2 2.5569825
3.6893488e+19 3.1272769 2
-1.7037033 2 2.5585234
-0 3.1195261 -3.6893488e+19
2.0150318 -2 2.5471094
-0 3.1125357 -2
-1.695744 -3.6893488e+19 2.5254631
-1.0842022e-19 3.1125145 2
2.0100031 0 2.5204761
1.0842022e-19 3.1141751 -0
-1.6966292 -0 2.516202
0 3.1137757 0
2.0109076 -1.0842022e-19 2.5109229
3.6893488e+19 3.1132097 -2
2.1886554 3.6893488e+19 2.5057585
-1.0842022e-19 3.1136663 -1.0842022e-19
1.8786544 3.6893488e+19 2.5001919
-1.0842022e-19 3.1126006 2
2.1879199 3.6893488e+19 2.4897783
2 3.1101477 -0
1.8774096 -0 2.4748809
-2 3.1177242 3.6893488e+19
2.1941078 -1.0842022e-19 2.4755766
-0 3.1066332 -2
1.8761662 -1.0842022e-19 2.4498379
-3.6893488e+19 3.1277683 3.6893488e+19
2.2062383 1.0842022e-19 2.466912
-0 3.111249 -2
1.8777992 -1.0842022e-19 2.4350283
-1.0842022e-19 3.1174667 -2
2.1937966 -2 2.4331644
-0 3.1111863 -1.0842022e-19
1.877777 -0 2.4143679
2 3.1176491 3.6893488e+19
2.1940169 -0 2.4123929
3.6893488e+19 3.1385715 -3.6893488e+19
2.2192852 1.0842022e-19 2.4137285
3.6893488e+19 3.1103239 3.6893488e+19
1.8774719 -0 2.372432
-0 3.1074142 -2
1.8764426 2 2.3491745
-2 3.1229994 -3.6893488e+19
-1.7013937 1.0842022e-19 2.3537736
-0 3.1105087 2
2.0085645 3.6893488e+19 2.3320549
0 3.1138887 3.6893488e+19
-1.6964746 -0 2.3245673
-3.6893488e+19 3.1099198 0
2.0081422 3.6893488e+19 2.3111722
-1.0842022e-19 3.1148152 -0
-1.6969749 -0 2.3048086
2 3.1107101 0
2.008709 1.0842022e-19 2.2914972
3.6893488e+19 3.1168759 3.6893488e+19
-1.6980875 -0 2.2858629
-1.0842022e-19 3.1099293 -0
2.0081489 3.6893488e+19 2.2705846
-2 3.1166492 -3.6893488e+19
-1.697965 -1.0842022e-19 2.2650557
-2 3.1068282 -1.0842022e-19
2.0059247 1.0842022e-19 2.2463377
-0 3.1157813 -3.6893488e+19
-1.6974964 -3.6893488e+19 2.2377529
-0 3.1119525 -1.0842022e-19
2.0095999 1.0842022e-19 2.2127767
-1.0842022e-19 3.1193812 -3.6893488e+19
-1.6994401 0 2.2010853
-0 3.0909414 2
1.9945304 3.6893488e+19 2.1476212
-1.0842022e-19 3.1190076 -2
-1.6992384 2 2.159255
0 3.1207623 3.6893488e+19
2.0159185 2 2.140801
3.6893488e+19 3.1295569 1.0842022e-19
2.2083983 1.0842022e-19 2.129494
2 3.1238873 -1.0842022e-19
1.8822702 2 2.1019251
1.0842022e-19 3.0520215 -3.6893488e+19
2.1147571 -2 2.018075
-2 3.1225026 -1.0842022e-19
1.8817804 1.0842022e-19 2.0589323
-0 3.130908 2
2.2100301 3.6893488e+19 2.0453699
0 3.0251875 -1.0842022e-19
1.8197063 3.6893488e+19 1.9474546
-1.0842022e-19 3.1290655 2
2.2078049 -1.0842022e-19 2.0014513
-2 3.0257661 1.0842022e-19
1.8201159 -3.6893488e+19 1.9170483
0 3.1305048 -0
2.209543 -3.6893488e+19 1.9597877
-2 3.026207 -0
1.8204278 1.0842022e-19 1.886467
-0 3.1260388 1.0842022e-19
2.2041495 3.6893488e+19 1.9152194
-2 3.026166 1.0842022e-19
1.8203988 -0 1.8362201
-3.6893488e+19 3.1090908 -2
2.183681 -0 1.8601757
0 3.0710318 -1.0842022e-19
1.852143 -2 1.79888
-2 3.0277307 3.6893488e+19
1.8215059 -0 1.6768792
1.0842022e-19 3.1345408 1.0842022e-19
-1.7076253 0 1.6590705
3.6893488e+19 3.0278759 1.0842022e-19
1.9492985 3.6893488e+19 1.4619577
-2 3.1243927 -1.0842022e-19
-1.7021461 -3.6893488e+19 -1.194993
-2 3.0275939 -3.6893488e+19
1.9490962 2 -1.5170512
1.0842022e-19 3.0729795 -1.0842022e-19
-1.6743864 -1.0842022e-19 -1.6546046
-3.6893488e+19 3.0309196 0
1.9514816 -0 -1.6973544
0 3.0324605 1.0842022e-19
-1.652509 1.0842022e-19 -1.7556305
-3.6893488e+19 3.0329201 3.6893488e+19
1.9529164 -1.0842022e-19 -1.787563
0 3.0349245 -0
-1.6538393 -2 -1.8203462
-3.6893488e+19 3.033783 -1.0842022e-19
1.9535352 0 -1.8514628
-1.0842022e-19 3.0350935 -2
-1.6539307 -2 -1.8795538
2 3.0530102 3.6893488e+19
1.9673253 1.0842022e-19 -1.9047582
-2 2.9858036 0
-1.6311501 -2 -1.8875047
-0 3.0506582 0
1.9656385 2 -1.9371707
-3.6893488e+19 2.9601333 -0
-1.62344 -0 -1.9059372
1.0842022e-19 2.9577641 0
2.0264254 3.6893488e+19 -1.931228
1.0842022e-19 2.7848454 -3.6893488e+19
1.7015396 2 -1.8658841
3.6893488e+19 2.7200441 -2
1.6662877 2 -1.8500563
-0 2.5172029 0
1.7863531 -1.0842022e-19 -1.7607684
2 2.6463935 0
1.6402323 -1.0842022e-19 -1.8369908
-0 2.5160837 0
1.7856773 3.6893488e+19 -1.7751462
0 2.5942285 -0
1.6185557 0 -1.8283919
-1.0842022e-19 2.5161953 3.6893488e+19
1.7857447 -2 -1.7901795
-3.6893488e+19 2.5154243 -3.6893488e+19
1.785279 3.6893488e+19 -1.8046412
3.6893488e+19 2.5047109 3.6893488e+19
1.7788097 2 -1.8117471
3.6893488e+19 2.4567375 -3.6893488e+19
1.7629026 -3.6893488e+19 -1.8053221
-2 3.1202936 -1.0842022e-19
-1.6999328 2 2.5961001
0 3.1329215 0
2.0246394 -3.6893488e+19 2.6026185
-1.0842022e-19 3.1192114 0
-1.6993486 0 2.5842495
-2 3.1246386 0
-1.7022789 -3.6893488e+19 2.5781965
0 3.1184804 -3.6893488e+19
2.0142817 -2 2.5569825
3.6893488e+19 3.1272769 2
-1.7037033 2 2.5585234
-0 3.1195261 -3.6893488e+19
2.0150318 -2 2.5471094
-0 3.1125357 -2
-1.695744 -3.6893488e+19 2.5254631
-1.0842022e-19 3.1125145 2
2.0100031 0 2.5204761
1.0842022e-19 3.1141751 -0
-1.6966292 -0 2.516202
0 3.1137757 0
2.0109076 -1.0842022e-19 2.5109229
3.6893488e+19 3.1132097 -2
2.1886554 3.6893488e+19 2.5057585
-1.0842022e-19 3.1136663 -1.0842022e-19
1.8786544 3.6893488e+19 2.5001919
-1.0842022e-19 3.1126006 2
2.1879199 3.6893488e+19 2.4897783
2 3.1101477 -0
1.8774096 -0 2.4748809
-2 3.1177242 3.6893488e+19
2.1941078 -1.0842022e-19 2.4755766
-0 3.1066332 -2
1.8761662 -1.0842022e-19 2.4498379
-3.6893488e+19 3.1277683 3.6893488e+19
2.2062383 1.0842022e-19 2.466912
-0 3.111249 -2
1.8777992 -1.0842022e-19 2.4350283
-1.0842022e-19 3.1174667 -2
2.1937966 -2 2.4331644
-0 3.1111863 -1.0842022e-19
1.877777 -0 2.4143679
2 3.1176491 3.6893488e+19
2.1940169 -0 2.4123929
3.6893488e+19 3.1385715 -3.6893488e+19
2.2192852 1.0842022e-19 2.4137285
3.6893488e+19 3.1103239 3.6893488e+19
1.8774719 -0 2.372432
-2 3.0715022 -1.0842022e-19
1.852476 0 2.3140905
