# .PCD v0.7 - Point Cloud Data file format
VERSION 0.7
FIELDS x y z
SIZE 4 4 4
TYPE F F F
COUNT 1 1 1
WIDTH 1733
HEIGHT 1
VIEWPOINT 0 0 0 1 0 0 0
POINTS 1733
DATA ascii
-2 3.2135744 -1.0842022e-19
2.3188863 -2 2.6372421
2 3.290797 -3.6893488e+19
2.0529284 -2 2.7258415
-0 3.2160671 2
2.320601 -1.0842022e-19 2.6257365
0 3.2039616 1.0842022e-19
2.3122737 1.0842022e-19 2.6027768
2 3.203002 -1.0842022e-19
2.3116136 3.6893488e+19 2.5888965
0 3.206491 0
2.3140137 0 2.5783029
-1.0842022e-19 3.1915729 0
2.4127665 -3.6893488e+19 2.5621662
1.0842022e-19 3.24563 2
2.2504687 -2 2.5915751
-1.0842022e-19 3.2413807 1.0842022e-19
2.2466428 3.6893488e+19 2.574527
-1.0842022e-19 3.2137852 2
2.4335296 -0 2.5510898
1.0842022e-19 3.2419641 -3.6893488e+19
2.2472322 -3.6893488e+19 2.5608108
3.6893488e+19 3.1908274 -2
2.4120693 2 2.5235009
3.6893488e+19 3.243603 -2
2.2488887 2 2.5477264
2 3.249361 -0
2.4667845 3.6893488e+19 2.5454814
1.0842022e-19 3.2321923 0
2.2373559 0 2.5270791
3.6893488e+19 3.2292941 1.0842022e-19
2.2344267 -1.0842022e-19 2.5117617
-0 3.1938741 2
2.4149175 2 2.4744771
1.0842022e-19 3.2333567 2
2.2385328 2 2.5002363
-0 3.1897161 0
2.4110308 2 2.4449286
-0 3.233099 0
2.2382724 0 2.4727869
1.0842022e-19 3.1915784 -0
1.9800001 3.6893488e+19 2.4190245
-2 3.1876452 -0
2.3010499 -0 2.4041848
-0 3.194571 -0
1.9815589 2 2.3967273
1.0842022e-19 3.1873355 -0
2.3008368 -2 2.379117
0 3.1929488 2
1.980714 -1.0842022e-19 2.3702731
2 3.1894197 1.0842022e-19
2.3022707 -2 2.3560567
-3.6893488e+19 3.1926696 2
1.9805686 2 2.3450906
-1.0842022e-19 3.192632 2
2.3044803 -1.0842022e-19 2.3336508
3.6893488e+19 3.1888535 0
1.978581 1.0842022e-19 2.31741
3.6893488e+19 3.1919184 2
2.3039894 -1.0842022e-19 2.3081722
-2 3.1939125 -1.0842022e-19
1.981216 -1.0842022e-19 2.2961149
2 3.1921442 -0
2.3041446 -1.0842022e-19 2.2834113
2 3.2475698 0
2.0091639 1.0842022e-19 2.3039641
1.0842022e-19 3.1960127 1.0842022e-19
2.3068058 3.6893488e+19 2.2607777
-3.6893488e+19 3.1983111 3.6893488e+19
1.983507 0 2.2474539
2 3.1943021 -1.0842022e-19
2.305629 -0 2.2195718
-1.0842022e-19 3.1904531 -2
2.1951697 -1.0842022e-19 2.1653056
-0 3.1954401 -2
2.4163811 -0 2.1469345
-0 3.2018044 3.6893488e+19
2.2066426 1.0842022e-19 2.1253557
-3.6893488e+19 3.1959419 -2
2.4168503 2 2.0971646
1.0842022e-19 3.1836367 0
2.1882803 -3.6893488e+19 2.0616901
0 3.1854758 -0
2.1901391 -0 2.0142553
3.6893488e+19 3.2134776 1.0842022e-19
2.4332421 -0 2.0065427
-2 3.2002001 -1.0842022e-19
2.2050211 3.6893488e+19 1.9728215
0 3.2029972 3.6893488e+19
2.4234452 -3.6893488e+19 1.949818
2 3.1870351 -2
2.191715 -0 1.917421
1.0842022e-19 3.204376 2
2.4247341 0 1.8993772
0 3.1923673 1.0842022e-19
2.1971045 1.0842022e-19 1.8650178
3.6893488e+19 3.2080607 2
2.4281785 -2 1.8232602
-1.0842022e-19 3.1900697 -0
2.1947823 3.6893488e+19 1.7653792
2 3.1963167 -1.0842022e-19
1.9824681 -2 1.6847161
-2 3.1905286 -2
2.3030334 -2 1.5434636
-2 3.1935773 -3.6893488e+19
1.9810413 -1.0842022e-19 -1.2311403
2 3.197408 -2
2.3077655 1.0842022e-19 -1.6045632
1.0842022e-19 3.1931591 0
1.9808235 -3.6893488e+19 -1.7122372
-2 3.1984742 2
2.3084991 -2 -1.7829559
-3.6893488e+19 3.1878784 -2
1.978073 -2 -1.8276073
1.0842022e-19 3.198149 -1.0842022e-19
2.3082752 2 -1.8790963
1.0842022e-19 3.187855 0
1.9780608 0 -1.9001725
3.6893488e+19 3.1935999 -3.6893488e+19
2.305146 -1.0842022e-19 -1.9274743
2 3.1479723 3.6893488e+19
1.9572875 -3.6893488e+19 -1.9309381
-3.6893488e+19 3.1580982 -1.0842022e-19
2.280725 0 -1.9589897
-2 2.9087291 1.0842022e-19
1.8378904 -0 -1.888585
-0 2.8171203 2
1.9681426 1.0842022e-19 -1.8585104
-2 2.7778318 1.0842022e-19
2.0097072 2 -1.8458548
-3.6893488e+19 2.7548854 1.0842022e-19
1.8788075 3.6893488e+19 -1.840925
-1.0842022e-19 2.7077796 -0
1.9639579 3.6893488e+19 -1.8327224
2 2.674269 -0
1.8394061 -2 -1.8284943
3.6893488e+19 2.6307664 -2
1.9279633 -1.0842022e-19 -1.8192348
-1.0842022e-19 2.6133385 0
1.8086147 -1.0842022e-19 -1.8196528
2 2.5798109 0
1.9041476 1.0842022e-19 -1.8118409
0 2.5625246 1.0842022e-19
1.7829356 0 -1.8099821
1.0842022e-19 2.5395346 3.6893488e+19
1.8853232 0 -1.8053712
-2 2.5282853 0
1.7656327 1.0842022e-19 -1.8053582
1.0842022e-19 2.5088136 -0
1.8669295 -2 -1.8008584
3.6893488e+19 2.4978354 -3.6893488e+19
1.7507915 -0 -1.8003347
0 2.4636505 -0
1.8417017 1.0842022e-19 -1.7956388
0 2.4490831 -2
1.726946 -0 -1.7958153
-2 2.4193568 -3.6893488e+19
1.8209997 -1.0842022e-19 -1.7912176
3.6893488e+19 2.3679817 -2
1.5666666 3.6893488e+19 -1.790707
1.0842022e-19 2.3215096 -3.6893488e+19
1.5424612 3.6893488e+19 -1.7879765
-0 2.2867658 -2
1.5243646 -2 -1.7866521
-0 2.2501252 3.6893488e+19
1.50528 -2 -1.7802598
3.6893488e+19 2.2024317 -0
1.7114583 -0 -1.7793353
-2 2.1617553 -3.6893488e+19
1.6924469 2 -1.77738
-1.0842022e-19 2.1338675 -0
1.6794127 3.6893488e+19 -1.7782295
-2 2.1021671 3.6893488e+19
1.6645966 -1.0842022e-19 -1.77588
0 3.2484941 1.0842022e-19
2.3323808 -0 2.7101748
0 3.2735348 0
2.0119843 0 2.7454696
-2 3.251981 -3.6893488e+19
2.3360267 -2 2.7004004
-2 3.2949829 1.0842022e-19
2.032527 3.6893488e+19 2.758522
-3.6893488e+19 3.2489479 -1.0842022e-19
2.3326833 -0 2.6812868
-1.0842022e-19 3.2472153 0
2.3315282 -0 2.6652515
2 3.2944932 2
2.0320578 1.0842022e-19 2.7318504
-2 3.2496488 -2
2.3331506 2 2.6381946
-0 3.2934473 -3.6893488e+19
2.0310559 -0 2.6961203
1.0842022e-19 3.252176 -3.6893488e+19
2.3362865 1.0842022e-19 2.6272285
-2 3.285394 3.6893488e+19
2.0233428 0 2.6674027
2 3.2432852 -2
2.3289075 3.6893488e+19 2.604686
-3.6893488e+19 3.2439995 -1.0842022e-19
2.4512775 1.0842022e-19 2.5991232
0 3.2489691 2
2.2333097 -1.0842022e-19 2.5938206
-2 3.236203 -0
2.4441552 3.6893488e+19 2.5795627
1.0842022e-19 3.2418914 0
2.2264543 -2 2.5748115
0 3.2150292 2
2.4248126 2 2.551806
1.0842022e-19 3.2435229 1.0842022e-19
2.2280345 3.6893488e+19 2.5617452
2 3.2491419 -2
2.4559751 -0 2.559587
3.6893488e+19 3.202728 -1.0842022e-19
2.4135752 1.0842022e-19 2.5178068
3.6893488e+19 3.2314367 3.6893488e+19
2.2163277 1.0842022e-19 2.5266001
3.6893488e+19 3.229619 -1.0842022e-19
2.2145669 -3.6893488e+19 2.5118966
-3.6893488e+19 3.2293112 -0
2.4378595 3.6893488e+19 2.5061011
2 3.2333732 3.6893488e+19
2.2182033 -3.6893488e+19 2.5002041
-1.0842022e-19 3.2321768 -3.6893488e+19
2.4404771 0 2.487745
-2 3.232527 2
2.2173839 -0 2.4721506
0 3.2353821 -1.0842022e-19
1.982443 2 2.4605532
1.0842022e-19 3.2338092 -3.6893488e+19
2.3225892 2 2.4467201
3.6893488e+19 3.2511277 0
1.9905236 0 2.4481673
2 3.2219553 -3.6893488e+19
2.3146853 1.0842022e-19 2.4090376
1.0842022e-19 3.2384672 2
1.9839205 2 2.4082899
-2 3.2232904 1.0842022e-19
2.3155758 1.0842022e-19 2.3834169
-3.6893488e+19 3.2396812 0
1.984502 -2 2.3817079
-3.6893488e+19 3.2184339 1.0842022e-19
2.3123376 0 2.3530219
0 3.1906939 3.6893488e+19
1.9610424 3.6893488e+19 2.3187149
0 3.2153475 1.0842022e-19
2.3102796 2 2.3244386
3.6893488e+19 3.2453103 -1.0842022e-19
1.9871975 -2 2.330373
1.0842022e-19 3.19485 0
2.2966125 -3.6893488e+19 2.2850823
-2 3.2491677 -2
1.9890448 -3.6893488e+19 2.3049152
-1.0842022e-19 3.1957078 -0
2.2971845 3.6893488e+19 2.2605417
-3.6893488e+19 3.2464919 -2
1.9877634 3.6893488e+19 2.2754354
-2 3.1946802 -2
2.2964993 0 2.2198675
-3.6893488e+19 3.1899383 2
2.4018917 2 2.191468
1.0842022e-19 3.2313168 -3.6893488e+19
2.2162113 -2 2.2037625
2 3.2266998 1.0842022e-19
2.4354739 -0 2.1746616
-1.0842022e-19 3.227515 -3.6893488e+19
2.2125289 -0 2.1466515
-3.6893488e+19 3.1933789 3.6893488e+19
2.4050348 1.0842022e-19 2.0950649
2 3.2371802 2
2.2218909 -0 2.1001196
0 3.2688189 -3.6893488e+19
2.4911416 1.0842022e-19 2.1079388
0 3.2565806 1.0842022e-19
2.2470565 -0 2.0613458
-0 3.2141454 3.6893488e+19
2.4240053 -3.6893488e+19 2.0068345
3.6893488e+19 3.2131186 -0
2.1985843 -2 1.9791781
-3.6893488e+19 3.2065482 3.6893488e+19
2.4170651 -2 1.9513235
3.6893488e+19 3.1851413 2
2.1714852 2 1.9166685
-1.0842022e-19 3.2058482 1.0842022e-19
2.4164257 -3.6893488e+19 1.8998158
-3.6893488e+19 3.1870744 3.6893488e+19
2.1733577 2 1.8621076
-0 3.209255 1.0842022e-19
2.4195378 0 1.823717
-1.0842022e-19 3.1901722 2
2.1763582 -2 1.7653891
2 3.2985787 -2
2.0359707 -0 1.7471241
2 3.1913116 -1.0842022e-19
2.2942531 0 1.5437256
-1.0842022e-19 3.1947381 -1.0842022e-19
1.9629792 -1.0842022e-19 -1.2317262
-2 3.1957009 1.0842022e-19
2.2971799 -0 -1.6036366
-3.6893488e+19 3.1884475 0
1.9599668 -0 -1.7099637
-0 3.196861 -0
2.2979534 -0 -1.7823528
2 3.1868212 -0
1.9591879 1.0842022e-19 -1.8271016
-1.0842022e-19 3.1965981 1.0842022e-19
2.2977781 2 -1.878621
0 3.1871102 0
1.9593263 1.0842022e-19 -1.8999047
1.0842022e-19 3.1950371 -0
2.2967372 -0 -1.9280097
2 3.1873152 0
1.9594245 -0 -1.9488091
2 3.1989331 2
2.299335 -0 -1.9798504
2 2.9219325 3.6893488e+19
1.8270578 -2 -1.89305
2 2.8162575 -2
1.9608709 -2 -1.8578233
-0 2.7787843 -1.0842022e-19
2.0046744 -0 -1.8465447
0 2.7554877 -3.6893488e+19
1.8724695 3.6893488e+19 -1.8413999
0 2.7125063 3.6893488e+19
1.9612539 -0 -1.8348036
2 2.6750851 -3.6893488e+19
1.8308722 -3.6893488e+19 -1.8288527
-2 2.6310055 0
1.9240278 -2 -1.819298
-3.6893488e+19 2.6142688 -2
1.8014184 3.6893488e+19 -1.8201196
3.6893488e+19 2.581769 3.6893488e+19
1.9015385 -1.0842022e-19 -1.8128933
-0 2.5625751 0
1.7763828 0 -1.8099821
-0 2.5394983 2
1.882231 0 -1.805294
1.0842022e-19 2.5285792 3.6893488e+19
1.7599182 1.0842022e-19 -1.8055193
2 2.5077782 0
1.8604851 3.6893488e+19 -1.8001019
-2 2.4954302 -1.0842022e-19
1.739941 -1.0842022e-19 -1.7994593
3.6893488e+19 2.4635434 -0
1.8367276 -1.0842022e-19 -1.7955477
-0 2.4484105 -2
1.7171689 -3.6893488e+19 -1.7955319
0 3.2484941 1.0842022e-19
2.3323808 -0 2.7101748
0 3.2735348 0
2.0119843 0 2.7454696
-2 3.251981 -3.6893488e+19
2.3360267 -2 2.7004004
-2 3.2949829 1.0842022e-19
2.032527 3.6893488e+19 2.758522
2 3.2148507 -2
2.3099482 -2 2.6518133
-3.6893488e+19 3.2150798 -3.6893488e+19
2.310101 -0 2.6384134
2 3.2944932 2
2.0320578 1.0842022e-19 2.7318504
1.0842022e-19 3.2032368 0
2.3022046 0 2.6021354
-0 3.2934473 -3.6893488e+19
2.0310559 -0 2.6961203
1.0842022e-19 3.2057354 -2
2.3038704 0 2.5908659
-2 3.285394 3.6893488e+19
2.0233428 0 2.6674027
-1.0842022e-19 3.2061937 -1.0842022e-19
2.3041761 1.0842022e-19 2.5780163
-2 3.1916149 1.0842022e-19
2.4034233 0 2.5621016
0 3.2489691 2
2.2333097 -1.0842022e-19 2.5938206
-2 3.236203 -0
2.4441552 3.6893488e+19 2.5795627
1.0842022e-19 3.2418914 0
2.2264543 -2 2.5748115
0 3.2150292 2
2.4248126 2 2.551806
1.0842022e-19 3.2435229 1.0842022e-19
2.2280345 3.6893488e+19 2.5617452
0 3.1930783 -0
2.4047599 -0 2.5248141
3.6893488e+19 3.202728 -1.0842022e-19
2.4135752 1.0842022e-19 2.5178068
3.6893488e+19 3.2314367 3.6893488e+19
2.2163277 1.0842022e-19 2.5266001
3.6893488e+19 3.229619 -1.0842022e-19
2.2145669 -3.6893488e+19 2.5118966
-3.6893488e+19 3.1938853 -1.0842022e-19
2.4054973 -0 2.4743454
2 3.2333732 3.6893488e+19
2.2182033 -3.6893488e+19 2.5002041
2 3.1929607 3.6893488e+19
2.4046526 1.0842022e-19 2.448076
-2 3.232527 2
2.2173839 -0 2.4721506
-3.6893488e+19 3.1916454 -1.0842022e-19
1.9614981 -3.6893488e+19 2.4190538
1.0842022e-19 3.2338092 -3.6893488e+19
2.3225892 2 2.4467201
-0 3.1924033 1.0842022e-19
1.9618611 1.0842022e-19 2.3947606
-1.0842022e-19 3.1887329 0
2.2925339 0 2.3802443
0 3.1946006 -0
1.9629133 3.6893488e+19 2.3716235
-3.6893488e+19 3.189796 3.6893488e+19
2.2932427 3.6893488e+19 2.3562827
-0 3.1908717 3.6893488e+19
1.9611276 1.0842022e-19 2.3436608
2 3.1930404 3.6893488e+19
2.2954059 -2 2.3338845
0 3.1906939 3.6893488e+19
1.9610424 3.6893488e+19 2.3187149
3.6893488e+19 3.1933506 -3.6893488e+19
2.2956126 -3.6893488e+19 2.3091023
-1.0842022e-19 3.1934197 1.0842022e-19
1.9623479 2 2.2957621
1.0842022e-19 3.19485 0
2.2966125 -3.6893488e+19 2.2850823
-2 3.2491677 -2
1.9890448 -3.6893488e+19 2.3049152
-1.0842022e-19 3.1957078 -0
2.2971845 3.6893488e+19 2.2605417
-0 3.1961977 0
1.9636782 -3.6893488e+19 2.2450681
-2 3.1946802 -2
2.2964993 0 2.2198675
-3.6893488e+19 3.1899383 2
2.4018917 2 2.191468
-0 3.1905868 -0
2.1767597 0 2.1653645
-3.6893488e+19 3.1927228 2
2.4044354 -3.6893488e+19 2.1443937
-2 3.1921585 0
2.1782823 3.6893488e+19 2.1172824
-3.6893488e+19 3.1933789 3.6893488e+19
2.4050348 1.0842022e-19 2.0950649
2 3.2371802 2
2.2218909 -0 2.1001196
0 3.2688189 -3.6893488e+19
2.4911416 1.0842022e-19 2.1079388
-3.6893488e+19 3.1857021 -3.6893488e+19
2.1720283 0 2.0143499
-0 3.2141454 3.6893488e+19
2.4240053 -3.6893488e+19 2.0068345
3.6893488e+19 3.2131186 -0
2.1985843 -2 1.9791781
-3.6893488e+19 3.2065482 3.6893488e+19
2.4170651 -2 1.9513235
3.6893488e+19 3.1851413 2
2.1714852 2 1.9166685
-1.0842022e-19 3.2058482 1.0842022e-19
2.4164257 -3.6893488e+19 1.8998158
-3.6893488e+19 3.1870744 3.6893488e+19
2.1733577 2 1.8621076
-0 3.209255 1.0842022e-19
2.4195378 0 1.823717
-1.0842022e-19 3.1901722 2
2.1763582 -2 1.7653891
2 3.1956661 0
1.9634236 1.0842022e-19 1.6844318
2 3.1913116 -1.0842022e-19
2.2942531 0 1.5437256
-1.0842022e-19 3.1947381 -1.0842022e-19
1.9629792 -1.0842022e-19 -1.2317262
-2 3.1957009 1.0842022e-19
2.2971799 -0 -1.6036366
-3.6893488e+19 3.1884475 0
1.9599668 -0 -1.7099637
-0 3.196861 -0
2.2979534 -0 -1.7823528
2 3.1868212 -0
1.9591879 1.0842022e-19 -1.8271016
-1.0842022e-19 3.1965981 1.0842022e-19
2.2977781 2 -1.878621
0 3.1871102 0
1.9593263 1.0842022e-19 -1.8999047
1.0842022e-19 3.1950371 -0
2.2967372 -0 -1.9280097
-1.0842022e-19 3.1449449 -1.0842022e-19
1.9391339 -2 -1.9295471
-2 3.1552007 0
2.2701757 3.6893488e+19 -1.9574598
2 2.9219325 3.6893488e+19
1.8270578 -2 -1.89305
2 2.8162575 -2
1.9608709 -2 -1.8578233
-0 2.7787843 -1.0842022e-19
2.0046744 -0 -1.8465447
0 2.7554877 -3.6893488e+19
1.8724695 3.6893488e+19 -1.8413999
0 2.7125063 3.6893488e+19
1.9612539 -0 -1.8348036
2 2.6750851 -3.6893488e+19
1.8308722 -3.6893488e+19 -1.8288527
-2 2.6310055 0
1.9240278 -2 -1.819298
-3.6893488e+19 2.6142688 -2
1.8014184 3.6893488e+19 -1.8201196
3.6893488e+19 2.581769 3.6893488e+19
1.9015385 -1.0842022e-19 -1.8128933
-0 2.5625751 0
1.7763828 0 -1.8099821
-0 2.5394983 2
1.882231 0 -1.805294
1.0842022e-19 2.5285792 3.6893488e+19
1.7599182 1.0842022e-19 -1.8055193
2 2.5077782 0
1.8604851 3.6893488e+19 -1.8001019
-2 2.4954302 -1.0842022e-19
1.739941 -1.0842022e-19 -1.7994593
3.6893488e+19 2.4635434 -0
1.8367276 -1.0842022e-19 -1.7955477
-0 2.4484105 -2
1.7171689 -3.6893488e+19 -1.7955319
3.6893488e+19 3.2497244 1.0842022e-19
2.322648 2 2.7112114
-2 3.2736161 1.0842022e-19
1.9890853 -3.6893488e+19 2.7455797
3.6893488e+19 3.2513816 -2
2.32461 1.0842022e-19 2.6992323
-1.0842022e-19 3.2478981 -0
2.3214688 2 2.6802869
0 3.2480543 1.0842022e-19
2.3215697 -2 2.6658626
-2 3.2958312 3.6893488e+19
2.0084968 1.0842022e-19 2.7340035
1.0842022e-19 3.2484286 -2
2.3218112 -1.0842022e-19 2.6516502
-1.0842022e-19 3.2486248 -0
2.321938 -2 2.6373155
-1.0842022e-19 3.2070582 -1.0842022e-19
2.2951005 -2 2.5917816
2 3.24983 0
2.3227162 2 2.6093147
-0 3.2384255 -3.6893488e+19
2.4358094 0 2.5950818
1.0842022e-19 3.2480934 0
2.2114916 3.6893488e+19 2.593164
3.6893488e+19 3.2372351 -1.0842022e-19
2.4347472 -1.0842022e-19 2.5801644
2 3.2435069 -2
2.207242 0 2.5758278
1.0842022e-19 3.238255 -0
2.4356573 -0 2.5667858
-2 3.2442465 3.6893488e+19
2.2079275 -1.0842022e-19 2.5621538
-1.0842022e-19 3.2430584 -1.0842022e-19
2.4399433 2 2.5557234
-3.6893488e+19 3.2289822 1.0842022e-19
2.193785 2 2.538816
2 3.2401652 -1.0842022e-19
2.4373617 -2 2.5398664
1.0842022e-19 3.2294734 0
2.1942399 2 2.5254292
1.0842022e-19 3.2354741 3.6893488e+19
2.1997995 1.0842022e-19 2.5150528
-3.6893488e+19 3.2268977 -2
2.4255235 3.6893488e+19 2.5047362
-2 3.2333553 0
2.1978366 3.6893488e+19 2.5001562
3.6893488e+19 3.2324736 1.0842022e-19
2.4304988 -1.0842022e-19 2.4879007
-2 3.2318277 0
2.1964214 -1.0842022e-19 2.4713931
-1.0842022e-19 3.2477648 -2
1.9674729 2 2.4722672
-1.0842022e-19 3.2313757 -3.6893488e+19
2.310801 3.6893488e+19 2.4443777
1.0842022e-19 3.2509604 -2
1.9692886 -1.0842022e-19 2.4478347
-1.0842022e-19 3.2215922 -0
2.3044844 -2 2.4086349
-0 3.2393427 -2
1.9637933 0 2.4089911
-2 3.2162333 3.6893488e+19
2.3010244 2 2.3776186
-0 3.2405264 2
1.9643105 -0 2.382338
-3.6893488e+19 3.2190619 3.6893488e+19
2.3028507 1.0842022e-19 2.3534191
-0 3.2518172 1.0842022e-19
1.9700375 3.6893488e+19 2.364207
-1.0842022e-19 3.2511914 0
1.9694906 -2 2.3350654
1.0842022e-19 3.1926169 -0
2.2857764 -1.0842022e-19 2.2835903
-3.6893488e+19 3.2499838 -0
1.9684424 -3.6893488e+19 2.3053908
-2 3.1965182 -2
2.2882953 -3.6893488e+19 2.2609591
-2 3.2469032 1.0842022e-19
1.9670966 -0 2.2756429
3.6893488e+19 3.1961746 0
2.2880735 3.6893488e+19 2.2213449
-0 3.1889527 3.6893488e+19
2.3916662 -3.6893488e+19 2.1903484
-2 3.2335403 1.0842022e-19
2.1980081 -2 2.2057881
-2 3.1897528 1.0842022e-19
2.3923802 -0 2.1416321
1.0842022e-19 3.236531 -2
2.2007787 1.0842022e-19 2.154078
-2 3.1944718 -3.6893488e+19
2.3965907 2 2.095813
3.6893488e+19 3.2380662 -2
2.2022011 -2 2.1007018
-0 3.1978381 -1.0842022e-19
2.3995943 1.0842022e-19 2.0480654
1.0842022e-19 3.2565424 -1.0842022e-19
2.2253814 -2 2.0612512
0 3.2710645 2
2.4837277 -1.0842022e-19 2.0498979
0 3.1851883 1.0842022e-19
2.153209 -0 1.9653231
1.0842022e-19 3.2096639 1.0842022e-19
2.4101462 2 1.9526374
0 3.1878912 0
2.1557133 0 1.9176958
-1.0842022e-19 3.2067595 -2
2.4075546 -0 1.9000709
-1.0842022e-19 3.1901369 -0
2.157794 3.6893488e+19 1.8637319
2 3.200882 1.0842022e-19
2.4023104 1.0842022e-19 1.8200363
3.6893488e+19 3.1896167 -1.0842022e-19
2.1573119 -3.6893488e+19 1.7651901
-0 3.2987885 -2
2.0110807 -2 1.7472792
-1.0842022e-19 3.1957984 3.6893488e+19
2.2878306 -2 1.5454043
-2 3.1934595 3.6893488e+19
1.943747 -1.0842022e-19 -1.2310426
2 3.1979773 -2
2.2892373 2 -1.6047549
3.6893488e+19 3.187762 -3.6893488e+19
1.9412577 -1.0842022e-19 -1.7096196
-3.6893488e+19 3.1975489 -3.6893488e+19
2.2889607 2 -1.7825612
-2 3.1871037 -1.0842022e-19
1.9409702 -2 -1.8272171
3.6893488e+19 3.1981268 -1.0842022e-19
2.2893338 -2 -1.8790334
-1.0842022e-19 3.1869555 0
1.9409055 1.0842022e-19 -1.8998405
-3.6893488e+19 3.1965339 3.6893488e+19
2.2883055 1.0842022e-19 -1.9285702
1.0842022e-19 3.1870358 1.0842022e-19
1.9409405 -2 -1.9486672
-2 3.1541359 0
2.2609313 1.0842022e-19 -1.9568702
-0 2.9158468 3.6893488e+19
1.8066831 -0 -1.8909762
3.6893488e+19 2.8158898 0
1.9539549 1.0842022e-19 -1.8575027
3.6893488e+19 2.7782464 0
1.9982722 0 -1.8460519
0 2.7550912 -3.6893488e+19
1.861346 -3.6893488e+19 -1.8410305
2 2.7111547 -0
1.9557382 3.6893488e+19 -1.8341286
-1.0842022e-19 2.6771441 1.0842022e-19
1.822878 -0 -1.8298084
-3.6893488e+19 2.6323581 1.0842022e-19
1.9205842 0 -1.8199302
3.6893488e+19 2.61445 -3.6893488e+19
1.7938343 -2 -1.8201863
-2 2.5826106 -2
1.8983899 -3.6893488e+19 -1.8133142
1.0842022e-19 2.5627482 -3.6893488e+19
1.769883 -2 -1.8100556
3.6893488e+19 2.5397079 2
1.8792495 0 -1.8053712
-3.6893488e+19 2.5284979 0
1.7540165 1.0842022e-19 -1.8054388
-3.6893488e+19 2.5110729 -3.6893488e+19
1.8579487 -2 -1.8022875
0 2.4960046 -1.0842022e-19
1.7297781 1.0842022e-19 -1.7996345
-0 2.463928 -2
1.8319755 1.0842022e-19 -1.7956388
3.6893488e+19 2.4482317 2
1.707647 3.6893488e+19 -1.7954375
-0 2.4208443 3.6893488e+19
1.8127543 -3.6893488e+19 -1.7917073
1.0842022e-19 2.3670461 -2
1.535362 -0 -1.7902597
-3.6893488e+19 2.321312 -3.6893488e+19
1.5153809 2 -1.7878509
-2 2.2850785 1.0842022e-19
1.4991012 -2 -1.7856758
1.0842022e-19 2.2501645 2
1.4685932 -2 -1.7802598
-2 2.2027025 -3.6893488e+19
1.7019674 -0 -1.7793353
-2 2.1678667 0
1.6864259 0 -1.7795491
-3.6893488e+19 2.1331224 -2
1.6709251 0 -1.7778406
-2 2.1043222 -1.0842022e-19
1.6580763 -1.0842022e-19 -1.7767124
3.6893488e+19 3.2497244 1.0842022e-19
2.322648 2 2.7112114
-2 3.2736161 1.0842022e-19
1.9890853 -3.6893488e+19 2.7455797
3.6893488e+19 3.2513816 -2
2.32461 1.0842022e-19 2.6992323
-0 3.2157118 1.0842022e-19
2.3006878 1.0842022e-19 2.6524713
0 3.2149665 -0
2.3002064 -3.6893488e+19 2.6382351
-2 3.2958312 3.6893488e+19
2.0084968 1.0842022e-19 2.7340035
1.0842022e-19 3.2001157 -0
2.2906179 -0 2.6127181
-0 3.2039764 -3.6893488e+19
2.2931106 2 2.6026342
-1.0842022e-19 3.2070582 -1.0842022e-19
2.2951005 -2 2.5917816
-3.6893488e+19 3.206537 3.6893488e+19
2.294764 -2 2.5781925
0 3.1893291 -3.6893488e+19
2.3920019 -2 2.560394
1.0842022e-19 3.2480934 0
2.2114916 3.6893488e+19 2.593164
0 3.2027192 -2
2.4039495 1.0842022e-19 2.5567756
2 3.2435069 -2
2.207242 0 2.5758278
1.0842022e-19 3.238255 -0
2.4356573 -0 2.5667858
-2 3.2442465 3.6893488e+19
2.2079275 -1.0842022e-19 2.5621538
-3.6893488e+19 3.1905694 2
2.3931088 1.0842022e-19 2.5231774
-3.6893488e+19 3.2289822 1.0842022e-19
2.193785 2 2.538816
2 3.2013564 -2
2.4027336 -1.0842022e-19 2.5169163
1.0842022e-19 3.2294734 0
2.1942399 2 2.5254292
1.0842022e-19 3.2354741 3.6893488e+19
2.1997995 1.0842022e-19 2.5150528
-3.6893488e+19 3.2268977 -2
2.4255235 3.6893488e+19 2.5047362
-2 3.2333553 0
2.1978366 3.6893488e+19 2.5001562
3.6893488e+19 3.2324736 1.0842022e-19
2.4304988 -1.0842022e-19 2.4879007
-2 3.2318277 0
2.1964214 -1.0842022e-19 2.4713931
0 3.190624 -1.0842022e-19
1.9425081 -1.0842022e-19 2.4180532
-1.0842022e-19 3.2313757 -3.6893488e+19
2.310801 3.6893488e+19 2.4443777
0 3.1924677 -2
1.9433136 3.6893488e+19 2.3947883
-1.0842022e-19 3.2215922 -0
2.3044844 -2 2.4086349
-3.6893488e+19 3.1930492 -1.0842022e-19
1.9435678 -0 2.3702991
-2 3.2162333 3.6893488e+19
2.3010244 2 2.3776186
2 3.1936409 -3.6893488e+19
1.9438262 -3.6893488e+19 2.3457932
-3.6893488e+19 3.2190619 3.6893488e+19
2.3028507 1.0842022e-19 2.3534191
-0 3.2518172 1.0842022e-19
1.9700375 3.6893488e+19 2.364207
-2 3.1934841 3.6893488e+19
1.9437578 2 2.2957828
1.0842022e-19 3.1926169 -0
2.2857764 -1.0842022e-19 2.2835903
0 3.1928902 0
1.9434983 -3.6893488e+19 2.2705178
-2 3.1965182 -2
2.2882953 -3.6893488e+19 2.2609591
-1.0842022e-19 3.1983192 -3.6893488e+19
1.9458702 0 2.2473848
3.6893488e+19 3.1961746 0
2.2880735 3.6893488e+19 2.2213449
-0 3.1889527 3.6893488e+19
2.3916662 -3.6893488e+19 2.1903484
-2 3.2335403 1.0842022e-19
2.1980081 -2 2.2057881
-2 3.1897528 1.0842022e-19
2.3923802 -0 2.1416321
-3.6893488e+19 3.1915417 -2
2.1590955 -2 2.116713
-2 3.1944718 -3.6893488e+19
2.3965907 2 2.095813
3.6893488e+19 3.2380662 -2
2.2022011 -2 2.1007018
-0 3.1978381 -1.0842022e-19
2.3995943 1.0842022e-19 2.0480654
3.6893488e+19 3.185801 -1.0842022e-19
2.1537766 3.6893488e+19 2.0143688
1.0842022e-19 3.2031088 -3.6893488e+19
2.4042971 3.6893488e+19 2.0006533
0 3.1851883 1.0842022e-19
2.153209 -0 1.9653231
1.0842022e-19 3.2096639 1.0842022e-19
2.4101462 2 1.9526374
0 3.1878912 0
2.1557133 0 1.9176958
-1.0842022e-19 3.2067595 -2
2.4075546 -0 1.9000709
-1.0842022e-19 3.1901369 -0
2.157794 3.6893488e+19 1.8637319
2 3.200882 1.0842022e-19
2.4023104 1.0842022e-19 1.8200363
3.6893488e+19 3.1896167 -1.0842022e-19
2.1573119 -3.6893488e+19 1.7651901
2 3.1951373 -3.6893488e+19
1.9444799 3.6893488e+19 1.6841991
-1.0842022e-19 3.1957984 3.6893488e+19
2.2878306 -2 1.5454043
-2 3.1934595 3.6893488e+19
1.943747 -1.0842022e-19 -1.2310426
2 3.1979773 -2
2.2892373 2 -1.6047549
3.6893488e+19 3.187762 -3.6893488e+19
1.9412577 -1.0842022e-19 -1.7096196
-3.6893488e+19 3.1975489 -3.6893488e+19
2.2889607 2 -1.7825612
-2 3.1871037 -1.0842022e-19
1.9409702 -2 -1.8272171
3.6893488e+19 3.1981268 -1.0842022e-19
2.2893338 -2 -1.8790334
-1.0842022e-19 3.1869555 0
1.9409055 1.0842022e-19 -1.8998405
-3.6893488e+19 3.1965339 3.6893488e+19
2.2883055 1.0842022e-19 -1.9285702
0 3.1419458 3.6893488e+19
1.9212407 -2 -1.9281702
-2 3.1541359 0
2.2609313 1.0842022e-19 -1.9568702
-0 2.9158468 3.6893488e+19
1.8066831 -0 -1.8909762
3.6893488e+19 2.8158898 0
1.9539549 1.0842022e-19 -1.8575027
3.6893488e+19 2.7782464 0
1.9982722 0 -1.8460519
0 2.7550912 -3.6893488e+19
1.861346 -3.6893488e+19 -1.8410305
2 2.7111547 -0
1.9557382 3.6893488e+19 -1.8341286
-1.0842022e-19 2.6771441 1.0842022e-19
1.822878 -0 -1.8298084
-3.6893488e+19 2.6323581 1.0842022e-19
1.9205842 0 -1.8199302
3.6893488e+19 2.61445 -3.6893488e+19
1.7938343 -2 -1.8201863
-2 2.5826106 -2
1.8983899 -3.6893488e+19 -1.8133142
1.0842022e-19 2.5627482 -3.6893488e+19
1.769883 -2 -1.8100556
3.6893488e+19 2.5397079 2
1.8792495 0 -1.8053712
-3.6893488e+19 2.5284979 0
1.7540165 1.0842022e-19 -1.8054388
-3.6893488e+19 2.5110729 -3.6893488e+19
1.8579487 -2 -1.8022875
0 2.4960046 -1.0842022e-19
1.7297781 1.0842022e-19 -1.7996345
-0 2.463928 -2
1.8319755 1.0842022e-19 -1.7956388
3.6893488e+19 2.4482317 2
1.707647 3.6893488e+19 -1.7954375
-0 2.4208443 3.6893488e+19
1.8127543 -3.6893488e+19 -1.7917073
1.0842022e-19 2.3670461 -2
1.535362 -0 -1.7902597
-3.6893488e+19 2.321312 -3.6893488e+19
1.5153809 2 -1.7878509
-2 2.2850785 1.0842022e-19
1.4991012 -2 -1.7856758
1.0842022e-19 2.2501645 2
1.4685932 -2 -1.7802598
-2 2.2027025 -3.6893488e+19
1.7019674 -0 -1.7793353
-2 2.1678667 0
1.6864259 0 -1.7795491
-3.6893488e+19 2.1331224 -2
1.6709251 0 -1.7778406
-2 2.1043222 -1.0842022e-19
1.6580763 -1.0842022e-19 -1.7767124
-2 3.2499807 -0
2.3122101 0 2.7113516
2 3.271822 -0
1.9645876 1.0842022e-19 2.7422965
-1.0842022e-19 3.2481852 -2
2.3110888 2 2.6950486
2 3.2486115 0
2.3113551 -3.6893488e+19 2.6808131
0 3.249043 1.0842022e-19
2.3116245 -3.6893488e+19 2.6666009
-3.6893488e+19 3.2477078 -2
2.3107908 -2 2.6509857
3.6893488e+19 3.2921128 1.0842022e-19
1.9806061 2 2.7109358
-1.0842022e-19 3.2479644 -0
2.310951 0 2.6367218
3.6893488e+19 3.2077358 2
2.2858305 -0 2.5922167
-2 3.2592824 -3.6893488e+19
1.9546883 3.6893488e+19 2.6291587
-1.0842022e-19 3.2066939 -1.0842022e-19
2.2851799 -1.0842022e-19 2.5782366
-0 3.2385979 2
2.4255412 -0 2.5951033
0 3.2473373 -2
2.1897612 -0 2.592592
2 3.2374072 -1.0842022e-19
2.424504 -2 2.5801852
0 3.2436728 1.0842022e-19
2.1865211 -1.0842022e-19 2.5758886
0 3.2387955 -3.6893488e+19
2.4257131 2 2.5670445
2 3.245584 3.6893488e+19
2.188211 -2 2.5629518
2 3.2428639 -2
2.4292564 0 2.5555141
0 3.2301338 2
2.1745493 0 2.5394671
-2 3.2400923 -0
2.4268427 2 2.5397394
3.6893488e+19 3.2289579 -1.0842022e-19
2.1735096 -1.0842022e-19 2.5250921
2 3.237587 3.6893488e+19
2.1811397 0 2.5161667
2 3.2291613 1.0842022e-19
2.4173224 -2 2.5058708
0 3.2334275 -3.6893488e+19
2.1774616 3.6893488e+19 2.5001562
2 3.2332919 2
2.4209199 1.0842022e-19 2.4885864
-1.0842022e-19 3.2483883 -3.6893488e+19
1.9467242 -1.0842022e-19 2.4728262
3.6893488e+19 3.2288146 0
2.2989931 1.0842022e-19 2.441921
-0 3.2483845 2
1.9467227 -0 2.4446492
3.6893488e+19 3.2220006 3.6893488e+19
2.2947381 3.6893488e+19 2.4089034
-3.6893488e+19 3.2512596 -1.0842022e-19
1.9483548 -1.0842022e-19 2.4199753
0 3.2171988 -3.6893488e+19
2.2917395 0 2.3783214
2 3.2512033 1.0842022e-19
1.9483104 0 2.3915713
1.0842022e-19 3.2166786 3.6893488e+19
2.2914147 -1.0842022e-19 2.3515496
3.6893488e+19 3.1932461 2
1.9249585 -1.0842022e-19 2.3205147
-2 3.2277739 -0
2.2983432 2 2.3329611
-1.0842022e-19 3.1921446 2
1.9245237 -1.0842022e-19 2.2948692
0 3.2258778 -3.6893488e+19
2.297159 -1.0842022e-19 2.3048372
1.0842022e-19 3.2491772 -2
1.9470356 3.6893488e+19 2.3048773
2 3.1969845 -0
2.2791169 -1.0842022e-19 2.2611771
1.0842022e-19 3.246314 3.6893488e+19
1.9459054 3.6893488e+19 2.2752972
3.6893488e+19 3.1960814 1.0842022e-19
2.278553 1.0842022e-19 2.221148
1.0842022e-19 3.2296054 -1.0842022e-19
2.4177091 0 2.2309909
3.6893488e+19 3.23897 0
2.1823628 1.0842022e-19 2.2108376
-1.0842022e-19 3.1899736 -2
2.3831921 0 2.141715
-1.0842022e-19 3.2376006 1.0842022e-19
2.1811519 0 2.154906
-1.0842022e-19 3.2020032 1.0842022e-19
2.3936694 3.6893488e+19 2.0507503
1.0842022e-19 3.258888 -1.0842022e-19
2.2078338 -0 2.0640502
1.0842022e-19 3.2025573 -2
2.3941517 0 2.0002756
1.0842022e-19 3.1859081 -3.6893488e+19
2.1354434 -0 1.9656471
-1.0842022e-19 3.2064433 -2
2.3975363 0 1.9511594
3.6893488e+19 3.1901088 3.6893488e+19
2.139158 3.6893488e+19 1.9185199
0 3.2053392 -3.6893488e+19
2.3965745 -0 1.8995608
2 3.1896722 2
2.138772 -1.0842022e-19 1.8634442
3.6893488e+19 3.2033737 1.0842022e-19
2.3948629 1.0842022e-19 1.8210572
3.6893488e+19 3.190119 -0
2.1391671 1.0842022e-19 1.7653295
0 3.2377789 1.0842022e-19
1.9425365 2 1.7018305
0 3.1946144 -2
2.2776368 -2 1.5449162
-3.6893488e+19 3.2381012 1.0842022e-19
1.9426638 0 -1.2521418
3.6893488e+19 3.1979463 -0
2.2797174 1.0842022e-19 -1.604691
-1.0842022e-19 3.2334642 1.0842022e-19
1.9408334 1.0842022e-19 -1.7314881
-2 3.1982656 0
2.279917 0 -1.7827805
2 3.1887581 -2
1.9231869 1.0842022e-19 -1.8279686
-2 3.2003386 -0
2.2812114 0 -1.8796433
0 3.1862047 -1.0842022e-19
1.922179 0 -1.8995727
-2 3.1868782 3.6893488e+19
1.9224449 2 -1.9485821
-3.6893488e+19 3.1536911 -0
2.2520826 -0 -1.9565992
3.6893488e+19 2.8168273 1.0842022e-19
1.947841 3.6893488e+19 -1.8581439
-1.0842022e-19 2.7795062 3.6893488e+19
1.9934342 -0 -1.8469883
-0 2.7564378 -2
1.8517504 3.6893488e+19 -1.8421386
0 2.7094276 -2
1.9500676 -2 -1.8332849
1.0842022e-19 2.6770833 1.0842022e-19
1.8138202 -0 -1.8297486
-0 2.6317251 -2
1.9162304 -1.0842022e-19 -1.8195509
-0 2.6146288 2
1.7862082 1.0842022e-19 -1.820253
1.0842022e-19 2.5839469 -3.6893488e+19
1.8954244 -1.0842022e-19 -1.8140159
-0 2.5625458 1.0842022e-19
1.7631814 3.6893488e+19 -1.8099084
-3.6893488e+19 2.5399158 -1.0842022e-19
1.8762501 -3.6893488e+19 -1.8054482
-2 2.5310276 1.0842022e-19
1.7484936 -1.0842022e-19 -1.8070505
-2 2.5107772 -0
1.8521223 2 -1.8020353
1.0842022e-19 2.4958298 -2
1.7192141 -3.6893488e+19 -1.7995468
3.6893488e+19 2.4635677 0
1.8268707 2 -1.7954568
-3.6893488e+19 2.4485469 -1.0842022e-19
1.6983097 -3.6893488e+19 -1.7955319
-2 3.2499807 -0
2.3122101 0 2.7113516
2 3.271822 -0
1.9645876 1.0842022e-19 2.7422965
-1.0842022e-19 3.2481852 -2
2.3110888 2 2.6950486
-0 3.2140732 -1.0842022e-19
2.2897878 -2 2.6509712
0 3.2150028 1.0842022e-19
2.2903683 3.6893488e+19 2.6381843
2 3.2013094 -3.6893488e+19
2.2818174 -0 2.6136041
3.6893488e+19 3.2921128 1.0842022e-19
1.9806061 2 2.7109358
-2 3.2051113 -0
2.2841916 -3.6893488e+19 2.6034417
3.6893488e+19 3.2077358 2
2.2858305 -0 2.5922167
-2 3.2592824 -3.6893488e+19
1.9546883 3.6893488e+19 2.6291587
-1.0842022e-19 3.2066939 -1.0842022e-19
2.2851799 -1.0842022e-19 2.5782366
0 3.1880186 -0
2.3814893 2 2.5593784
0 3.2473373 -2
2.1897612 -0 2.592592
2 3.2374072 -1.0842022e-19
2.424504 -2 2.5801852
0 3.2436728 1.0842022e-19
2.1865211 -1.0842022e-19 2.5758886
0 3.2387955 -3.6893488e+19
2.4257131 2 2.5670445
2 3.245584 3.6893488e+19
2.188211 -2 2.5629518
-3.6893488e+19 3.1900525 2
2.383261 -2 2.5227776
0 3.2301338 2
2.1745493 0 2.5394671
-0 3.2023172 1.0842022e-19
2.3939428 3.6893488e+19 2.5174069
3.6893488e+19 3.2289579 -1.0842022e-19
2.1735096 -1.0842022e-19 2.5250921
2 3.237587 3.6893488e+19
2.1811397 0 2.5161667
2 3.2291613 1.0842022e-19
2.4173224 -2 2.5058708
0 3.2334275 -3.6893488e+19
2.1774616 3.6893488e+19 2.5001562
2 3.2332919 2
2.4209199 1.0842022e-19 2.4885864
1.0842022e-19 3.1892581 1.0842022e-19
1.9233843 -0 2.4167287
3.6893488e+19 3.2288146 0
2.2989931 1.0842022e-19 2.441921
1.0842022e-19 3.1897347 1.0842022e-19
1.9235724 0 2.392323
3.6893488e+19 3.2220006 3.6893488e+19
2.2947381 3.6893488e+19 2.4089034
1.0842022e-19 3.1933594 1.0842022e-19
1.9250032 -3.6893488e+19 2.3705328
0 3.2171988 -3.6893488e+19
2.2917395 0 2.3783214
-2 3.1946661 -0
1.925519 -0 2.3465688
1.0842022e-19 3.2166786 3.6893488e+19
2.2914147 -1.0842022e-19 2.3515496
3.6893488e+19 3.1932461 2
1.9249585 -1.0842022e-19 2.3205147
0 3.187269 1.0842022e-19
2.2730501 1.0842022e-19 2.304733
-1.0842022e-19 3.1921446 2
1.9245237 -1.0842022e-19 2.2948692
-2 3.1906285 -2
2.2751479 0 2.2822576
0 3.1939173 2
1.9252234 2 2.2711267
2 3.1969845 -0
2.2791169 -1.0842022e-19 2.2611771
1.0842022e-19 3.1952646 -0
1.9257551 -0 2.2439618
3.6893488e+19 3.1960814 1.0842022e-19
2.278553 1.0842022e-19 2.221148
1.0842022e-19 3.2296054 -1.0842022e-19
2.4177091 0 2.2309909
3.6893488e+19 3.2057345 1.0842022e-19
2.1529748 -0 2.1795142
-1.0842022e-19 3.1899736 -2
2.3831921 0 2.141715
0 3.208559 2
2.1554723 -2 2.1307895
-1.0842022e-19 3.2020032 1.0842022e-19
2.3936694 3.6893488e+19 2.0507503
3.6893488e+19 3.1867702 -1.0842022e-19
2.1362059 -2 2.0149171
1.0842022e-19 3.2025573 -2
2.3941517 0 2.0002756
1.0842022e-19 3.1859081 -3.6893488e+19
2.1354434 -0 1.9656471
-1.0842022e-19 3.2064433 -2
2.3975363 0 1.9511594
3.6893488e+19 3.1901088 3.6893488e+19
2.139158 3.6893488e+19 1.9185199
0 3.2053392 -3.6893488e+19
2.3965745 -0 1.8995608
2 3.1896722 2
2.138772 -1.0842022e-19 1.8634442
3.6893488e+19 3.2033737 1.0842022e-19
2.3948629 1.0842022e-19 1.8210572
3.6893488e+19 3.190119 -0
2.1391671 1.0842022e-19 1.7653295
0 3.2377789 1.0842022e-19
1.9425365 2 1.7018305
0 3.1946144 -2
2.2776368 -2 1.5449162
-2 3.1834617 -1.0842022e-19
1.9210963 -1.0842022e-19 -1.2258183
3.6893488e+19 3.1979463 -0
2.2797174 1.0842022e-19 -1.604691
-1.0842022e-19 3.1884167 -1.0842022e-19
1.9230522 0 -1.7099189
-2 3.1982656 0
2.279917 0 -1.7827805
2 3.1887581 -2
1.9231869 1.0842022e-19 -1.8279686
-2 3.2003386 -0
2.2812114 0 -1.8796433
0 3.1862047 -1.0842022e-19
1.922179 0 -1.8995727
0 3.1426909 -1.0842022e-19
1.9050032 3.6893488e+19 -1.9284967
-3.6893488e+19 3.1536911 -0
2.2520826 -0 -1.9565992
3.6893488e+19 2.8168273 1.0842022e-19
1.947841 3.6893488e+19 -1.8581439
-1.0842022e-19 2.7795062 3.6893488e+19
1.9934342 -0 -1.8469883
-0 2.7564378 -2
1.8517504 3.6893488e+19 -1.8421386
0 2.7094276 -2
1.9500676 -2 -1.8332849
1.0842022e-19 2.6770833 1.0842022e-19
1.8138202 -0 -1.8297486
-0 2.6317251 -2
1.9162304 -1.0842022e-19 -1.8195509
-0 2.6146288 2
1.7862082 1.0842022e-19 -1.820253
1.0842022e-19 2.5839469 -3.6893488e+19
1.8954244 -1.0842022e-19 -1.8140159
-0 2.5625458 1.0842022e-19
1.7631814 3.6893488e+19 -1.8099084
-3.6893488e+19 2.5399158 -1.0842022e-19
1.8762501 -3.6893488e+19 -1.8054482
-2 2.5310276 1.0842022e-19
1.7484936 -1.0842022e-19 -1.8070505
-2 2.5107772 -0
1.8521223 2 -1.8020353
1.0842022e-19 2.4958298 -2
1.7192141 -3.6893488e+19 -1.7995468
3.6893488e+19 2.4635677 0
1.8268707 2 -1.7954568
-3.6893488e+19 2.4485469 -1.0842022e-19
1.6983097 -3.6893488e+19 -1.7955319
-2 3.2502987 0
2.3020272 -2 2.7118278
3.6893488e+19 3.2719452 2
1.9418426 2 2.7424896
2 3.2509069 -1.0842022e-19
2.3027608 1.0842022e-19 2.6982
3.6893488e+19 3.2764268 -1.0842022e-19
1.945004 -3.6893488e+19 2.7344196
1.0842022e-19 3.2501175 2
2.3018084 -2 2.6821289
-0 3.2452688 0
2.2988122 3.6893488e+19 2.6633673
-2 3.2461889 3.6893488e+19
2.2993672 1.0842022e-19 2.6496816
-0 3.2461984 3.6893488e+19
2.2993729 2 2.6352727
-3.6893488e+19 3.2647014 -3.6893488e+19
1.9367324 3.6893488e+19 2.6523364
-1.0842022e-19 3.2456918 3.6893488e+19
2.2990673 -1.0842022e-19 2.6205192
-2 3.2591753 0
1.9328341 3.6893488e+19 2.628979
-1.0842022e-19 3.2425311 0
2.4185102 0 2.5977833
-0 3.2471616 1.0842022e-19
2.1686769 -2 2.5924225
2 3.2401495 0
2.4164865 -1.0842022e-19 2.5819492
0 3.2445126 -2
2.1664457 -3.6893488e+19 2.5763967
-2 3.2395775 -3.6893488e+19
2.4160004 -0 2.5674622
-2 3.2414925 1.0842022e-19
2.1639028 0 2.5603244
0 3.2414367 3.6893488e+19
2.4175801 -3.6893488e+19 2.5545433
-1.0842022e-19 3.2402921 3.6893488e+19
2.4166076 -1.0842022e-19 2.5397756
-2 3.2401605 1.0842022e-19
2.162781 -3.6893488e+19 2.5175335
0 3.231607 -0
2.4092276 -3.6893488e+19 2.5071042
-0 3.2320099 -3.6893488e+19
2.40957 -2 2.4871528
-0 3.2478914 -1.0842022e-19
1.9256176 0 2.472326
1.0842022e-19 3.2222862 -3.6893488e+19
2.2849457 -1.0842022e-19 2.4358077
0 3.2476699 -3.6893488e+19
1.9255394 0 2.4439845
-2 3.2211351 2
2.2842515 2 2.4080715
-1.0842022e-19 3.2497847 -1.0842022e-19
1.9262854 1.0842022e-19 2.4176643
-1.0842022e-19 3.2172928 -3.6893488e+19
2.2819331 0 2.3783214
2 3.2485816 -1.0842022e-19
1.925861 1.0842022e-19 2.3885663
-0 3.2158728 3.6893488e+19
2.2810764 3.6893488e+19 2.350872
-3.6893488e+19 3.2465432 -1.0842022e-19
1.925142 1.0842022e-19 2.3590324
2 3.2122548 -1.0842022e-19
2.2788935 1.0842022e-19 2.3220809
0 3.1925766 0
1.9061068 -2 2.2951391
3.6893488e+19 3.2254765 2
2.2868707 -1.0842022e-19 2.3045189
-1.0842022e-19 3.2494569 -1.0842022e-19
1.9261698 -2 2.3050294
0 3.2229636 -3.6893488e+19
2.2853544 -3.6893488e+19 2.2763011
-0 3.244786 1.0842022e-19
1.9245223 0 2.2744329
3.6893488e+19 3.2194297 -0
2.2832224 3.6893488e+19 2.2457085
3.6893488e+19 3.2306402 2
2.4084063 3.6893488e+19 2.2318926
-0 3.2379489 2
2.1609185 -1.0842022e-19 2.20981
1.0842022e-19 3.227083 2
2.4053836 -1.0842022e-19 2.174634
-2 3.2372644 -2
2.160342 1.0842022e-19 2.1545696
2 3.1957197 2
2.3787339 -1.0842022e-19 2.0965853
-1.0842022e-19 3.2028139 -2
2.3847618 1.0842022e-19 2.0512047
2 3.2601097 -2
2.1880944 0 2.0654876
-3.6893488e+19 3.20225 3.6893488e+19
2.3842828 -2 2.000035
-1.0842022e-19 3.2590802 -2
2.1863606 -3.6893488e+19 2.0063016
-2 3.2201469 0
2.3994901 1.0842022e-19 1.9571402
-0 3.1899838 -2
2.1205254 2 1.9184482
1.0842022e-19 3.206089 -2
2.3875446 0 1.8997649
2 3.1897657 -3.6893488e+19
2.1203415 -1.0842022e-19 1.8634611
-1.0842022e-19 3.2036569 3.6893488e+19
2.3854783 -1.0842022e-19 1.8211243
0 3.2390273 -0
1.922491 2 1.7023346
1.0842022e-19 3.1881912 1.0842022e-19
2.2643752 2 1.5424278
-0 3.2359755 1.0842022e-19
1.9214146 -2 -1.2515802
-2 3.1908693 -3.6893488e+19
2.265991 0 -1.6010168
-3.6893488e+19 3.2350559 -0
1.9210902 0 -1.732236
1.0842022e-19 3.2023444 -3.6893488e+19
2.2729142 0 -1.7841841
-0 3.1905344 -0
1.9053864 2 -1.8287778
3.6893488e+19 3.2028284 -2
2.2732062 2 -1.8803338
3.6893488e+19 3.1869497 0
1.9041221 3.6893488e+19 -1.899819
-3.6893488e+19 3.2010162 1.0842022e-19
2.2721131 -1.0842022e-19 -1.9302886
0 3.1427774 -0
1.8885415 -0 -1.9285251
3.6893488e+19 3.1529627 -3.6893488e+19
2.2362413 -2 -1.9561849
3.6893488e+19 2.8189728 -0
1.7250179 1.0842022e-19 -1.8056054
3.6893488e+19 2.8186991 -3.6893488e+19
1.7248248 0 -1.8410563
3.6893488e+19 2.8165798 3.6893488e+19
1.9410031 1.0842022e-19 -1.8579149
3.6893488e+19 2.7790265 3.6893488e+19
1.9870925 -0 -1.8465447
-3.6893488e+19 2.7566609 0
1.8411431 2 -1.842297
-2 2.7093089 -2
1.9451404 1.0842022e-19 -1.8331724
1.0842022e-19 2.6770191 -2
1.8048036 3.6893488e+19 -1.8296889
-2 2.6319568 -0
1.9122769 -3.6893488e+19 -1.8196141
2 2.6150541 2
1.7787123 3.6893488e+19 -1.820453
0 2.5832973 3.6893488e+19
1.8916035 2 -1.8135949
-1.0842022e-19 2.5639594 2
1.757198 3.6893488e+19 -1.8107184
-2 2.5401216 -0
1.8715202 -1.0842022e-19 -1.8055253
-3.6893488e+19 2.5308185 -2
1.7364869 -2 -1.8068893
2 2.5103555 -1.0842022e-19
1.8462274 -0 -1.801699
-3.6893488e+19 2.4946563 3.6893488e+19
1.7082835 3.6893488e+19 -1.7991092
-2 2.4654315 3.6893488e+19
1.8227416 2 -1.7960938
-2 2.4478648 -2
1.6885811 2 -1.7952485
-3.6893488e+19 2.4198482 -3.6893488e+19
1.8033752 -1.0842022e-19 -1.7912176
0 2.3700743 1.0842022e-19
1.5055336 0 -1.7916015
-3.6893488e+19 2.3233373 1.0842022e-19
1.478097 -3.6893488e+19 -1.788856
-0 2.2870955 3.6893488e+19
1.4525303 -2 -1.7867916
2 2.2506909 3.6893488e+19
1.4268488 2 -1.7805665
2 2.2000206 2
1.6911942 -1.0842022e-19 -1.7783331
0 2.1661501 1.0842022e-19
1.6768041 -2 -1.778826
2 2.1318789 2
1.6622437 -0 -1.7772572
-1.0842022e-19 2.0967441 -2
1.6473165 -1.0842022e-19 -1.7733827
-2 3.2502987 0
2.3020272 -2 2.7118278
3.6893488e+19 3.2719452 2
1.9418426 2 2.7424896
2 3.2509069 -1.0842022e-19
2.3027608 1.0842022e-19 2.6982
3.6893488e+19 3.2764268 -1.0842022e-19
1.945004 -3.6893488e+19 2.7344196
1.0842022e-19 3.2501175 2
2.3018084 -2 2.6821289
-0 3.2452688 0
2.2988122 3.6893488e+19 2.6633673
-3.6893488e+19 3.2017362 2
2.2725475 -3.6893488e+19 2.6138747
-0 3.2461984 3.6893488e+19
2.2993729 2 2.6352727
-2 3.2391636 -1.0842022e-19
1.9225391 -3.6893488e+19 2.6217551
-3.6893488e+19 3.2079504 -0
2.2762966 -1.0842022e-19 2.5923083
-1.0842022e-19 3.2407215 -2
1.9230886 2 2.6087785
-1.0842022e-19 3.1884787 -3.6893488e+19
2.372581 3.6893488e+19 2.5596161
-0 3.2471616 1.0842022e-19
2.1686769 -2 2.5924225
2 3.2401495 0
2.4164865 -1.0842022e-19 2.5819492
0 3.2445126 -2
2.1664457 -3.6893488e+19 2.5763967
-2 3.2395775 -3.6893488e+19
2.4160004 -0 2.5674622
-2 3.2414925 1.0842022e-19
2.1639028 0 2.5603244
2 3.1930025 0
2.376425 0 2.5245287
-1.0842022e-19 3.2402921 3.6893488e+19
2.4166076 -1.0842022e-19 2.5397756
-2 3.2401605 1.0842022e-19
2.162781 -3.6893488e+19 2.5175335
0 3.231607 -0
2.4092276 -3.6893488e+19 2.5071042
-0 3.2320099 -3.6893488e+19
2.40957 -2 2.4871528
3.6893488e+19 3.1898434 0
1.9051428 -1.0842022e-19 2.4172585
1.0842022e-19 3.2222862 -3.6893488e+19
2.2849457 -1.0842022e-19 2.4358077
-3.6893488e+19 3.1914692 -3.6893488e+19
1.9057162 0 2.3938465
-2 3.2211351 2
2.2842515 2 2.4080715
-2 3.1941943 0
1.9066775 -2 2.371208
-1.0842022e-19 3.2172928 -3.6893488e+19
2.2819331 0 2.3783214
2 3.1932321 3.6893488e+19
1.906338 2 2.3454299
-0 3.2158728 3.6893488e+19
2.2810764 3.6893488e+19 2.350872
-2 3.1891348 -2
1.9048928 0 2.3175225
-2 3.1874189 3.6893488e+19
2.2639093 -2 2.3047762
0 3.1925766 0
1.9061068 -2 2.2951391
2 3.1907485 -1.0842022e-19
2.265918 -0 2.2822773
2 3.1950347 2
1.9069738 2 2.2717927
-3.6893488e+19 3.1944637 -2
2.2681596 -3.6893488e+19 2.2596519
3.6893488e+19 3.1966944 0
1.9075593 1.0842022e-19 2.2455177
3.6893488e+19 3.2194297 -0
2.2832224 3.6893488e+19 2.2457085
3.6893488e+19 3.2306402 2
2.4084063 3.6893488e+19 2.2318926
-1.0842022e-19 3.2010014 -1.0842022e-19
2.1298037 -0 2.1749933
1.0842022e-19 3.1922698 -2
2.3758023 3.6893488e+19 2.1436481
-2 3.2057254 -3.6893488e+19
2.1337819 3.6893488e+19 2.1283832
2 3.1957197 2
2.3787339 -1.0842022e-19 2.0965853
-1.0842022e-19 3.2028139 -2
2.3847618 1.0842022e-19 2.0512047
2 3.2601097 -2
2.1880944 0 2.0654876
-3.6893488e+19 3.20225 3.6893488e+19
2.3842828 -2 2.000035
-2 3.1867495 -0
2.1178017 2 1.9660329
0 3.2052987 -3.6893488e+19
2.386873 -3.6893488e+19 1.9505981
-0 3.1899838 -2
2.1205254 2 1.9184482
1.0842022e-19 3.206089 -2
2.3875446 0 1.8997649
2 3.1897657 -3.6893488e+19
2.1203415 -1.0842022e-19 1.8634611
-1.0842022e-19 3.2036569 3.6893488e+19
2.3854783 -1.0842022e-19 1.8211243
0 3.2390273 -0
1.922491 2 1.7023346
1.0842022e-19 3.1881912 1.0842022e-19
2.2643752 2 1.5424278
-3.6893488e+19 3.1833632 3.6893488e+19
1.9028571 3.6893488e+19 -1.2257532
-2 3.1908693 -3.6893488e+19
2.265991 0 -1.6010168
-3.6893488e+19 3.1846321 -2
1.9033046 0 -1.708094
1.0842022e-19 3.2023444 -3.6893488e+19
2.2729142 0 -1.7841841
-0 3.1905344 -0
1.9053864 2 -1.8287778
3.6893488e+19 3.2028284 -2
2.2732062 2 -1.8803338
3.6893488e+19 3.1869497 0
1.9041221 3.6893488e+19 -1.899819
-3.6893488e+19 3.2010162 1.0842022e-19
2.2721131 -1.0842022e-19 -1.9302886
0 3.1427774 -0
1.8885415 -0 -1.9285251
3.6893488e+19 3.1529627 -3.6893488e+19
2.2362413 -2 -1.9561849
3.6893488e+19 2.8189728 -0
1.7250179 1.0842022e-19 -1.8056054
3.6893488e+19 2.8186991 -3.6893488e+19
1.7248248 0 -1.8410563
3.6893488e+19 2.8165798 3.6893488e+19
1.9410031 1.0842022e-19 -1.8579149
3.6893488e+19 2.7790265 3.6893488e+19
1.9870925 -0 -1.8465447
-3.6893488e+19 2.7566609 0
1.8411431 2 -1.842297
-2 2.7093089 -2
1.9451404 1.0842022e-19 -1.8331724
1.0842022e-19 2.6770191 -2
1.8048036 3.6893488e+19 -1.8296889
-2 2.6319568 -0
1.9122769 -3.6893488e+19 -1.8196141
2 2.6150541 2
1.7787123 3.6893488e+19 -1.820453
0 2.5832973 3.6893488e+19
1.8916035 2 -1.8135949
-1.0842022e-19 2.5639594 2
1.757198 3.6893488e+19 -1.8107184
-2 2.5401216 -0
1.8715202 -1.0842022e-19 -1.8055253
-3.6893488e+19 2.5308185 -2
1.7364869 -2 -1.8068893
2 2.5103555 -1.0842022e-19
1.8462274 -0 -1.801699
-3.6893488e+19 2.4946563 3.6893488e+19
1.7082835 3.6893488e+19 -1.7991092
-2 2.4654315 3.6893488e+19
1.8227416 2 -1.7960938
-2 2.4478648 -2
1.6885811 2 -1.7952485
-3.6893488e+19 2.4198482 -3.6893488e+19
1.8033752 -1.0842022e-19 -1.7912176
0 2.3700743 1.0842022e-19
1.5055336 0 -1.7916015
-3.6893488e+19 2.3233373 1.0842022e-19
1.478097 -3.6893488e+19 -1.788856
-0 2.2870955 3.6893488e+19
1.4525303 -2 -1.7867916
2 2.2506909 3.6893488e+19
1.4268488 2 -1.7805665
2 2.2000206 2
1.6911942 -1.0842022e-19 -1.7783331
0 2.1661501 1.0842022e-19
1.6768041 -2 -1.778826
2 2.1318789 2
1.6622437 -0 -1.7772572
-1.0842022e-19 2.0967441 -2
1.6473165 -1.0842022e-19 -1.7733827
2 3.2730913 2
1.919727 -3.6893488e+19 2.7552874
-1.0842022e-19 3.2503018 2
2.2914722 1.0842022e-19 2.7117438
-0 3.2722495 -0
1.9192038 0 2.7430139
1.0842022e-19 3.2508492 3.6893488e+19
2.2921095 -0 2.6980097
-0 3.276808 -1.0842022e-19
1.9220369 -1.0842022e-19 2.7350614
3.6893488e+19 3.2501051 3.6893488e+19
2.2912431 2 2.6820238
1.0842022e-19 3.2452126 0
2.2883332 2 2.66324
2 3.246866 0
2.2892959 2 2.6501491
-3.6893488e+19 3.244673 -3.6893488e+19
2.2880189 -2 2.6340137
1.0842022e-19 3.2620761 -3.6893488e+19
1.9128809 0 2.6483243
2 3.2416518 2
2.2862599 -3.6893488e+19 2.6174278
0 3.257745 3.6893488e+19
1.9101892 2 2.6268668
-1.0842022e-19 3.239732 3.6893488e+19
2.2851422 -1.0842022e-19 2.6018426
-2 3.2423604 0
2.4079235 -0 2.5975671
0 3.2470133 -0
2.1476455 -2 2.5922742
1.0842022e-19 3.2430737 3.6893488e+19
2.4085143 -2 2.5838377
-2 3.2459955 -1.0842022e-19
2.1468313 0 2.5773318
-3.6893488e+19 3.2401111 0
2.40606 1.0842022e-19 2.5677209
-1.0842022e-19 3.2391231 -0
2.1413329 -2 2.5587866
-3.6893488e+19 3.2411723 -1.0842022e-19
2.406939 0 2.554296
-2 3.2392855 -0
2.1414628 -2 2.5309463
1.0842022e-19 3.2270646 -1.0842022e-19
2.3952506 2 2.5182302
-1.0842022e-19 3.240845 -1.0842022e-19
2.1427104 -0 2.5178711
-2 3.2301061 -0
2.3977706 1.0842022e-19 2.5062327
3.6893488e+19 3.2298911 -3.6893488e+19
2.3975923 -0 2.4848781
0 3.2469656 -0
2.1476073 -3.6893488e+19 2.4859962
-3.6893488e+19 3.2467394 2
1.9043624 0 2.4712076
0 3.2214491 3.6893488e+19
2.274497 1.0842022e-19 2.4349508
3.6893488e+19 3.2485664 -0
1.9049301 3.6893488e+19 2.4447601
2 3.2216606 0
2.2746203 -3.6893488e+19 2.408447
-0 3.2497187 2
1.9052882 3.6893488e+19 2.4175863
-3.6893488e+19 3.2166393 -2
2.2716966 2 2.3777189
1.0842022e-19 3.2454369 -0
1.9039576 3.6893488e+19 2.3860943
1.0842022e-19 3.2147532 2
2.2705984 1.0842022e-19 2.3499608
3.6893488e+19 3.2463524 2
1.9042422 -0 2.3588748
-1.0842022e-19 3.2093947 -1.0842022e-19
2.2674785 2 2.3200259
-0 3.2456255 3.6893488e+19
1.9040163 3.6893488e+19 2.3304977
3.6893488e+19 3.2241087 -0
2.2760456 -3.6893488e+19 2.3035839
1.0842022e-19 3.246805 -1.0842022e-19
1.9043827 1.0842022e-19 2.3033934
-0 3.2241123 3.6893488e+19
2.2760477 1.0842022e-19 2.2769186
2 3.2434103 -2
1.9033278 1.0842022e-19 2.2736549
0 3.2181215 0
2.2725596 0 2.244231
3.6893488e+19 3.241878 1.0842022e-19
2.143537 -1.0842022e-19 2.2134502
-1.0842022e-19 3.2260036 2
2.3943717 2 2.173557
-2 3.2383897 -1.0842022e-19
2.1407461 1.0842022e-19 2.1554494
3.6893488e+19 3.2637951 1.0842022e-19
2.4371116 1.0842022e-19 2.1601341
-0 3.1923149 2
2.103883 2 2.067692
-2 3.2038391 3.6893488e+19
2.3760083 3.6893488e+19 2.0518036
-1.0842022e-19 3.260129 -0
2.1662431 -2 2.0654685
-1.0842022e-19 3.2186217 1.0842022e-19
2.3882558 1.0842022e-19 2.0090153
1.0842022e-19 3.2619696 -2
2.169188 1.0842022e-19 2.0091252
-3.6893488e+19 3.2006075 -3.6893488e+19
2.3733308 -2 1.9484768
-3.6893488e+19 3.1907606 -3.6893488e+19
2.1026394 -2 1.9187229
2 3.2029824 1.0842022e-19
2.3752985 -2 1.8987038
3.6893488e+19 3.1935072 2
2.1048369 2 1.8654577
-2 3.2043412 1.0842022e-19
2.3764243 0 1.8213662
-1.0842022e-19 3.2958968 0
2.2234766 -0 1.813638
-2 3.1929383 1.0842022e-19
1.8876437 -2 1.6832554
-1.0842022e-19 3.1888061 1.0842022e-19
2.255491 1.0842022e-19 1.5426302
-3.6893488e+19 3.23897 3.6893488e+19
1.9019481 -3.6893488e+19 -1.2523533
-3.6893488e+19 3.1909862 3.6893488e+19
2.2567604 1.0842022e-19 -1.6010327
-1.0842022e-19 3.1858118 -1.0842022e-19
1.885429 -1.0842022e-19 -1.7086474
-2 3.192802 -1.0842022e-19
2.2578175 -3.6893488e+19 -1.7807957
0 3.1830919 2
1.8845838 3.6893488e+19 -1.8253242
-1.0842022e-19 3.2018569 -0
2.2630897 -1.0842022e-19 -1.8800288
-3.6893488e+19 3.1867859 3.6893488e+19
1.8857318 3.6893488e+19 -1.8997548
-3.6893488e+19 3.1995771 2
2.2617624 1.0842022e-19 -1.9296784
-0 3.1879282 -2
1.8860867 -1.0842022e-19 -1.9490362
-0 3.1510472 -3.6893488e+19
2.2170124 -3.6893488e+19 -1.9551649
-3.6893488e+19 2.8192399 2
1.6984085 -0 -1.8057468
2 2.8191535 -0
1.6983547 3.6893488e+19 -1.8413526
-1.0842022e-19 2.8181357 2
1.9352318 -3.6893488e+19 -1.8590142
-3.6893488e+19 2.7794757 0
1.9815474 2 -1.8468405
1.0842022e-19 2.7575684 0
1.8310728 2 -1.8430357
-1.0842022e-19 2.708318 -0
1.9398595 -1.0842022e-19 -1.8326662
1.0842022e-19 2.6770766 2
1.7958456 3.6893488e+19 -1.8296889
3.6893488e+19 2.632062 2
1.9082702 -3.6893488e+19 -1.8196141
-2 2.6152277 1.0842022e-19
1.771104 -2 -1.8205197
0 2.5831409 0
1.8880045 0 -1.8134546
0 2.5641263 -0
