# .PCD v0.7 - Point Cloud Data file format
VERSION 0.7
FIELDS x y z
SIZE 4 4 4
TYPE F F F
COUNT 1 1 1
WIDTH 1699
HEIGHT 1
VIEWPOINT 0 0 0 1 0 0 0
POINTS 1699
DATA ascii
1.0842022e-19 2.9023755 -2
2.6043804 3.6893488e+19 -1.9002241
1.0842022e-19 2.8857977 -3.6893488e+19
2.6400447 3.6893488e+19 -1.9097817
-0 2.7936351 1.0842022e-19
2.5697489 1.0842022e-19 -1.8829241
-2 2.7889986 1.0842022e-19
2.5258987 -3.6893488e+19 -1.8862695
3.6893488e+19 2.7744 1.0842022e-19
2.5488031 -1.0842022e-19 -1.8916883
1.0842022e-19 2.7656319 1.0842022e-19
2.5035911 -2 -1.891721
1.0842022e-19 2.6643581 3.6893488e+19
2.4512079 3.6893488e+19 -1.8653661
-3.6893488e+19 2.5965967 -2
2.3774204 1.0842022e-19 -1.8481642
0 2.5851321 3.6893488e+19
2.3199408 0 -1.8454087
0 2.548368 0
2.3249025 -1.0842022e-19 -1.8361632
-2 2.5379517 1.0842022e-19
2.2748992 0 -1.8322794
-0 2.5123188 -3.6893488e+19
2.2856474 3.6893488e+19 -1.8274156
2 2.5072169 1.0842022e-19
2.2411151 -2 -1.8261659
0 2.4689977 -1.0842022e-19
2.2553532 -2 -1.8209563
2 2.4662657 -3.6893488e+19
2.1951301 -1.0842022e-19 -1.8218567
-1.0842022e-19 2.4260783 -2
2.2139704 -2 -1.8166758
2 2.4217293 2
2.1526127 -3.6893488e+19 -1.8162127
2 3.0449498 2
2.7981968 -0 2.5535481
1.0842022e-19 3.0810204 1.0842022e-19
2.7915366 0 2.5769017
3.6893488e+19 3.0347426 0
2.7878773 -1.0842022e-19 2.5336933
3.6893488e+19 3.0812263 2
2.791718 0 2.5665135
-1.0842022e-19 3.0380671 -2
2.7912383 -3.6893488e+19 2.5275738
1.0842022e-19 3.0853608 -1.0842022e-19
2.7953591 0 2.5597751
-2 3.0363073 -1.0842022e-19
2.7894592 -0 2.5165322
-0 3.0528364 -2
2.7667143 -3.6893488e+19 2.5201061
3.6893488e+19 3.0512114 -1.0842022e-19
2.7652831 0 2.5091116
-2 3.0355477 -1.0842022e-19
2.7886913 1.0842022e-19 2.4945285
1.0842022e-19 3.0542026 -3.6893488e+19
2.7679174 -3.6893488e+19 2.502069
3.6893488e+19 3.0347464 1.0842022e-19
2.7878811 -2 2.474709
-0 3.038156 -3.6893488e+19
2.7913282 2 2.461786
-2 3.0406148 -2
2.8164599 2 2.463738
0 3.0421319 -1.0842022e-19
2.7788897 3.6893488e+19 2.4443619
-0 3.0368757 -3.6893488e+19
2.8123882 -3.6893488e+19 2.4390166
3.6893488e+19 3.0467041 -2
2.7832546 0 2.4324622
-3.6893488e+19 3.0351994 -3.6893488e+19
2.8105628 0 2.4178538
-1.0842022e-19 3.0479283 2
2.7844236 3.6893488e+19 2.4153612
-0 3.0351055 -0
2.8104606 -0 2.3991623
-1.0842022e-19 3.0165377 3.6893488e+19
2.7544558 -3.6893488e+19 2.3547354
-3.6893488e+19 3.035594 0
2.8109927 -3.6893488e+19 2.3813043
-3.6893488e+19 3.0163076 3.6893488e+19
2.7542362 -3.6893488e+19 2.3376172
0 3.0292466 -0
2.8040805 -2 2.354733
1.0842022e-19 3.0165668 3.6893488e+19
2.7544835 -1.0842022e-19 2.3211539
0 3.0322049 -3.6893488e+19
2.8073018 -3.6893488e+19 2.3402419
3.6893488e+19 3.0145192 -3.6893488e+19
2.7525287 3.6893488e+19 2.3020527
0 3.0316687 -3.6893488e+19
2.8067179 -1.0842022e-19 2.3214111
3.6893488e+19 3.016598 -1.0842022e-19
2.7545133 3.6893488e+19 2.2876947
0 3.0276587 0
2.7390797 3.6893488e+19 2.2868807
1.0842022e-19 3.0346127 -2
2.7877457 1.0842022e-19 2.2925427
-0 3.0290177 0
2.7414737 -3.6893488e+19 2.2710571
1.0842022e-19 3.0384657 -1.0842022e-19
2.7916412 2 2.2782562
-0 3.0203519 -2
2.7262092 -1.0842022e-19 2.2419438
-3.6893488e+19 3.0128682 -0
2.7657621 -3.6893488e+19 2.2239172
2 3.0228188 1.0842022e-19
2.7305546 -0 2.2128503
0 3.0045493 -0
2.7573514 3.6893488e+19 2.1768093
3.6893488e+19 3.0216579 -2
2.7285097 0 2.1774802
3.6893488e+19 2.9986928 0
2.7520914 3.6893488e+19 2.136667
-1.0842022e-19 3.0209382 3.6893488e+19
2.727242 3.6893488e+19 2.1430836
-1.0842022e-19 2.9945331 1.0842022e-19
2.7499774 -1.0842022e-19 2.1023288
1.0842022e-19 3.0236835 -0
2.7320776 1.0842022e-19 2.1134977
-2 2.983891 -3.6893488e+19
2.739218 -3.6893488e+19 2.0643313
-1.0842022e-19 3.1050239 -3.6893488e+19
2.8126769 1.0842022e-19 2.1780405
3.6893488e+19 2.9802277 3.6893488e+19
2.7355144 -3.6893488e+19 2.0317967
3.6893488e+19 2.9065683 1.0842022e-19
2.6927254 -2 1.9794697
3.6893488e+19 2.9908891 -0
2.7186375 3.6893488e+19 2.0044105
0 2.9003763 0
2.6859827 -2 1.9504668
1.0842022e-19 2.9905703 -3.6893488e+19
2.718333 -3.6893488e+19 1.9738351
1.0842022e-19 2.8754086 0
2.6587946 3.6893488e+19 1.9140619
3.6893488e+19 2.9902272 3.6893488e+19
2.7180057 -2 1.9433174
1.0842022e-19 2.8821614 -2
2.6661477 -3.6893488e+19 1.8926955
3.6893488e+19 2.9923401 -1.0842022e-19
2.7200227 1.0842022e-19 1.9136716
0 2.8837974 -3.6893488e+19
2.6679292 -1.0842022e-19 1.8628074
-2 2.9926822 -3.6893488e+19
2.7203493 3.6893488e+19 1.883307
1.0842022e-19 2.8754838 0
2.6588764 3.6893488e+19 1.8099211
0 2.9937339 2
2.7213533 3.6893488e+19 1.8311102
-0 2.8769722 -0
2.6604972 -3.6893488e+19 1.7627573
-0 2.9941976 -1.0842022e-19
2.721796 1.0842022e-19 1.7702057
-2 2.8782232 3.6893488e+19
2.6618595 1.0842022e-19 1.6803256
-0 2.9912534 3.6893488e+19
2.7189853 3.6893488e+19 1.6672174
-1.0842022e-19 2.9854929 -1.0842022e-19
2.7408376 -1.0842022e-19 1.4329605
1.0842022e-19 3.0032225 -1.0842022e-19
2.6960366 -0 -1.2430006
-0 2.9909563 -2
2.746361 -2 -1.5279032
2 2.9934952 -2
2.7489278 1.0842022e-19 -1.7002196
2 2.9641809 0
2.658814 1.0842022e-19 -1.7402223
3.6893488e+19 2.9967346 2
2.7511015 1.0842022e-19 -1.7878559
0 2.9617772 3.6893488e+19
2.6566968 -0 -1.8007809
1.0842022e-19 2.9654334 -3.6893488e+19
2.720557 -0 -1.8357962
-0 2.964669 1.0842022e-19
2.6592438 -1.0842022e-19 -1.8585542
-1.0842022e-19 2.966455 -1.0842022e-19
2.72159 3.6893488e+19 -1.8847992
3.6893488e+19 2.9091735 0
2.6103678 3.6893488e+19 -1.8777925
1.0842022e-19 2.9023755 -2
2.6043804 3.6893488e+19 -1.9002241
2 2.8115244 -0
2.5649538 -0 -1.8790207
-0 2.7936351 1.0842022e-19
2.5697489 1.0842022e-19 -1.8829241
-2 2.7889986 1.0842022e-19
2.5258987 -3.6893488e+19 -1.8862695
3.6893488e+19 2.7744 1.0842022e-19
2.5488031 -1.0842022e-19 -1.8916883
1.0842022e-19 2.7656319 1.0842022e-19
2.5035911 -2 -1.891721
1.0842022e-19 2.6643581 3.6893488e+19
2.4512079 3.6893488e+19 -1.8653661
-3.6893488e+19 2.5965967 -2
2.3774204 1.0842022e-19 -1.8481642
0 2.5851321 3.6893488e+19
2.3199408 0 -1.8454087
0 2.548368 0
2.3249025 -1.0842022e-19 -1.8361632
-2 2.5379517 1.0842022e-19
2.2748992 0 -1.8322794
-0 2.5123188 -3.6893488e+19
2.2856474 3.6893488e+19 -1.8274156
2 2.5072169 1.0842022e-19
2.2411151 -2 -1.8261659
0 2.4689977 -1.0842022e-19
2.2553532 -2 -1.8209563
2 2.4662657 -3.6893488e+19
2.1951301 -1.0842022e-19 -1.8218567
-1.0842022e-19 2.4260783 -2
2.2139704 -2 -1.8166758
2 2.4217293 2
2.1526127 -3.6893488e+19 -1.8162127
-3.6893488e+19 3.0810659 3.6893488e+19
2.7895074 3.6893488e+19 2.576571
-2 3.0347371 2
2.7860005 -3.6893488e+19 2.5333135
-1.0842022e-19 3.0814955 0
2.7898831 1.0842022e-19 2.5664067
3.6893488e+19 3.0361271 -3.6893488e+19
2.7873964 1.0842022e-19 2.5253408
1.0842022e-19 3.0820208 0
2.7903423 -0 2.5563374
0 3.0366311 -2
2.7879026 2 2.5164814
1.0842022e-19 3.0846341 0
2.7926276 3.6893488e+19 2.5481241
-2 3.0519512 -0
2.7640474 3.6893488e+19 2.5094495
-0 3.0371864 -1.0842022e-19
2.7884605 -3.6893488e+19 2.4967098
-3.6893488e+19 3.0352049 1.0842022e-19
2.7864704 0 2.4748464
2 3.0376022 1.0842022e-19
2.7888782 1.0842022e-19 2.4602902
-2 3.0421622 0
2.777041 3.6893488e+19 2.4438546
-1.0842022e-19 3.0369046 1.0842022e-19
2.810473 -0 2.4384367
2 3.0497212 -0
2.7842085 0 2.4363155
1.0842022e-19 3.0371523 1.0842022e-19
2.8107409 -1.0842022e-19 2.4201167
-1.0842022e-19 3.0482442 -0
2.7828081 -1.0842022e-19 2.4152834
2 3.0352669 -1.0842022e-19
2.8087006 -3.6893488e+19 2.3988204
-3.6893488e+19 3.0504069 3.6893488e+19
2.7848589 0 2.3993142
3.6893488e+19 3.036191 1.0842022e-19
2.8097007 3.6893488e+19 2.3815582
-2 3.0563326 -3.6893488e+19
2.7904778 -1.0842022e-19 2.3878758
0 3.0352244 -1.0842022e-19
2.8086545 2 2.3618119
-1.0842022e-19 3.0590928 -0
2.7930951 -2 2.3719244
-0 3.0322795 -0
2.8054678 -2 2.3398483
3.6893488e+19 3.0149052 -2
2.7511945 2 2.3021166
-2 3.0317967 3.6893488e+19
2.8049455 2 2.3211005
-0 3.0165942 1.0842022e-19
2.7527962 -2 2.2873321
-0 3.0479393 -1.0842022e-19
2.7605391 1.0842022e-19 2.3074813
1.0842022e-19 3.034961 -3.6893488e+19
2.7862251 -2 2.2925141
-0 3.0277166 0
2.7357101 1.0842022e-19 2.2694833
-2 3.0361812 1.0842022e-19
2.787451 1.0842022e-19 2.2756884
1.0842022e-19 3.0288365 0
2.7376685 -2 2.2533996
-3.6893488e+19 3.0372503 2
2.7885249 0 2.2585959
3.6893488e+19 3.0523155 3.6893488e+19
2.7643659 -0 2.2561517
-2 3.0363047 -0
2.787575 3.6893488e+19 2.2294214
-1.0842022e-19 3.0498605 1.0842022e-19
2.7622192 -1.0842022e-19 2.2213173
3.6893488e+19 2.991339 -1.0842022e-19
2.7435188 -0 2.1304624
0 3.0610273 2
2.7719841 -0 2.200727
1.0842022e-19 3.0419953 -2
2.7932906 -0 2.1655135
2 3.10728 -3.6893488e+19
2.8124306 1.0842022e-19 2.2239826
-1.0842022e-19 2.9873714 0
2.7395339 3.6893488e+19 2.0661745
0 3.1061752 3.6893488e+19
2.8114645 -0 2.1789348
1.0842022e-19 3.0584464 -3.6893488e+19
2.8337841 3.6893488e+19 2.0976832
3.6893488e+19 3.0480411 3.6893488e+19
2.7826154 -2 2.0585434
-3.6893488e+19 3.0584073 2
2.8337421 -0 2.0583978
-0 3.071279 -3.6893488e+19
2.8046505 -3.6893488e+19 2.0428181
0 3.0579417 -3.6893488e+19
2.8332379 2 2.0187721
-1.0842022e-19 3.0502014 -2
2.7846639 0 1.9864695
-0 3.0589159 0
2.8342924 -2 1.9803649
-0 3.0529397 1.0842022e-19
2.7872605 3.6893488e+19 1.9511652
-1.0842022e-19 3.0604525 -1.0842022e-19
2.8359551 -3.6893488e+19 1.9420882
1.0842022e-19 3.0527294 3.6893488e+19
2.787061 0 1.9136173
-1.0842022e-19 3.039885 1.0842022e-19
2.8136983 -1.0842022e-19 1.8925619
3.6893488e+19 3.0736477 -1.0842022e-19
2.8068967 -0 1.8849391
-0 2.8797071 1.0842022e-19
2.6608989 2 1.7635596
-1.0842022e-19 3.0727048 -1.0842022e-19
2.8060026 3.6893488e+19 1.8143988
-3.6893488e+19 3.0437586 0
2.8178902 3.6893488e+19 1.7648563
-0 2.9937298 -1.0842022e-19
2.7181759 0 1.667851
-3.6893488e+19 3.0751467 -3.6893488e+19
2.7843311 0 1.6388627
0 2.9851851 -1.0842022e-19
2.7373376 -3.6893488e+19 1.4326031
-0 3.0002496 2
2.6876719 -1.0842022e-19 -1.2398719
-3.6893488e+19 2.9902086 0
2.7423837 -2 -1.5274689
1.0842022e-19 3.0011785 2
2.7522929 2 -1.703546
-2 3.0054901 -0
2.6968372 2 -1.757069
2 3.0003428 -2
2.7514534 -0 -1.7889346
1.0842022e-19 2.9669459 -1.0842022e-19
2.6583302 -1.0842022e-19 -1.8025441
2 3.0001373 -3.6893488e+19
2.7512469 -2 -1.851277
-3.6893488e+19 2.9626276 -3.6893488e+19
2.6545541 3.6893488e+19 -1.8572611
-1.0842022e-19 3.001092 0
2.7522061 1.0842022e-19 -1.894933
-1.0842022e-19 2.9121623 1.0842022e-19
2.6104238 -3.6893488e+19 -1.8785779
-0 2.934809 -2
2.686738 1.0842022e-19 -1.9026606
0 2.9028385 -1.0842022e-19
2.6022701 3.6893488e+19 -1.9002241
1.0842022e-19 2.8855822 2
2.6372929 -2 -1.9094816
-0 2.7926257 2
2.566664 2 -1.8822788
0 2.7902052 1.0842022e-19
2.5251851 -2 -1.8866678
-2 2.7777541 -0
2.5505707 2 -1.8932165
2 2.7663579 2
2.5025721 -0 -1.8919313
1.0842022e-19 2.65255 1.0842022e-19
2.4356182 -1.0842022e-19 -1.8581843
2 2.5967612 3.6893488e+19
2.3752465 -1.0842022e-19 -1.8479526
-1.0842022e-19 2.5867891 1.0842022e-19
2.3193581 2 -1.8462225
0 2.5493407 -0
2.3239305 -1.0842022e-19 -1.8365505
3.6893488e+19 2.5381985 1.0842022e-19
2.2732823 1.0842022e-19 -1.8321985
-1.0842022e-19 2.5126922 -3.6893488e+19
2.2842715 3.6893488e+19 -1.8274156
1.0842022e-19 2.5075378 -1.0842022e-19
2.2384169 -2 -1.8261659
0 2.4696653 -2
2.2541232 -2 -1.8209563
2 2.4670722 3.6893488e+19
2.192898 0 -1.8219516
3.6893488e+19 2.4314988 -1.0842022e-19
2.2169449 1.0842022e-19 -1.8188384
0 2.4258511 -1.0842022e-19
2.1538103 2 -1.8178409
-3.6893488e+19 2.3848989 -3.6893488e+19
2.0865827 -1.0842022e-19 -1.8146625
3.6893488e+19 2.334264 1.0842022e-19
2.042304 0 -1.8103502
0 2.2946281 -0
2.0076435 0 -1.8066278
-0 2.262105 3.6893488e+19
1.9792031 1.0842022e-19 -1.8028831
1.0842022e-19 2.1991596 -0
1.9930283 -2 -1.7983991
1.0842022e-19 2.1595619 0
1.971603 -0 -1.796504
-1.0842022e-19 2.125258 2
1.9530421 3.6893488e+19 -1.7944726
-3.6893488e+19 3.0810659 3.6893488e+19
2.7895074 3.6893488e+19 2.576571
-2 3.0347371 2
2.7860005 -3.6893488e+19 2.5333135
-1.0842022e-19 3.0814955 0
2.7898831 1.0842022e-19 2.5664067
3.6893488e+19 3.0361271 -3.6893488e+19
2.7873964 1.0842022e-19 2.5253408
1.0842022e-19 3.0820208 0
2.7903423 -0 2.5563374
0 3.0366311 -2
2.7879026 2 2.5164814
1.0842022e-19 3.0846341 0
2.7926276 3.6893488e+19 2.5481241
-2 3.0519512 -0
2.7640474 3.6893488e+19 2.5094495
-0 3.0371864 -1.0842022e-19
2.7884605 -3.6893488e+19 2.4967098
-3.6893488e+19 3.0352049 1.0842022e-19
2.7864704 0 2.4748464
2 3.0376022 1.0842022e-19
2.7888782 1.0842022e-19 2.4602902
-2 3.0421622 0
2.777041 3.6893488e+19 2.4438546
-1.0842022e-19 3.0369046 1.0842022e-19
2.810473 -0 2.4384367
2 3.0497212 -0
2.7842085 0 2.4363155
1.0842022e-19 3.0371523 1.0842022e-19
2.8107409 -1.0842022e-19 2.4201167
-1.0842022e-19 3.0482442 -0
2.7828081 -1.0842022e-19 2.4152834
2 3.0352669 -1.0842022e-19
2.8087006 -3.6893488e+19 2.3988204
2 3.0156975 -0
2.7519457 2 2.3531766
3.6893488e+19 3.036191 1.0842022e-19
2.8097007 3.6893488e+19 2.3815582
0 3.0170593 -2
2.753237 -1.0842022e-19 2.3381481
0 3.0352244 -1.0842022e-19
2.8086545 2 2.3618119
-1.0842022e-19 3.0172629 0
2.7534304 2 2.3215916
-0 3.0322795 -0
2.8054678 -2 2.3398483
3.6893488e+19 3.0149052 -2
2.7511945 2 2.3021166
-2 3.0317967 3.6893488e+19
2.8049455 2 2.3211005
-0 3.0165942 1.0842022e-19
2.7527962 -2 2.2873321
-1.0842022e-19 3.0278075 3.6893488e+19
2.7358689 -3.6893488e+19 2.2867045
1.0842022e-19 3.034961 -3.6893488e+19
2.7862251 -2 2.2925141
-0 3.0277166 0
2.7357101 1.0842022e-19 2.2694833
-2 3.0361812 1.0842022e-19
2.787451 1.0842022e-19 2.2756884
1.0842022e-19 3.0288365 0
2.7376685 -2 2.2533996
-2 3.0118818 0
2.7630439 -2 2.2215159
3.6893488e+19 3.0261536 -1.0842022e-19
2.7329762 -2 2.2179694
-2 3.0363047 -0
2.787575 3.6893488e+19 2.2294214
-3.6893488e+19 3.0203164 2
2.7227676 -2 2.1748803
3.6893488e+19 2.991339 -1.0842022e-19
2.7435188 -0 2.1304624
2 3.022049 -2
2.7257974 -1.0842022e-19 2.1442413
0 2.9929039 2
2.7450907 3.6893488e+19 2.1007047
-3.6893488e+19 3.0230846 2
2.7276092 -0 2.1122856
-1.0842022e-19 2.9873714 0
2.7395339 3.6893488e+19 2.0661745
0 3.1061752 3.6893488e+19
2.8114645 -0 2.1789348
1.0842022e-19 2.9175713 -1.0842022e-19
2.7018733 -2 1.9853448
1.0842022e-19 2.9908814 -1.0842022e-19
2.7154748 1.0842022e-19 2.0040896
3.6893488e+19 2.9038002 2
2.6869712 3.6893488e+19 1.9518938
-0 2.9901106 3.6893488e+19
2.7147441 3.6893488e+19 1.9733468
-2 2.8990035 -3.6893488e+19
2.6817803 -2 1.9241256
-3.6893488e+19 2.9924748 -0
2.7169859 2 1.9439619
3.6893488e+19 2.8958869 -1.0842022e-19
2.6784077 -3.6893488e+19 1.8976104
-2 2.9919384 -2
2.7164772 -2 1.9133343
2 2.8870356 -2
2.6688292 -2 1.864473
0 2.9930148 -0
2.7174978 -0 1.8832307
-0 2.8789854 3.6893488e+19
2.6601179 -0 1.8113804
2 2.9912446 0
2.7158194 -3.6893488e+19 1.8298155
-0 2.8797071 1.0842022e-19
2.6608989 2 1.7635596
2 2.9962258 -0
2.7205427 1.0842022e-19 1.77062
-1.0842022e-19 2.8791463 0
2.6602921 -2 1.6805087
-0 2.9937298 -1.0842022e-19
2.7181759 0 1.667851
-0 3.0028505 -0
2.6922207 -3.6893488e+19 1.5909733
0 2.9851851 -1.0842022e-19
2.7373376 -3.6893488e+19 1.4326031
-0 3.0002496 2
2.6876719 -1.0842022e-19 -1.2398719
-3.6893488e+19 2.9902086 0
2.7423837 -2 -1.5274689
1.0842022e-19 3.0011785 2
2.7522929 2 -1.703546
-2 3.0054901 -0
2.6968372 2 -1.757069
2 3.0003428 -2
2.7514534 -0 -1.7889346
1.0842022e-19 2.9669459 -1.0842022e-19
2.6583302 -1.0842022e-19 -1.8025441
0 2.9333854 -2
2.685308 0 -1.8210226
1.0842022e-19 2.9186089 -0
2.616061 -0 -1.8351614
1.0842022e-19 2.9346941 2
2.6866226 -3.6893488e+19 -1.8754549
-1.0842022e-19 2.9121623 1.0842022e-19
2.6104238 -3.6893488e+19 -1.8785779
-0 2.934809 -2
2.686738 1.0842022e-19 -1.9026606
0 2.9028385 -1.0842022e-19
2.6022701 3.6893488e+19 -1.9002241
2 2.8142235 -0
2.5656176 3.6893488e+19 -1.8799669
-0 2.7926257 2
2.566664 2 -1.8822788
0 2.7902052 1.0842022e-19
2.5251851 -2 -1.8866678
-2 2.7777541 -0
2.5505707 2 -1.8932165
2 2.7663579 2
2.5025721 -0 -1.8919313
1.0842022e-19 2.65255 1.0842022e-19
2.4356182 -1.0842022e-19 -1.8581843
2 2.5967612 3.6893488e+19
2.3752465 -1.0842022e-19 -1.8479526
-1.0842022e-19 2.5867891 1.0842022e-19
2.3193581 2 -1.8462225
0 2.5493407 -0
2.3239305 -1.0842022e-19 -1.8365505
3.6893488e+19 2.5381985 1.0842022e-19
2.2732823 1.0842022e-19 -1.8321985
-1.0842022e-19 2.5126922 -3.6893488e+19
2.2842715 3.6893488e+19 -1.8274156
1.0842022e-19 2.5075378 -1.0842022e-19
2.2384169 -2 -1.8261659
0 2.4696653 -2
2.2541232 -2 -1.8209563
2 2.4670722 3.6893488e+19
2.192898 0 -1.8219516
3.6893488e+19 2.4314988 -1.0842022e-19
2.2169449 1.0842022e-19 -1.8188384
0 2.4258511 -1.0842022e-19
2.1538103 2 -1.8178409
-3.6893488e+19 2.3848989 -3.6893488e+19
2.0865827 -1.0842022e-19 -1.8146625
3.6893488e+19 2.334264 1.0842022e-19
2.042304 0 -1.8103502
0 2.2946281 -0
2.0076435 0 -1.8066278
-0 2.262105 3.6893488e+19
1.9792031 1.0842022e-19 -1.8028831
1.0842022e-19 2.1991596 -0
1.9930283 -2 -1.7983991
1.0842022e-19 2.1595619 0
1.971603 -0 -1.796504
-1.0842022e-19 2.125258 2
1.9530421 3.6893488e+19 -1.7944726
1.0842022e-19 3.0817521 2
2.7880373 -0 2.576874
-3.6893488e+19 3.0348654 -3.6893488e+19
2.784261 0 2.5330696
-3.6893488e+19 3.0817623 2
2.7880464 1.0842022e-19 2.5662999
0 3.0363116 2
2.7857041 -2 2.5251567
-3.6893488e+19 3.0824842 2
2.7886732 -2 2.5564148
-3.6893488e+19 3.0368705 1.0842022e-19
2.786262 1.0842022e-19 2.5163543
-2 3.0845389 -0
2.790457 2 2.5476992
-3.6893488e+19 3.0935569 -1.0842022e-19
2.7982867 -2 2.5448618
-2 3.0388265 -0
2.7882137 -0 2.4988914
-0 3.0382187 -2
2.7876072 -1.0842022e-19 2.4792345
-2 3.0355575 -1.0842022e-19
2.7849517 1.0842022e-19 2.4564185
0 3.0425246 -2
2.7755077 3.6893488e+19 2.4438546
-1.0842022e-19 3.0371749 1.0842022e-19
2.8088214 0 2.4382298
-1.0842022e-19 3.0378304 2
2.8095262 -2 2.4205136
3.6893488e+19 3.0551214 -0
2.7873719 3.6893488e+19 2.4243333
-3.6893488e+19 3.0351808 -3.6893488e+19
2.8066769 -1.0842022e-19 2.3981369
-3.6893488e+19 3.0492976 0
2.7818871 -3.6893488e+19 2.3973467
0 3.0366778 2
2.8082867 -1.0842022e-19 2.3816669
-2 3.0562086 -1.0842022e-19
2.7883959 -1.0842022e-19 2.3872387
-2 3.0351918 1.0842022e-19
2.8066888 0 2.3612595
3.6893488e+19 3.0589437 0
2.790972 -2 2.3712847
0 3.0315058 1.0842022e-19
2.8027248 3.6893488e+19 2.3384378
-1.0842022e-19 3.0163271 2
2.7508345 -2 2.3033621
2 3.031431 -2
2.8026443 -2 2.3202302
2 3.074177 1.0842022e-19
2.8053191 -0 2.3489616
-0 3.0473974 -2
2.7582095 -0 2.3065715
-2 3.0351684 1.0842022e-19
2.7845635 0 2.2923434
-3.6893488e+19 3.0284898 -2
2.733587 2 2.2699251
-2 3.0357509 -3.6893488e+19
2.7851446 -2 2.2749126
-1.0842022e-19 3.0285563 -2
2.7337024 2 2.2528563
0 3.0362089 0
2.7856016 2 2.2573202
-2 3.0516338 -0
2.7618878 3.6893488e+19 2.2552824
3.6893488e+19 3.0360126 2
2.7854059 -0 2.2283039
0 3.0506887 2
2.7610672 -2 2.2220793
-3.6893488e+19 2.9850752 2
2.7340462 -3.6893488e+19 2.1251194
3.6893488e+19 3.0220742 -0
2.7224464 2 2.1438279
1.0842022e-19 3.0399258 1.0842022e-19
2.7893107 -3.6893488e+19 2.1620274
-3.6893488e+19 2.9875653 1.0842022e-19
2.736531 -2 2.0658853
1.0842022e-19 2.9882464 2
2.7372105 -1.0842022e-19 2.0357487
0 3.0591028 0
2.832402 0 2.0979307
1.0842022e-19 3.0500476 3.6893488e+19
2.7825933 -3.6893488e+19 2.060236
-0 3.0593386 1.0842022e-19
2.8326557 2 2.0588918
-1.0842022e-19 3.0739079 1.0842022e-19
2.8050656 1.0842022e-19 2.0448487
-3.6893488e+19 3.0585423 -2
2.8317993 1.0842022e-19 2.0189159
3.6893488e+19 3.0528049 -2
2.7851901 -1.0842022e-19 1.9882249
1.0842022e-19 2.9004073 3.6893488e+19
2.6805887 -1.0842022e-19 1.8990849
3.6893488e+19 3.0523264 -0
2.7847395 1.0842022e-19 1.9505094
-3.6893488e+19 3.0412238 -0
2.8131754 -0 1.9299362
3.6893488e+19 3.0554783 -0
2.787708 -2 1.9148985
-0 3.0405705 3.6893488e+19
2.8124728 1.0842022e-19 1.8926971
3.6893488e+19 3.0691028 3.6893488e+19
2.80054 -2 1.8828794
-2 2.8883348 2
2.6676064 3.6893488e+19 1.7665076
-3.6893488e+19 3.0734158 -0
2.8046021 -0 1.814581
-1.0842022e-19 3.0427709 2
2.8148391 -3.6893488e+19 1.764189
-3.6893488e+19 3.0744348 -2
2.8055618 2 1.72032
0 3.0744293 3.6893488e+19
2.7816794 1.0842022e-19 1.6383981
-3.6893488e+19 3.1053207 -3.6893488e+19
2.8545668 -1.0842022e-19 1.5085523
-3.6893488e+19 3.0273664 -0
2.7316363 -0 -1.2577803
1.0842022e-19 3.1071084 2
2.8563507 -2 -1.5968504
0 3.0011015 1.0842022e-19
2.686028 0 -1.6371465
-2 2.9673076 0
2.655731 -3.6893488e+19 -1.8024788
-1.0842022e-19 2.9917629 -0
2.7407196 -3.6893488e+19 -1.8471353
-3.6893488e+19 2.9612653 3.6893488e+19
2.6504848 0 -1.8563128
2 2.9907701 -3.6893488e+19
2.7397287 3.6893488e+19 -1.891453
-0 2.9593856 0
2.6488528 3.6893488e+19 -1.8931462
2 2.9124634 -2
2.6081133 -1.0842022e-19 -1.9036378
-0 2.8924572 1.0842022e-19
2.6416247 -3.6893488e+19 -1.9121124
2 2.7922702 -0
2.5643005 -1.0842022e-19 -1.8819313
-3.6893488e+19 2.7972276 1.0842022e-19
2.5299375 3.6893488e+19 -1.8898017
3.6893488e+19 2.7761137 -3.6893488e+19
2.5469263 1.0842022e-19 -1.8921695
-0 2.7683249 -2
2.5027158 -3.6893488e+19 -1.8928024
0 2.6669636 -0
2.4483929 2 -1.8661923
2 2.5968127 -0
2.3729544 -2 -1.8476706
-1.0842022e-19 2.5866427 0
2.3170598 -3.6893488e+19 -1.8458525
2 2.5481179 3.6893488e+19
2.3205891 -0 -1.8353885
1.0842022e-19 2.5379922 -2
2.271239 3.6893488e+19 -1.8317938
-3.6893488e+19 2.5128446 1.0842022e-19
2.2826571 3.6893488e+19 -1.8272468
-3.6893488e+19 2.507519 2
2.2350776 1.0842022e-19 -1.8259023
-1.0842022e-19 2.4705491 2
2.2530088 0 -1.8210478
2 2.4678764 -2
2.190659 3.6893488e+19 -1.8220464
-1.0842022e-19 2.4312329 -0
2.213738 -3.6893488e+19 -1.8184451
1.0842022e-19 2.426604 -2
2.1517875 0 -1.8179427
1.0842022e-19 3.0817521 2
2.7880373 -0 2.576874
-3.6893488e+19 3.0348654 -3.6893488e+19
2.784261 0 2.5330696
-3.6893488e+19 3.0817623 2
2.7880464 1.0842022e-19 2.5662999
0 3.0363116 2
2.7857041 -2 2.5251567
-3.6893488e+19 3.0824842 2
2.7886732 -2 2.5564148
-3.6893488e+19 3.0368705 1.0842022e-19
2.786262 1.0842022e-19 2.5163543
-2 3.0845389 -0
2.790457 2 2.5476992
3.6893488e+19 3.0523808 3.6893488e+19
2.7625363 1.0842022e-19 2.509522
-2 3.0388265 -0
2.7882137 -0 2.4988914
-0 3.0382187 -2
2.7876072 -1.0842022e-19 2.4792345
-2 3.0355575 -1.0842022e-19
2.7849517 1.0842022e-19 2.4564185
0 3.0425246 -2
2.7755077 3.6893488e+19 2.4438546
-1.0842022e-19 3.0371749 1.0842022e-19
2.8088214 0 2.4382298
-1.0842022e-19 3.0378304 2
2.8095262 -2 2.4205136
3.6893488e+19 3.0551214 -0
2.7873719 3.6893488e+19 2.4243333
-3.6893488e+19 3.0351808 -3.6893488e+19
2.8066769 -1.0842022e-19 2.3981369
-3.6893488e+19 3.0492976 0
2.7818871 -3.6893488e+19 2.3973467
0 3.0366778 2
2.8082867 -1.0842022e-19 2.3816669
-2 3.0562086 -1.0842022e-19
2.7883959 -1.0842022e-19 2.3872387
-2 3.0351918 1.0842022e-19
2.8066888 0 2.3612595
3.6893488e+19 3.0589437 0
2.790972 -2 2.3712847
0 3.0315058 1.0842022e-19
2.8027248 3.6893488e+19 2.3384378
-1.0842022e-19 3.0163271 2
2.7508345 -2 2.3033621
2 3.031431 -2
2.8026443 -2 2.3202302
2 3.074177 1.0842022e-19
2.8053191 -0 2.3489616
-3.6893488e+19 3.0285804 -1.0842022e-19
2.7337444 2 2.2871742
-2 3.0351684 1.0842022e-19
2.7845635 0 2.2923434
-3.6893488e+19 3.0284898 -2
2.733587 2 2.2699251
-2 3.0357509 -3.6893488e+19
2.7851446 -2 2.2749126
-1.0842022e-19 3.0285563 -2
2.7337024 2 2.2528563
3.6893488e+19 3.0181799 -3.6893488e+19
2.7676108 3.6893488e+19 2.2322221
-2 3.0516338 -0
2.7618878 3.6893488e+19 2.2552824
3.6893488e+19 3.0360126 2
2.7854059 -0 2.2283039
1.0842022e-19 3.0216248 -2
2.7216659 0 2.1764493
-3.6893488e+19 2.9850752 2
2.7340462 -3.6893488e+19 2.1251194
3.6893488e+19 3.0220742 -0
2.7224464 2 2.1438279
-3.6893488e+19 2.9870842 3.6893488e+19
2.7360508 -0 2.0961094
-3.6893488e+19 2.9875653 1.0842022e-19
2.736531 -2 2.0658853
1.0842022e-19 2.9882464 2
2.7372105 -1.0842022e-19 2.0357487
-1.0842022e-19 2.9130526 -2
2.6941872 3.6893488e+19 1.9824691
-2 2.9921107 3.6893488e+19
2.7134838 3.6893488e+19 2.0044105
-0 2.9015136 -0
2.6817784 -2 1.9504668
0 2.9907184 3.6893488e+19
2.7121723 3.6893488e+19 1.9733468
-0 2.8994033 3.6893488e+19
2.6795092 -2 1.9240537
-0 2.9916167 -1.0842022e-19
2.7130184 -3.6893488e+19 1.9433841
1.0842022e-19 2.9004073 3.6893488e+19
2.6805887 -1.0842022e-19 1.8990849
0 2.9921529 2
2.7135234 -0 1.9132031
-1.0842022e-19 2.8878033 1.0842022e-19
2.6670349 2 1.864609
-0 2.9923825 -2
2.7137396 -0 1.8828951
2 2.8814478 3.6893488e+19
2.6602001 -0 1.8123262
-1.0842022e-19 2.9911187 2
2.7125494 0 1.8295096
-2 2.8883348 2
2.6676064 3.6893488e+19 1.7665076
2 2.9949753 -3.6893488e+19
2.7161815 1.0842022e-19 1.7700732
-3.6893488e+19 2.8847468 0
2.663748 1.0842022e-19 1.6829163
-2 2.9906101 -0
2.7120705 -3.6893488e+19 1.6665838
-2 3.0036554 -1.0842022e-19
2.6904631 -1.0842022e-19 1.5914135
3.6893488e+19 2.980062 3.6893488e+19
2.7290435 -3.6893488e+19 1.430438
-0 3.0013096 0
2.6863897 -2 -1.2406129
-1.0842022e-19 2.9863226 -3.6893488e+19
2.7352908 2 -1.5260619
0 3.0011015 1.0842022e-19
2.686028 0 -1.6371465
-2 2.9673076 0
2.655731 -3.6893488e+19 -1.8024788
1.0842022e-19 2.9484346 -0
2.6974831 2 -1.8275634
1.0842022e-19 2.9324973 3.6893488e+19
2.6255074 -0 -1.8418862
0 2.9336441 1.0842022e-19
2.682724 2 -1.8749756
3.6893488e+19 2.9238632 3.6893488e+19
2.618011 3.6893488e+19 -1.8820772
2 2.9124634 -2
2.6081133 -1.0842022e-19 -1.9036378
-0 2.8236306 -0
2.5729439 -1.0842022e-19 -1.8836821
2 2.7922702 -0
2.5643005 -1.0842022e-19 -1.8819313
-3.6893488e+19 2.7972276 1.0842022e-19
2.5299375 3.6893488e+19 -1.8898017
3.6893488e+19 2.7761137 -3.6893488e+19
2.5469263 1.0842022e-19 -1.8921695
-0 2.7683249 -2
2.5027158 -3.6893488e+19 -1.8928024
0 2.6669636 -0
2.4483929 2 -1.8661923
2 2.5968127 -0
2.3729544 -2 -1.8476706
-1.0842022e-19 2.5866427 0
2.3170598 -3.6893488e+19 -1.8458525
2 2.5481179 3.6893488e+19
2.3205891 -0 -1.8353885
1.0842022e-19 2.5379922 -2
2.271239 3.6893488e+19 -1.8317938
-3.6893488e+19 2.5128446 1.0842022e-19
2.2826571 3.6893488e+19 -1.8272468
-3.6893488e+19 2.507519 2
2.2350776 1.0842022e-19 -1.8259023
-1.0842022e-19 2.4705491 2
2.2530088 0 -1.8210478
2 2.4678764 -2
2.190659 3.6893488e+19 -1.8220464
-1.0842022e-19 2.4312329 -0
2.213738 -3.6893488e+19 -1.8184451
1.0842022e-19 2.426604 -2
2.1517875 0 -1.8179427
3.6893488e+19 3.0829401 0
2.7869973 -0 2.577673
-1.0842022e-19 3.0376968 -0
2.7852056 1.0842022e-19 2.5355108
-2 3.0814939 3.6893488e+19
2.7857506 -0 2.5656857
-1.0842022e-19 3.0395591 -2
2.7870517 3.6893488e+19 2.5279155
-2 3.083451 -1.0842022e-19
2.7874377 3.6893488e+19 2.5569577
1.0842022e-19 3.0371625 3.6893488e+19
2.7846758 2 2.516278
0 3.0837376 0
2.7876847 3.6893488e+19 2.5466495
2 3.0375164 -1.0842022e-19
2.7850266 3.6893488e+19 2.5072863
0 3.0954673 1.0842022e-19
2.7977958 2 2.5461655
-1.0842022e-19 3.0394781 -2
2.7869713 -1.0842022e-19 2.4993656
-3.6893488e+19 3.0394754 0
2.7869689 -3.6893488e+19 2.4806972
-2 3.0360677 -3.6893488e+19
2.7835906 -2 2.4566383
1.0842022e-19 3.0429962 -3.6893488e+19
2.7740779 -3.6893488e+19 2.4440236
-3.6893488e+19 3.0428925 -0
2.7739811 -3.6893488e+19 2.4253232
3.6893488e+19 3.0368471 3.6893488e+19
2.8065333 2 2.418489
-2 3.0553291 3.6893488e+19
2.7856147 0 2.4241004
-3.6893488e+19 3.0364807 3.6893488e+19
2.8061419 3.6893488e+19 2.3993902
3.6893488e+19 3.049778 3.6893488e+19
2.780422 -0 2.3974953
-3.6893488e+19 3.0378442 -3.6893488e+19
2.8075988 -0 2.3826821
-0 3.0325899 0
2.8019841 3.6893488e+19 2.357461
2 3.058202 -3.6893488e+19
2.7883019 2 2.3699381
1.0842022e-19 3.0321474 2
2.801511 -2 2.338733
-3.6893488e+19 3.0676107 3.6893488e+19
2.7971034 2 2.3613327
2 3.0325103 -2
2.8018987 2 2.3210073
0 3.0470223 1.0842022e-19
2.7560358 -0 2.3058379
3.6893488e+19 3.0388784 2
2.786377 2 2.2957609
2 3.1470881 3.6893488e+19
2.8422933 0 2.3844397
2 3.0352328 -0
2.7827628 -2 2.2740567
2 3.0500233 3.6893488e+19
2.7586226 -0 2.2720339
-1.0842022e-19 3.0365541 0
2.7840729 2 2.2572951
3.6893488e+19 3.0506907 2
2.759198 -2 2.2541957
-0 3.0364692 0
2.7839887 2 2.2284436
-3.6893488e+19 3.0521729 -2
2.7604756 -3.6893488e+19 2.2238722
-3.6893488e+19 3.0358679 1.0842022e-19
2.7833927 2 2.1915605
3.6893488e+19 3.0516403 -1.0842022e-19
2.7600164 -1.0842022e-19 2.18613
3.6893488e+19 2.9898407 3.6893488e+19
2.735599 3.6893488e+19 2.0976148
0 3.0562429 3.6893488e+19
2.763984 1.0842022e-19 2.1553509
-3.6893488e+19 2.9929485 0
2.7386801 -1.0842022e-19 2.0689571
-2 3.0210395 0
2.7172771 3.6893488e+19 2.0756657
-0 3.0516334 1.0842022e-19
2.7990215 3.6893488e+19 2.1026053
-0 3.0469928 -3.6893488e+19
2.8173752 1.0842022e-19 2.0838304
2 3.050756 3.6893488e+19
2.7813368 -2 2.0605862
0 3.0476093 -3.6893488e+19
2.8180339 1.0842022e-19 2.0467622
-3.6893488e+19 3.0741651 3.6893488e+19
2.8032346 2 2.0447202
3.6893488e+19 2.8891177 3.6893488e+19
2.6658227 -1.0842022e-19 1.9193333
2 3.0527534 -0
2.7832053 -0 1.9878916
-0 3.0483041 3.6893488e+19
2.8187766 2 1.9718254
0 3.0539715 3.6893488e+19
2.7843447 2 1.9513526
-0 3.0413578 -3.6893488e+19
2.8113534 -2 1.9297662
-3.6893488e+19 3.0556278 -1.0842022e-19
2.7858942 0 1.9147766
-0 2.8843534 0
2.6607316 2 1.8134882
-2 3.0717876 1.0842022e-19
2.8010106 -3.6893488e+19 1.8838327
0 2.8911405 1.0842022e-19
2.6679842 0 1.7673299
3.6893488e+19 3.0723422 -1.0842022e-19
2.8015292 3.6893488e+19 1.8137194
-3.6893488e+19 3.0344734 -0
2.8039968 3.6893488e+19 1.7600545
2 3.0740416 3.6893488e+19
2.8031189 -3.6893488e+19 1.7197824
-0 3.0748832 2
2.7800522 -2 1.6384346
0 3.1057003 0
2.8526201 1.0842022e-19 1.5085208
1.0842022e-19 3.0230608 1.0842022e-19
2.7207615 1.0842022e-19 -1.255571
-1.0842022e-19 3.1076579 -0
2.8545609 -3.6893488e+19 -1.5969025
-2 3.0489945 2
2.757736 -2 -1.6631197
-3.6893488e+19 3.0006776 1.0842022e-19
2.6821728 -2 -1.7542866
1.0842022e-19 2.9514391 -3.6893488e+19
2.6975298 -0 -1.7724241
-2 2.9892986 -0
2.6717796 1.0842022e-19 -1.8106203
-1.0842022e-19 2.9480116 -3.6893488e+19
2.6941321 1.0842022e-19 -1.8271089
0 2.9657474 -2
2.6514781 -2 -1.8582956
-3.6893488e+19 2.9938166 -0
2.7395406 -0 -1.8921458
-1.0842022e-19 2.9618568 0
2.6481247 1.0842022e-19 -1.8937532
-0 2.9364514 -1.0842022e-19
2.682672 -0 -1.9028369
3.6893488e+19 2.9224503 -0
2.6141558 -1.0842022e-19 -1.9071795
0 2.8815577 -2
2.6282535 -1.0842022e-19 -1.9074048
-2 2.7922955 1.0842022e-19
2.5623558 2 -1.8817576
2 2.7943711 -1.0842022e-19
2.5253642 -1.0842022e-19 -1.8882879
-3.6893488e+19 2.7777126 3.6893488e+19
2.546772 3.6893488e+19 -1.892792
0 2.7715373 1.0842022e-19
2.5040047 0 -1.8943344
3.6893488e+19 2.6748114 -3.6893488e+19
2.4539659 -1.0842022e-19 -1.870387
2 2.5969703 -2
2.3707826 2 -1.8474591
1.0842022e-19 2.5862668 3.6893488e+19
2.3145547 3.6893488e+19 -1.8453346
-3.6893488e+19 2.5485368 -2
2.3190253 -0 -1.8353885
2 2.5378952 3.6893488e+19
2.2693064 -1.0842022e-19 -1.83147
2 2.5105777 3.6893488e+19
2.278461 3.6893488e+19 -1.8252209
1.0842022e-19 2.5077233 -0
2.2321653 -3.6893488e+19 -1.8258144
-2 2.4716496 3.6893488e+19
2.2520094 -1.0842022e-19 -1.8212304
1.0842022e-19 2.4691286 1.0842022e-19
2.188838 -2 -1.8223308
-2 2.4206481 -3.6893488e+19
2.199517 2 -1.8134321
0 2.4273543 1.0842022e-19
2.149761 -1.0842022e-19 -1.8180444
-0 2.390795 -3.6893488e+19
2.0868685 -1.0842022e-19 -1.81713
2 2.3352535 -3.6893488e+19
2.0389912 0 -1.8104762
-3.6893488e+19 2.2939353 -0
2.0033748 -1.0842022e-19 -1.8057888
-2 2.2602067 -1.0842022e-19
1.9743005 -0 -1.8011934
0 2.197819 2
1.9892763 -1.0842022e-19 -1.7973949
1.0842022e-19 2.1585495 -0
1.968294 -1.0842022e-19 -1.7955985
3.6893488e+19 2.1271825 -1.0842022e-19
1.9515342 -0 -1.7948622
3.6893488e+19 3.0829401 0
2.7869973 -0 2.577673
-1.0842022e-19 3.0376968 -0
2.7852056 1.0842022e-19 2.5355108
-2 3.0814939 3.6893488e+19
2.7857506 -0 2.5656857
-1.0842022e-19 3.0395591 -2
2.7870517 3.6893488e+19 2.5279155
-2 3.083451 -1.0842022e-19
2.7874377 3.6893488e+19 2.5569577
1.0842022e-19 3.0371625 3.6893488e+19
2.7846758 2 2.516278
0 3.0837376 0
2.7876847 3.6893488e+19 2.5466495
2 3.0375164 -1.0842022e-19
2.7850266 3.6893488e+19 2.5072863
0 3.0954673 1.0842022e-19
2.7977958 2 2.5461655
-1.0842022e-19 3.0394781 -2
2.7869713 -1.0842022e-19 2.4993656
-3.6893488e+19 3.0394754 0
2.7869689 -3.6893488e+19 2.4806972
-2 3.0360677 -3.6893488e+19
2.7835906 -2 2.4566383
1.0842022e-19 3.0429962 -3.6893488e+19
2.7740779 -3.6893488e+19 2.4440236
-3.6893488e+19 3.0428925 -0
2.7739811 -3.6893488e+19 2.4253232
3.6893488e+19 3.0368471 3.6893488e+19
2.8065333 2 2.418489
-2 3.0553291 3.6893488e+19
2.7856147 0 2.4241004
-3.6893488e+19 3.0364807 3.6893488e+19
2.8061419 3.6893488e+19 2.3993902
3.6893488e+19 3.049778 3.6893488e+19
2.780422 -0 2.3974953
-3.6893488e+19 3.0378442 -3.6893488e+19
2.8075988 -0 2.3826821
-0 3.0325899 0
2.8019841 3.6893488e+19 2.357461
-0 3.0234773 1.0842022e-19
2.7558196 2 2.3282578
1.0842022e-19 3.0321474 2
2.801511 -2 2.338733
-3.6893488e+19 3.0226629 1.0842022e-19
2.7550578 2 2.3101974
2 3.0325103 -2
2.8018987 2 2.3210073
0 3.0470223 1.0842022e-19
2.7560358 -0 2.3058379
3.6893488e+19 3.0388784 2
2.786377 2 2.2957609
-0 3.0296044 1.0842022e-19
2.732043 1.0842022e-19 2.2706983
2 3.0352328 -0
2.7827628 -2 2.2740567
2 3.0500233 3.6893488e+19
2.7586226 -0 2.2720339
2 3.0177774 -1.0842022e-19
2.7654586 -2 2.2308712
-3.6893488e+19 3.0289249 3.6893488e+19
2.7308717 -2 2.2215915
-0 3.0364692 0
2.7839887 2 2.2284436
-1.0842022e-19 3.0240765 2
2.7225127 2 2.179811
-1.0842022e-19 3.0013897 2
2.748426 -3.6893488e+19 2.1383042
3.6893488e+19 3.0516403 -1.0842022e-19
2.7600164 -1.0842022e-19 2.18613
3.6893488e+19 2.9898407 3.6893488e+19
2.735599 3.6893488e+19 2.0976148
0 3.0562429 3.6893488e+19
2.763984 1.0842022e-19 2.1553509
-3.6893488e+19 2.9929485 0
2.7386801 -1.0842022e-19 2.0689571
-2 3.0210395 0
2.7172771 3.6893488e+19 2.0756657
-1.0842022e-19 2.9897771 -3.6893488e+19
2.7355359 -0 2.0362713
1.0842022e-19 2.912863 1.0842022e-19
2.6911976 0 1.9820362
-2 2.9933946 0
2.7115374 2 2.0047607
3.6893488e+19 2.9089582 3.6893488e+19
2.6870248 2 1.9538971
3.6893488e+19 2.9935272 -3.6893488e+19
2.7116611 -2 1.9743491
3.6893488e+19 2.8891177 3.6893488e+19
2.6658227 -1.0842022e-19 1.9193333
2 2.9917128 0
2.709964 2 1.9431841
3.6893488e+19 2.8883021 -0
2.6649511 -0 1.8943748
-2 2.9926453 0
2.7108364 1.0842022e-19 1.9131657
2 2.8898361 -3.6893488e+19
2.6665902 2 1.8655268
2 2.9934978 -1.0842022e-19
2.7116337 1.0842022e-19 1.8830324
-0 2.8843534 0
2.6607316 2 1.8134882
3.6893488e+19 2.9860067 -0
2.7046263 2 1.8271321
0 2.8911405 1.0842022e-19
2.6679842 0 1.7673299
2 2.9916787 3.6893488e+19
2.7099321 1.0842022e-19 1.7689298
-3.6893488e+19 2.8904138 -3.6893488e+19
2.6672077 1.0842022e-19 1.6853499
0 2.9884968 -2
2.7069554 -2 1.6656623
1.0842022e-19 3.0258107 0
2.7255025 0 1.6100492
0 2.9886959 -0
2.7344639 1.0842022e-19 1.433444
1.0842022e-19 3.0230608 1.0842022e-19
2.7207615 1.0842022e-19 -1.255571
0 2.9969246 -2
2.7426214 -2 -1.5291539
0 3.0015011 -0
2.6835921 3.6893488e+19 -1.6372091
-3.6893488e+19 3.0006776 1.0842022e-19
2.6821728 -2 -1.7542866
1.0842022e-19 2.9514391 -3.6893488e+19
2.6975298 -0 -1.7724241
-2 2.9892986 -0
2.6717796 1.0842022e-19 -1.8106203
-1.0842022e-19 2.9480116 -3.6893488e+19
2.6941321 1.0842022e-19 -1.8271089
0 2.9283981 -1.0842022e-19
2.6192827 -2 -1.8395871
1.0842022e-19 2.9360006 -1.0842022e-19
2.682225 3.6893488e+19 -1.8755033
0 2.9279003 -2
2.6188536 -2 -1.8831841
-2 2.8215191 2
2.5687351 1.0842022e-19 -1.8501798
3.6893488e+19 2.9224503 -0
2.6141558 -1.0842022e-19 -1.9071795
-3.6893488e+19 2.8264019 0
2.5735757 0 -1.8846514
-2 2.7922955 1.0842022e-19
2.5623558 2 -1.8817576
2 2.7943711 -1.0842022e-19
2.5253642 -1.0842022e-19 -1.8882879
-3.6893488e+19 2.7777126 3.6893488e+19
2.546772 3.6893488e+19 -1.892792
0 2.7715373 1.0842022e-19
2.5040047 0 -1.8943344
3.6893488e+19 2.6748114 -3.6893488e+19
2.4539659 -1.0842022e-19 -1.870387
2 2.5969703 -2
2.3707826 2 -1.8474591
1.0842022e-19 2.5862668 3.6893488e+19
2.3145547 3.6893488e+19 -1.8453346
-3.6893488e+19 2.5485368 -2
2.3190253 -0 -1.8353885
2 2.5378952 3.6893488e+19
2.2693064 -1.0842022e-19 -1.83147
2 2.5105777 3.6893488e+19
2.278461 3.6893488e+19 -1.8252209
1.0842022e-19 2.5077233 -0
2.2321653 -3.6893488e+19 -1.8258144
-2 2.4716496 3.6893488e+19
2.2520094 -1.0842022e-19 -1.8212304
1.0842022e-19 2.4691286 1.0842022e-19
2.188838 -2 -1.8223308
-2 2.4206481 -3.6893488e+19
2.199517 2 -1.8134321
0 2.4273543 1.0842022e-19
2.149761 -1.0842022e-19 -1.8180444
-0 2.390795 -3.6893488e+19
2.0868685 -1.0842022e-19 -1.81713
2 2.3352535 -3.6893488e+19
2.0389912 0 -1.8104762
-3.6893488e+19 2.2939353 -0
2.0033748 -1.0842022e-19 -1.8057888
-2 2.2602067 -1.0842022e-19
1.9743005 -0 -1.8011934
0 2.197819 2
1.9892763 -1.0842022e-19 -1.7973949
1.0842022e-19 2.1585495 -0
1.968294 -1.0842022e-19 -1.7955985
3.6893488e+19 2.1271825 -1.0842022e-19
1.9515342 -0 -1.7948622
1.0842022e-19 3.0394382 -0
2.7850435 3.6893488e+19 2.5368669
-2 3.0819235 3.6893488e+19
2.7840593 -0 2.5657392
-0 3.0394411 -2
2.7850463 -3.6893488e+19 2.5274425
1.0842022e-19 3.0853729 3.6893488e+19
2.7870111 -3.6893488e+19 2.5583792
1.0842022e-19 3.0368485 3.6893488e+19
2.7824931 -2 2.5156424
-1.0842022e-19 3.0842824 3.6893488e+19
2.786078 3.6893488e+19 2.5467994
3.6893488e+19 3.0371468 -2
2.7827868 2 2.506623
-1.0842022e-19 3.0958846 1.0842022e-19
2.7960072 -0 2.5461895
2 3.0399635 1.0842022e-19
2.7855608 2 2.4995553
-2 3.0386379 1.0842022e-19
2.7842555 -3.6893488e+19 2.4786859
3.6893488e+19 3.0908082 2
2.7916627 -1.0842022e-19 2.5204256
-1.0842022e-19 3.0366042 -0
2.7822526 -3.6893488e+19 2.4569023
0 3.0601199 -0
2.8293154 0 2.49208
0 3.0436897 -0
2.7728519 -3.6893488e+19 2.444531
1.0842022e-19 3.0425797 -3.6893488e+19
2.7718205 0 2.42435
-3.6893488e+19 3.0568783 3.6893488e+19
2.785105 2 2.4257317
-1.0842022e-19 3.0392272 1.0842022e-19
2.8071299 -3.6893488e+19 2.4026563
-3.6893488e+19 3.0465009 -1.0842022e-19
2.7754638 -1.0842022e-19 2.3926699
1.0842022e-19 3.0450087 1.0842022e-19
2.7740774 -0 2.3721611
1.0842022e-19 3.0318642 1.0842022e-19
2.7993109 3.6893488e+19 2.3560452
-2 3.0576801 -2
2.7858498 -0 2.3688607
-0 3.0324869 1.0842022e-19
2.7999723 -0 2.3386674
1.0842022e-19 3.0654976 -1.0842022e-19
2.7931125 -0 2.35849
1.0842022e-19 3.0350139 -2
2.8026555 3.6893488e+19 2.3234
-3.6893488e+19 3.0537479 -3.6893488e+19
2.7599466 2 2.3124113
3.6893488e+19 3.0390301 -2
2.7846415 -2 2.2955329
0 3.1472499 2
2.8399653 -2 2.3841634
-1.0842022e-19 3.0360484 -3.6893488e+19
2.7817051 -2 2.2744846
-0 3.0490468 0
2.7559235 0 2.2708435
-1.0842022e-19 3.0354471 2
2.7811131 -2 2.2559693
3.6893488e+19 3.0515156 -1.0842022e-19
2.7580361 -0 2.2546062
2 3.0530858 -2
2.7593799 0 2.2247689
-2 3.0350654 -1.0842022e-19
2.7807372 0 2.1897509
-3.6893488e+19 3.0514073 -0
2.7579436 -2 2.185303
0 2.9891343 -3.6893488e+19
2.7317073 -1.0842022e-19 2.096664
-3.6893488e+19 3.0572753 3.6893488e+19
2.7629654 -3.6893488e+19 2.1562598
2 2.9920218 2
2.7345512 -0 2.0679452
2 3.01931 -2
2.7109494 2 2.0732234
3.6893488e+19 3.0515208 3.6893488e+19
2.7969427 -1.0842022e-19 2.1020174
2 3.0476007 -2
2.8160214 0 2.0840468
-0 3.0503032 -2
2.7789962 1.0842022e-19 2.0597401
-0 3.0485764 2
2.8170576 2 2.0473111
3.6893488e+19 2.9935081 -1.0842022e-19
2.708493 2 1.9740665
-2 2.8874559 1.0842022e-19
2.6614387 -1.0842022e-19 1.9183749
1.0842022e-19 3.0545111 2
2.7829056 0 1.9889804
-1.0842022e-19 3.0488589 -1.0842022e-19
2.8173575 1.0842022e-19 1.9719278
1.0842022e-19 3.0557027 -1.0842022e-19
2.7840126 0 1.952252
-3.6893488e+19 3.0403581 0
2.8083308 -1.0842022e-19 1.9288994
0 3.0556335 1.0842022e-19
2.7839484 -1.0842022e-19 1.9145782
-2 3.039537 -1.0842022e-19
2.8074586 0 1.8917918
2 3.0686679 3.6893488e+19
2.7960579 2 1.8823733
-2 2.8921285 2
2.6664004 -3.6893488e+19 1.7674903
-1.0842022e-19 2.9925632 0
2.7076154 0 1.7690127
-0 3.0382657 3.6893488e+19
2.8061087 -1.0842022e-19 1.7616638
1.0842022e-19 2.9892075 1.0842022e-19
2.7044976 -2 1.6657007
-3.6893488e+19 3.0764558 -0
2.7793801 1.0842022e-19 1.6389483
-1.0842022e-19 3.0032153 -1.0842022e-19
2.7487414 1.0842022e-19 1.4398552
-1.0842022e-19 3.0279939 -3.6893488e+19
2.7258129 -0 -1.2577803
3.6893488e+19 3.1066077 1.0842022e-19
2.8511932 -3.6893488e+19 -1.5959644
-0 3.0016119 0
2.6806579 2 -1.6371151
3.6893488e+19 3.0045457 -3.6893488e+19
2.7506807 3.6893488e+19 -1.7054695
1.0842022e-19 3.0019369 2
2.6812139 -2 -1.7547898
2 3.0017724 -1.0842022e-19
2.7458992 -0 -1.7892271
-3.6893488e+19 2.9981797 -1.0842022e-19
2.6763408 2 -1.8137767
2 2.9506664 0
2.6938238 3.6893488e+19 -1.8280432
-3.6893488e+19 2.9919462 -3.6893488e+19
2.6710062 2 -1.8711416
-2 3.0024962 -0
2.7473252 3.6893488e+19 -1.8951746
2 2.9134521 -3.6893488e+19
2.6038311 3.6893488e+19 -1.8785423
-1.0842022e-19 2.9352803 1.0842022e-19
2.6786714 0 -1.9022295
1.0842022e-19 2.9131095 0
2.603538 -2 -1.9035311
-1.0842022e-19 2.8833964 3.6893488e+19
2.6275752 -0 -1.9079586
0 2.8406153 -2
2.6116984 -0 -1.9033242
3.6893488e+19 2.7980707 0
2.5269222 -3.6893488e+19 -1.8898548
2 2.7823446 -3.6893488e+19
2.5498209 -3.6893488e+19 -1.8949709
2 2.7698324 -0
2.5006874 -1.0842022e-19 -1.893253
0 2.6585562 1.0842022e-19
2.3795686 -0 -1.8671234
1.0842022e-19 2.5974553 -1.0842022e-19
2.3689618 2 -1.8474591
0 2.586678 -0
2.3127902 3.6893488e+19 -1.8453346
3.6893488e+19 2.5511556 -1.0842022e-19
2.3197963 -1.0842022e-19 -1.8369378
1.0842022e-19 2.5379083 1.0842022e-19
2.2674809 -2 -1.8312272
3.6893488e+19 2.5106118 -2
2.2767429 1.0842022e-19 -1.8249677
3.6893488e+19 2.5079255 -3.6893488e+19
2.2292507 -2 -1.8257265
-1.0842022e-19 2.4696703 3.6893488e+19
2.2487419 -1.0842022e-19 -1.8201342
-3.6893488e+19 2.4647365 2
2.1817629 -3.6893488e+19 -1.8202447
-2 2.4236531 -1.0842022e-19
2.1998763 -0 -1.8145133
-2 2.4260724 1.0842022e-19
2.1458421 3.6893488e+19 -1.8172303
1.0842022e-19 3.0394382 -0
2.7850435 3.6893488e+19 2.5368669
-2 3.0819235 3.6893488e+19
2.7840593 -0 2.5657392
-0 3.0394411 -2
2.7850463 -3.6893488e+19 2.5274425
1.0842022e-19 3.0853729 3.6893488e+19
2.7870111 -3.6893488e+19 2.5583792
1.0842022e-19 3.0368485 3.6893488e+19
2.7824931 -2 2.5156424
-1.0842022e-19 3.0842824 3.6893488e+19
2.786078 3.6893488e+19 2.5467994
3.6893488e+19 3.0371468 -2
2.7827868 2 2.506623
-1.0842022e-19 3.0958846 1.0842022e-19
2.7960072 -0 2.5461895
2 3.0399635 1.0842022e-19
2.7855608 2 2.4995553
-2 3.0386379 1.0842022e-19
2.7842555 -3.6893488e+19 2.4786859
3.6893488e+19 3.0908082 2
2.7916627 -1.0842022e-19 2.5204256
-1.0842022e-19 3.0366042 -0
2.7822526 -3.6893488e+19 2.4569023
0 3.0601199 -0
2.8293154 0 2.49208
0 3.0436897 -0
2.7728519 -3.6893488e+19 2.444531
1.0842022e-19 3.0425797 -3.6893488e+19
2.7718205 0 2.42435
-3.6893488e+19 3.0568783 3.6893488e+19
2.785105 2 2.4257317
-1.0842022e-19 3.0392272 1.0842022e-19
2.8071299 -3.6893488e+19 2.4026563
-3.6893488e+19 3.0465009 -1.0842022e-19
2.7754638 -1.0842022e-19 2.3926699
1.0842022e-19 3.0450087 1.0842022e-19
2.7740774 -0 2.3721611
1.0842022e-19 3.0318642 1.0842022e-19
2.7993109 3.6893488e+19 2.3560452
-2 3.0576801 -2
2.7858498 -0 2.3688607
-0 3.0324869 1.0842022e-19
2.7999723 -0 2.3386674
1.0842022e-19 3.0654976 -1.0842022e-19
2.7931125 -0 2.35849
1.0842022e-19 3.0350139 -2
2.8026555 3.6893488e+19 2.3234
-3.6893488e+19 3.0537479 -3.6893488e+19
2.7599466 2 2.3124113
1.0842022e-19 3.0141017 0
2.7600918 -3.6893488e+19 2.2700436
-3.6893488e+19 3.0292912 1.0842022e-19
2.7280335 1.0842022e-19 2.2700908
-2 3.0155327 -0
2.7615011 3.6893488e+19 2.2547984
3.6893488e+19 3.0288436 -0
2.7272673 -1.0842022e-19 2.2525456
1.0842022e-19 3.018543 2
2.7644656 3.6893488e+19 2.2316217
-1.0842022e-19 3.0304117 1.0842022e-19
2.7299514 -2 2.2235715
0 3.0277619 -0
2.7254157 -0 2.1851001
-3.6893488e+19 2.9988506 0
2.7412765 -1.0842022e-19 2.1347711
3.6893488e+19 3.0268986 2
2.7239382 -3.6893488e+19 2.1499064
0 2.9891343 -3.6893488e+19
2.7317073 -1.0842022e-19 2.096664
-1.0842022e-19 3.0239007 2
2.7188072 1.0842022e-19 2.1121342
2 2.9920218 2
2.7345512 -0 2.0679452
2 3.01931 -2
2.7109494 2 2.0732234
3.6893488e+19 2.99265 3.6893488e+19
2.7351699 0 2.0375779
2 2.91344 -1.0842022e-19
2.6890309 0 1.9820362
-0 2.9925268 -2
2.7075813 -3.6893488e+19 2.0040019
-2 2.9062777 -2
2.6814253 2 1.952278
3.6893488e+19 2.9935081 -1.0842022e-19
2.708493 2 1.9740665
-2 2.8874559 1.0842022e-19
2.6614387 -1.0842022e-19 1.9183749
3.6893488e+19 2.9924273 1.0842022e-19
2.707489 1.0842022e-19 1.9432286
2 2.8881278 1.0842022e-19
2.6621521 2 1.8941087
-3.6893488e+19 2.9972694 -1.0842022e-19
2.7119875 0 1.9144961
3.6893488e+19 2.889112 -1.0842022e-19
2.663197 -3.6893488e+19 1.8647449
-2 2.9920616 3.6893488e+19
2.7071493 3.6893488e+19 1.8824832
-3.6893488e+19 2.8893602 -2
2.6634607 0 1.8156772
3.6893488e+19 2.9858644 2
2.7013917 2 1.8268261
-2 2.8921285 2
2.6664004 -3.6893488e+19 1.7674903
-1.0842022e-19 2.9925632 0
2.7076154 0 1.7690127
0 2.891346 3.6893488e+19
2.6655693 -2 1.685533
1.0842022e-19 2.9892075 1.0842022e-19
2.7044976 -2 1.6657007
-1.0842022e-19 3.0252595 -1.0842022e-19
2.7211328 -0 1.6093155
-1.0842022e-19 3.0032153 -1.0842022e-19
2.7487414 1.0842022e-19 1.4398552
-1.0842022e-19 3.0279939 -3.6893488e+19
2.7258129 -0 -1.2577803
-1.0842022e-19 3.0034661 -1.0842022e-19
2.7492354 3.6893488e+19 -1.532055
-0 3.0016119 0
2.6806579 2 -1.6371151
-0 2.9542575 -0
2.6973603 2 -1.6833385
1.0842022e-19 3.0019369 2
2.6812139 -2 -1.7547898
1.0842022e-19 2.9554441 -1.0842022e-19
2.6985288 -0 -1.7735394
-3.6893488e+19 2.9981797 -1.0842022e-19
2.6763408 2 -1.8137767
2 2.9506664 0
2.6938238 3.6893488e+19 -1.8280432
3.6893488e+19 2.9301443 0
2.6181164 3.6893488e+19 -1.8402194
-1.0842022e-19 2.9376864 0
2.681041 2 -1.8758255
2 2.9134521 -3.6893488e+19
2.6038311 3.6893488e+19 -1.8785423
-3.6893488e+19 2.8209274 -3.6893488e+19
2.5660546 -2 -1.8494743
1.0842022e-19 2.9131095 0
2.603538 -2 -1.9035311
-2 2.8219521 -0
2.5670638 -0 -1.8826437
-3.6893488e+19 2.7997611 1.0842022e-19
2.5683157 1.0842022e-19 -1.8849343
3.6893488e+19 2.7980707 0
2.5269222 -3.6893488e+19 -1.8898548
2 2.7823446 -3.6893488e+19
2.5498209 -3.6893488e+19 -1.8949709
2 2.7698324 -0
2.5006874 -1.0842022e-19 -1.893253
0 2.6585562 1.0842022e-19
2.3795686 -0 -1.8671234
1.0842022e-19 2.5974553 -1.0842022e-19
2.3689618 2 -1.8474591
0 2.586678 -0
2.3127902 3.6893488e+19 -1.8453346
3.6893488e+19 2.5511556 -1.0842022e-19
2.3197963 -1.0842022e-19 -1.8369378
1.0842022e-19 2.5379083 1.0842022e-19
2.2674809 -2 -1.8312272
3.6893488e+19 2.5106118 -2
2.2767429 1.0842022e-19 -1.8249677
3.6893488e+19 2.5079255 -3.6893488e+19
2.2292507 -2 -1.8257265
-1.0842022e-19 2.4696703 3.6893488e+19
2.2487419 -1.0842022e-19 -1.8201342
-3.6893488e+19 2.4647365 2
2.1817629 -3.6893488e+19 -1.8202447
-2 2.4236531 -1.0842022e-19
2.1998763 -0 -1.8145133
-2 2.4260724 1.0842022e-19
2.1458421 3.6893488e+19 -1.8172303
-2 3.039619 -2
2.7833369 0 2.5366771
-1.0842022e-19 3.0395393 0
2.7832592 -3.6893488e+19 2.5271797
-3.6893488e+19 3.0381522 3.6893488e+19
2.7819021 -3.6893488e+19 2.5165067
2 3.0376267 -1.0842022e-19
2.7813878 -0 2.5067213
3.6893488e+19 3.0406125 1.0842022e-19
2.7843089 1.0842022e-19 2.5000148
1.0842022e-19 3.1010337 -1.0842022e-19
2.798238 -0 2.5392299
-1.0842022e-19 3.0367742 -0
2.7805538 1.0842022e-19 2.4749835
-3.6893488e+19 3.0913024 0
2.7899706 -3.6893488e+19 2.5205152
1.0842022e-19 3.0382168 -2
2.781965 0 2.4588823
-3.6893488e+19 3.0456963 2
2.7728333 -1.0842022e-19 2.4470255
-0 3.0524452 -2
2.8191354 -3.6893488e+19 2.4596026
3.6893488e+19 3.0472469 -3.6893488e+19
2.7742639 1.0842022e-19 2.4305964
0 3.0494902 2
2.8160174 2 2.4357193
2 3.057055 0
2.7833138 -3.6893488e+19 2.4254596
2 3.039629 0
2.8056121 -3.6893488e+19 2.4026563
-2 3.0466366 1.0842022e-19
2.773701 1.0842022e-19 2.3923731
-0 3.0304701 3.6893488e+19
2.7959478 0 2.3718417
1.0842022e-19 3.0445805 -0
2.7718036 0 2.3711703
-0 3.0321734 -0
2.797745 -3.6893488e+19 2.3559415
-3.6893488e+19 3.0329065 -2
2.7985187 1.0842022e-19 2.3387003
3.6893488e+19 3.0354371 -3.6893488e+19
2.8011887 -2 2.323431
-2 3.0548303 3.6893488e+19
2.7589839 3.6893488e+19 2.3131742
-0 3.0392349 -0
2.7829611 -3.6893488e+19 2.295362
1.0842022e-19 3.0559604 -3.6893488e+19
2.7599437 -3.6893488e+19 2.2955506
-3.6893488e+19 3.0382309 2
2.7819791 0 2.2762234
-1.0842022e-19 3.0493526 -2
2.7543299 -0 2.2708175
-1.0842022e-19 3.0341947 1.0842022e-19
2.7780304 -0 2.2545185
-2 3.0517383 -3.6893488e+19
2.7563567 -0 2.2545097
1.0842022e-19 3.0352256 -3.6893488e+19
2.7790387 2 2.2251379
-0 3.0531096 -0
2.7575219 -3.6893488e+19 2.2242756
0 3.0366073 1.0842022e-19
2.7803905 2 2.1915605
-1.0842022e-19 3.0539804 3.6893488e+19
2.7582617 0 2.1885285
0 3.0432093 3.6893488e+19
2.7868493 -3.6893488e+19 2.1650777
2 3.0598562 -0
