# .PCD v0.7 - Point Cloud Data file format
VERSION 0.7
FIELDS x y z
SIZE 4 4 4
TYPE F F F
COUNT 1 1 1
WIDTH 1695
HEIGHT 1
VIEWPOINT 0 0 0 1 0 0 0
POINTS 1695
DATA ascii
-2.5898843 -1.0842022e-19 2.5486674
-0 3.3138876 3.6893488e+19
-2.8045073 -1.0842022e-19 2.6577613
-1.0842022e-19 3.2622724 1.0842022e-19
-2.7544346 0 2.5752995
3.6893488e+19 3.1642165 -0
-2.6518378 -1.0842022e-19 2.4894705
2 3.1664264 2
-2.6539817 2 2.4677191
2 3.1678364 -1.0842022e-19
-2.6553495 2 2.4448991
0 3.1614561 1.0842022e-19
-2.557492 2 2.4212692
1.0842022e-19 3.1633196 -2
-2.7048502 -2 2.4071732
2 3.1625559 1.0842022e-19
-2.6107924 2 2.3891773
-3.6893488e+19 3.1489787 -1.0842022e-19
-2.6890686 -0 2.3696599
2 3.1644251 3.6893488e+19
-2.612427 -0 2.3669899
3.6893488e+19 3.1512876 1.0842022e-19
-2.6916094 -1.0842022e-19 2.3483143
1.0842022e-19 3.1784263 0
-2.6246715 -1.0842022e-19 2.354661
-3.6893488e+19 3.1694732 0
-2.7116225 -2 2.339591
0 3.1670158 -2
-2.6146924 0 2.3211851
0 3.1710389 0
-2.7133453 3.6893488e+19 2.3162873
-1.0842022e-19 3.1622303 -2
-2.6105075 -3.6893488e+19 2.2937713
0 3.1914718 3.6893488e+19
-2.7358313 3.6893488e+19 2.3059106
0 3.1621661 -3.6893488e+19
-2.6104512 2 2.2700348
0 3.1409159 -2
-2.6801953 2 2.2462416
3.6893488e+19 3.1617465 1.0842022e-19
-2.6100845 -3.6893488e+19 2.2422299
-2 3.1441805 3.6893488e+19
-2.6837883 -0 2.2045479
-1.0842022e-19 3.1612148 1.0842022e-19
-2.6096196 -2 2.1944137
3.6893488e+19 3.1731815 0
-2.5662549 0 2.1804185
0 3.1551852 1.0842022e-19
-2.6430764 -0 2.1435132
3.6893488e+19 3.1721594 1.0842022e-19
-2.565491 -0 2.1313152
2 3.156919 0
-2.6447585 -2 2.098346
0 3.165992 0
-2.5608819 -1.0842022e-19 2.0784104
-2 3.1618197 2
-2.6495128 1.0842022e-19 2.0551698
-2 3.1672273 -0
-2.561805 -1.0842022e-19 2.0319433
2 3.2582889 0
-2.7505701 -0 2.0734019
-3.6893488e+19 3.1652195 3.6893488e+19
-2.5603046 -0 1.983409
2 3.1698542 1.0842022e-19
-2.5637681 2 1.9383237
-1.0842022e-19 3.1556435 -2
-2.553148 -1.0842022e-19 1.8858999
-2 3.1619942 3.6893488e+19
-2.649682 3.6893488e+19 1.8569293
2 3.1528354 -0
-2.5510495 2 1.8034649
-1.0842022e-19 3.1548665 -1.0842022e-19
-2.6427672 -2 1.7599562
1.0842022e-19 3.1410851 1.0842022e-19
-2.6803818 0 1.6723136
-2 3.1520326 -0
-2.6015894 1.0842022e-19 1.540989
1.0842022e-19 3.1428413 2
-2.6823144 0 -1.1393781
-1.0842022e-19 3.1518791 1.0842022e-19
-2.6014552 3.6893488e+19 -1.576107
-3.6893488e+19 3.148706 -2
-2.6887684 3.6893488e+19 -1.6933185
-0 3.151767 0
-2.6013572 -2 -1.7670181
-3.6893488e+19 3.1469889 0
-2.6868789 -2 -1.8131117
1.0842022e-19 3.1542606 3.6893488e+19
-2.6035378 1.0842022e-19 -1.8602203
3.6893488e+19 3.1411259 -1.0842022e-19
-2.6804266 3.6893488e+19 -1.8879229
-1.0842022e-19 3.1192863 3.6893488e+19
-2.5729518 -3.6893488e+19 -1.8996207
0 3.094646 3.6893488e+19
-2.6292763 -2 -1.9114302
-3.6893488e+19 2.8866944 -0
-2.3381758 -1.0842022e-19 -1.8700635
-1.0842022e-19 2.8100681 2
-2.3412242 0 -1.8420628
-1.0842022e-19 2.7760594 -0
-2.2328444 -0 -1.8315212
-1.0842022e-19 2.7478976 -2
-2.122092 2 -1.8242499
-2 2.6992116 3.6893488e+19
-2.1857872 -2 -1.8197529
1.0842022e-19 2.6602437 1.0842022e-19
-2.056586 2 -1.8125093
3.6893488e+19 2.6282184 -1.0842022e-19
-2.1169155 -1.0842022e-19 -1.8107492
0 2.5998621 -3.6893488e+19
-2.011461 -2 -1.8048323
-0 2.5686593 1.0842022e-19
-2.0591364 3.6893488e+19 -1.7998564
0 2.5499351 -2
-1.9741493 3.6893488e+19 -1.7962599
2 2.5299778 -0
-2.0216107 -1.0842022e-19 -1.7947782
2 2.5192761 3.6893488e+19
-1.9512372 -2 -1.7941154
-0 2.5008879 -3.6893488e+19
-1.9933902 3.6893488e+19 -1.7916199
-0 2.4765394 -3.6893488e+19
-1.9280652 -0 -1.7882469
-3.6893488e+19 2.4482353 -3.6893488e+19
-1.96742 2 -1.7867948
1.0842022e-19 2.4402726 -3.6893488e+19
-1.9145136 -3.6893488e+19 -1.7884095
-1.0842022e-19 3.2617023 -1.0842022e-19
-2.7134793 -3.6893488e+19 2.7435527
-2 3.2611926 3.6893488e+19
-2.7125766 -2 2.7269084
2 3.1740701 3.6893488e+19
-2.7214615 1.0842022e-19 2.635891
0 3.2611299 3.6893488e+19
-2.7124653 1.0842022e-19 2.7111602
2 3.2532952 2
-2.7816019 -2 2.680342
-1.0842022e-19 3.2506118 1.0842022e-19
-2.6938379 2 2.6627138
-1.0842022e-19 3.2525277 -3.6893488e+19
-2.7807486 -1.0842022e-19 2.6638322
-0 3.2562115 3.6893488e+19
-2.7848442 -0 2.6544805
3.6893488e+19 3.2512298 2
-2.6949322 1.0842022e-19 2.6339536
2 3.2469141 -3.6893488e+19
-2.6900215 -2 2.6150479
-0 3.2029953 1.0842022e-19
-2.5934472 3.6893488e+19 2.5740724
1.0842022e-19 3.2604442 -3.6893488e+19
-2.7555504 0 2.6192758
2 3.2055073 0
-2.5953517 -2 2.5625572
2 3.2519314 -0
-2.7443955 3.6893488e+19 2.5923269
1.0842022e-19 3.2066679 -2
-2.5962315 2 2.5500417
3.6893488e+19 3.3136723 2
-2.8077786 -3.6893488e+19 2.6577418
-2 3.2105083 -2
-2.5991433 1.0842022e-19 2.5391686
3.6893488e+19 3.2618499 2
-2.7569299 1.0842022e-19 2.5749829
0 3.2604363 2
-2.7555428 2 2.5579484
3.6893488e+19 3.2594876 3.6893488e+19
-2.754612 3.6893488e+19 2.5416358
-1.0842022e-19 3.1578391 -1.0842022e-19
-2.559211 1.0842022e-19 2.4413111
-3.6893488e+19 3.2573802 0
-2.7525444 -2 2.5242255
3.6893488e+19 3.217062 0
-2.6041121 3.6893488e+19 2.4784369
3.6893488e+19 3.2581484 0
-2.753298 0 2.5099874
2 3.2514927 3.6893488e+19
-2.779598 -2 2.4958646
-1.0842022e-19 3.2521255 3.6893488e+19
-2.6965187 2 2.4759505
2 3.2508271 2
-2.7788579 -0 2.4651268
-2 3.2422066 0
-2.6858532 -3.6893488e+19 2.4361196
-3.6893488e+19 3.1512365 3.6893488e+19
-2.6960764 3.6893488e+19 2.3485224
0 3.2435069 -3.6893488e+19
-2.6870043 1.0842022e-19 2.4087718
-3.6893488e+19 3.2504449 0
-2.6935425 2 2.3860073
2 3.2514329 2
-2.7795315 -2 2.3780298
-1.0842022e-19 3.2589664 -3.6893488e+19
-2.7879069 -3.6893488e+19 2.359153
3.6893488e+19 3.1674032 1.0842022e-19
-2.6196141 -1.0842022e-19 2.2736235
-1.0842022e-19 3.1405127 -0
-2.684154 3.6893488e+19 2.246089
-1.0842022e-19 3.2470186 0
-2.6901143 3.6893488e+19 2.2972562
1.0842022e-19 3.258507 0
-2.7873962 -0 2.2983122
-1.0842022e-19 3.2390697 1.0842022e-19
-2.6830754 1.0842022e-19 2.2644293
-1.0842022e-19 3.2364972 0
-2.6188474 3.6893488e+19 2.2450607
0 3.1560779 -0
-2.6484478 3.6893488e+19 2.1446321
0 3.2341223 3.6893488e+19
-2.6170466 -0 2.1874986
2 3.2546735 3.6893488e+19
-2.7497766 3.6893488e+19 2.1863089
-0 3.2302496 -2
-2.6141105 -3.6893488e+19 2.1293263
1.0842022e-19 3.1655369 3.6893488e+19
-2.5650473 -1.0842022e-19 1.9837024
-3.6893488e+19 3.3491321 1.0842022e-19
-2.8425722 -1.0842022e-19 2.1071458
0 3.1683891 2
-2.5672097 2 1.937759
3.6893488e+19 3.1634927 -0
-2.6557233 2 1.9139637
-3.6893488e+19 3.1554129 -2
-2.5573716 3.6893488e+19 1.8858896
3.6893488e+19 3.161701 -1.0842022e-19
-2.6539652 0 1.8569123
-0 3.1525755 -0
-2.5552204 -3.6893488e+19 1.8034376
3.6893488e+19 3.1569753 0
-2.6493285 2 1.7607459
-2 3.1426988 2
-2.6865845 -2 1.6731498
1.0842022e-19 3.1512825 2
-2.6053391 -1.0842022e-19 1.5407747
2 3.260473 -0
-2.711302 -1.0842022e-19 -1.6304201
-3.6893488e+19 3.1381807 -2
-2.6815615 2 -1.6883515
-2 3.2601087 -0
-2.7106571 -3.6893488e+19 -1.8089944
1.0842022e-19 3.1414332 3.6893488e+19
-2.6851773 -2 -1.8106134
1.0842022e-19 3.1872799 -2
-2.6372149 -3.6893488e+19 -1.8772895
0 3.1408129 -0
-2.6844876 2 -1.8879123
1.0842022e-19 3.1887097 2
-2.6384811 1.0842022e-19 -1.9278508
0 3.0926208 -0
-2.6309099 -1.0842022e-19 -1.9105979
3.6893488e+19 2.8951306 -1.0842022e-19
-2.3498914 3.6893488e+19 -1.875277
3.6893488e+19 2.8108666 -3.6893488e+19
-2.345607 -1.0842022e-19 -1.8427793
3.6893488e+19 2.7748642 2
-2.2367892 -0 -1.8307455
-0 2.7482657 -2
-2.1277697 2 -1.8244954
-0 2.6997736 3.6893488e+19
-2.1913226 2 -1.8201212
3.6893488e+19 2.659919 -2
-2.0607879 0 -1.8124533
-3.6893488e+19 2.628098 3.6893488e+19
-2.1209939 1.0842022e-19 -1.8108088
2 2.5999348 3.6893488e+19
-2.0153098 2 -1.8049585
-0 2.5688193 -1.0842022e-19
-2.0628288 1.0842022e-19 -1.800056
-3.6893488e+19 2.5526049 2
-1.9794259 -1.0842022e-19 -1.7978696
3.6893488e+19 2.5306466 -3.6893488e+19
-2.0253732 -0 -1.7952925
2 2.519021 2
-1.9539635 2 -1.7940385
2 2.5021799 -0
-1.9974415 2 -1.7925849
-1.0842022e-19 2.4753256 3.6893488e+19
-1.9301887 -2 -1.7879113
-2 2.4484329 1.0842022e-19
-1.9700036 0 -1.7869695
-1.0842022e-19 2.4403002 0
-1.9169111 -2 -1.7885003
-3.6893488e+19 2.4026086 2
-1.9026228 -1.0842022e-19 -1.7860341
1.0842022e-19 2.3425295 -2
-1.9404042 -1.0842022e-19 -1.7847563
-2 2.2984679 -0
-1.9159114 2 -1.7817287
0 2.2604649 -1.0842022e-19
-1.8947864 1.0842022e-19 -1.7771186
1.0842022e-19 2.2174909 -3.6893488e+19
-1.8799336 2 -1.7753392
-1.0842022e-19 2.1859298 0
-1.7902544 -3.6893488e+19 -1.7751716
1.0842022e-19 2.1539357 -0
-1.7781258 1.0842022e-19 -1.7759712
2 2.123467 3.6893488e+19
-1.7665756 -3.6893488e+19 -1.7755688
0 2.0959711 -1.0842022e-19
-1.7561523 -2 -1.7747165
-1.0842022e-19 3.1939559 3.6893488e+19
-2.6431267 -3.6893488e+19 2.6686351
-2 3.2611926 3.6893488e+19
-2.7125766 -2 2.7269084
2 3.1740701 3.6893488e+19
-2.7214615 1.0842022e-19 2.635891
0 3.2611299 3.6893488e+19
-2.7124653 1.0842022e-19 2.7111602
2 3.2532952 2
-2.7816019 -2 2.680342
-1.0842022e-19 3.2506118 1.0842022e-19
-2.6938379 2 2.6627138
-1.0842022e-19 3.2525277 -3.6893488e+19
-2.7807486 -1.0842022e-19 2.6638322
-0 3.2562115 3.6893488e+19
-2.7848442 -0 2.6544805
3.6893488e+19 3.2512298 2
-2.6949322 1.0842022e-19 2.6339536
2 3.2469141 -3.6893488e+19
-2.6900215 -2 2.6150479
-0 3.2029953 1.0842022e-19
-2.5934472 3.6893488e+19 2.5740724
1.0842022e-19 3.2604442 -3.6893488e+19
-2.7555504 0 2.6192758
2 3.2055073 0
-2.5953517 -2 2.5625572
2 3.2519314 -0
-2.7443955 3.6893488e+19 2.5923269
1.0842022e-19 3.2066679 -2
-2.5962315 2 2.5500417
0 3.1574473 -0
-2.6497915 2 2.5148199
-2 3.2105083 -2
-2.5991433 1.0842022e-19 2.5391686
-1.0842022e-19 3.1596262 -0
-2.6519296 -0 2.5041943
3.6893488e+19 3.1633513 -1.0842022e-19
-2.6555846 -2 2.48876
1.0842022e-19 3.16589 3.6893488e+19
-2.6580756 3.6893488e+19 2.4674149
-1.0842022e-19 3.1578391 -1.0842022e-19
-2.559211 1.0842022e-19 2.4413111
-2 3.1678405 1.0842022e-19
-2.6599896 -2 2.4451876
-1.0842022e-19 3.1610401 -3.6893488e+19
-2.5616379 1.0842022e-19 2.4210508
3.6893488e+19 3.2581484 0
-2.753298 0 2.5099874
2 3.2514927 3.6893488e+19
-2.779598 -2 2.4958646
-0 3.1620152 -1.0842022e-19
-2.6148429 2 2.3888912
-3.6893488e+19 3.1543753 -1.0842022e-19
-2.6995659 1.0842022e-19 2.3749313
-3.6893488e+19 3.16452 1.0842022e-19
-2.6170611 -1.0842022e-19 2.3672855
-3.6893488e+19 3.1512365 3.6893488e+19
-2.6960764 3.6893488e+19 2.3485224
3.6893488e+19 3.165369 -3.6893488e+19
-2.6178126 2 2.3440502
-3.6893488e+19 3.168112 1.0842022e-19
-2.6202419 3.6893488e+19 2.3222151
2 3.1641672 -0
-2.7104518 2 2.3113506
-1.0842022e-19 3.2589664 -3.6893488e+19
-2.7879069 -3.6893488e+19 2.359153
3.6893488e+19 3.1674032 1.0842022e-19
-2.6196141 -1.0842022e-19 2.2736235
-1.0842022e-19 3.1405127 -0
-2.684154 3.6893488e+19 2.246089
-0 3.1626961 -1.0842022e-19
-2.6154459 0 2.2436497
-1.0842022e-19 3.1432645 3.6893488e+19
-2.6872134 -1.0842022e-19 2.20382
-2 3.1594558 -3.6893488e+19
-2.6125765 -0 2.1927676
-0 3.1700313 -3.6893488e+19
-2.5684547 1.0842022e-19 2.1774249
0 3.1560779 -0
-2.6484478 3.6893488e+19 2.1446321
0 3.2341223 3.6893488e+19
-2.6170466 -0 2.1874986
-2 3.1571441 1.0842022e-19
-2.6494942 1.0842022e-19 2.0987616
-3.6893488e+19 3.1683936 2
-2.5672133 3.6893488e+19 2.0804694
1.0842022e-19 3.1655369 3.6893488e+19
-2.5650473 -1.0842022e-19 1.9837024
3.6893488e+19 3.2407386 -2
-2.7315178 0 2.0010014
0 3.1683891 2
-2.5672097 2 1.937759
3.6893488e+19 3.1634927 -0
-2.6557233 2 1.9139637
-3.6893488e+19 3.1554129 -2
-2.5573716 3.6893488e+19 1.8858896
3.6893488e+19 3.161701 -1.0842022e-19
-2.6539652 0 1.8569123
-0 3.1525755 -0
-2.5552204 -3.6893488e+19 1.8034376
3.6893488e+19 3.1569753 0
-2.6493285 2 1.7607459
-2 3.1426988 2
-2.6865845 -2 1.6731498
1.0842022e-19 3.1512825 2
-2.6053391 -1.0842022e-19 1.5407747
1.0842022e-19 3.1514952 0
-2.6055274 -0 -1.5760306
-3.6893488e+19 3.1381807 -2
-2.6815615 2 -1.6883515
0 3.1508341 3.6893488e+19
-2.6049418 -3.6893488e+19 -1.7667699
1.0842022e-19 3.1414332 3.6893488e+19
-2.6851773 -2 -1.8106134
2 3.119647 0
-2.5773256 -3.6893488e+19 -1.8402041
0 3.1408129 -0
-2.6844876 2 -1.8879123
-2 3.1190126 1.0842022e-19
-2.5767639 -0 -1.899596
0 3.0926208 -0
-2.6309099 -1.0842022e-19 -1.9105979
3.6893488e+19 2.8951306 -1.0842022e-19
-2.3498914 3.6893488e+19 -1.875277
3.6893488e+19 2.8108666 -3.6893488e+19
-2.345607 -1.0842022e-19 -1.8427793
3.6893488e+19 2.7748642 2
-2.2367892 -0 -1.8307455
-0 2.7482657 -2
-2.1277697 2 -1.8244954
-0 2.6997736 3.6893488e+19
-2.1913226 2 -1.8201212
3.6893488e+19 2.659919 -2
-2.0607879 0 -1.8124533
-3.6893488e+19 2.628098 3.6893488e+19
-2.1209939 1.0842022e-19 -1.8108088
2 2.5999348 3.6893488e+19
-2.0153098 2 -1.8049585
-0 2.5688193 -1.0842022e-19
-2.0628288 1.0842022e-19 -1.800056
-3.6893488e+19 2.5526049 2
-1.9794259 -1.0842022e-19 -1.7978696
3.6893488e+19 2.5306466 -3.6893488e+19
-2.0253732 -0 -1.7952925
2 2.519021 2
-1.9539635 2 -1.7940385
2 2.5021799 -0
-1.9974415 2 -1.7925849
-1.0842022e-19 2.4753256 3.6893488e+19
-1.9301887 -2 -1.7879113
-2 2.4484329 1.0842022e-19
-1.9700036 0 -1.7869695
-1.0842022e-19 2.4403002 0
-1.9169111 -2 -1.7885003
-3.6893488e+19 2.4026086 2
-1.9026228 -1.0842022e-19 -1.7860341
1.0842022e-19 2.3425295 -2
-1.9404042 -1.0842022e-19 -1.7847563
-2 2.2984679 -0
-1.9159114 2 -1.7817287
0 2.2604649 -1.0842022e-19
-1.8947864 1.0842022e-19 -1.7771186
1.0842022e-19 2.2174909 -3.6893488e+19
-1.8799336 2 -1.7753392
-1.0842022e-19 2.1859298 0
-1.7902544 -3.6893488e+19 -1.7751716
1.0842022e-19 2.1539357 -0
-1.7781258 1.0842022e-19 -1.7759712
2 2.123467 3.6893488e+19
-1.7665756 -3.6893488e+19 -1.7755688
0 2.0959711 -1.0842022e-19
-1.7561523 -2 -1.7747165
-2 3.2610445 0
-2.7180531 3.6893488e+19 2.7425995
-0 3.2594926 0
-2.7152705 0 2.724081
0 3.1714678 0
-2.7233264 -0 2.6338034
-2 3.1694229 3.6893488e+19
-2.72103 2 2.6192307
3.6893488e+19 3.2216184 -2
-2.6728058 -3.6893488e+19 2.6526027
-1.0842022e-19 3.2531836 -1.0842022e-19
-2.7843361 1.0842022e-19 2.6804674
2 3.2501519 2
-2.6985223 -2 2.6621964
3.6893488e+19 3.252358 1.0842022e-19
-2.7834089 1.0842022e-19 2.6638565
1.0842022e-19 3.2482386 -0
-2.6966708 1.0842022e-19 2.6457012
3.6893488e+19 3.2554331 2
-2.7868624 3.6893488e+19 2.6535466
-0 3.2502439 -3.6893488e+19
-2.6986873 -2 2.6326699
1.0842022e-19 3.2465944 2
-2.6951969 1.0842022e-19 2.615026
0 3.2024064 0
-2.5979109 -0 2.5738127
-2 3.2601414 -2
-2.7581434 3.6893488e+19 2.6190848
-2 3.2039783 -3.6893488e+19
-2.5991197 -3.6893488e+19 2.5616639
0 3.2513947 -1.0842022e-19
-2.7489278 0 2.5918183
-2 3.3134847 3.6893488e+19
-2.8110771 -1.0842022e-19 2.6577613
-3.6893488e+19 3.2427003 -0
-2.6288979 2 2.5595376
0 3.261426 -1.0842022e-19
-2.759418 1.0842022e-19 2.5746663
3.6893488e+19 3.2416394 0
-2.628082 -2 2.5445952
-2 3.260268 -1.0842022e-19
-2.7582691 2 2.5579484
-2 3.2415237 2
-2.6279931 -1.0842022e-19 2.5302801
-1.0842022e-19 3.2593651 -1.0842022e-19
-2.7573731 0 2.5416865
-3.6893488e+19 3.2501328 0
-2.634716 3.6893488e+19 2.520797
0 3.2572443 2
-2.7552686 1.0842022e-19 2.5242577
-3.6893488e+19 3.1606519 0
-2.5658009 -2 2.4208634
3.6893488e+19 3.2578764 2
-2.7558959 -1.0842022e-19 2.509881
-1.0842022e-19 3.2506366 1.0842022e-19
-2.7814758 -0 2.4945383
-2 3.2515392 -1.0842022e-19
-2.70101 1.0842022e-19 2.4751208
1.0842022e-19 3.2525275 3.6893488e+19
-2.7835991 -1.0842022e-19 2.4686224
-3.6893488e+19 3.1639752 -2
-2.6211288 2 2.3670168
2 3.2562189 -1.0842022e-19
-2.7877448 0 2.4454398
-3.6893488e+19 3.2510996 -0
-2.7002218 3.6893488e+19 2.4162145
0 3.2580914 -2
-2.7898476 -2 2.4184923
-1.0842022e-19 3.2506177 -0
-2.6993577 2 2.3864989
2 3.2531219 2
-2.7842667 2 2.3808477
-3.6893488e+19 3.2519455 1.0842022e-19
-2.7017386 -2 2.359509
-1.0842022e-19 3.2608309 1.0842022e-19
-2.7929244 3.6893488e+19 2.3620036
-0 3.2605121 -1.0842022e-19
-2.7170982 1.0842022e-19 2.3417504
-1.0842022e-19 3.274431 -3.6893488e+19
-2.8081977 2 2.3488793
3.6893488e+19 3.2407377 -3.6893488e+19
-2.6899462 -0 2.2936709
-3.6893488e+19 3.2584829 -2
-2.7902875 1.0842022e-19 2.2985029
0 3.2373242 3.6893488e+19
-2.6868861 1.0842022e-19 2.2636392
-0 3.2368054 1.0842022e-19
-2.6243646 -1.0842022e-19 2.2456219
3.6893488e+19 3.1554523 3.6893488e+19
-2.6523383 3.6893488e+19 2.1442788
1.0842022e-19 3.2359333 -2
-2.6236937 -2 2.1893547
-0 3.1578202 3.6893488e+19
-2.6546881 -3.6893488e+19 2.0995662
3.6893488e+19 3.2289982 -1.0842022e-19
-2.6183605 1.0842022e-19 2.1285272
-0 3.1971056 -3.6893488e+19
-2.6936717 1.0842022e-19 2.0817435
0 3.2260518 -1.0842022e-19
-2.6160946 3.6893488e+19 2.0720136
-1.0842022e-19 3.1999629 -3.6893488e+19
-2.696507 -1.0842022e-19 2.0320599
-3.6893488e+19 3.1650224 0
-2.5691619 -3.6893488e+19 1.9835298
2 3.1684561 0
-2.5718024 1.0842022e-19 1.937883
2 3.3452139 -3.6893488e+19
-2.8425624 -3.6893488e+19 2.0239544
0 3.1562231 0
-2.5623949 -1.0842022e-19 1.8862292
3.6893488e+19 3.1540356 0
-2.6509326 0 1.8527414
-0 3.1525278 2
-2.5595531 -2 1.8035057
2 3.1571674 1.0842022e-19
-2.6540403 -3.6893488e+19 1.7608976
0 3.1400952 2
-2.6880937 0 1.6721277
0 3.1513841 -3.6893488e+19
-2.6098406 -2 1.5409133
-2 3.1411567 -2
-2.6892858 0 -1.1389825
-2 3.1502852 -1.0842022e-19
-2.6088557 -2 -1.5755417
0 3.1379573 -3.6893488e+19
-2.6856925 2 -1.6883807
-2 3.1506612 3.6893488e+19
-2.6091928 -3.6893488e+19 -1.7667915
3.6893488e+19 3.1407259 0
-2.688802 2 -1.8104136
1.0842022e-19 3.1910191 0
-2.6453736 -0 -1.8784529
0 3.1404068 0
-2.6884437 -3.6893488e+19 -1.8878697
1.0842022e-19 3.19135 -0
-2.6456702 2 -1.9290255
-0 3.0932424 0
-2.6354761 3.6893488e+19 -1.911007
2 2.8914876 3.6893488e+19
-2.3509686 -3.6893488e+19 -1.8733888
-0 2.8103988 0
-2.3485913 2 -1.8426107
-1.0842022e-19 2.7743993 0
-2.2419982 -1.0842022e-19 -1.8305173
3.6893488e+19 2.7486298 -2
-2.1334577 2 -1.824741
-2 2.7019062 3.6893488e+19
-2.1984355 -3.6893488e+19 -1.821173
1.0842022e-19 2.659224 -2
-2.0647025 -0 -1.8122289
3.6893488e+19 2.6271274 -3.6893488e+19
-2.1242309 -2 -1.8104514
0 2.599025 -2
-2.0184081 -2 -1.8045802
-3.6893488e+19 2.5687344 3.6893488e+19
-2.0662866 0 -1.8001225
2 2.5517192 -1.0842022e-19
-1.982029 1.0842022e-19 -1.7974497
0 2.5293765 3.6893488e+19
-2.0272307 0 -1.7946314
-3.6893488e+19 2.5182745 0
-1.9563094 1.0842022e-19 -1.7936538
-3.6893488e+19 2.501775 -3.6893488e+19
-1.9998415 0 -1.7924241
3.6893488e+19 2.4753327 -1.0842022e-19
-1.9327708 3.6893488e+19 -1.7879952
1.0842022e-19 2.4469349 -3.6893488e+19
-1.9717511 -2 -1.7865326
3.6893488e+19 2.4403248 -3.6893488e+19
-1.9193099 -2 -1.7885911
2 3.1928651 -2
-2.6470284 1.0842022e-19 2.6678503
-0 3.2594926 0
-2.7152705 0 2.724081
0 3.1714678 0
-2.7233264 -0 2.6338034
-2 3.1694229 3.6893488e+19
-2.72103 2 2.6192307
3.6893488e+19 3.2216184 -2
-2.6728058 -3.6893488e+19 2.6526027
-1.0842022e-19 3.2531836 -1.0842022e-19
-2.7843361 1.0842022e-19 2.6804674
-2 3.2197802 1.0842022e-19
-2.6711581 1.0842022e-19 2.6370485
3.6893488e+19 3.252358 1.0842022e-19
-2.7834089 1.0842022e-19 2.6638565
1.0842022e-19 3.2482386 -0
-2.6966708 1.0842022e-19 2.6457012
3.6893488e+19 3.2554331 2
-2.7868624 3.6893488e+19 2.6535466
-0 3.2502439 -3.6893488e+19
-2.6986873 -2 2.6326699
1.0842022e-19 3.2465944 2
-2.6951969 1.0842022e-19 2.615026
0 3.2024064 0
-2.5979109 -0 2.5738127
-2 3.2601414 -2
-2.7581434 3.6893488e+19 2.6190848
-2 3.2039783 -3.6893488e+19
-2.5991197 -3.6893488e+19 2.5616639
0 3.2513947 -1.0842022e-19
-2.7489278 0 2.5918183
1.0842022e-19 3.1571543 3.6893488e+19
-2.6540272 -1.0842022e-19 2.5148003
-3.6893488e+19 3.2427003 -0
-2.6288979 2 2.5595376
3.6893488e+19 3.1592119 3.6893488e+19
-2.656069 -3.6893488e+19 2.504101
-0 3.1660702 -0
-2.5699675 2 2.4986272
0 3.1618536 -3.6893488e+19
-2.6586902 0 2.4873037
1.0842022e-19 3.166882 -2
-2.5705917 -1.0842022e-19 2.4754348
-2 3.1643291 -3.6893488e+19
-2.6611469 -3.6893488e+19 2.4659615
3.6893488e+19 3.1576657 -1.0842022e-19
-2.5635042 3.6893488e+19 2.441344
3.6893488e+19 3.1676009 1.0842022e-19
-2.6643937 2 2.4452198
-3.6893488e+19 3.1606519 0
-2.5658009 -2 2.4208634
1.0842022e-19 3.1645954 -2
-2.661411 -0 2.4178183
-1.0842022e-19 3.2506366 1.0842022e-19
-2.7814758 -0 2.4945383
0 3.161139 1.0842022e-19
-2.6185861 2 2.3882904
0 3.1514187 0
-2.7008104 -0 2.372462
-3.6893488e+19 3.1639752 -2
-2.6211288 2 2.3670168
-1.0842022e-19 3.1525292 -3.6893488e+19
-2.7020576 -1.0842022e-19 2.349901
2 3.1651876 -3.6893488e+19
-2.6222155 1.0842022e-19 2.3441005
-3.6893488e+19 3.1545796 2
-2.7043605 -0 2.3280108
2 3.1659558 3.6893488e+19
-2.6229043 3.6893488e+19 2.3207402
2 3.2531219 2
-2.7842667 2 2.3808477
-3.6893488e+19 3.2519455 1.0842022e-19
-2.7017386 -2 2.359509
-1.0842022e-19 3.2608309 1.0842022e-19
-2.7929244 3.6893488e+19 2.3620036
-0 3.1717801 2
-2.6281259 -0 2.276654
-1.0842022e-19 3.1425672 -1.0842022e-19
-2.6908698 1.0842022e-19 2.2490637
-1.0842022e-19 3.1638241 2
-2.6209934 1.0842022e-19 2.2452877
-0 3.1436374 -2
-2.6920717 0 2.2045827
3.6893488e+19 3.1631727 -1.0842022e-19
-2.6204093 -0 2.1970475
-0 3.159806 2
-2.5651503 -0 2.167228
3.6893488e+19 3.1554523 3.6893488e+19
-2.6523383 3.6893488e+19 2.1442788
3.6893488e+19 3.1581974 -0
-2.5639131 -3.6893488e+19 2.1190701
-0 3.1578202 3.6893488e+19
-2.6546881 -3.6893488e+19 2.0995662
0 3.1604605 -3.6893488e+19
-2.5656533 0 2.0743654
-0 3.1971056 -3.6893488e+19
-2.6936717 1.0842022e-19 2.0817435
0 3.1608346 -0
-2.5659411 2 2.027899
-1.0842022e-19 3.1999629 -3.6893488e+19
-2.696507 -1.0842022e-19 2.0320599
-3.6893488e+19 3.1650224 0
-2.5691619 -3.6893488e+19 1.9835298
2 3.1684561 0
-2.5718024 1.0842022e-19 1.937883
-1.0842022e-19 3.1625283 -2
-2.6593599 -3.6893488e+19 1.9136869
0 3.1562231 0
-2.5623949 -1.0842022e-19 1.8862292
3.6893488e+19 3.1540356 0
-2.6509326 0 1.8527414
-0 3.1525278 2
-2.5595531 -2 1.8035057
2 3.1571674 1.0842022e-19
-2.6540403 -3.6893488e+19 1.7608976
0 3.1400952 2
-2.6880937 0 1.6721277
0 3.1513841 -3.6893488e+19
-2.6098406 -2 1.5409133
-2 3.1411567 -2
-2.6892858 0 -1.1389825
-2 3.1502852 -1.0842022e-19
-2.6088557 -2 -1.5755417
0 3.1379573 -3.6893488e+19
-2.6856925 2 -1.6883807
-2 3.1506612 3.6893488e+19
-2.6091928 -3.6893488e+19 -1.7667915
3.6893488e+19 3.1407259 0
-2.688802 2 -1.8104136
-3.6893488e+19 3.1190655 -0
-2.5808673 0 -1.8399911
-2 3.0954673 3.6893488e+19
-2.6379747 2 -1.8689995
1.0842022e-19 3.1184318 0
-2.5802991 -2 -1.8994476
-0 3.0932424 0
-2.6354761 3.6893488e+19 -1.911007
2 2.8914876 3.6893488e+19
-2.3509686 -3.6893488e+19 -1.8733888
-0 2.8103988 0
-2.3485913 2 -1.8426107
-1.0842022e-19 2.7743993 0
-2.2419982 -1.0842022e-19 -1.8305173
3.6893488e+19 2.7486298 -2
-2.1334577 2 -1.824741
-2 2.7019062 3.6893488e+19
-2.1984355 -3.6893488e+19 -1.821173
1.0842022e-19 2.659224 -2
-2.0647025 -0 -1.8122289
3.6893488e+19 2.6271274 -3.6893488e+19
-2.1242309 -2 -1.8104514
0 2.599025 -2
-2.0184081 -2 -1.8045802
-3.6893488e+19 2.5687344 3.6893488e+19
-2.0662866 0 -1.8001225
2 2.5517192 -1.0842022e-19
-1.982029 1.0842022e-19 -1.7974497
0 2.5293765 3.6893488e+19
-2.0272307 0 -1.7946314
-3.6893488e+19 2.5182745 0
-1.9563094 1.0842022e-19 -1.7936538
-3.6893488e+19 2.501775 -3.6893488e+19
-1.9998415 0 -1.7924241
3.6893488e+19 2.4753327 -1.0842022e-19
-1.9327708 3.6893488e+19 -1.7879952
1.0842022e-19 2.4469349 -3.6893488e+19
-1.9717511 -2 -1.7865326
3.6893488e+19 2.4403248 -3.6893488e+19
-1.9193099 -2 -1.7885911
-3.6893488e+19 3.1905544 -2
-2.6498051 -2 2.6659155
3.6893488e+19 3.1743145 -0
-2.7313206 3.6893488e+19 2.6495917
0 3.1880381 2
-2.6475215 3.6893488e+19 2.6503737
1.0842022e-19 3.1715677 2
-2.7282047 0 2.6341782
1.0842022e-19 3.1700544 -1.0842022e-19
-2.7264881 0 2.62006
-2 3.2202063 1.0842022e-19
-2.6767144 1.0842022e-19 2.6516345
3.6893488e+19 3.2499487 0
-2.7037058 2 2.6621473
2 3.2471964 -1.0842022e-19
-2.7012079 -3.6893488e+19 2.6451066
0 3.2553036 3.6893488e+19
-2.7896032 0 2.65364
-1.0842022e-19 3.2486048 -1.0842022e-19
-2.702486 -2 2.6314552
3.6893488e+19 3.200727 -1.0842022e-19
-2.6015162 1.0842022e-19 2.5727744
1.0842022e-19 3.2601061 -3.6893488e+19
-2.7610016 0 2.6192758
3.6893488e+19 3.2051396 -2
-2.6049576 1.0842022e-19 2.5626197
1.0842022e-19 3.2512605 0
-2.7521257 -2 2.5918589
-2 3.2422688 -2
-2.6339142 -2 2.5594232
-3.6893488e+19 3.2611802 1.0842022e-19
-2.7620797 -1.0842022e-19 2.574573
-3.6893488e+19 3.2395997 0
-2.6318328 -1.0842022e-19 2.5435219
2 3.2593181 -0
-2.760211 3.6893488e+19 2.5570247
1.0842022e-19 3.2418215 1.0842022e-19
-2.6335654 0 2.5305922
-2 3.2597964 0
-2.7606912 1.0842022e-19 2.5423625
-3.6893488e+19 3.1578543 -3.6893488e+19
-2.5680804 0 2.4417722
-3.6893488e+19 3.2582636 -3.6893488e+19
-2.7591529 2 2.5255244
-3.6893488e+19 3.1602917 -1.0842022e-19
-2.5699813 2 2.4207075
-0 3.2576177 2
-2.7585049 -2 2.5097899
2 3.2518601 0
-2.7071285 1.0842022e-19 2.4760077
-0 3.2520571 -1.0842022e-19
-2.7859206 -2 2.4680953
-2 3.16364 2
-2.6253803 0 2.3669362
-3.6893488e+19 3.253772 3.6893488e+19
-2.7878661 1.0842022e-19 2.4415121
-0 3.2519369 -2
-2.7072678 2 2.4178488
1.0842022e-19 3.2578111 -0
-2.7924476 -2 2.4183466
-0 3.2506671 0
-2.7049632 -2 2.3868032
-2 3.2523282 -2
-2.707978 -1.0842022e-19 2.3602676
-2 3.2594099 2
-2.7942615 -1.0842022e-19 2.3602974
-2 3.2522776 0
-2.7078865 0 2.3311436
-1.0842022e-19 3.1432965 1.0842022e-19
-2.6961355 -3.6893488e+19 2.25018
3.6893488e+19 3.2393234 2
-2.6940632 0 2.2929976
-3.6893488e+19 3.2577372 -2
-2.7923639 -0 2.2978616
2 3.2374623 1.0842022e-19
-2.6923742 -2 2.2638695
-3.6893488e+19 3.1632411 -1.0842022e-19
-2.5722816 -1.0842022e-19 2.1709387
-1.0842022e-19 3.15431 0
-2.6557024 0 2.143425
0 3.2450891 3.6893488e+19
-2.6361136 -1.0842022e-19 2.1978598
2 3.1587951 3.6893488e+19
-2.6602027 -2 2.1006308
-2 3.2278056 3.6893488e+19
-2.6226346 -1.0842022e-19 2.1277761
-1.0842022e-19 3.3111889 1.0842022e-19
-2.8122606 -3.6893488e+19 2.2120936
1.0842022e-19 3.2274041 -1.0842022e-19
-2.6223214 -3.6893488e+19 2.073092
3.6893488e+19 3.3129601 3.6893488e+19
-2.8140378 2 2.1426156
2 3.1625438 0
-2.5717378 1.0842022e-19 1.9822528
-3.6893488e+19 3.1545753 1.0842022e-19
-2.6559687 -1.0842022e-19 1.9571998
-2 3.1650245 0
-2.5736725 3.6893488e+19 1.9364368
-1.0842022e-19 3.1550357 -2
-2.5658822 -1.0842022e-19 1.8858999
-1.0842022e-19 3.1491349 2
-2.6505094 -2 1.8501259
-1.0842022e-19 3.1558814 1.0842022e-19
-2.5665419 0 1.8050842
2 3.1482029 3.6893488e+19
-2.649574 1.0842022e-19 1.7579925
1.0842022e-19 3.1361394 3.6893488e+19
-2.6880167 -3.6893488e+19 1.670508
0 3.1519091 -0
-2.6147342 0 1.5412285
1.0842022e-19 3.1411085 -0
-2.6936533 3.6893488e+19 -1.139068
2 3.1521823 -3.6893488e+19
-2.6149821 3.6893488e+19 -1.5766112
-3.6893488e+19 3.1381216 3.6893488e+19
-2.6902654 -0 -1.6885998
2 3.1513696 1.0842022e-19
-2.6142447 0 -1.7671261
2 3.1393852 -1.0842022e-19
-2.6916986 -3.6893488e+19 -1.8099139
1.0842022e-19 3.1194878 -2
-2.5853117 -1.0842022e-19 -1.840364
2 3.139878 2
-2.6922576 0 -1.8877848
2 3.1176355 3.6893488e+19
-2.5836308 -3.6893488e+19 -1.8992126
-1.0842022e-19 3.0936801 2
-2.6398532 3.6893488e+19 -1.9113315
-2 2.8918655 -2
-2.3556197 -0 -1.8737755
2 2.8099895 2
-2.3516362 -1.0842022e-19 -1.8424842
-0 2.7752116 -2
-2.2495115 -3.6893488e+19 -1.8312473
-2 2.7465389 -0
-2.1372445 3.6893488e+19 -1.8240043
3.6893488e+19 2.7014902 1.0842022e-19
-2.2030449 -1.0842022e-19 -1.8211204
2 2.6596291 -2
-2.0694644 2 -1.8125093
2 2.6256709 0
-2.1269646 0 -1.8098559
2 2.599093 -3.6893488e+19
-2.022253 2 -1.8047063
-1.0842022e-19 2.5678005 -1.0842022e-19
-2.0688949 3.6893488e+19 -1.7997234
0 2.5511992 3.6893488e+19
-1.9849014 -3.6893488e+19 -1.7972397
1.0842022e-19 2.5285895 -2
-2.0295486 -2 -1.794264
-2 2.5180163 -0
-1.9590226 -2 -1.7935768
0 2.5001607 0
-2.0010221 2 -1.7914591
0 2.4780262 2
-1.9364033 -3.6893488e+19 -1.7890018
1.0842022e-19 2.4464016 3.6893488e+19
-1.9739693 -3.6893488e+19 -1.7864453
2 2.440346 3.6893488e+19
-1.9217101 -1.0842022e-19 -1.788682
-1.0842022e-19 2.4009826 -2
-1.9063606 -1.0842022e-19 -1.7855452
-2 2.3405921 2
-1.9431752 -0 -1.7840865
2 2.2987454 1.0842022e-19
-1.9194407 1.0842022e-19 -1.7821052
2 2.2603204 -2
-1.897647 -2 -1.7772578
2 2.2182302 -3.6893488e+19
-1.882784 0 -1.7757986
-3.6893488e+19 2.1854911 1.0842022e-19
-1.7948171 -3.6893488e+19 -1.7751716
-3.6893488e+19 2.1564252 2
-1.783483 -0 -1.7770547
2 2.1177957 2
-1.7684196 -0 -1.7734318
0 2.0908227 0
-1.7579017 -0 -1.7726371
-3.6893488e+19 3.1905544 -2
-2.6498051 -2 2.6659155
3.6893488e+19 3.1743145 -0
-2.7313206 3.6893488e+19 2.6495917
0 3.1880381 2
-2.6475215 3.6893488e+19 2.6503737
1.0842022e-19 3.1715677 2
-2.7282047 0 2.6341782
1.0842022e-19 3.1700544 -1.0842022e-19
-2.7264881 0 2.62006
-2 3.2202063 1.0842022e-19
-2.6767144 1.0842022e-19 2.6516345
2 3.2220726 -0
-2.6784079 -2 2.6391666
2 3.2471964 -1.0842022e-19
-2.7012079 -3.6893488e+19 2.6451066
0 3.2553036 3.6893488e+19
-2.7896032 0 2.65364
-1.0842022e-19 3.2486048 -1.0842022e-19
-2.702486 -2 2.6314552
3.6893488e+19 3.200727 -1.0842022e-19
-2.6015162 1.0842022e-19 2.5727744
1.0842022e-19 3.2601061 -3.6893488e+19
-2.7610016 0 2.6192758
3.6893488e+19 3.2051396 -2
-2.6049576 1.0842022e-19 2.5626197
1.0842022e-19 3.2512605 0
-2.7521257 -2 2.5918589
-2 3.2422688 -2
-2.6339142 -2 2.5594232
1.0842022e-19 3.1589148 0
-2.6603229 -2 2.5040824
-0 3.1658897 1.0842022e-19
-2.5743473 0 2.4986637
1.0842022e-19 3.1610446 -2
-2.6624599 1.0842022e-19 2.4866643
-1.0842022e-19 3.1667922 0
-2.5750511 1.0842022e-19 2.4755735
-0 3.1638784 0
-2.6653037 3.6893488e+19 2.4657588
-3.6893488e+19 3.1578543 -3.6893488e+19
-2.5680804 0 2.4417722
-3.6893488e+19 3.1673281 2
-2.6687653 2 2.4452198
-3.6893488e+19 3.1602917 -1.0842022e-19
-2.5699813 2 2.4207075
1.0842022e-19 3.1649866 -1.0842022e-19
-2.6664155 0 2.4184859
1.0842022e-19 3.1629248 1.0842022e-19
-2.6247311 1.0842022e-19 2.3902073
-0 3.2520571 -1.0842022e-19
-2.7859206 -2 2.4680953
-2 3.16364 2
-2.6253803 0 2.3669362
-0 3.154654 0
-2.7090189 -1.0842022e-19 2.3520079
-1.0842022e-19 3.1656702 -0
-2.6272225 2 2.3447039
2 3.1493738 2
-2.7030292 0 2.3240294
3.6893488e+19 3.1651034 1.0842022e-19
-2.6267083 -1.0842022e-19 2.320272
0 3.1673391 -0
-2.628737 1.0842022e-19 2.2979329
-2 3.2594099 2
-2.7942615 -1.0842022e-19 2.3602974
-2 3.1692224 -0
-2.6304462 1.0842022e-19 2.2751389
-1.0842022e-19 3.1432965 1.0842022e-19
-2.6961355 -3.6893488e+19 2.25018
-1.0842022e-19 3.170753 -0
-2.6318352 -1.0842022e-19 2.2519388
-1.0842022e-19 3.1562433 -0
-2.7108216 3.6893488e+19 2.219487
-2 3.1769171 3.6893488e+19
-2.6374292 -0 2.2121916
-3.6893488e+19 3.1632411 -1.0842022e-19
-2.5722816 -1.0842022e-19 2.1709387
-1.0842022e-19 3.15431 0
-2.6557024 0 2.143425
-3.6893488e+19 3.1579292 -2
-2.5681388 -0 2.1190147
2 3.1587951 3.6893488e+19
-2.6602027 -2 2.1006308
-2 3.1573112 1.0842022e-19
-2.567657 -1.0842022e-19 2.0720398
-0 3.1906064 1.0842022e-19
-2.6921237 3.6893488e+19 2.0771346
-0 3.1607182 -1.0842022e-19
-2.5703139 2 2.0279613
2 3.18613 1.0842022e-19
-2.6876318 2 2.0235674
2 3.1625438 0
-2.5717378 1.0842022e-19 1.9822528
-3.6893488e+19 3.1545753 1.0842022e-19
-2.6559687 -1.0842022e-19 1.9571998
-2 3.1650245 0
-2.5736725 3.6893488e+19 1.9364368
-1.0842022e-19 3.1550357 -2
-2.5658822 -1.0842022e-19 1.8858999
-1.0842022e-19 3.1491349 2
-2.6505094 -2 1.8501259
-1.0842022e-19 3.1558814 1.0842022e-19
-2.5665419 0 1.8050842
2 3.1482029 3.6893488e+19
-2.649574 1.0842022e-19 1.7579925
1.0842022e-19 3.1361394 3.6893488e+19
-2.6880167 -3.6893488e+19 1.670508
0 3.1519091 -0
-2.6147342 0 1.5412285
1.0842022e-19 3.1411085 -0
-2.6936533 3.6893488e+19 -1.139068
2 3.1521823 -3.6893488e+19
-2.6149821 3.6893488e+19 -1.5766112
-3.6893488e+19 3.1381216 3.6893488e+19
-2.6902654 -0 -1.6885998
2 3.1513696 1.0842022e-19
-2.6142447 0 -1.7671261
2 3.1393852 -1.0842022e-19
-2.6916986 -3.6893488e+19 -1.8099139
1.0842022e-19 3.1194878 -2
-2.5853117 -1.0842022e-19 -1.840364
1.0842022e-19 3.0949719 -1.0842022e-19
-2.6413183 -0 -1.8688295
2 3.1176355 3.6893488e+19
-2.5836308 -3.6893488e+19 -1.8992126
-1.0842022e-19 3.0936801 2
-2.6398532 3.6893488e+19 -1.9113315
-2 2.8918655 -2
-2.3556197 -0 -1.8737755
2 2.8099895 2
-2.3516362 -1.0842022e-19 -1.8424842
-0 2.7752116 -2
-2.2495115 -3.6893488e+19 -1.8312473
-2 2.7465389 -0
-2.1372445 3.6893488e+19 -1.8240043
3.6893488e+19 2.7014902 1.0842022e-19
-2.2030449 -1.0842022e-19 -1.8211204
2 2.6596291 -2
-2.0694644 2 -1.8125093
2 2.6256709 0
-2.1269646 0 -1.8098559
2 2.599093 -3.6893488e+19
-2.022253 2 -1.8047063
-1.0842022e-19 2.5678005 -1.0842022e-19
-2.0688949 3.6893488e+19 -1.7997234
0 2.5511992 3.6893488e+19
-1.9849014 -3.6893488e+19 -1.7972397
1.0842022e-19 2.5285895 -2
-2.0295486 -2 -1.794264
-2 2.5180163 -0
-1.9590226 -2 -1.7935768
0 2.5001607 0
-2.0010221 2 -1.7914591
0 2.4780262 2
-1.9364033 -3.6893488e+19 -1.7890018
1.0842022e-19 2.4464016 3.6893488e+19
-1.9739693 -3.6893488e+19 -1.7864453
2 2.440346 3.6893488e+19
-1.9217101 -1.0842022e-19 -1.788682
-1.0842022e-19 2.4009826 -2
-1.9063606 -1.0842022e-19 -1.7855452
-2 2.3405921 2
-1.9431752 -0 -1.7840865
2 2.2987454 1.0842022e-19
-1.9194407 1.0842022e-19 -1.7821052
2 2.2603204 -2
-1.897647 -2 -1.7772578
2 2.2182302 -3.6893488e+19
-1.882784 0 -1.7757986
-3.6893488e+19 2.1854911 1.0842022e-19
-1.7948171 -3.6893488e+19 -1.7751716
-3.6893488e+19 2.1564252 2
-1.783483 -0 -1.7770547
2 2.1177957 2
-1.7684196 -0 -1.7734318
0 2.0908227 0
-1.7579017 -0 -1.7726371
-1.0842022e-19 3.1739616 -0
-2.7357233 3.6893488e+19 2.6625051
2 3.1742909 2
-2.7361004 -1.0842022e-19 2.6498678
2 3.1921463 2
-2.6561236 -1.0842022e-19 2.6543703
-1.0842022e-19 3.1719573 -1.0842022e-19
-2.7334268 0 2.6348205
-1.0842022e-19 3.2559633 -3.6893488e+19
-2.7202189 1.0842022e-19 2.7028377
-0 3.1678894 0
-2.7287664 2 2.6184275
1.0842022e-19 3.2185836 0
-2.680407 1.0842022e-19 2.6504877
3.6893488e+19 3.2515867 -0
-2.7121787 -2 2.6650536
-1.0842022e-19 3.2462413 2
-2.7058115 0 2.6445837
3.6893488e+19 3.2455223 -2
-2.7051508 3.6893488e+19 2.6293237
1.0842022e-19 3.2657585 3.6893488e+19
-2.8044734 -3.6893488e+19 2.6545312
3.6893488e+19 3.2512145 1.0842022e-19
-2.6473053 -3.6893488e+19 2.6099842
-0 3.2611432 -0
-2.7649527 -3.6893488e+19 2.6209931
-2 3.2080495 -1.0842022e-19
-2.6122112 2 2.5647802
-3.6893488e+19 3.2510047 -1.0842022e-19
-2.7546663 -2 2.5917368
-0 3.2546806 -2
-2.652787 -0 2.5851719
3.6893488e+19 3.2497921 0
-2.7535415 -1.0842022e-19 2.5754764
-2 3.2418339 2
-2.638927 2 2.559309
3.6893488e+19 3.2579975 -3.6893488e+19
-2.761761 -3.6893488e+19 2.5708296
-2 3.2388628 -1.0842022e-19
-2.6365774 -2 2.5432308
0 3.2579925 1.0842022e-19
-2.7617559 1.0842022e-19 2.5556571
0 3.2417812 -3.6893488e+19
-2.638885 -3.6893488e+19 2.5307133
-3.6893488e+19 3.2593997 2
-2.7631838 0 2.542109
1.0842022e-19 3.1574321 1.0842022e-19
-2.5721846 1.0842022e-19 2.4415417
3.6893488e+19 3.2585287 3.6893488e+19
-2.7623 -1.0842022e-19 2.5259893
1.0842022e-19 3.1596551 1.0842022e-19
-2.5739424 -3.6893488e+19 2.4202704
-3.6893488e+19 3.2568913 -2
-2.7606387 -1.0842022e-19 2.5092287
3.6893488e+19 3.2556643 0
-2.7929089 1.0842022e-19 2.5026042
3.6893488e+19 3.2520576 -3.6893488e+19
-2.7130437 1.0842022e-19 2.4766657
0 3.2523916 -3.6893488e+19
-2.7891591 -0 2.4690664
0 3.2544038 -1.0842022e-19
-2.7173538 3.6893488e+19 2.4516282
2 3.2519693 2
-2.7886755 -1.0842022e-19 2.4387028
0 3.2512107 -3.6893488e+19
-2.7114878 -2 2.4168932
0 3.2569759 -3.6893488e+19
-2.7944112 2 2.4173028
-3.6893488e+19 3.2500017 -1.0842022e-19
-2.7092671 2 2.3860073
0 3.25508 -0
-2.7922392 -2 2.3843641
1.0842022e-19 3.2518134 0
-2.7125952 -3.6893488e+19 2.3597474
3.6893488e+19 3.2584081 -0
-2.7960522 1.0842022e-19 2.359174
-3.6893488e+19 3.1691539 -2
-2.6350045 -3.6893488e+19 2.2752583
0 3.1433926 -0
-2.7007008 -1.0842022e-19 2.250428
-1.0842022e-19 3.2488425 3.6893488e+19
-2.7082007 2 2.298876
-1.0842022e-19 3.258414 3.6893488e+19
-2.7960591 -1.0842022e-19 2.2988667
2 3.2255919 2
-2.6868443 -1.0842022e-19 2.2575979
3.6893488e+19 3.1664863 -0
-2.5793443 -3.6893488e+19 2.1744623
0 3.1539524 -2
-2.6598449 -0 2.1433365
3.6893488e+19 3.24863 -2
-2.6443009 2 2.2012951
2 3.226764 -3.6893488e+19
-2.6270099 0 2.1271465
2 3.3107111 1.0842022e-19
-2.8152437 -0 2.211689
0 3.3111341 -1.0842022e-19
-2.8156726 -1.0842022e-19 2.1405826
2 3.1600645 0
-2.5742662 3.6893488e+19 1.9809757
0 3.3287086 0
-2.8335037 1.0842022e-19 2.0869131
-3.6893488e+19 3.163095 -3.6893488e+19
-2.5766625 1.0842022e-19 1.9356655
-1.0842022e-19 3.1541133 2
-2.6600084 0 1.9105588
-1.0842022e-19 3.1547356 -3.6893488e+19
-2.5700521 -2 1.885869
1.0842022e-19 3.3059225 -3.6893488e+19
-2.810385 -2 1.9226649
0 3.1500633 -1.0842022e-19
-2.5663574 -1.0842022e-19 1.8025939
-3.6893488e+19 3.1485758 -2
-2.6543901 3.6893488e+19 1.7582051
2 3.1342289 -2
-2.6902022 3.6893488e+19 1.6697912
1.0842022e-19 3.1539836 0
-2.6210701 -3.6893488e+19 1.5421864
0 3.1362503 -0
-2.692518 -2 -1.1374431
1.0842022e-19 3.1525512 -0
-2.6197543 -0 -1.5769167
0 3.1366005 -0
-2.6929193 0 -1.6880009
2 3.1532006 -2
-2.6203508 3.6893488e+19 -1.7678598
-3.6893488e+19 3.1373222 3.6893488e+19
-2.6937463 3.6893488e+19 -1.8090717
3.6893488e+19 3.1649456 3.6893488e+19
-2.631139 -2 -1.8670048
1.0842022e-19 3.1379352 1.0842022e-19
-2.6944485 0 -1.8872006
3.6893488e+19 3.1657367 0
-2.6318657 3.6893488e+19 -1.9188365
3.6893488e+19 3.0910513 -2
-2.6407347 3.6893488e+19 -1.910217
-3.6893488e+19 2.8825009 -2
-2.3513377 -2 -1.8679756
-0 2.8110187 -0
-2.3563271 -0 -1.8433694
-0 2.7739518 -2
-2.2516322 1.0842022e-19 -1.8304261
3.6893488e+19 2.7470186 0
-2.1430268 2 -1.824299
1.0842022e-19 2.700587 2
-2.20716 -2 -1.8208574
-2 2.6605203 3.6893488e+19
-2.0746267 -2 -1.8130139
2 2.6269951 -1.0842022e-19
-2.1324944 -0 -1.8106301
-3.6893488e+19 2.5990357 1.0842022e-19
-2.0260067 1.0842022e-19 -1.8047694
-1.0842022e-19 2.5666234 2
-2.0712423 0 -1.7991914
2 2.5507996 2
-1.9878629 -1.0842022e-19 -1.7970997
-1.0842022e-19 2.5282845 3.6893488e+19
-2.0323441 -0 -1.7941905
-1.0842022e-19 2.5172672 -0
-1.9613466 -1.0842022e-19 -1.7931921
-0 2.5003576 -1.0842022e-19
-2.0040097 0 -1.7917004
2 2.4777803 -3.6893488e+19
-1.9389068 -3.6893488e+19 -1.7890018
-3.6893488e+19 2.446348 -1.0842022e-19
-1.9764296 -2 -1.7865326
-1.0842022e-19 2.4393868 -0
-1.9237267 -3.6893488e+19 -1.7884095
-1.0842022e-19 3.1739616 -0
-2.7357233 3.6893488e+19 2.6625051
2 3.1742909 2
-2.7361004 -1.0842022e-19 2.6498678
2 3.1921463 2
-2.6561236 -1.0842022e-19 2.6543703
-1.0842022e-19 3.1719573 -1.0842022e-19
-2.7334268 0 2.6348205
-1.0842022e-19 3.2559633 -3.6893488e+19
-2.7202189 1.0842022e-19 2.7028377
-0 3.1678894 0
-2.7287664 2 2.6184275
1.0842022e-19 3.2185836 0
-2.680407 1.0842022e-19 2.6504877
1.0842022e-19 3.2222085 2
-2.6837366 1.0842022e-19 2.6395116
-1.0842022e-19 3.2462413 2
-2.7058115 0 2.6445837
3.6893488e+19 3.2455223 -2
-2.7051508 3.6893488e+19 2.6293237
1.0842022e-19 3.2657585 3.6893488e+19
-2.8044734 -3.6893488e+19 2.6545312
-2 3.2012198 3.6893488e+19
-2.6068106 -2 2.5732934
-0 3.2611432 -0
-2.7649527 -3.6893488e+19 2.6209931
-2 3.2080495 -1.0842022e-19
-2.6122112 2 2.5647802
-3.6893488e+19 3.2510047 -1.0842022e-19
-2.7546663 -2 2.5917368
-0 3.2546806 -2
-2.652787 -0 2.5851719
3.6893488e+19 3.2497921 0
-2.7535415 -1.0842022e-19 2.5754764
-2 3.2418339 2
-2.638927 2 2.559309
-3.6893488e+19 3.1585846 1.0842022e-19
-2.6645451 -0 2.5040452
-2 3.2388628 -1.0842022e-19
-2.6365774 -2 2.5432308
0 3.1594539 3.6893488e+19
-2.6654267 -0 2.4851012
0 3.2417812 -3.6893488e+19
-2.638885 -3.6893488e+19 2.5307133
-3.6893488e+19 3.1635749 -0
-2.6696081 -1.0842022e-19 2.4657249
1.0842022e-19 3.1574321 1.0842022e-19
-2.5721846 1.0842022e-19 2.4415417
-1.0842022e-19 3.1655505 1.0842022e-19
-2.6716125 -2 2.4436162
1.0842022e-19 3.1596551 1.0842022e-19
-2.5739424 -3.6893488e+19 2.4202704
2 3.164953 1.0842022e-19
-2.6710062 1.0842022e-19 2.4187286
-2 3.1396718 -3.6893488e+19
-2.6964381 -2 2.3850076
3.6893488e+19 3.2520576 -3.6893488e+19
-2.7130437 1.0842022e-19 2.4766657
-3.6893488e+19 3.1422241 -1.0842022e-19
-2.6993623 0 2.3644719
-2 3.1625147 3.6893488e+19
-2.6289062 -3.6893488e+19 2.3661566
-1.0842022e-19 3.1499598 -3.6893488e+19
-2.7082248 1.0842022e-19 2.3481843
-1.0842022e-19 3.1642096 1.0842022e-19
-2.6304631 -2 2.343698
2 3.1502419 -2
-2.7085478 1.0842022e-19 2.3249762
1.0842022e-19 3.1613076 2
-2.6277974 -1.0842022e-19 2.317533
0 3.1417978 1.0842022e-19
-2.6988738 2 2.295188
1.0842022e-19 3.16712 0
-2.6331363 1.0842022e-19 2.2979546
3.6893488e+19 3.2584081 -0
-2.7960522 1.0842022e-19 2.359174
-3.6893488e+19 3.1691539 -2
-2.6350045 -3.6893488e+19 2.2752583
0 3.1433926 -0
-2.7007008 -1.0842022e-19 2.250428
0 3.1701372 -3.6893488e+19
-2.6359074 -1.0842022e-19 2.2517204
3.6893488e+19 3.1461401 -2
-2.7038486 1.0842022e-19 2.2081528
1.0842022e-19 3.1746867 3.6893488e+19
-2.6400864 1.0842022e-19 2.2100518
3.6893488e+19 3.1664863 -0
-2.5793443 -3.6893488e+19 2.1744623
0 3.1539524 -2
-2.6598449 -0 2.1433365
1.0842022e-19 3.1582706 1.0842022e-19
-2.5728476 0 2.1195135
3.6893488e+19 3.1578062 0
-2.5724804 3.6893488e+19 2.072597
0 3.1902246 0
-2.6966465 -0 2.0770671
0 3.1893532 -2
-2.6957622 0 2.0257714
2 3.1600645 0
-2.5742662 3.6893488e+19 1.9809757
1.0842022e-19 3.1565185 -3.6893488e+19
-2.6624484 0 1.9583325
-3.6893488e+19 3.163095 -3.6893488e+19
-2.5766625 1.0842022e-19 1.9356655
-1.0842022e-19 3.1541133 2
-2.6600084 0 1.9105588
-1.0842022e-19 3.1547356 -3.6893488e+19
-2.5700521 -2 1.885869
-0 3.150749 2
-2.656595 1.0842022e-19 1.8511858
0 3.1500633 -1.0842022e-19
-2.5663574 -1.0842022e-19 1.8025939
-3.6893488e+19 3.1485758 -2
-2.6543901 3.6893488e+19 1.7582051
2 3.1342289 -2
-2.6902022 3.6893488e+19 1.6697912
1.0842022e-19 3.1539836 0
-2.6210701 -3.6893488e+19 1.5421864
0 3.1362503 -0
-2.692518 -2 -1.1374431
1.0842022e-19 3.1525512 -0
-2.6197543 -0 -1.5769167
0 3.1366005 -0
-2.6929193 0 -1.6880009
2 3.1532006 -2
-2.6203508 3.6893488e+19 -1.7678598
-3.6893488e+19 3.1373222 3.6893488e+19
-2.6937463 3.6893488e+19 -1.8090717
3.6893488e+19 3.1649456 3.6893488e+19
-2.631139 -2 -1.8670048
1.0842022e-19 3.1379352 1.0842022e-19
-2.6944485 0 -1.8872006
0 3.1173854 2
-2.5874536 1.0842022e-19 -1.8992003
3.6893488e+19 3.0910513 -2
-2.6407347 3.6893488e+19 -1.910217
-3.6893488e+19 2.8825009 -2
-2.3513377 -2 -1.8679756
-0 2.8110187 -0
-2.3563271 -0 -1.8433694
-0 2.7739518 -2
-2.2516322 1.0842022e-19 -1.8304261
3.6893488e+19 2.7470186 0
-2.1430268 2 -1.824299
1.0842022e-19 2.700587 2
-2.20716 -2 -1.8208574
-2 2.6605203 3.6893488e+19
-2.0746267 -2 -1.8130139
2 2.6269951 -1.0842022e-19
-2.1324944 -0 -1.8106301
-3.6893488e+19 2.5990357 1.0842022e-19
-2.0260067 1.0842022e-19 -1.8047694
-1.0842022e-19 2.5666234 2
-2.0712423 0 -1.7991914
2 2.5507996 2
-1.9878629 -1.0842022e-19 -1.7970997
-1.0842022e-19 2.5282845 3.6893488e+19
-2.0323441 -0 -1.7941905
-1.0842022e-19 2.5172672 -0
-1.9613466 -1.0842022e-19 -1.7931921
-0 2.5003576 -1.0842022e-19
-2.0040097 0 -1.7917004
2 2.4777803 -3.6893488e+19
-1.9389068 -3.6893488e+19 -1.7890018
-3.6893488e+19 2.446348 -1.0842022e-19
-1.9764296 -2 -1.7865326
-1.0842022e-19 2.4393868 -0
-1.9237267 -3.6893488e+19 -1.7884095
1.0842022e-19 3.1709239 -1.0842022e-19
-2.737016 0 2.6598582
-1.0842022e-19 3.2325621 3.6893488e+19
-2.6985698 1.0842022e-19 2.7061222
2 3.1747618 2
-2.7414565 -1.0842022e-19 2.6506133
-3.6893488e+19 3.1909578 -2
-2.6598961 -0 2.6535275
2 3.1695282 -0
-2.7354012 0 2.6328936
-3.6893488e+19 3.1778824 2
-2.7450674 2 2.6275222
-3.6893488e+19 3.2176147 -3.6893488e+19
-2.6846752 -1.0842022e-19 2.6499014
1.0842022e-19 3.1780632 2
-2.7452762 0 2.6147158
0 3.1766901 -3.6893488e+19
-2.7436874 1.0842022e-19 2.600661
0 3.2465391 3.6893488e+19
-2.7115622 -0 2.6450591
2 3.2451329 0
-2.7102551 -3.6893488e+19 2.6292548
3.6893488e+19 3.2479725 -3.6893488e+19
-2.6492023 2 2.6069772
-3.6893488e+19 3.2609539 -1.0842022e-19
-2.7676711 0 2.6209722
-2 3.2071462 2
-2.6164739 2 2.5643232
-1.0842022e-19 3.2505684 2
-2.7570183 -2 2.5913706
-1.0842022e-19 3.2494884 -3.6893488e+19
-2.7561727 2 2.575496
3.6893488e+19 3.2423348 -3.6893488e+19
-2.6446829 2 2.5597854
-3.6893488e+19 3.258364 0
-2.7650146 -3.6893488e+19 2.5715001
1.0842022e-19 3.2416093 2
-2.6441014 1.0842022e-19 2.545032
0 3.258075 -3.6893488e+19
-2.7647178 -1.0842022e-19 2.555959
1.0842022e-19 3.2414947 -2
-2.6440094 1.0842022e-19 2.5306962
-2 3.2580118 -3.6893488e+19
-2.7646532 -2 2.54074
3.6893488e+19 3.24178 -0
-2.6442382 2 2.5166144
1.0842022e-19 3.2571104 -3.6893488e+19
-2.7637284 -1.0842022e-19 2.5246584
-1.0842022e-19 3.1590767 0
-2.5779388 2 2.4198961
-0 3.2566447 1.0842022e-19
-2.7632511 3.6893488e+19 2.5091529
-1.0842022e-19 3.2559636 2
-2.7961543 0 2.5030906
-3.6893488e+19 3.2508769 1.0842022e-19
-2.7164099 1.0842022e-19 2.4747202
-2 3.2519925 0
-2.7915597 3.6893488e+19 2.468678
0 3.161993 -2
-2.6329715 1.0842022e-19 2.3659148
-1.0842022e-19 3.2521079 0
-2.7916932 -1.0842022e-19 2.439275
-0 3.2510738 1.0842022e-19
-2.7167759 2 2.4169185
2 3.1512251 -1.0842022e-19
-2.7142241 -2 2.32602
3.6893488e+19 3.2490346 3.6893488e+19
-2.713882 1.0842022e-19 2.3854923
3.6893488e+19 3.2541702 -3.6893488e+19
-2.7940791 -0 2.3832822
3.6893488e+19 3.2514336 3.6893488e+19
-2.7174447 1.0842022e-19 2.3594224
0 3.2560596 -2
-2.7962651 -2 2.3561778
2 3.1688399 0
-2.6393363 -1.0842022e-19 2.2752185
-0 3.1457601 -2
-2.707901 -3.6893488e+19 2.252125
-0 3.2491784 0
-2.7140157 3.6893488e+19 2.2992582
-3.6893488e+19 3.2592375 -1.0842022e-19
-2.7999423 -0 2.3000453
0 3.2252133 0
-2.6917386 3.6893488e+19 2.2575486
-3.6893488e+19 3.2359328 3.6893488e+19
-2.6395509 3.6893488e+19 2.2454972
1.0842022e-19 3.1525042 3.6893488e+19
-2.6628649 2 2.1421883
-0 3.2353985 -0
-2.6391225 2 2.1895487
-2 3.2264543 -0
-2.6319523 -3.6893488e+19 2.1270978
-0 3.1985793 1.0842022e-19
-2.7101262 2 2.083497
3.6893488e+19 3.1609838 2
-2.5794675 -2 1.9816142
-1.0842022e-19 3.3106532 1.0842022e-19
-2.8186498 -0 2.0686197
-3.6893488e+19 3.1654832 3.6893488e+19
-2.5830746 0 1.9368362
-2 3.3101227 0
-2.8181057 -3.6893488e+19 1.9965951
-1.0842022e-19 3.1544328 2
-2.5742159 -2 1.8858382
0 3.2999375 -1.0842022e-19
-2.807658 -1.0842022e-19 1.9194
-0 3.1515398 0
-2.5718968 -3.6893488e+19 1.8033423
-0 3.1493692 2
-2.6596494 3.6893488e+19 1.7585593
-2 3.1351101 1.0842022e-19
-2.6955791 3.6893488e+19 1.6703089
0 3.1554439 -1.0842022e-19
-2.6268837 0 1.5428923
-0 3.1357191 0
-2.6962836 3.6893488e+19 -1.1373576
-1.0842022e-19 3.1541948 2
-2.6257229 -3.6893488e+19 -1.5778638
2 3.1383505 -1.0842022e-19
-2.6993279 2 -1.6889943
-2 3.1538699 2
-2.6254208 0 -1.7681836
-3.6893488e+19 3.1382611 -0
-2.6992247 2 -1.809657
-1.0842022e-19 3.1611643 1.0842022e-19
-2.6322014 3.6893488e+19 -1.8649446
0 3.140074 3.6893488e+19
-2.7013221 -2 -1.8880609
0 3.1630206 0
-2.6339269 3.6893488e+19 -1.9178349
-1.0842022e-19 3.089144 -3.6893488e+19
-2.6423953 -1.0842022e-19 -1.9094411
1.0842022e-19 2.886528 -0
-2.3593004 2 -1.8706822
1.0842022e-19 2.8116243 -0
-2.3605545 3.6893488e+19 -1.8439595
2 2.7751241 2
-2.255744 0 -1.83143
-2 2.7473717 0
-2.148721 2 -1.8245445
1.0842022e-19 2.700649 2
-2.212249 3.6893488e+19 -1.8210152
-2 2.6599393 3.6893488e+19
-2.0786302 -1.0842022e-19 -1.8128457
-3.6893488e+19 2.6213043 -0
-2.130862 -0 -1.8079501
1.0842022e-19 2.599221 -0
-2.0299549 2 -1.8049585
-3.6893488e+19 2.5665329 2
-2.0746808 -3.6893488e+19 -1.7992578
1.0842022e-19 2.5505207 1.0842022e-19
-1.9909141 -0 -1.7970297
2 2.5285819 2
-2.0357528 -1.0842022e-19 -1.7944844
0 2.5170059 -3.6893488e+19
-1.9640467 2 -1.7931153
3.6893488e+19 2.5000699 0
-2.0065069 3.6893488e+19 -1.7916199
-1.0842022e-19 2.4767985 0
-1.9411142 -2 -1.7887502
1.0842022e-19 2.4477389 0
-1.979632 -1.0842022e-19 -1.7871442
3.6893488e+19 2.439158 -1.0842022e-19
-1.9260267 -3.6893488e+19 -1.7884095
1.0842022e-19 2.399348 0
-1.9100698 -2 -1.7850564
1.0842022e-19 2.3436615 -0
-1.9488111 0 -1.7857611
-1.0842022e-19 2.298774 1.0842022e-19
-1.9228433 3.6893488e+19 -1.7823561
0 2.2575521 -1.0842022e-19
-1.898996 2 -1.7758648
0 2.2184777 1.0842022e-19
-1.8855091 -0 -1.7761047
3.6893488e+19 2.186974 -0
-1.8001513 -1.0842022e-19 -1.7758391
-3.6893488e+19 2.1540759 -0
-1.7869649 0 -1.7763324
2 2.1203005 2
-1.7734268 1.0842022e-19 -1.7745975
0 2.0923882 -1.0842022e-19
-1.7622386 -3.6893488e+19 -1.7734689
1.0842022e-19 3.1709239 -1.0842022e-19
-2.737016 0 2.6598582
-1.0842022e-19 3.2325621 3.6893488e+19
-2.6985698 1.0842022e-19 2.7061222
2 3.1747618 2
-2.7414565 -1.0842022e-19 2.6506133
-3.6893488e+19 3.1909578 -2
-2.6598961 -0 2.6535275
2 3.1695282 -0
-2.7354012 0 2.6328936
