# .PCD v0.7 - Point Cloud Data file format
VERSION 0.7
FIELDS x y z
SIZE 4 4 4
TYPE F F F
COUNT 1 1 1
WIDTH 1740
HEIGHT 1
VIEWPOINT 0 0 0 1 0 0 0
POINTS 1740
DATA ascii
1.8662778 -1.0842022e-19 2.6436772
-1.0842022e-19 3.2825637 2
2.3112099 1.0842022e-19 2.700062
-3.6893488e+19 3.238826 2
1.8674029 3.6893488e+19 2.6313443
-0 3.2809885 2
2.3094749 0 2.6812465
-1.0842022e-19 3.261215 -1.0842022e-19
1.8795333 -2 2.6424549
2 3.2814639 1.0842022e-19
2.3099985 -3.6893488e+19 2.6656885
2 3.2587371 -2
1.8783045 -0 2.6238127
2 3.2831845 -3.6893488e+19
2.3118935 0 2.6518819
1.0842022e-19 3.2533205 -3.6893488e+19
2.1234636 3.6893488e+19 2.5944657
1.0842022e-19 3.2339036 2
2.1067033 -3.6893488e+19 2.5651243
-0 3.2481179 1.0842022e-19
2.3968942 2 2.5684814
-2 3.2397459 -0
2.1110098 2 2.5549138
2 3.2469058 1.0842022e-19
2.3959284 1.0842022e-19 2.5534439
0 3.256496 -0
2.1281452 2 2.5547349
2 3.2552094 -2
2.1262486 0 2.5386586
-0 3.2434123 0
2.3931448 0 2.5230772
2 3.2532732 1.0842022e-19
2.1233943 -2 2.5220621
3.6893488e+19 3.2434731 0
2.3931932 0 2.5090351
0 3.1567955 0
2.0498641 3.6893488e+19 2.4138732
-3.6893488e+19 3.2391574 -2
2.3897545 3.6893488e+19 2.4856796
-0 3.1570218 -3.6893488e+19
2.0500307 -3.6893488e+19 2.3910358
3.6893488e+19 3.1517997 -3.6893488e+19
1.8242475 2 2.3742955
1.0842022e-19 3.1656818 -2
2.2078233 -3.6893488e+19 2.3763223
-3.6893488e+19 3.1535137 2
1.8250976 0 2.353097
2 3.2528143 -3.6893488e+19
2.2784443 -0 2.429152
3.6893488e+19 3.1549928 -2
1.8258309 -2 2.331547
3.6893488e+19 3.1548784 1.0842022e-19
2.1959248 1.0842022e-19 2.3207681
-0 3.1545875 -2
1.8256299 2 2.3084311
2 3.1524775 1.0842022e-19
2.1932805 -0 2.296165
0 3.2605031 -1.0842022e-19
1.8791802 -0 2.3678739
3.6893488e+19 3.1539056 -0
2.1948533 -0 2.2744591
1.0842022e-19 3.1539023 0
1.8252902 -3.6893488e+19 2.2625012
-3.6893488e+19 3.1549735 1.0842022e-19
2.1960297 -3.6893488e+19 2.2523992
3.6893488e+19 3.155648 1.0842022e-19
1.8261559 -2 2.2317436
3.6893488e+19 3.1552765 3.6893488e+19
2.1963632 0 2.2096117
0 3.257591 1.0842022e-19
1.8777362 1.0842022e-19 2.2770371
-2 3.152324 3.6893488e+19
2.1931114 1.0842022e-19 2.1610751
2 3.1566541 -2
2.3240168 -0 2.1436932
0 3.1508675 -3.6893488e+19
2.0454941 -0 2.114136
1.0842022e-19 3.158026 2
2.32511 0 2.0991433
3.6893488e+19 3.139636 0
2.0372152 1.0842022e-19 2.0603011
-0 3.1438472 2
2.0403194 1.0842022e-19 2.0195897
3.6893488e+19 3.1561761 2
2.3236361 -0 2.0062993
-3.6893488e+19 3.1418648 1.0842022e-19
2.0388582 -0 1.9744068
-1.0842022e-19 3.1475749 -0
2.3167827 0 1.9562553
0 3.1436069 -2
2.0401421 -2 1.9314142
-2 3.1484318 3.6893488e+19
2.3174655 0 1.9119984
-3.6893488e+19 3.1412106 -0
2.0383759 -1.0842022e-19 1.8865966
-1.0842022e-19 3.1881955 2
2.3491488 0 1.8790301
3.6893488e+19 3.1416039 3.6893488e+19
2.0386658 -2 1.810997
-2 3.1519849 -3.6893488e+19
2.3202965 -3.6893488e+19 1.7715898
0 3.1444757 -3.6893488e+19
2.0407825 -1.0842022e-19 1.6984994
-3.6893488e+19 3.148042 0
1.8223842 -1.0842022e-19 1.5976146
-2 3.1522665 -3.6893488e+19
2.193048 1.0842022e-19 1.3071303
-2 3.143295 -0
1.8200302 -3.6893488e+19 -1.5060554
-1.0842022e-19 3.1574032 0
2.1987057 0 -1.6591202
1.0842022e-19 3.1423724 -3.6893488e+19
1.8195726 2 -1.7404419
-2 3.1741474 0
2.2171474 -2 -1.8026888
-0 3.1392124 1.0842022e-19
1.8180057 2 -1.8311104
-3.6893488e+19 3.1778388 -3.6893488e+19
2.2212129 2 -1.8874593
-2 3.0846796 -0
1.7909635 -2 -1.8759613
-1.0842022e-19 3.0749247 -2
2.1078653 -2 -1.890745
-0 3.0710309 1.0842022e-19
1.7841953 -0 -1.9066654
-1.0842022e-19 2.8838093 -1.0842022e-19
1.6903263 -2 -1.8551699
1.0842022e-19 2.8148029 2
1.9233587 -2 -1.8318338
-2 2.7846844 2
1.6411716 1.0842022e-19 -1.8275321
-1.0842022e-19 2.7423925 -3.6893488e+19
1.8855777 0 -1.8143345
3.6893488e+19 2.6875038 -0
1.9242988 -0 -1.8059556
1.0842022e-19 2.6623151 -0
1.7769663 3.6893488e+19 -1.8064185
3.6893488e+19 2.6261191 -3.6893488e+19
1.8998435 3.6893488e+19 -1.8017075
2 2.6114233 3.6893488e+19
1.7582092 -3.6893488e+19 -1.8042746
3.6893488e+19 2.5801568 1.0842022e-19
1.8815324 -0 -1.79869
0 2.5710218 -1.0842022e-19
1.736637 0 -1.8022316
0 2.5448895 0
1.8599643 -1.0842022e-19 -1.7967403
-3.6893488e+19 2.5363705 -2
1.7110944 0 -1.7991742
-3.6893488e+19 2.5165865 3.6893488e+19
1.837413 -1.0842022e-19 -1.7952856
-3.6893488e+19 2.5049775 2
1.6879535 2 -1.7944039
-1.0842022e-19 2.4793308 1.0842022e-19
1.8159624 -3.6893488e+19 -1.7916124
1.0842022e-19 2.4641304 -2
1.6710638 -2 -1.792235
0 2.4468307 -1.0842022e-19
1.8030145 0 -1.7929395
-2 3.2323434 -1.0842022e-19
2.2554574 -2 2.6904366
0 3.2347765 2
1.8247105 -0 2.6563151
0 3.2827668 -3.6893488e+19
2.2995162 -0 2.7003055
-0 3.239059 0
1.8264748 -3.6893488e+19 2.6315117
-1.0842022e-19 3.2814057 3.6893488e+19
2.2980747 2 2.6818104
-1.0842022e-19 3.2612708 -2
1.8402684 1.0842022e-19 2.6425242
-1.0842022e-19 3.2804556 -0
2.2970684 3.6893488e+19 2.6641264
-3.6893488e+19 3.2576857 2
1.8373146 0 2.6222801
-3.6893488e+19 3.2505798 -3.6893488e+19
2.098356 -2 2.5906992
0 3.2599304 -3.6893488e+19
2.1113548 -3.6893488e+19 2.5885003
-3.6893488e+19 3.2476625 -3.6893488e+19
2.3859911 3.6893488e+19 2.5681083
1.0842022e-19 3.258198 -3.6893488e+19
2.1089466 -2 2.5714681
-0 3.2471876 -2
2.3856227 -3.6893488e+19 2.5535376
-3.6893488e+19 3.2576067 1.0842022e-19
2.108125 -2 2.5560188
-0 3.2572024 -3.6893488e+19
2.1075625 -1.0842022e-19 2.5408785
3.6893488e+19 3.2438476 0
2.3830323 1.0842022e-19 2.5232477
-1.0842022e-19 3.2438469 -3.6893488e+19
2.3830316 1.0842022e-19 2.5091646
-1.0842022e-19 3.1557901 0
2.0320647 2 2.412802
-1.0842022e-19 3.2374005 0
2.378032 -0 2.4838104
1.0842022e-19 3.1576276 -2
2.0333416 0 2.391572
1.0842022e-19 3.2566977 -0
1.8365004 2 2.4782343
-2 3.2519381 3.6893488e+19
2.2668617 -0 2.4560854
-2 3.2575209 -0
1.8371788 2 2.4506736
2 3.2524714 3.6893488e+19
2.2674265 3.6893488e+19 2.4284942
3.6893488e+19 3.2621562 -0
1.8409979 -2 2.4292121
-1.0842022e-19 3.255646 -0
2.2707891 2 2.4050035
-0 3.2598639 -0
1.8391092 3.6893488e+19 2.3961918
0 3.253984 -3.6893488e+19
2.2690284 3.6893488e+19 2.3737245
0 3.2616022 2
1.8405414 0 2.3694124
-2 3.2538605 0
2.268898 -1.0842022e-19 2.3449421
-3.6893488e+19 3.1548514 -0
1.7917843 -2 2.2631085
0 3.2523723 -0
2.2673213 -3.6893488e+19 2.3145256
-1.0842022e-19 3.2573333 3.6893488e+19
1.8370242 -2 2.3055952
-1.0842022e-19 3.2508543 0
2.2657137 3.6893488e+19 2.2844357
2 3.2647245 0
1.843114 -1.0842022e-19 2.2846985
2 3.2497344 2
2.264668 2 2.2552569
1.0842022e-19 3.2551985 2
2.3958681 0 2.2440023
2 3.2505481 1.0842022e-19
2.0983119 -1.0842022e-19 2.2051275
3.6893488e+19 3.2541811 -1.0842022e-19
2.39429 3.6893488e+19 2.1848879
-1.0842022e-19 3.142987 1.0842022e-19
2.0231652 -0 2.062933
2 3.1510642 -2
2.3110685 -0 2.0480385
2 3.2508779 -2
2.0987701 -1.0842022e-19 2.0934129
0 3.1544161 -2
2.3136683 3.6893488e+19 2.0051229
1.0842022e-19 3.1404133 2
2.0213761 -3.6893488e+19 1.9735492
3.6893488e+19 3.1469002 -3.6893488e+19
2.3078389 -1.0842022e-19 1.9558522
-3.6893488e+19 3.1406882 1.0842022e-19
2.0215673 -1.0842022e-19 1.930048
-2 3.214361 2
2.3601623 0 1.9387559
0 3.1387908 -3.6893488e+19
2.0202482 0 1.8857358
1.0842022e-19 3.1500671 0
2.3102953 2 1.7708528
1.0842022e-19 3.1439288 3.6893488e+19
2.0238197 0 1.6982011
0 3.1443386 3.6893488e+19
1.7874533 2 1.5955352
-3.6893488e+19 3.17641 -2
2.2016683 1.0842022e-19 1.3180274
3.6893488e+19 3.1429973 3.6893488e+19
1.7869008 3.6893488e+19 -1.5059513
2 3.1761529 2
2.201396 3.6893488e+19 -1.6664138
2 3.1406059 2
1.7859156 2 -1.7393506
0 3.1770911 1.0842022e-19
2.2023897 -1.0842022e-19 -1.8038903
1.0842022e-19 3.1411328 0
1.7861327 2 -1.8321196
-1.0842022e-19 3.1797228 -0
2.2051773 -2 -1.8880401
-1.0842022e-19 3.0842547 -2
1.7627009 0 -1.8757968
1.0842022e-19 3.0781617 -0
2.0976002 3.6893488e+19 -1.892122
-0 3.0702307 3.6893488e+19
1.7569236 3.6893488e+19 -1.9062692
0 2.8833866 -0
1.6579415 -2 -1.8549078
2 2.8186595 -2
1.9187676 2 -1.8343308
-0 2.7845078 -1.0842022e-19
1.609414 2 -1.8273988
-0 2.7427289 -1.0842022e-19
1.8804789 -1.0842022e-19 -1.8144302
-0 2.6884863 3.6893488e+19
1.9200468 -1.0842022e-19 -1.8063153
1.0842022e-19 2.6619895 -0
1.7681868 -3.6893488e+19 -1.8062539
-1.0842022e-19 2.6246014 -3.6893488e+19
1.8952719 3.6893488e+19 -1.8009491
-0 2.613086 -3.6893488e+19
1.7511904 2 -1.8050783
1.0842022e-19 2.5793729 1.0842022e-19
1.8777322 2 -1.7982329
3.6893488e+19 2.5693152 3.6893488e+19
1.7219559 1.0842022e-19 -1.8012687
2 2.5453377 1.0842022e-19
1.8540664 -3.6893488e+19 -1.796957
3.6893488e+19 2.5362797 1.0842022e-19
1.698993 -1.0842022e-19 -1.7990984
-3.6893488e+19 2.5140507 -1.0842022e-19
1.8298 3.6893488e+19 -1.7936224
3.6893488e+19 2.5050075 -1.0842022e-19
1.6772556 2 -1.7944039
-2 2.4806938 2
1.8114151 2 -1.7920432
-3.6893488e+19 2.4676673 -2
1.6625377 0 -1.7934898
1.0842022e-19 2.4471936 1.0842022e-19
1.7984235 -3.6893488e+19 -1.7930325
0 2.408268 -0
1.7833279 -2 -1.7899528
1.0842022e-19 2.3581245 -1.0842022e-19
1.3975344 -2 -1.7892352
3.6893488e+19 2.3180962 -1.0842022e-19
1.3810441 -2 -1.7888827
2 2.2838392 -1.0842022e-19
1.3588631 -0 -1.7873569
0 2.2553411 0
1.3353827 3.6893488e+19 -1.7856182
-2 2.2120509 3.6893488e+19
1.6791853 -3.6893488e+19 -1.7842866
1.0842022e-19 2.1766515 -1.0842022e-19
1.6654571 3.6893488e+19 -1.7844179
-1.0842022e-19 2.1496418 -2
1.6549827 0 -1.7859398
1.0842022e-19 2.1154008 -3.6893488e+19
1.6417038 0 -1.782829
-2 3.2323434 -1.0842022e-19
2.2554574 -2 2.6904366
0 3.2347765 2
1.8247105 -0 2.6563151
0 3.2827668 -3.6893488e+19
2.2995162 -0 2.7003055
-0 3.239059 0
1.8264748 -3.6893488e+19 2.6315117
-1.0842022e-19 3.2814057 3.6893488e+19
2.2980747 2 2.6818104
-1.0842022e-19 3.2612708 -2
1.8402684 1.0842022e-19 2.6425242
-1.0842022e-19 3.2804556 -0
2.2970684 3.6893488e+19 2.6641264
-3.6893488e+19 3.2576857 2
1.8373146 0 2.6222801
-3.6893488e+19 3.2505798 -3.6893488e+19
2.098356 -2 2.5906992
2 3.2377508 -2
2.0890353 -0 2.5675924
-3.6893488e+19 3.2476625 -3.6893488e+19
2.3859911 3.6893488e+19 2.5681083
3.6893488e+19 3.2367184 1.0842022e-19
2.0883179 1.0842022e-19 2.5529933
-0 3.2471876 -2
2.3856227 -3.6893488e+19 2.5535376
-2 3.2388091 -1.0842022e-19
2.089771 -3.6893488e+19 2.5403354
-0 3.2572024 -3.6893488e+19
2.1075625 -1.0842022e-19 2.5408785
3.6893488e+19 3.2438476 0
2.3830323 1.0842022e-19 2.5232477
-1.0842022e-19 3.2438469 -3.6893488e+19
2.3830316 1.0842022e-19 2.5091646
-1.0842022e-19 3.1557901 0
2.0320647 2 2.412802
-1.0842022e-19 3.2374005 0
2.378032 -0 2.4838104
1.0842022e-19 3.1576276 -2
2.0333416 0 2.391572
1.0842022e-19 3.1516595 1.0842022e-19
1.7904693 -3.6893488e+19 2.3741508
3.6893488e+19 3.1683891 -0
2.1931722 -2 2.3787062
0 3.1543987 1.0842022e-19
1.7915977 1.0842022e-19 2.353858
1.0842022e-19 3.2343533 0
2.2565219 -3.6893488e+19 2.4110217
3.6893488e+19 3.2621562 -0
1.8409979 -2 2.4292121
-1.0842022e-19 3.255646 -0
2.2707891 2 2.4050035
-1.0842022e-19 3.1462038 -1.0842022e-19
1.7882217 -0 2.3020287
0 3.253984 -3.6893488e+19
2.2690284 3.6893488e+19 2.3737245
2 3.1465819 0
1.7883775 0 2.2800097
3.6893488e+19 3.1530139 -1.0842022e-19
2.1768863 -3.6893488e+19 2.2738047
-3.6893488e+19 3.1548514 -0
1.7917843 -2 2.2631085
-1.0842022e-19 3.1540194 -1.0842022e-19
2.1779513 -0 2.25176
0 3.152173 -2
1.7906808 -2 2.2275989
1.0842022e-19 3.1562192 -1.0842022e-19
2.1802814 -2 2.2105989
2 3.2647245 0
1.843114 -1.0842022e-19 2.2846985
3.6893488e+19 3.1560361 -0
2.1800876 -0 2.1647944
2 3.1533437 2
2.3128366 -3.6893488e+19 2.1403875
2 3.1516314 1.0842022e-19
2.0291739 -0 2.1147871
-0 3.1516395 3.6893488e+19
2.3115149 -1.0842022e-19 2.0935898
-1.0842022e-19 3.142987 1.0842022e-19
2.0231652 -0 2.062933
2 3.1510642 -2
2.3110685 -0 2.0480385
0 3.140712 0
2.0215838 -3.6893488e+19 2.0174119
0 3.1544161 -2
2.3136683 3.6893488e+19 2.0051229
1.0842022e-19 3.1404133 2
2.0213761 -3.6893488e+19 1.9735492
3.6893488e+19 3.1469002 -3.6893488e+19
2.3078389 -1.0842022e-19 1.9558522
-3.6893488e+19 3.1406882 1.0842022e-19
2.0215673 -1.0842022e-19 1.930048
-0 3.1492808 3.6893488e+19
2.3096855 -1.0842022e-19 1.9123017
0 3.1387908 -3.6893488e+19
2.0202482 0 1.8857358
1.0842022e-19 3.1500671 0
2.3102953 2 1.7708528
1.0842022e-19 3.1439288 3.6893488e+19
2.0238197 0 1.6982011
0 3.1443386 3.6893488e+19
1.7874533 2 1.5955352
-0 3.1499991 -1.0842022e-19
2.1736929 -0 1.3060716
3.6893488e+19 3.1429973 3.6893488e+19
1.7869008 3.6893488e+19 -1.5059513
1.0842022e-19 3.1548874 -2
2.1788707 2 -1.6581095
2 3.1406059 2
1.7859156 2 -1.7393506
0 3.1770911 1.0842022e-19
2.2023897 -1.0842022e-19 -1.8038903
1.0842022e-19 3.1411328 0
1.7861327 2 -1.8321196
-1.0842022e-19 3.1797228 -0
2.2051773 -2 -1.8880401
-1.0842022e-19 3.0842547 -2
1.7627009 0 -1.8757968
1.0842022e-19 3.0781617 -0
2.0976002 3.6893488e+19 -1.892122
-0 3.0702307 3.6893488e+19
1.7569236 3.6893488e+19 -1.9062692
0 2.8833866 -0
1.6579415 -2 -1.8549078
2 2.8186595 -2
1.9187676 2 -1.8343308
-0 2.7845078 -1.0842022e-19
1.609414 2 -1.8273988
-0 2.7427289 -1.0842022e-19
1.8804789 -1.0842022e-19 -1.8144302
-0 2.6884863 3.6893488e+19
1.9200468 -1.0842022e-19 -1.8063153
1.0842022e-19 2.6619895 -0
1.7681868 -3.6893488e+19 -1.8062539
-1.0842022e-19 2.6246014 -3.6893488e+19
1.8952719 3.6893488e+19 -1.8009491
-0 2.613086 -3.6893488e+19
1.7511904 2 -1.8050783
1.0842022e-19 2.5793729 1.0842022e-19
1.8777322 2 -1.7982329
3.6893488e+19 2.5693152 3.6893488e+19
1.7219559 1.0842022e-19 -1.8012687
2 2.5453377 1.0842022e-19
1.8540664 -3.6893488e+19 -1.796957
3.6893488e+19 2.5362797 1.0842022e-19
1.698993 -1.0842022e-19 -1.7990984
-3.6893488e+19 2.5140507 -1.0842022e-19
1.8298 3.6893488e+19 -1.7936224
3.6893488e+19 2.5050075 -1.0842022e-19
1.6772556 2 -1.7944039
-2 2.4806938 2
1.8114151 2 -1.7920432
-3.6893488e+19 2.4676673 -2
1.6625377 0 -1.7934898
1.0842022e-19 2.4471936 1.0842022e-19
1.7984235 -3.6893488e+19 -1.7930325
0 2.408268 -0
1.7833279 -2 -1.7899528
1.0842022e-19 2.3581245 -1.0842022e-19
1.3975344 -2 -1.7892352
3.6893488e+19 2.3180962 -1.0842022e-19
1.3810441 -2 -1.7888827
2 2.2838392 -1.0842022e-19
1.3588631 -0 -1.7873569
0 2.2553411 0
1.3353827 3.6893488e+19 -1.7856182
-2 2.2120509 3.6893488e+19
1.6791853 -3.6893488e+19 -1.7842866
1.0842022e-19 2.1766515 -1.0842022e-19
1.6654571 3.6893488e+19 -1.7844179
-1.0842022e-19 2.1496418 -2
1.6549827 0 -1.7859398
1.0842022e-19 2.1154008 -3.6893488e+19
1.6417038 0 -1.782829
1.0842022e-19 3.2321162 1.0842022e-19
2.2417145 3.6893488e+19 2.6901591
3.6893488e+19 3.2299707 2
2.2395263 -1.0842022e-19 2.6600745
1.0842022e-19 3.2374206 0
1.787619 -2 2.6585195
2 3.2871234 -1.0842022e-19
1.816587 2 2.7145972
-0 3.2896068 3.6893488e+19
1.8182441 -1.0842022e-19 2.701828
-3.6893488e+19 3.2813585 0
2.2869601 -3.6893488e+19 2.6816692
-2 3.2621841 -2
1.799946 -3.6893488e+19 2.6438851
-0 3.2595382 -2
1.7981803 0 2.6249456
-1.0842022e-19 3.2598338 -2
2.0908339 -1.0842022e-19 2.5883398
2 3.2481787 3.6893488e+19
2.3765476 0 2.5683637
-3.6893488e+19 3.2571447 0
2.0873067 2 2.5701239
-1.0842022e-19 3.2492418 0
2.3773513 -2 2.5547204
0 3.2422264 -0
2.0728359 0 2.542335
-1.0842022e-19 3.2355332 1.0842022e-19
2.3669896 2 2.5324562
0 3.2588367 2
2.0895259 -2 2.5426965
1.0842022e-19 3.2443333 1.0842022e-19
2.373641 3.6893488e+19 2.5234523
1.0842022e-19 3.2439935 1.0842022e-19
2.3733842 0 2.5091808
0 3.2572172 -0
1.7966316 2 2.4791884
-3.6893488e+19 3.2520401 -3.6893488e+19
2.2570579 1.0842022e-19 2.4561977
-2 3.2575593 -1.0842022e-19
1.79686 1.0842022e-19 2.4507279
0 3.2366323 1.0842022e-19
2.2463205 1.0842022e-19 2.4128902
0 3.1529057 -1.0842022e-19
1.7594221 0 2.3298168
-3.6893488e+19 3.2550969 2
2.2601757 -1.0842022e-19 2.4040694
-2 3.2606645 3.6893488e+19
1.798932 -2 2.3974011
-1.0842022e-19 3.2548938 0
2.2599685 2 2.3750038
2 3.2625589 0
1.8001961 0 2.370753
-2 3.2533259 1.0842022e-19
2.2583694 -1.0842022e-19 2.344161
3.6893488e+19 3.256407 3.6893488e+19
1.7960911 -3.6893488e+19 2.3332627
-2 3.2515261 -2
2.2565336 -0 2.3134215
-0 3.257699 2
1.7969532 -2 2.3060207
0 3.2505054 -3.6893488e+19
2.2554924 3.6893488e+19 2.2839949
-3.6893488e+19 3.2648098 0
1.8016981 2 2.2847824
-1.0842022e-19 3.2495027 2
2.2547235 -2 2.2550979
-0 3.2486844 -2
2.3769298 1.0842022e-19 2.232553
-0 3.250761 -2
2.0789328 -2 2.2054672
0 3.2441595 0
2.3735096 3.6893488e+19 2.1726387
3.6893488e+19 3.1431212 0
2.0078361 -3.6893488e+19 2.0630074
0 3.2356288 -3.6893488e+19
2.3670616 -3.6893488e+19 2.1107955
-0 3.2539608 -1.0842022e-19
2.0831301 1.0842022e-19 2.0975974
0 3.2397528 -2
2.3701787 2 2.0588846
-1.0842022e-19 3.2353444 2
2.0683224 -0 2.0278778
3.6893488e+19 3.2395327 3.6893488e+19
2.3700125 -2 2.0038364
-0 3.2371702 -2
2.0695198 1.0842022e-19 1.9744884
0 3.1498721 -2
2.3022425 0 1.912504
-0 3.140142 3.6893488e+19
2.005882 3.6893488e+19 1.8861934
-0 3.1522968 0
2.3040755 3.6893488e+19 1.8618023
3.6893488e+19 3.1390367 -1.0842022e-19
2.005157 0 1.809737
-2 3.1499429 -2
2.3022962 3.6893488e+19 1.7707734
-3.6893488e+19 3.1447186 -1.0842022e-19
2.0088837 2 1.698578
2 3.1371002 -3.6893488e+19
1.7541488 0 1.591481
1.0842022e-19 3.1462896 2
1.7572148 2 -1.5070446
-2 3.1792145 2
2.1877596 0 -1.6675828
1.0842022e-19 3.141242 -1.0842022e-19
1.7555307 -1.0842022e-19 -1.7397335
3.6893488e+19 3.1802773 -2
2.1888435 -2 -1.8051963
-2 3.1425185 -0
1.7559566 -2 -1.8328475
2 3.1802278 3.6893488e+19
2.1887929 -2 -1.8881803
-2 3.0836394 2
1.7226255 -0 -1.8755616
0 3.0770605 3.6893488e+19
2.0835717 3.6893488e+19 -1.8916225
-3.6893488e+19 3.0707707 2
1.7140387 -3.6893488e+19 -1.9065282
-1.0842022e-19 2.8868947 0
1.6290804 3.6893488e+19 -1.857005
-3.6893488e+19 2.8190217 0
1.9126866 1.0842022e-19 -1.8345355
-1.0842022e-19 2.7844534 -2
1.5648054 -2 -1.8273543
0 2.7431812 0
1.8757499 0 -1.814574
-3.6893488e+19 2.6879675 -3.6893488e+19
1.9155185 -0 -1.8060584
-2 2.6621566 -2
1.7601603 0 -1.8063089
-3.6893488e+19 2.6248133 -1.0842022e-19
1.891651 -3.6893488e+19 -1.8010074
3.6893488e+19 2.6127496 2
1.7379162 -1.0842022e-19 -1.8048928
-1.0842022e-19 2.5795741 0
1.8741082 0 -1.7982982
-0 2.5697219 -3.6893488e+19
1.7096957 -3.6893488e+19 -1.8014749
-2 2.5459032 3.6893488e+19
1.8486581 2 -1.7972461
2 2.5358112 3.6893488e+19
1.6874547 -1.0842022e-19 -1.7987955
3.6893488e+19 2.5141127 -0
1.8246292 3.6893488e+19 -1.7936224
-3.6893488e+19 2.5050337 0
1.6672689 2 -1.7944039
1.0842022e-19 2.4751034 -0
1.804553 -2 -1.7900617
-1.0842022e-19 2.4677157 2
1.6533802 0 -1.7934898
2 2.4470506 -3.6893488e+19
1.7939512 0 -1.7929395
1.0842022e-19 3.2321162 1.0842022e-19
2.2417145 3.6893488e+19 2.6901591
3.6893488e+19 3.2299707 2
2.2395263 -1.0842022e-19 2.6600745
1.0842022e-19 3.2374206 0
1.787619 -2 2.6585195
2 3.2871234 -1.0842022e-19
1.816587 2 2.7145972
-0 3.2382448 0
1.787894 3.6893488e+19 2.6308658
-3.6893488e+19 3.2813585 0
2.2869601 -3.6893488e+19 2.6816692
-2 3.2621841 -2
1.799946 -3.6893488e+19 2.6438851
-0 3.2595382 -2
1.7981803 0 2.6249456
0 3.2370307 -2
2.0694282 -0 2.5670907
2 3.2481787 3.6893488e+19
2.3765476 0 2.5683637
-2 3.2360282 2
2.0687709 0 2.5525324
-1.0842022e-19 3.2492418 0
2.3773513 -2 2.5547204
0 3.2422264 -0
2.0728359 0 2.542335
-1.0842022e-19 3.2355332 1.0842022e-19
2.3669896 2 2.5324562
0 3.245877 1.0842022e-19
2.0752304 -1.0842022e-19 2.5303726
1.0842022e-19 3.2443333 1.0842022e-19
2.373641 3.6893488e+19 2.5234523
1.0842022e-19 3.2439935 1.0842022e-19
2.3733842 0 2.5091808
3.6893488e+19 3.1528814 -3.6893488e+19
1.759414 2 2.3752785
-0 3.1670301 -1.0842022e-19
2.1753325 -1.0842022e-19 2.3774161
-3.6893488e+19 3.1530743 0
1.7594784 1.0842022e-19 2.3526893
0 3.2366323 1.0842022e-19
2.2463205 1.0842022e-19 2.4128902
0 3.1529057 -1.0842022e-19
1.7594221 0 2.3298168
-3.6893488e+19 3.2550969 2
2.2601757 -1.0842022e-19 2.4040694
-2 3.1489525 2
1.7581033 -3.6893488e+19 2.3041153
-1.0842022e-19 3.2548938 0
2.2599685 2 2.3750038
-1.0842022e-19 3.1508265 -3.6893488e+19
1.7587284 3.6893488e+19 2.2829986
1.0842022e-19 3.155067 2
2.1631312 2 2.2751558
1.0842022e-19 3.1524961 3.6893488e+19
1.7592854 -1.0842022e-19 2.2615702
-3.6893488e+19 3.1560113 -3.6893488e+19
2.1640944 2 2.2529612
-0 3.257699 2
1.7969532 -2 2.3060207
-1.0842022e-19 3.1587102 0
2.1668472 -3.6893488e+19 2.2133498
-0 3.148236 -3.6893488e+19
1.7578641 0 2.1782718
1.0842022e-19 3.156661 3.6893488e+19
2.164757 -1.0842022e-19 2.1653666
0 3.164587 -3.6893488e+19
2.3133647 -2 2.1511757
2 3.1417596 2
2.006943 -1.0842022e-19 2.1057842
-3.6893488e+19 3.1530073 -2
2.3046124 0 2.0946794
3.6893488e+19 3.1431212 0
2.0078361 -3.6893488e+19 2.0630074
1.0842022e-19 3.1517487 0
2.3036611 -0 2.0484772
-0 3.1416881 -2
2.006896 1.0842022e-19 2.0180526
2 3.152117 -3.6893488e+19
2.3039393 1.0842022e-19 2.0036132
-3.6893488e+19 3.1364594 0
2.0034668 0 1.9712626
1.0842022e-19 3.1481438 -1.0842022e-19
2.3009362 1.0842022e-19 1.9564488
2 3.1396987 0
2.0055914 3.6893488e+19 1.9295734
0 3.1498721 -2
2.3022425 0 1.912504
-0 3.140142 3.6893488e+19
2.005882 3.6893488e+19 1.8861934
-0 3.1522968 0
2.3040755 3.6893488e+19 1.8618023
3.6893488e+19 3.1390367 -1.0842022e-19
2.005157 0 1.809737
-2 3.1499429 -2
2.3022962 3.6893488e+19 1.7707734
-3.6893488e+19 3.1447186 -1.0842022e-19
2.0088837 2 1.698578
2 3.1371002 -3.6893488e+19
1.7541488 0 1.591481
1.0842022e-19 3.1462896 2
1.7572148 2 -1.5070446
3.6893488e+19 3.1552324 3.6893488e+19
2.1633 -0 -1.6582191
-0 3.1122448 -0
1.7417128 0 -1.7219656
3.6893488e+19 3.1802773 -2
2.1888435 -2 -1.8051963
-3.6893488e+19 3.1119931 -1.0842022e-19
1.7415448 1.0842022e-19 -1.8166837
2 3.1802278 3.6893488e+19
2.1887929 -2 -1.8881803
-2 3.0836394 2
1.7226255 -0 -1.8755616
0 3.0770605 3.6893488e+19
2.0835717 3.6893488e+19 -1.8916225
-3.6893488e+19 3.0707707 2
1.7140387 -3.6893488e+19 -1.9065282
-1.0842022e-19 2.8868947 0
1.6290804 3.6893488e+19 -1.857005
-3.6893488e+19 2.8190217 0
1.9126866 1.0842022e-19 -1.8345355
-1.0842022e-19 2.7844534 -2
1.5648054 -2 -1.8273543
0 2.7431812 0
1.8757499 0 -1.814574
-3.6893488e+19 2.6879675 -3.6893488e+19
1.9155185 -0 -1.8060584
-2 2.6621566 -2
1.7601603 0 -1.8063089
-3.6893488e+19 2.6248133 -1.0842022e-19
1.891651 -3.6893488e+19 -1.8010074
3.6893488e+19 2.6127496 2
1.7379162 -1.0842022e-19 -1.8048928
-1.0842022e-19 2.5795741 0
1.8741082 0 -1.7982982
-0 2.5697219 -3.6893488e+19
1.7096957 -3.6893488e+19 -1.8014749
-2 2.5459032 3.6893488e+19
1.8486581 2 -1.7972461
2 2.5358112 3.6893488e+19
1.6874547 -1.0842022e-19 -1.7987955
3.6893488e+19 2.5141127 -0
1.8246292 3.6893488e+19 -1.7936224
-3.6893488e+19 2.5050337 0
1.6672689 2 -1.7944039
1.0842022e-19 2.4751034 -0
1.804553 -2 -1.7900617
-1.0842022e-19 2.4677157 2
1.6533802 0 -1.7934898
2 2.4470506 -3.6893488e+19
1.7939512 0 -1.7929395
2 3.252382 -0
2.2435541 1.0842022e-19 2.666465
-2 3.2869158 -1.0842022e-19
1.7682961 2 2.7142503
3.6893488e+19 3.2883496 0
2.2819459 -1.0842022e-19 2.709048
3.6893488e+19 3.288939 -1.0842022e-19
1.7693065 3.6893488e+19 2.7007754
-1.0842022e-19 3.281374 1.0842022e-19
2.2751253 -3.6893488e+19 2.6816223
2 3.2623134 -0
1.7560087 -3.6893488e+19 2.6440697
3.6893488e+19 3.2606053 -1.0842022e-19
1.7551557 3.6893488e+19 2.6264782
-0 3.2296994 1.0842022e-19
2.2190461 3.6893488e+19 2.5902131
-2 3.2302983 -3.6893488e+19
2.0448308 3.6893488e+19 2.5764494
1.0842022e-19 3.2592599 -1.0842022e-19
2.0682931 2 2.5875573
-0 3.2490072 1.0842022e-19
2.3666155 2 2.5688152
-0 3.2568321 3.6893488e+19
2.0653126 1.0842022e-19 2.5697014
2 3.2486563 3.6893488e+19
2.3663576 -1.0842022e-19 2.5542886
-1.0842022e-19 3.2537682 -0
2.0615511 -2 2.5513964
0 3.2601469 -0
2.069382 3.6893488e+19 2.5441475
-3.6893488e+19 3.2461185 -3.6893488e+19
2.3644931 -2 2.5243728
-0 3.2441759 2
2.363066 -2 2.509213
-3.6893488e+19 3.2572541 0
1.7534821 -1.0842022e-19 2.4792461
-0 3.2498238 -1.0842022e-19
2.2387235 3.6893488e+19 2.4522712
-3.6893488e+19 3.1548545 -3.6893488e+19
1.702199 2 2.3542385
2 3.2575159 0
2.251797 1.0842022e-19 2.4369147
1.0842022e-19 3.2606468 1.0842022e-19
1.7551764 0 2.4267185
-1.0842022e-19 3.2549214 2
2.2485204 2 2.4037254
-1.0842022e-19 3.2609196 -0
1.7553127 2 2.3977807
-1.0842022e-19 3.2547026 -3.6893488e+19
2.2480922 0 2.3746612
0 3.2620361 -0
1.7558702 -3.6893488e+19 2.3700056
0 3.2545021 0
2.2477 -3.6893488e+19 2.3457019
-1.0842022e-19 3.2561483 0
1.7529298 -1.0842022e-19 2.3329186
-2 3.2512252 -3.6893488e+19
2.241292 0 2.3129954
-2 3.1502306 -1.0842022e-19
1.6998897 2 2.2252676
-3.6893488e+19 3.2512307 2
2.241303 -1.0842022e-19 2.2847707
-3.6893488e+19 3.2645512 -0
1.7571265 -3.6893488e+19 2.2844973
-3.6893488e+19 3.2497711 0
2.2386723 -1.0842022e-19 2.2551932
-2 3.2481849 3.6893488e+19
2.3660114 2 2.231952
2 3.2533281 -2
2.0610106 1.0842022e-19 2.2100821
-1.0842022e-19 3.2445908 -2
2.3633707 -2 2.1729043
-0 3.1415403 1.0842022e-19
1.9903469 3.6893488e+19 2.0617163
-2 3.2372084 0
2.3579471 -0 2.1118808
1.0842022e-19 3.2533634 2
2.061054 2 2.0967433
-1.0842022e-19 3.2382243 3.6893488e+19
2.3586934 -2 2.0578454
3.6893488e+19 3.2327735 -1.0842022e-19
2.0463502 1.0842022e-19 2.0263772
1.0842022e-19 3.1513824 -3.6893488e+19
2.2948914 0 1.9580773
-0 3.1368363 -1.0842022e-19
1.9874593 3.6893488e+19 1.9282359
-0 3.176008 0
2.3129838 1.0842022e-19 1.9230831
-1.0842022e-19 3.139683 -0
1.9892068 -2 1.886019
-3.6893488e+19 3.1538885 -2
2.2967327 0 1.8626813
1.0842022e-19 3.1399827 0
1.9893907 -0 1.8101668
-1.0842022e-19 3.1522188 -0
2.295506 -1.0842022e-19 1.7715671
1.0842022e-19 3.1359541 -2
1.9869177 1.0842022e-19 1.6941484
-2 3.1350157 -0
1.6922908 -0 1.5903101
-0 3.1447053 3.6893488e+19
1.6971301 -3.6893488e+19 -1.5065135
2 3.175386 2
2.1659389 1.0842022e-19 -1.6660607
0 3.140564 -0
1.6950617 1.0842022e-19 -1.7393123
2 3.1944141 -2
2.1845443 -1.0842022e-19 -1.8110862
-1.0842022e-19 3.1403408 2
1.6949503 -3.6893488e+19 -1.8316894
-1.0842022e-19 3.1790507 2
2.1695223 -0 -1.8877797
-3.6893488e+19 3.073463 -3.6893488e+19
1.6615491 1.0842022e-19 -1.8684579
3.6893488e+19 3.177016 -0
2.1675327 1.0842022e-19 -1.9348748
1.0842022e-19 3.0713408 1.0842022e-19
1.6604892 1.0842022e-19 -1.9068027
-1.0842022e-19 2.8853426 -3.6893488e+19
1.567454 3.6893488e+19 -1.8560687
-1.0842022e-19 2.8143368 -1.0842022e-19
1.9036779 0 -1.8314246
-0 2.7837734 2
1.5167267 2 -1.8268658
-2 2.7432618 1.0842022e-19
1.8661537 0 -1.814574
-2 2.687453 2
1.9106961 -0 -1.8058015
1.0842022e-19 2.6626985 2
1.7516674 -3.6893488e+19 -1.8065282
-0 2.6258991 -3.6893488e+19
1.8880845 -3.6893488e+19 -1.8014741
3.6893488e+19 2.61553 1.0842022e-19
1.7243805 2 -1.8062528
3.6893488e+19 2.5797789 -3.6893488e+19
1.8672851 -3.6893488e+19 -1.7983634
3.6893488e+19 2.5696306 2
1.6962051 -3.6893488e+19 -1.8014061
-3.6893488e+19 2.545603 -3.6893488e+19
1.8421766 -3.6893488e+19 -1.7970293
-2 2.5354671 3.6893488e+19
1.675234 -3.6893488e+19 -1.7985682
0 2.5141773 1.0842022e-19
1.8190883 3.6893488e+19 -1.7936224
2 2.5050604 0
1.6565688 2 -1.7944039
0 2.4776998 -0
1.8004805 -0 -1.7909232
2 2.4680133 -2
1.6436448 -2 -1.7935793
-1.0842022e-19 2.4476554 0
1.789444 -3.6893488e+19 -1.7931256
-2 2.4124265 -1.0842022e-19
1.7765027 -2 -1.7915533
-1.0842022e-19 2.3583915 3.6893488e+19
1.3039937 2 -1.7893492
1.0842022e-19 2.3186088 1.0842022e-19
1.2841247 -2 -1.7891382
-2 2.2818742 3.6893488e+19
1.2657782 2 -1.7862245
1.0842022e-19 2.2553544 2
1.2525332 3.6893488e+19 -1.7856182
-2 2.2093277 3.6893488e+19
1.6687317 1.0842022e-19 -1.7832721
0 2.1748977 2
1.6560839 0 -1.7836866
1.0842022e-19 2.1454394 2
1.6452626 1.0842022e-19 -1.7841712
-0 2.1141152 -2
1.6337558 1.0842022e-19 -1.7821985
2 3.252382 -0
2.2435541 1.0842022e-19 2.666465
-2 3.2527952 0
1.7512552 -2 2.6590407
3.6893488e+19 3.2883496 0
2.2819459 -1.0842022e-19 2.709048
3.6893488e+19 3.288939 -1.0842022e-19
1.7693065 3.6893488e+19 2.7007754
-1.0842022e-19 3.281374 1.0842022e-19
2.2751253 -3.6893488e+19 2.6816223
2 3.2623134 -0
1.7560087 -3.6893488e+19 2.6440697
3.6893488e+19 3.2606053 -1.0842022e-19
1.7551557 3.6893488e+19 2.6264782
-0 3.2296994 1.0842022e-19
2.2190461 3.6893488e+19 2.5902131
-2 3.2302983 -3.6893488e+19
2.0448308 3.6893488e+19 2.5764494
-3.6893488e+19 3.2353551 -2
2.047935 -0 2.5659671
-0 3.2490072 1.0842022e-19
2.3666155 2 2.5688152
-1.0842022e-19 3.2345977 3.6893488e+19
2.0474701 -0 2.5516105
2 3.2486563 3.6893488e+19
2.3663576 -1.0842022e-19 2.5542886
-0 3.2424319 -2
2.052279 -1.0842022e-19 2.5424266
1.0842022e-19 3.2470417 3.6893488e+19
2.0551088 1.0842022e-19 2.531002
-3.6893488e+19 3.2461185 -3.6893488e+19
2.3644931 -2 2.5243728
-0 3.2441759 2
2.363066 -2 2.509213
-3.6893488e+19 3.1547222 -0
1.7021329 -3.6893488e+19 2.3769841
-3.6893488e+19 3.1659515 -1.0842022e-19
2.156714 2 2.3763785
-3.6893488e+19 3.1548545 -3.6893488e+19
1.702199 2 2.3542385
0 3.2363708 2
2.2255692 0 2.4126008
0 3.1548116 2
1.7021775 -1.0842022e-19 2.3313689
-1.0842022e-19 3.2549214 2
2.2485204 2 2.4037254
3.6893488e+19 3.1508908 1.0842022e-19
1.7002194 2 2.3055856
-1.0842022e-19 3.2547026 -3.6893488e+19
2.2480922 0 2.3746612
-2 3.1539488 0
1.7017467 1.0842022e-19 2.2851963
-1.0842022e-19 3.1544805 -3.6893488e+19
2.1454976 0 2.2747126
-1.0842022e-19 3.2561483 0
1.7529298 -1.0842022e-19 2.3329186
3.6893488e+19 3.1564822 1.0842022e-19
2.147455 -0 2.2532129
-2 3.1502306 -1.0842022e-19
1.6998897 2 2.2252676
-1.0842022e-19 3.156817 2
2.1477823 -2 2.211128
-3.6893488e+19 3.2645512 -0
1.7571265 -3.6893488e+19 2.2844973
2 3.1581595 -2
2.1490948 0 2.1668291
-1.0842022e-19 3.1559906 3.6893488e+19
2.2982771 1.0842022e-19 2.1427617
-3.6893488e+19 3.1434526 0
1.9915209 2 2.1072848
-3.6893488e+19 3.1559646 3.6893488e+19
2.2982581 1.0842022e-19 2.0971239
-0 3.1415403 1.0842022e-19
1.9903469 3.6893488e+19 2.0617163
3.6893488e+19 3.1516602 0
2.2950957 3.6893488e+19 2.0483387
-2 3.1358011 2
1.9868239 0 2.0139964
-0 3.15377 3.6893488e+19
2.2966456 -3.6893488e+19 2.0045934
2 3.1360004 0
1.9869462 2 1.9709767
1.0842022e-19 3.1513824 -3.6893488e+19
2.2948914 0 1.9580773
-0 3.1368363 -1.0842022e-19
1.9874593 3.6893488e+19 1.9282359
1.0842022e-19 3.1529562 -0
2.2960477 -1.0842022e-19 1.9137173
-1.0842022e-19 3.139683 -0
1.9892068 -2 1.886019
-3.6893488e+19 3.1538885 -2
2.2967327 0 1.8626813
1.0842022e-19 3.1399827 0
1.9893907 -0 1.8101668
-1.0842022e-19 3.1522188 -0
2.295506 -1.0842022e-19 1.7715671
1.0842022e-19 3.1359541 -2
1.9869177 1.0842022e-19 1.6941484
-2 3.1350157 -0
1.6922908 -0 1.5903101
-0 3.1447053 3.6893488e+19
1.6971301 -3.6893488e+19 -1.5065135
-3.6893488e+19 3.1459725 -1.0842022e-19
2.1371787 -3.6893488e+19 -1.6545783
-2 3.1097224 2
1.6796584 3.6893488e+19 -1.7204146
0 3.171802 -2
2.1624343 -0 -1.801618
3.6893488e+19 3.1102209 -0
1.6799073 3.6893488e+19 -1.8157406
-1.0842022e-19 3.1790507 2
2.1695223 -0 -1.8877797
-3.6893488e+19 3.073463 -3.6893488e+19
1.6615491 1.0842022e-19 -1.8684579
2 3.077987 -3.6893488e+19
2.0707028 1.0842022e-19 -1.8920006
1.0842022e-19 3.0713408 1.0842022e-19
1.6604892 1.0842022e-19 -1.9068027
-1.0842022e-19 2.8853426 -3.6893488e+19
1.567454 3.6893488e+19 -1.8560687
-1.0842022e-19 2.8143368 -1.0842022e-19
1.9036779 0 -1.8314246
-0 2.7837734 2
1.5167267 2 -1.8268658
-2 2.7432618 1.0842022e-19
1.8661537 0 -1.814574
-2 2.687453 2
1.9106961 -0 -1.8058015
1.0842022e-19 2.6626985 2
1.7516674 -3.6893488e+19 -1.8065282
-0 2.6258991 -3.6893488e+19
1.8880845 -3.6893488e+19 -1.8014741
3.6893488e+19 2.61553 1.0842022e-19
1.7243805 2 -1.8062528
3.6893488e+19 2.5797789 -3.6893488e+19
1.8672851 -3.6893488e+19 -1.7983634
3.6893488e+19 2.5696306 2
1.6962051 -3.6893488e+19 -1.8014061
-3.6893488e+19 2.545603 -3.6893488e+19
1.8421766 -3.6893488e+19 -1.7970293
-2 2.5354671 3.6893488e+19
1.675234 -3.6893488e+19 -1.7985682
0 2.5141773 1.0842022e-19
1.8190883 3.6893488e+19 -1.7936224
2 2.5050604 0
1.6565688 2 -1.7944039
0 2.4776998 -0
1.8004805 -0 -1.7909232
2 2.4680133 -2
1.6436448 -2 -1.7935793
-1.0842022e-19 2.4476554 0
1.789444 -3.6893488e+19 -1.7931256
-2 2.4124265 -1.0842022e-19
1.7765027 -2 -1.7915533
-1.0842022e-19 2.3583915 3.6893488e+19
1.3039937 2 -1.7893492
1.0842022e-19 2.3186088 1.0842022e-19
1.2841247 -2 -1.7891382
-2 2.2818742 3.6893488e+19
1.2657782 2 -1.7862245
1.0842022e-19 2.2553544 2
1.2525332 3.6893488e+19 -1.7856182
-2 2.2093277 3.6893488e+19
1.6687317 1.0842022e-19 -1.7832721
0 2.1748977 2
1.6560839 0 -1.7836866
1.0842022e-19 2.1454394 2
1.6452626 1.0842022e-19 -1.7841712
-0 2.1141152 -2
1.6337558 1.0842022e-19 -1.7821985
2 3.2520244 -0
2.2216215 1.0842022e-19 2.6658096
-0 3.2863541 -1.0842022e-19
1.6898689 -1.0842022e-19 2.7133334
3.6893488e+19 3.240715 -0
2.2091455 -1.0842022e-19 2.6405439
3.6893488e+19 3.2889132 0
1.6915659 -1.0842022e-19 2.7007275
0 3.2404635 -3.6893488e+19
2.20891 0 2.6261218
0 3.2623947 -3.6893488e+19
1.6739824 -1.0842022e-19 2.6441851
-1.0842022e-19 3.2632544 -1.0842022e-19
1.6745526 -3.6893488e+19 2.6302986
-2 3.2300203 -1.0842022e-19
2.1991389 2 2.5903873
-1.0842022e-19 3.2321 1.0842022e-19
2.0256729 0 2.5776422
-2 3.2601943 1.0842022e-19
2.0475671 -2 2.5887411
0 3.2465129 2
2.3542769 0 2.5671463
-3.6893488e+19 3.2564404 -1.0842022e-19
2.0432739 2 2.5691829
-1.0842022e-19 3.2460358 -3.6893488e+19
2.3539364 -0 2.5526178
3.6893488e+19 3.2537003 3.6893488e+19
2.0401402 1.0842022e-19 2.5512865
-1.0842022e-19 3.2474082 0
2.3549159 1.0842022e-19 2.5250208
0 3.2427077 1.0842022e-19
2.0317385 3.6893488e+19 2.5145178
-3.6893488e+19 3.2419474 -0
2.3510194 2 2.507983
-0 3.2560463 -3.6893488e+19
2.0428231 -0 2.4917727
-1.0842022e-19 3.2571499 0
1.670505 -2 2.4790437
0 3.2343094 -0
2.2031519 -0 2.438164
0 3.2591543 -2
1.6718339 -0 2.4535003
-3.6893488e+19 3.2348647 -0
2.2036717 2 2.4112587
-1.0842022e-19 3.259532 1.0842022e-19
1.6720845 2 2.4248862
-0 3.2549925 3.6893488e+19
2.227176 3.6893488e+19 2.4037745
-2 3.2625728 -0
1.6741006 -2 2.4002941
2 3.2531116 -3.6893488e+19
2.2236559 -3.6893488e+19 2.3722622
-3.6893488e+19 3.2618225 3.6893488e+19
1.6736032 3.6893488e+19 2.369698
0 3.153425 0
2.1274712 -1.0842022e-19 2.2739525
2 3.2625847 1.0842022e-19
1.6741085 -0 2.3412781
0 3.2512648 1.0842022e-19
2.2202001 0 2.3129954
3.6893488e+19 3.2662017 -3.6893488e+19
1.6765068 -1.0842022e-19 2.3161049
0 3.2508347 1.0842022e-19
2.2193952 -2 2.284277
2 3.2635736 -3.6893488e+19
1.6747642 -3.6893488e+19 2.2834411
0 3.2334423 -0
2.2023406 0 2.2436335
0 3.2478063 1.0842022e-19
2.3551998 -2 2.2314711
-0 3.2539918 1.0842022e-19
2.0404737 -2 2.2112427
0 3.2452679 1.0842022e-19
2.3533885 -3.6893488e+19 2.1733825
-3.6893488e+19 3.1376793 -2
1.9716816 2 2.0586126
-2 3.1562018 1.0842022e-19
2.2898374 1.0842022e-19 2.0516405
-2 3.2531071 3.6893488e+19
2.0394619 -1.0842022e-19 2.096359
-0 3.1522796 -2
2.2870386 -3.6893488e+19 2.0035934
2 3.1368494 0
1.971207 -2 1.9714411
3.6893488e+19 3.1536243 0
2.2879982 -1.0842022e-19 1.9591898
3.6893488e+19 3.1377792 2
1.9717387 1.0842022e-19 1.928653
-0 3.152025 -2
2.2868569 -2 1.9133002
-1.0842022e-19 3.171849 -1.0842022e-19
1.9912204 2 1.8972323
1.0842022e-19 3.2376072 -3.6893488e+19
2.3479223 2 1.89344
-0 3.1717467 0
1.9911619 1.0842022e-19 1.8252293
-0 3.1569519 -2
2.2903724 2 1.7732567
-0 3.1757462 2
1.9934489 0 1.7141445
2 3.1327724 -0
1.6268998 -3.6893488e+19 1.5890518
0 3.1475706 -1.0842022e-19
2.1219933 2 1.304886
3.6893488e+19 3.1333997 1.0842022e-19
1.6271079 1.0842022e-19 -1.5027444
3.6893488e+19 3.1770437 2
2.1495705 -0 -1.6666816
-1.0842022e-19 3.140383 2
1.629423 -0 -1.7391974
2 3.1704021 1.0842022e-19
2.1433561 -0 -1.8010042
1.0842022e-19 3.1382854 2
1.6287276 0 -1.8305975
1.0842022e-19 3.1731296 0
2.1459081 0 -1.885857
-3.6893488e+19 3.1412301 2
1.6297039 -1.0842022e-19 -1.8972292
0 3.174027 -3.6893488e+19
2.1467476 -0 -1.9335518
0 3.0713463 0
1.5880708 1.0842022e-19 -1.9068027
-2 2.8903456 2
1.5044106 1.0842022e-19 -1.8590648
-1.0842022e-19 2.8251088 0
1.9020967 -1.0842022e-19 -1.838465
0 2.7862759 0
1.4398171 -0 -1.8286424
-3.6893488e+19 2.7447102 -3.6893488e+19
1.8564419 -1.0842022e-19 -1.8151008
3.6893488e+19 2.6873083 2
1.9060163 -1.0842022e-19 -1.8056988
-0 2.6636117 -3.6893488e+19
1.73651 1.0842022e-19 -1.8069123
0 2.6298416 -1.0842022e-19
1.8855141 -1.0842022e-19 -1.8032826
-0 2.6158149 1.0842022e-19
1.7091792 3.6893488e+19 -1.8063765
-1.0842022e-19 2.5797329 -0
1.8602744 0 -1.7982982
1.0842022e-19 2.569911 2
1.6829305 -2 -1.8015437
-3.6893488e+19 2.5451765 -2
1.8356174 -1.0842022e-19 -1.7967403
-2 2.5353703 1.0842022e-19
1.6631796 -2 -1.7984926
-2 2.514364 3.6893488e+19
1.8136318 -1.0842022e-19 -1.7937015
-1.0842022e-19 2.5045872 0
1.6455773 1.0842022e-19 -1.7940732
-1.0842022e-19 2.4800458 -0
1.7962636 -0 -1.7916986
0 2.4680588 -3.6893488e+19
1.6338218 -2 -1.7935793
-2 2.4472659 1.0842022e-19
1.7845689 0 -1.7929395
2 3.2520244 -0
2.2216215 1.0842022e-19 2.6658096
-0 3.2863541 -1.0842022e-19
1.6898689 -1.0842022e-19 2.7133334
3.6893488e+19 3.240715 -0
2.2091455 -1.0842022e-19 2.6405439
3.6893488e+19 3.2889132 0
1.6915659 -1.0842022e-19 2.7007275
0 3.2404635 -3.6893488e+19
2.20891 0 2.6261218
0 3.2623947 -3.6893488e+19
1.6739824 -1.0842022e-19 2.6441851
-1.0842022e-19 3.2632544 -1.0842022e-19
1.6745526 -3.6893488e+19 2.6302986
-2 3.2300203 -1.0842022e-19
2.1991389 2 2.5903873
-1.0842022e-19 3.2321 1.0842022e-19
2.0256729 0 2.5776422
-0 3.2356799 0
2.02772 0 2.5661478
0 3.2465129 2
2.3542769 0 2.5671463
-3.6893488e+19 3.2329783 -3.6893488e+19
2.026175 -2 2.5505733
-1.0842022e-19 3.2460358 -3.6893488e+19
2.3539364 -0 2.5526178
3.6893488e+19 3.2537003 3.6893488e+19
2.0401402 1.0842022e-19 2.5512865
-1.0842022e-19 3.2474082 0
2.3549159 1.0842022e-19 2.5250208
0 3.2427077 1.0842022e-19
2.0317385 3.6893488e+19 2.5145178
-3.6893488e+19 3.2419474 -0
2.3510194 2 2.507983
-0 3.2560463 -3.6893488e+19
2.0428231 -0 2.4917727
-2 3.1574917 -0
1.635095 -1.0842022e-19 2.3795574
1.0842022e-19 3.155973 -0
2.1298552 -2 2.3672915
-0 3.1563215 1.0842022e-19
1.6347071 2 2.355516
-3.6893488e+19 3.2348647 -0
2.2036717 2 2.4112587
-3.6893488e+19 3.1584866 -1.0842022e-19
1.6354249 0 2.3343718
-0 3.2371356 2
2.2057965 0 2.3856838
-3.6893488e+19 3.1577725 -2
1.6351881 -0 2.3108261
2 3.2531116 -3.6893488e+19
2.2236559 -3.6893488e+19 2.3722622
3.6893488e+19 3.1538312 3.6893488e+19
1.6338814 3.6893488e+19 2.2851083
0 3.153425 0
2.1274712 -1.0842022e-19 2.2739525
0 3.1515782 2
1.6331345 -3.6893488e+19 2.260963
-1.0842022e-19 3.1559238 2
2.1298094 -0 2.2528255
0 3.1503935 -0
1.6327417 3.6893488e+19 2.2254527
2 3.1506882 -1.0842022e-19
2.1249104 -2 2.2041097
2 3.1483459 3.6893488e+19
1.6320629 0 2.1783724
2 3.1520591 -2
2.126193 3.6893488e+19 2.1605346
-3.6893488e+19 3.1543159 2
2.2884917 -2 2.1410487
1.0842022e-19 3.1439276 0
1.9752544 -1.0842022e-19 2.107681
1.0842022e-19 3.1546314 -2
2.2887166 -0 2.0959015
-3.6893488e+19 3.1376793 -2
1.9716816 2 2.0586126
-2 3.1562018 1.0842022e-19
2.2898374 1.0842022e-19 2.0516405
-1.0842022e-19 3.1385844 -1.0842022e-19
1.9721991 -2 2.0158749
-0 3.1522796 -2
2.2870386 -3.6893488e+19 2.0035934
2 3.1368494 0
1.971207 -2 1.9714411
3.6893488e+19 3.1536243 0
2.2879982 -1.0842022e-19 1.9591898
3.6893488e+19 3.1377792 2
1.9717387 1.0842022e-19 1.928653
-0 3.152025 -2
2.2868569 -2 1.9133002
-1.0842022e-19 3.171849 -1.0842022e-19
1.9912204 2 1.8972323
-3.6893488e+19 3.1562562 0
2.2898762 3.6893488e+19 1.8640178
3.6893488e+19 3.1397395 2
1.9728596 2 1.8100334
-0 3.1569519 -2
2.2903724 2 1.7732567
-2 3.1374905 -2
1.9715736 0 1.6949024
2 3.1327724 -0
1.6268998 -3.6893488e+19 1.5890518
0 3.1475706 -1.0842022e-19
2.1219933 2 1.304886
3.6893488e+19 3.1333997 1.0842022e-19
1.6271079 1.0842022e-19 -1.5027444
-1.0842022e-19 3.1465962 1.0842022e-19
2.1210818 -0 -1.6547976
-1.0842022e-19 3.140383 2
1.629423 -0 -1.7391974
2 3.1704021 1.0842022e-19
2.1433561 -0 -1.8010042
1.0842022e-19 3.1382854 2
1.6287276 0 -1.8305975
1.0842022e-19 3.1731296 0
2.1459081 0 -1.885857
0 3.0732813 -1.0842022e-19
1.5893537 -2 -1.8683168
-0 3.078475 -0
2.057343 -1.0842022e-19 -1.8921895
0 3.0713463 0
1.5880708 1.0842022e-19 -1.9068027
-2 2.8903456 2
1.5044106 1.0842022e-19 -1.8590648
-1.0842022e-19 2.8251088 0
1.9020967 -1.0842022e-19 -1.838465
0 2.7862759 0
1.4398171 -0 -1.8286424
-3.6893488e+19 2.7447102 -3.6893488e+19
1.8564419 -1.0842022e-19 -1.8151008
3.6893488e+19 2.6873083 2
1.9060163 -1.0842022e-19 -1.8056988
-0 2.6636117 -3.6893488e+19
1.73651 1.0842022e-19 -1.8069123
0 2.6298416 -1.0842022e-19
1.8855141 -1.0842022e-19 -1.8032826
-0 2.6158149 1.0842022e-19
1.7091792 3.6893488e+19 -1.8063765
-1.0842022e-19 2.5797329 -0
1.8602744 0 -1.7982982
1.0842022e-19 2.569911 2
1.6829305 -2 -1.8015437
-3.6893488e+19 2.5451765 -2
1.8356174 -1.0842022e-19 -1.7967403
-2 2.5353703 1.0842022e-19
1.6631796 -2 -1.7984926
-2 2.514364 3.6893488e+19
1.8136318 -1.0842022e-19 -1.7937015
-1.0842022e-19 2.5045872 0
1.6455773 1.0842022e-19 -1.7940732
-1.0842022e-19 2.4800458 -0
1.7962636 -0 -1.7916986
0 2.4680588 -3.6893488e+19
1.6338218 -2 -1.7935793
-2 2.4472659 1.0842022e-19
1.7845689 0 -1.7929395
-3.6893488e+19 3.2632883 0
1.5448408 1.0842022e-19 2.7066641
0 3.2548132 0
2.2050776 -1.0842022e-19 2.6703467
-2 3.2863417 2
1.5597119 -2 2.7133086
3.6893488e+19 3.2405448 -2
2.1880383 -0 2.6403491
0 3.2889316 3.6893488e+19
1.5613825 -3.6893488e+19 2.7007513
2 3.2374735 -0
2.1852958 -1.0842022e-19 2.6237719
2 3.2340615 2
2.1822491 0 2.6071618
-2 3.2289565 -1.0842022e-19
2.1776905 -1.0842022e-19 2.5895813
1.0842022e-19 3.2334375 -2
2.005836 2 2.578521
3.6893488e+19 3.2602799 0
2.0254815 -0 2.5888214
-1.0842022e-19 3.2461369 -0
2.3433683 3.6893488e+19 2.5668321
-1.0842022e-19 3.2564485 -0
2.0214262 -2 2.5691636
2 3.2462749 0
2.3434639 -0 2.5526929
-3.6893488e+19 3.2537234 2
2.0185421 1.0842022e-19 2.5512865
2 3.2462029 0
2.3434141 3.6893488e+19 2.5384567
-0 3.2446561 -3.6893488e+19
2.3423433 -2 2.5234351
1.0842022e-19 3.2409821 -1.0842022e-19
2.3398006 2 2.5074165
0 3.2561164 -0
2.0210745 1.0842022e-19 2.4918621
0 3.2576649 3.6893488e+19
1.5412132 -1.0842022e-19 2.4799979
-0 3.234879 -0
2.1829791 -1.0842022e-19 2.4386127
3.6893488e+19 3.2596073 -3.6893488e+19
1.5424662 3.6893488e+19 2.4542885
3.6893488e+19 3.2492735 1.0842022e-19
2.195833 3.6893488e+19 2.4234157
-0 3.2594414 1.0842022e-19
1.5423592 -3.6893488e+19 2.4247334
-3.6893488e+19 3.1587455 -1.0842022e-19
2.1149948 1.0842022e-19 2.3235703
2 3.2628555 -1.0842022e-19
1.5445615 -3.6893488e+19 2.4007208
1.0842022e-19 3.2514412 -3.6893488e+19
2.1990554 -2 2.3697493
-0 3.1590028 -3.6893488e+19
1.5069187 1.0842022e-19 2.2887566
2 3.2511451 -3.6893488e+19
2.1985266 0 2.341037
3.6893488e+19 3.262821 -2
1.5445392 0 2.3415818
0 3.2506342 1.0842022e-19
2.1976142 1.0842022e-19 2.3121624
0 3.2661266 1.0842022e-19
1.5466716 -0 2.3160124
1.0842022e-19 3.2503126 2
2.1970398 1.0842022e-19 2.2836423
3.6893488e+19 3.2638102 -0
1.5451773 -1.0842022e-19 2.2836926
0 3.2380931 1.0842022e-19
2.1858492 -0 2.2483065
1.0842022e-19 3.2399046 1.0842022e-19
2.3390551 0 2.2237182
-1.0842022e-19 3.2546699 0
2.0195439 0 2.2124319
-0 3.2413418 2
2.3400497 -2 2.1699283
-0 3.254858 -3.6893488e+19
2.0197427 3.6893488e+19 2.1557229
2 3.2470481 3.6893488e+19
2.3439989 3.6893488e+19 2.1190155
-2 3.2551429 -3.6893488e+19
2.0200443 -0 2.099113
0 3.2365568 -2
2.3367379 2 2.0566494
0 3.1368225 0
1.9547073 0 1.9714055
0 3.2334418 -2
2.3345821 -2 2.0004988
2 3.1355669 -1.0842022e-19
1.9540428 -1.0842022e-19 1.9276174
0 3.17067 3.6893488e+19
1.9726194 2 1.8968073
-3.6893488e+19 3.2385926 1.0842022e-19
2.3381472 -0 1.8936963
-2 3.1690371 3.6893488e+19
1.9717554 2 1.8239247
-0 3.1562376 -3.6893488e+19
2.2811503 1.0842022e-19 1.7729619
3.6893488e+19 3.1649477 0
1.9695913 0 1.7086939
-3.6893488e+19 3.2373061 -3.6893488e+19
1.5321745 0 1.636253
3.6893488e+19 3.1474125 1.0842022e-19
2.1048748 3.6893488e+19 1.3047872
1.0842022e-19 3.1335599 1.0842022e-19
1.497425 -2 -1.5027964
3.6893488e+19 3.1462197 -0
2.1038096 -0 -1.6546271
-3.6893488e+19 3.1448867 2
1.5023658 -2 -1.7419544
1.0842022e-19 3.1728995 -1.0842022e-19
2.1276336 -1.0842022e-19 -1.8020228
1.0842022e-19 3.1379144 1.0842022e-19
1.5001169 -1.0842022e-19 -1.8303989
-2 3.1712284 3.6893488e+19
2.1261415 -0 -1.885226
0 3.1405783 -0
1.5009761 -1.0842022e-19 -1.8969823
1.0842022e-19 3.0807395 2
2.0453382 -1.0842022e-19 -1.8931479
0 3.0715058 3.6893488e+19
1.4573953 -0 -1.9068788
-1.0842022e-19 3.0654204 1.0842022e-19
2.0316589 -3.6893488e+19 -1.9217831
2 2.8877265 -3.6893488e+19
1.3750563 3.6893488e+19 -1.8574919
-1.0842022e-19 2.8147457 1.0842022e-19
1.8905282 -3.6893488e+19 -1.8316292
-2 2.7844679 0
1.3085033 -2 -1.8273543
-0 2.7437882 -2
1.8454673 3.6893488e+19 -1.8147177
-0 2.6872861 -3.6893488e+19
1.9013193 -1.0842022e-19 -1.8056474
-1.0842022e-19 2.664398 -1.0842022e-19
1.7193003 3.6893488e+19 -1.8072414
0 2.629806 -1.0842022e-19
1.8814287 2 -1.8032243
0 2.6136041 2
1.69242 0 -1.8052638
-3.6893488e+19 2.5814254 2
1.8543743 -2 -1.799147
-2 2.5695662 3.6893488e+19
1.6691152 0 -1.8013375
-0 2.5446246 -3.6893488e+19
1.8289049 2 -1.7963791
2 2.5378881 -2
1.6523509 -2 -1.8000071
-0 2.5157914 -0
1.8089499 0 -1.7945728
-0 2.504735 -2
1.6348063 -1.0842022e-19 -1.7941558
-1.0842022e-19 2.4796617 1.0842022e-19
1.7909831 2 -1.7915263
-1.0842022e-19 2.4693458 1.0842022e-19
1.6233789 -2 -1.7940274
-2 2.4466264 1.0842022e-19
1.7795515 2 -1.7926602
-0 2.4123731 0
1.7676984 -1.0842022e-19 -1.7914532
1.0842022e-19 2.3588982 1.0842022e-19
1.1065162 0 -1.789577
-0 2.3193612 1.0842022e-19
1.081012 2 -1.7895215
1.0842022e-19 2.2833669 3.6893488e+19
1.0577929 -2 -1.7870737
-1.0842022e-19 2.2565961 -0
1.0405238 -1.0842022e-19 -1.7863948
1.0842022e-19 2.2124901 -3.6893488e+19
1.6600409 -3.6893488e+19 -1.7842866
-2 2.1750977 3.6893488e+19
1.6471016 0 -1.7836866
3.6893488e+19 2.143672 1.0842022e-19
1.636227 -0 -1.7833852
3.6893488e+19 2.11867 1.0842022e-19
1.6275753 -0 -1.7840899
-3.6893488e+19 3.2632883 0
1.5448408 1.0842022e-19 2.7066641
0 3.2548132 0
2.2050776 -1.0842022e-19 2.6703467
-2 3.2863417 2
1.5597119 -2 2.7133086
3.6893488e+19 3.2405448 -2
2.1880383 -0 2.6403491
0 3.2889316 3.6893488e+19
1.5613825 -3.6893488e+19 2.7007513
2 3.2374735 -0
2.1852958 -1.0842022e-19 2.6237719
2 3.2340615 2
2.1822491 0 2.6071618
-2 3.2289565 -1.0842022e-19
2.1776905 -1.0842022e-19 2.5895813
1.0842022e-19 3.2334375 -2
2.005836 2 2.578521
-3.6893488e+19 3.2323332 -3.6893488e+19
2.0052516 3.6893488e+19 2.5639405
-1.0842022e-19 3.2461369 -0
2.3433683 3.6893488e+19 2.5668321
2 3.2312944 -3.6893488e+19
2.0047019 -3.6893488e+19 2.5494978
2 3.2462749 0
2.3434639 -0 2.5526929
-3.6893488e+19 3.2537234 2
2.0185421 1.0842022e-19 2.5512865
2 3.2462029 0
2.3434141 3.6893488e+19 2.5384567
-0 3.2446561 -3.6893488e+19
2.3423433 -2 2.5234351
1.0842022e-19 3.2409821 -1.0842022e-19
2.3398006 2 2.5074165
0 3.2561164 -0
2.0210745 1.0842022e-19 2.4918621
0 3.1579306 -2
1.5065728 2 2.3799622
3.6893488e+19 3.1591971 3.6893488e+19
2.1153979 -0 2.3701522
-2 3.1590283 1.0842022e-19
1.506927 3.6893488e+19 2.3578806
-2 3.1576474 -0
2.1140141 1.0842022e-19 2.345711
-0 3.2594414 1.0842022e-19
1.5423592 -3.6893488e+19 2.4247334
-3.6893488e+19 3.1587455 -1.0842022e-19
2.1149948 1.0842022e-19 2.3235703
-2 3.1590211 -2
1.5069246 -3.6893488e+19 2.3117745
-1.0842022e-19 3.1551955 1.0842022e-19
2.1118248 -1.0842022e-19 2.297924
-0 3.1590028 -3.6893488e+19
1.5069187 1.0842022e-19 2.2887566
2 3.1544189 -0
2.1111312 -2 2.2745857
-2 3.1560674 -3.6893488e+19
1.5059719 -2 2.2638776
2 3.15611 2
2.1126413 3.6893488e+19 2.252903
-0 3.1597779 0
1.5071688 -3.6893488e+19 2.2365913
-1.0842022e-19 3.1491306 -3.6893488e+19
2.1064088 -1.0842022e-19 2.2022758
1.0842022e-19 3.1482253 -2
1.5034425 3.6893488e+19 2.1782382
-0 3.148041 0
2.1054361 3.6893488e+19 2.1563702
-2 3.1541929 -2
2.2797353 -0 2.1408384
-0 3.143527 -3.6893488e+19
1.9582553 2 2.1072848
2 3.1558452 -0
2.2808788 -1.0842022e-19 2.096858
0 3.1417079 -2
1.9572926 -2 2.0617907
-3.6893488e+19 3.1574163 -2
2.2819662 -0 2.0524716
-0 3.1352811 0
1.9538916 -2 2.0135906
-3.6893488e+19 3.1541779 2
2.2797251 -1.0842022e-19 2.0047307
0 3.1368225 0
1.9547073 0 1.9714055
1.0842022e-19 3.1537809 3.6893488e+19
2.2794502 1.0842022e-19 1.9592221
2 3.1355669 -1.0842022e-19
1.9540428 -1.0842022e-19 1.9276174
0 3.136884 1.0842022e-19
1.9547398 -2 1.8850164
-2 3.1588726 -3.6893488e+19
2.282974 -0 1.8655009
-3.6893488e+19 3.1398375 -0
1.9563029 0 1.8100631
-0 3.1562376 -3.6893488e+19
2.2811503 1.0842022e-19 1.7729619
-0 3.1375573 -0
1.9550961 -2 1.694918
-1.0842022e-19 3.1314013 -1.0842022e-19
1.4960325 -3.6893488e+19 1.5882829
3.6893488e+19 3.1474125 1.0842022e-19
2.1048748 3.6893488e+19 1.3047872
2 3.1155913 -2
