# .PCD v0.7 - Point Cloud Data file format
VERSION 0.7
FIELDS x y z
SIZE 4 4 4
TYPE F F F
COUNT 1 1 1
WIDTH 1703
HEIGHT 1
VIEWPOINT 0 0 0 1 0 0 0
POINTS 1703
DATA ascii
2.5255744 3.6893488e+19 2.3871458
-0 3.1730831 -3.6893488e+19
2.6144509 0 2.3725686
3.6893488e+19 3.2373054 -3.6893488e+19
2.5623291 -3.6893488e+19 2.4109366
-1.0842022e-19 3.1768553 2
2.6177006 -2 2.3512731
-2 3.1831944 -2
2.5276477 -1.0842022e-19 2.3405938
3.6893488e+19 3.1782088 3.6893488e+19
2.6188664 1.0842022e-19 2.3277311
3.6893488e+19 3.1839073 -3.6893488e+19
2.5281045 2 2.3164303
-3.6893488e+19 3.178021 0
2.6187048 -3.6893488e+19 2.3029695
-0 3.1793718 3.6893488e+19
2.5251977 2 2.2886927
-1.0842022e-19 3.1721475 -2
2.6136451 1.0842022e-19 2.2745662
3.6893488e+19 3.1844404 0
2.5284464 -0 2.2674057
1.0842022e-19 3.1748698 -3.6893488e+19
2.6159899 0 2.2519567
-0 3.1823511 -0
2.5271072 0 2.2331495
-1.0842022e-19 3.1852558 3.6893488e+19
2.6249368 3.6893488e+19 2.2163301
-3.6893488e+19 3.1790164 0
2.6747878 -2 2.1881599
0 3.1787887 -0
2.5788364 -0 2.1584051
1.0842022e-19 3.1791308 -0
2.6749008 -2 2.138804
-3.6893488e+19 3.1798723 -2
2.5796676 3.6893488e+19 2.1104648
-0 3.1783152 -1.0842022e-19
2.6740932 -1.0842022e-19 2.0887146
-0 3.2161038 -1.0842022e-19
2.6074533 0 2.0877945
-1.0842022e-19 3.1798725 3.6893488e+19
2.6756353 -1.0842022e-19 2.0404494
1.0842022e-19 3.2192121 3.6893488e+19
2.6098371 0 2.0366642
0 3.1830471 -0
2.6787784 -2 1.9927702
3.6893488e+19 3.2004538 2
2.6960137 -3.6893488e+19 1.9507163
-1.0842022e-19 3.1894655 1.0842022e-19
2.5870247 0 1.9185768
0 3.1988294 0
2.6944053 -0 1.8983965
3.6893488e+19 3.200206 -3.6893488e+19
2.5952613 -2 1.8681031
-1.0842022e-19 3.1917531 2
2.6873989 -2 1.8155574
2 3.1804523 1.0842022e-19
2.5801125 3.6893488e+19 1.7596378
3.6893488e+19 3.1815803 3.6893488e+19
2.5266132 2 1.6710349
2 3.2038741 0
2.640975 3.6893488e+19 1.5311491
-1.0842022e-19 3.1763117 2
2.5232365 1.0842022e-19 -1.3145921
0 3.1834645 1.0842022e-19
2.6233938 -2 -1.6214831
1.0842022e-19 3.1769469 3.6893488e+19
2.5236435 3.6893488e+19 -1.7166319
-1.0842022e-19 3.1776061 -3.6893488e+19
2.6183472 2 -1.783379
3.6893488e+19 3.1794431 0
2.5252435 3.6893488e+19 -1.8309915
-1.0842022e-19 3.1816549 -0
2.621835 0 -1.879195
-1.0842022e-19 3.1822264 3.6893488e+19
2.5270274 3.6893488e+19 -1.9024994
3.6893488e+19 3.1811008 3.6893488e+19
2.6213577 -1.0842022e-19 -1.9282436
1.0842022e-19 3.1827981 0
2.5273938 1.0842022e-19 -1.9516263
0 3.1832435 -0
2.6232033 -2 -1.9785964
-1.0842022e-19 3.1750841 0
2.5224497 -2 -1.996105
3.6893488e+19 3.1788924 0
2.6194553 3.6893488e+19 -2.0253024
-3.6893488e+19 3.1432147 0
2.5020237 -2 -2.0221357
2 3.1469355 1.0842022e-19
2.5919271 1.0842022e-19 -2.0501561
-2 3.1471641 -2
2.6432493 -2 -2.0753362
-3.6893488e+19 2.9321322 1.0842022e-19
2.3314009 0 -1.9372345
0 2.9253445 -3.6893488e+19
2.326195 -1.0842022e-19 -1.9585264
0 2.804245 -1.0842022e-19
2.3012459 -0 -1.9096826
0 2.7733319 1.0842022e-19
2.1692345 -3.6893488e+19 -1.8995842
0 2.7503626 -0
2.2457895 2 -1.8958499
2 2.7128987 0
2.1049955 3.6893488e+19 -1.8898733
0 2.6627607 2
2.1586921 -1.0842022e-19 -1.8821512
-1.0842022e-19 2.6436362 -1.0842022e-19
2.0518782 0 -1.880187
3.6893488e+19 2.5984476 -0
2.0950129 2 -1.8682702
1.0842022e-19 2.5878847 0
2.0091226 -0 -1.8678229
1.0842022e-19 2.5605342 -2
2.0574732 -1.0842022e-19 -1.8597822
-1.0842022e-19 2.5494165 0
1.9796216 -3.6893488e+19 -1.8573213
1.0842022e-19 2.522171 -2
2.0194881 3.6893488e+19 -1.8465576
3.6893488e+19 2.5122061 3.6893488e+19
1.951085 1.0842022e-19 -1.8434852
-1.0842022e-19 2.4771516 1.0842022e-19
1.9555134 3.6893488e+19 -1.8384764
-2 3.2362711 -2
2.6635597 3.6893488e+19 2.6775138
-3.6893488e+19 3.235791 -3.6893488e+19
2.6631513 2 2.6626229
2 3.2901032 0
2.6156464 -2 2.7294528
1.0842022e-19 3.2866168 0
2.6112521 2 2.706861
-3.6893488e+19 3.2377207 -1.0842022e-19
2.6647925 -1.0842022e-19 2.6353366
-0 3.2851985 3.6893488e+19
2.6094644 3.6893488e+19 2.6878963
0 3.234339 -2
2.6619163 1.0842022e-19 2.6183624
-3.6893488e+19 3.2853861 -3.6893488e+19
2.6097009 0 2.6715169
-1.0842022e-19 3.2323072 -1.0842022e-19
2.6601884 -1.0842022e-19 2.6026089
-3.6893488e+19 3.231379 0
2.6139472 2 2.5862522
-0 3.2351351 -2
2.7249677 -3.6893488e+19 2.5713403
0 3.1927168 3.6893488e+19
2.5847163 1.0842022e-19 2.5334392
0 3.228137 3.6893488e+19
2.7181163 0 2.5526381
-2 3.2315199 -3.6893488e+19
2.7214284 -2 2.5265384
2 3.229949 -2
2.6128657 0 2.5155354
2 3.2205248 -0
2.6057405 -3.6893488e+19 2.4934666
2 3.2293675 -0
2.719321 1.0842022e-19 2.4945936
1.0842022e-19 3.215754 -3.6893488e+19
2.6021335 -3.6893488e+19 2.4616165
0 3.2390218 -3.6893488e+19
2.5581815 -3.6893488e+19 2.468118
-0 3.2193334 2
2.6491547 0 2.4401526
0 3.2399344 2
2.5587568 1.0842022e-19 2.4409652
3.6893488e+19 3.2513206 -3.6893488e+19
2.6774819 -1.0842022e-19 2.44238
-3.6893488e+19 3.2377229 0
2.5573633 -2 2.4111178
3.6893488e+19 3.2513053 1.0842022e-19
2.6774561 2 2.4133832
3.6893488e+19 3.2239008 -0
2.5486524 0 2.3724439
1.0842022e-19 3.2192302 -2
2.6490667 3.6893488e+19 2.3589258
3.6893488e+19 3.2178764 -1.0842022e-19
2.5448558 -2 2.3410606
3.6893488e+19 3.1785958 -0
2.6145084 -3.6893488e+19 2.3032064
0 3.2184048 -3.6893488e+19
2.5451887 1.0842022e-19 2.314806
3.6893488e+19 3.2386272 -2
2.6655633 -2 2.3176267
1.0842022e-19 3.2184181 2
2.5451972 0 2.2881999
0 3.2063262 -0
2.6380923 -0 2.2704594
-2 3.2217343 1.0842022e-19
2.5472872 0 2.2634704
0 3.1828156 -2
2.6180971 3.6893488e+19 2.2134559
-2 3.228251 1.0842022e-19
2.7182281 -2 2.2381294
1.0842022e-19 3.2062843 2
2.594974 -2 2.1843772
1.0842022e-19 3.1993198 -1.0842022e-19
2.689903 -2 2.1568336
-3.6893488e+19 3.207655 3.6893488e+19
2.5960104 -3.6893488e+19 2.1335704
-1.0842022e-19 3.2161565 2
2.706387 -0 2.1184025
-0 3.2156918 -2
2.6020865 -3.6893488e+19 2.0873277
1.0842022e-19 3.2102962 -2
2.7006493 2 2.0608053
-2 3.2187092 -1.0842022e-19
2.604368 -2 2.0362144
-2 3.2112961 -0
2.7016284 2 2.0084405
3.6893488e+19 3.2011688 3.6893488e+19
2.6917133 -1.0842022e-19 1.9509054
3.6893488e+19 3.2577693 -2
2.6397734 3.6893488e+19 1.9476596
3.6893488e+19 3.1974797 -1.0842022e-19
2.6881015 2 1.897855
-1.0842022e-19 3.2579281 3.6893488e+19
2.6400137 3.6893488e+19 1.8892072
-1.0842022e-19 3.1941624 -0
2.6848538 -2 1.8164732
2 3.1979229 -1.0842022e-19
2.5886524 -0 1.7650325
2 3.1766047 0
2.5188465 -3.6893488e+19 1.6689928
-3.6893488e+19 3.1963031 3.6893488e+19
2.6295681 1.0842022e-19 1.5284586
-1.0842022e-19 3.2937205 2
2.6202056 1.0842022e-19 -1.380571
2 3.1802838 -2
2.6159439 -2 -1.6195375
0 3.2890043 -0
2.6142612 3.6893488e+19 -1.7715791
-2 3.1808715 -1.0842022e-19
2.6164439 -0 -1.784499
-3.6893488e+19 3.2882714 1.0842022e-19
2.6133378 -1.0842022e-19 -1.888218
1.0842022e-19 3.1791768 0
2.6150026 -1.0842022e-19 -1.8783813
3.6893488e+19 3.1819742 -3.6893488e+19
2.5222301 1.0842022e-19 -1.9023471
2 3.1828396 -3.6893488e+19
2.6181176 -3.6893488e+19 -1.9288623
0 3.1812193 3.6893488e+19
2.5217545 -0 -1.9508072
0 3.1837611 -1.0842022e-19
2.6189013 0 -1.9787415
0 3.1764333 -2
2.5187383 -2 -1.9967834
2 3.2126997 -1.0842022e-19
2.6435127 0 -2.0468369
-1.0842022e-19 3.1762857 0
2.5186455 -0 -2.0449009
2 3.1474326 0
2.5880051 1.0842022e-19 -2.0503638
1.0842022e-19 3.1466622 3.6893488e+19
2.6383491 -0 -2.0747159
-2 2.9479129 -3.6893488e+19
2.4385257 -0 -1.9591227
-1.0842022e-19 2.8014116 -1.0842022e-19
2.2950947 1.0842022e-19 -1.9080938
3.6893488e+19 2.7768381 -1.0842022e-19
2.1686072 -0 -1.9014276
-1.0842022e-19 2.7513111 2
2.2420886 -3.6893488e+19 -1.8963082
1.0842022e-19 2.7133744 -2
2.1003344 1.0842022e-19 -1.8899473
3.6893488e+19 2.6635108 -1.0842022e-19
2.1548445 1.0842022e-19 -1.8823062
-2 2.6429753 3.6893488e+19
2.0471094 -1.0842022e-19 -1.8799037
1.0842022e-19 2.599519 3.6893488e+19
2.0921938 -2 -1.868861
1.0842022e-19 2.5893989 1.0842022e-19
2.0066028 -3.6893488e+19 -1.8687896
2 2.5625479 3.6893488e+19
2.0559976 -1.0842022e-19 -1.8611525
3.6893488e+19 2.5487099 3.6893488e+19
1.9758399 -2 -1.8566575
-0 2.5235546 2
2.0178216 0 -1.8475406
-3.6893488e+19 2.5122144 1.0842022e-19
1.9482476 -0 -1.8433834
3.6893488e+19 2.4752312 2
1.9520853 1.0842022e-19 -1.8374982
0 2.357296 -2
1.850168 1.0842022e-19 -1.7883049
-2 2.3569438 0
1.8499463 1.0842022e-19 -1.8085861
-1.0842022e-19 2.3357368 -0
1.8365815 0 -1.8169745
1.0842022e-19 2.3011241 0
1.8147686 2 -1.8145577
-1.0842022e-19 2.2590377 3.6893488e+19
1.8768045 2 -1.8060983
-2 2.2228568 2
1.8564734 1.0842022e-19 -1.8042915
1.0842022e-19 2.1787245 0
1.8348697 3.6893488e+19 -1.8003165
-3.6893488e+19 2.135221 -3.6893488e+19
1.8135738 3.6893488e+19 -1.7940544
-2 3.2362711 -2
2.6635597 3.6893488e+19 2.6775138
-3.6893488e+19 3.235791 -3.6893488e+19
2.6631513 2 2.6626229
2 3.2901032 0
2.6156464 -2 2.7294528
1.0842022e-19 3.2866168 0
2.6112521 2 2.706861
-3.6893488e+19 3.2377207 -1.0842022e-19
2.6647925 -1.0842022e-19 2.6353366
-0 3.2851985 3.6893488e+19
2.6094644 3.6893488e+19 2.6878963
0 3.234339 -2
2.6619163 1.0842022e-19 2.6183624
-3.6893488e+19 3.2853861 -3.6893488e+19
2.6097009 0 2.6715169
-3.6893488e+19 3.1940932 -0
2.6276886 3.6893488e+19 2.5746713
-3.6893488e+19 3.231379 0
2.6139472 2 2.5862522
2 3.1715713 -3.6893488e+19
2.6627359 0 2.5292375
0 3.1927168 3.6893488e+19
2.5847163 1.0842022e-19 2.5334392
0 3.228137 3.6893488e+19
2.7181163 0 2.5526381
3.6893488e+19 3.1723258 -2
2.6634748 3.6893488e+19 2.4850862
2 3.229949 -2
2.6128657 0 2.5155354
2 3.2205248 -0
2.6057405 -3.6893488e+19 2.4934666
-0 3.1814187 -1.0842022e-19
2.6723771 3.6893488e+19 2.4451218
1.0842022e-19 3.215754 -3.6893488e+19
2.6021335 -3.6893488e+19 2.4616165
-2 3.1801624 1.0842022e-19
2.5210886 2 2.4117749
-1.0842022e-19 3.1723545 1.0842022e-19
2.6092005 -0 2.3960946
0 3.179893 -1.0842022e-19
2.5209186 -3.6893488e+19 2.3869247
-3.6893488e+19 3.1723778 -1.0842022e-19
2.6092203 1.0842022e-19 2.3717394
2 3.1828561 -3.6893488e+19
2.5227859 -1.0842022e-19 2.3648686
0 3.1719851 1.0842022e-19
2.6088862 -2 2.3470707
-3.6893488e+19 3.1830366 3.6893488e+19
2.5228999 -1.0842022e-19 2.3403282
0 3.1777792 3.6893488e+19
2.6138139 -3.6893488e+19 2.3272188
-2 3.1805828 2
2.5213535 1.0842022e-19 2.3138754
3.6893488e+19 3.1785958 -0
2.6145084 -3.6893488e+19 2.3032064
0 3.1792736 3.6893488e+19
2.5205283 -3.6893488e+19 2.2885065
1.0842022e-19 3.1771984 -2
2.6133199 3.6893488e+19 2.2776957
2 3.1828666 -1.0842022e-19
2.5227926 -3.6893488e+19 2.2663262
0 3.1754127 -0
2.6118011 -3.6893488e+19 2.2521372
-0 3.1819458 0
2.5222125 -0 2.2324958
0 3.1828156 -2
2.6180971 3.6893488e+19 2.2134559
1.0842022e-19 3.1853218 1.0842022e-19
2.6761985 0 2.1943135
1.0842022e-19 3.2062843 2
2.594974 -2 2.1843772
1.0842022e-19 3.1993198 -1.0842022e-19
2.689903 -2 2.1568336
1.0842022e-19 3.1754868 1.0842022e-19
2.5716896 3.6893488e+19 2.1066096
2 3.1773784 -0
2.6684215 -1.0842022e-19 2.0877562
-2 3.1783898 2
2.5738845 -2 2.0603077
1.0842022e-19 3.1801193 -0
2.6711049 -2 2.0404289
-2 3.2187092 -1.0842022e-19
2.604368 -2 2.0362144
3.6893488e+19 3.1791699 0
2.6701756 3.6893488e+19 1.9904418
3.6893488e+19 3.2011688 3.6893488e+19
2.6917133 -1.0842022e-19 1.9509054
-1.0842022e-19 3.185571 -0
2.5793138 0 1.9169997
3.6893488e+19 3.1974797 -1.0842022e-19
2.6881015 2 1.897855
-2 3.1989872 1.0842022e-19
2.5894573 -1.0842022e-19 1.8673244
-1.0842022e-19 3.1941624 -0
2.6848538 -2 1.8164732
2 3.1777191 2
2.5733774 0 1.7587163
2 3.1766047 0
2.5188465 -3.6893488e+19 1.6689928
-3.6893488e+19 3.1963031 3.6893488e+19
2.6295681 1.0842022e-19 1.5284586
0 3.1780326 1.0842022e-19
2.5197463 -3.6893488e+19 -1.3152782
2 3.1802838 -2
2.6159439 -2 -1.6195375
-1.0842022e-19 3.1763835 3.6893488e+19
2.518707 3.6893488e+19 -1.7162561
-2 3.1808715 -1.0842022e-19
2.6164439 -0 -1.784499
-1.0842022e-19 3.1790352 -0
2.5203781 -1.0842022e-19 -1.8307103
1.0842022e-19 3.1791768 0
2.6150026 -1.0842022e-19 -1.8783813
3.6893488e+19 3.1819742 -3.6893488e+19
2.5222301 1.0842022e-19 -1.9023471
2 3.1828396 -3.6893488e+19
2.6181176 -3.6893488e+19 -1.9288623
0 3.1812193 3.6893488e+19
2.5217545 -0 -1.9508072
0 3.1837611 -1.0842022e-19
2.6189013 0 -1.9787415
0 3.1764333 -2
2.5187383 -2 -1.9967834
-3.6893488e+19 3.1831031 1.0842022e-19
2.6183419 3.6893488e+19 -2.0278497
-1.0842022e-19 3.1762857 0
2.5186455 -0 -2.0449009
2 3.1474326 0
2.5880051 1.0842022e-19 -2.0503638
-0 2.9488673 -2
2.43946 2 -1.9337261
-2 2.9479129 -3.6893488e+19
2.4385257 -0 -1.9591227
-1.0842022e-19 2.8014116 -1.0842022e-19
2.2950947 1.0842022e-19 -1.9080938
3.6893488e+19 2.7768381 -1.0842022e-19
2.1686072 -0 -1.9014276
-1.0842022e-19 2.7513111 2
2.2420886 -3.6893488e+19 -1.8963082
1.0842022e-19 2.7133744 -2
2.1003344 1.0842022e-19 -1.8899473
3.6893488e+19 2.6635108 -1.0842022e-19
2.1548445 1.0842022e-19 -1.8823062
-2 2.6429753 3.6893488e+19
2.0471094 -1.0842022e-19 -1.8799037
1.0842022e-19 2.599519 3.6893488e+19
2.0921938 -2 -1.868861
1.0842022e-19 2.5893989 1.0842022e-19
2.0066028 -3.6893488e+19 -1.8687896
2 2.5625479 3.6893488e+19
2.0559976 -1.0842022e-19 -1.8611525
3.6893488e+19 2.5487099 3.6893488e+19
1.9758399 -2 -1.8566575
-0 2.5235546 2
2.0178216 0 -1.8475406
-3.6893488e+19 2.5122144 1.0842022e-19
1.9482476 -0 -1.8433834
3.6893488e+19 2.4752312 2
1.9520853 1.0842022e-19 -1.8374982
0 2.357296 -2
1.850168 1.0842022e-19 -1.7883049
-2 2.3569438 0
1.8499463 1.0842022e-19 -1.8085861
-1.0842022e-19 2.3357368 -0
1.8365815 0 -1.8169745
1.0842022e-19 2.3011241 0
1.8147686 2 -1.8145577
-1.0842022e-19 2.2590377 3.6893488e+19
1.8768045 2 -1.8060983
-2 2.2228568 2
1.8564734 1.0842022e-19 -1.8042915
1.0842022e-19 2.1787245 0
1.8348697 3.6893488e+19 -1.8003165
-3.6893488e+19 2.135221 -3.6893488e+19
1.8135738 3.6893488e+19 -1.7940544
3.6893488e+19 3.235667 -3.6893488e+19
2.6578546 -1.0842022e-19 2.6767519
1.0842022e-19 3.2416234 0
2.6628568 -2 2.667351
1.0842022e-19 3.2903705 2
2.6098959 1.0842022e-19 2.7297029
1.0842022e-19 3.2415435 -1.0842022e-19
2.6627896 -2 2.6526961
-3.6893488e+19 3.2888825 -2
2.6080518 3.6893488e+19 2.7102888
-2 3.2379544 0
2.6597757 0 2.635313
-2 3.2851455 -2
2.60342 2 2.6876402
3.6893488e+19 3.2367356 -3.6893488e+19
2.658752 -0 2.6199851
2 3.2375355 2
2.6594238 -1.0842022e-19 2.6062386
1.0842022e-19 3.1725821 -3.6893488e+19
2.6591456 0 2.5546651
-1.0842022e-19 3.2287035 -1.0842022e-19
2.6068535 1.0842022e-19 2.5842228
-3.6893488e+19 3.1738067 3.6893488e+19
2.6603315 -1.0842022e-19 2.5430298
-2 3.2336979 0
2.7183185 -2 2.570189
1.0842022e-19 3.227324 -0
2.712147 0 2.5519354
2 3.2248785 -3.6893488e+19
2.604002 -2 2.5400946
-2 3.1989439 0
2.6846695 -0 2.5208142
3.6893488e+19 3.2295001 0
2.6074474 0 2.5290236
1.0842022e-19 3.2317297 -3.6893488e+19
2.7164125 -0 2.5264866
2 3.2325234 1.0842022e-19
2.6097012 -1.0842022e-19 2.5168314
3.6893488e+19 3.2218781 -0
2.6017654 -1.0842022e-19 2.4946485
-1.0842022e-19 3.2161911 1.0842022e-19
2.5975261 -3.6893488e+19 2.461828
-1.0842022e-19 3.2388184 3.6893488e+19
2.5529299 -2 2.4677365
0 3.2184327 1.0842022e-19
2.6433816 -3.6893488e+19 2.4390702
-1.0842022e-19 3.2391787 -2
2.553153 -2 2.440109
2 3.2484431 2
2.6685839 -3.6893488e+19 2.438448
1.0842022e-19 3.2403138 -3.6893488e+19
2.5538564 -2 2.4131365
2 3.2486832 -3.6893488e+19
2.6687853 -1.0842022e-19 2.4099312
3.6893488e+19 3.2231066 -2
2.5431929 1.0842022e-19 2.3716712
-1.0842022e-19 3.2067859 2
2.633601 -1.0842022e-19 2.3492181
-0 3.2230768 3.6893488e+19
2.5431745 0 2.3447139
1.0842022e-19 3.1779439 -1.0842022e-19
2.6093798 -0 2.3025818
-0 3.2178841 -3.6893488e+19
2.5399563 -1.0842022e-19 2.3143303
3.6893488e+19 3.2377329 -1.0842022e-19
2.6595895 -2 2.316874
2 3.2195599 -2
2.5409949 3.6893488e+19 2.2887869
2 3.2052917 0
2.6323462 -0 2.2697005
-1.0842022e-19 3.2203825 0
2.5415049 -3.6893488e+19 2.2626102
3.6893488e+19 3.1792653 -3.6893488e+19
2.6104894 -2 2.2094059
1.0842022e-19 3.2310045 -1.0842022e-19
2.7157104 -3.6893488e+19 2.240634
-2 3.2062886 3.6893488e+19
2.5901442 -3.6893488e+19 2.1841729
1.0842022e-19 3.2308366 0
2.715548 -0 2.1850994
0 3.2083352 -3.6893488e+19
2.5916696 -3.6893488e+19 2.133956
-0 3.2039173 3.6893488e+19
2.6894846 -3.6893488e+19 2.1085064
-1.0842022e-19 3.2174807 3.6893488e+19
2.5984874 0 2.0884612
-1.0842022e-19 3.2101579 2
2.6955268 -2 2.0605185
0 3.2160795 -3.6893488e+19
2.5974426 -3.6893488e+19 2.0344718
-2 3.2107031 -1.0842022e-19
2.6960547 0 2.0079477
1.0842022e-19 3.1825047 2
2.5724142 -0 1.9648563
3.6893488e+19 3.1763406 0
2.6627848 -3.6893488e+19 1.9397312
-0 3.2504914 0
2.623462 0 1.9419867
-0 3.1898327 -2
2.6758478 -3.6893488e+19 1.8952378
-3.6893488e+19 3.2503574 -1.0842022e-19
2.6232622 -0 1.8850564
-3.6893488e+19 3.1910982 2
2.6770732 -0 1.815034
1.0842022e-19 3.199029 -0
2.5847323 -2 1.7653109
-2 3.1772075 -3.6893488e+19
2.5147483 -3.6893488e+19 1.6691639
-0 3.2590392 0
2.6850734 1.0842022e-19 1.5530418
-3.6893488e+19 3.2934518 -2
2.6137152 1.0842022e-19 -1.3803995
3.6893488e+19 3.259634 3.6893488e+19
2.6860723 -1.0842022e-19 -1.6474746
-1.0842022e-19 3.291374 -2
2.6111398 -1.0842022e-19 -1.772722
-3.6893488e+19 3.2105236 -1.0842022e-19
2.6367397 0 -1.7953836
0 3.2894676 -0
2.6087768 -2 -1.888736
-2 3.1820996 -1.0842022e-19
2.6128697 3.6893488e+19 -1.8791858
3.6893488e+19 3.1827643 3.6893488e+19
2.5181921 2 -1.9025648
-1.0842022e-19 3.1834404 3.6893488e+19
2.6139958 0 -1.929014
2 3.1797864 0
2.5163467 -1.0842022e-19 -1.95006
0 3.1853712 -0
2.615617 -1.0842022e-19 -1.9794664
-1.0842022e-19 3.1769431 -0
2.5145845 1.0842022e-19 -1.9969798
-3.6893488e+19 3.1820843 -3.6893488e+19
2.6128569 -3.6893488e+19 -2.0270462
-2 3.1768572 -0
2.5145314 -3.6893488e+19 -2.0451782
-2 3.1467919 2
2.5832191 1.0842022e-19 -2.0497177
-1.0842022e-19 3.148608 -1.0842022e-19
2.6359339 -1.0842022e-19 -2.0761056
0 2.9486773 -2
2.434411 -0 -1.959349
2 2.9019642 1.0842022e-19
2.2996476 3.6893488e+19 -1.9468715
0 2.8038425 0
2.2941816 1.0842022e-19 -1.9092696
3.6893488e+19 2.7786262 -3.6893488e+19
2.1654084 -2 -1.9023325
-0 2.7491784 2
2.2333066 -3.6893488e+19 -1.8952153
3.6893488e+19 2.7145772 0
2.096323 -1.0842022e-19 -1.8902432
-1.0842022e-19 2.6665542 2
2.1533096 -3.6893488e+19 -1.8831969
3.6893488e+19 2.6489208 3.6893488e+19
2.0473788 0 -1.8818058
-1.0842022e-19 2.5999787 -3.6893488e+19
2.0888507 -3.6893488e+19 -1.8690298
-3.6893488e+19 2.5901737 -1.0842022e-19
2.0035853 -3.6893488e+19 -1.869229
2 2.5626216 -0
2.0526814 3.6893488e+19 -1.8610612
3.6893488e+19 2.5465291 -2
1.97105 1.0842022e-19 -1.8548559
-2 2.5244503 -1.0842022e-19
2.0157239 3.6893488e+19 -1.8481303
0 2.5128295 1.0842022e-19
1.9459285 1.0842022e-19 -1.8437905
0 2.4754882 -2
1.9496533 1.0842022e-19 -1.8374982
3.6893488e+19 3.235667 -3.6893488e+19
2.6578546 -1.0842022e-19 2.6767519
1.0842022e-19 3.2416234 0
2.6628568 -2 2.667351
1.0842022e-19 3.2903705 2
2.6098959 1.0842022e-19 2.7297029
1.0842022e-19 3.2415435 -1.0842022e-19
2.6627896 -2 2.6526961
-3.6893488e+19 3.2888825 -2
2.6080518 3.6893488e+19 2.7102888
-0 3.2005396 -1.0842022e-19
2.6283553 0 2.6057684
-2 3.2851455 -2
2.60342 2 2.6876402
-3.6893488e+19 3.200985 -2
2.6287293 2 2.5928099
3.6893488e+19 3.194484 -3.6893488e+19
2.6232698 -1.0842022e-19 2.5747812
1.0842022e-19 3.1725821 -3.6893488e+19
2.6591456 0 2.5546651
-1.0842022e-19 3.2287035 -1.0842022e-19
2.6068535 1.0842022e-19 2.5842228
-3.6893488e+19 3.1738067 3.6893488e+19
2.6603315 -1.0842022e-19 2.5430298
-2 3.1751623 3.6893488e+19
2.661644 -2 2.5314407
1.0842022e-19 3.227324 -0
2.712147 0 2.5519354
2 3.2248785 -3.6893488e+19
2.604002 -2 2.5400946
-2 3.1989439 0
2.6846695 -0 2.5208142
3.6893488e+19 3.2295001 0
2.6074474 0 2.5290236
-1.0842022e-19 3.1727393 3.6893488e+19
2.6592979 -0 2.4852588
2 3.2325234 1.0842022e-19
2.6097012 -1.0842022e-19 2.5168314
3.6893488e+19 3.2218781 -0
2.6017654 -1.0842022e-19 2.4946485
-1.0842022e-19 3.2161911 1.0842022e-19
2.5975261 -3.6893488e+19 2.461828
-0 3.1806104 0
2.5168574 0 2.412039
2 3.1709118 2
2.6034744 -0 2.3945282
-0 3.1808934 -0
2.5170326 0 2.3876705
-2 3.1735792 2
2.6057146 1.0842022e-19 2.3725953
1.0842022e-19 3.2403138 -3.6893488e+19
2.5538564 -2 2.4131365
-0 3.173552 2
2.6056917 1.0842022e-19 2.3481715
-0 3.1817651 2
2.5175729 -0 2.3391933
-3.6893488e+19 3.1758482 -1.0842022e-19
2.60762 3.6893488e+19 2.3255661
-1.0842022e-19 3.1813085 -0
2.5172899 1.0842022e-19 2.3142788
1.0842022e-19 3.1779439 -1.0842022e-19
2.6093798 -0 2.3025818
-2 3.1809223 -2
2.5170505 3.6893488e+19 2.289499
3.6893488e+19 3.1778257 2
2.6092806 3.6893488e+19 2.2779531
-2 3.1814075 -3.6893488e+19
2.5173512 0 2.2653227
0 3.1759171 -0
2.6076777 0 2.2523
1.0842022e-19 3.1813483 -2
2.5173144 3.6893488e+19 2.2316358
3.6893488e+19 3.1792653 -3.6893488e+19
2.6104894 -2 2.2094059
1.0842022e-19 3.1859264 2
2.6720657 -1.0842022e-19 2.1946535
-2 3.2062886 3.6893488e+19
2.5901442 -3.6893488e+19 2.1841729
0 3.1932917 0
2.6791968 -0 2.1511257
-2 3.1775625 1.0842022e-19
2.5687301 1.0842022e-19 2.1081774
3.6893488e+19 3.1793132 -0
2.6656628 1.0842022e-19 2.0890741
0 3.1781046 -2
2.569134 -0 2.0599523
-1.0842022e-19 3.1799622 2
2.6662912 2 2.0401423
2 3.183538 1.0842022e-19
2.5731845 -3.6893488e+19 2.0146101
1.0842022e-19 3.1800747 -2
2.6664 3.6893488e+19 1.9907987
1.0842022e-19 3.1825047 2
2.5724142 -0 1.9648563
3.6893488e+19 3.1763406 0
2.6627848 -3.6893488e+19 1.9397312
1.0842022e-19 3.1722667 -1.0842022e-19
2.5647821 3.6893488e+19 1.911821
-0 3.1898327 -2
2.6758478 -3.6893488e+19 1.8952378
1.0842022e-19 3.1734009 -2
2.5656276 0 1.8534054
-3.6893488e+19 3.1910982 2
2.6770732 -0 1.815034
-0 3.1739616 2
2.5660458 -0 1.757478
-2 3.1772075 -3.6893488e+19
2.5147483 -3.6893488e+19 1.6691639
-2 3.1887457 2
2.6184511 -3.6893488e+19 1.5257784
0 3.1799331 0
2.5164375 2 -1.3160467
-0 3.1788955 -0
2.6101789 -1.0842022e-19 -1.6186168
2 3.1742997 -0
2.5129464 1.0842022e-19 -1.7151133
1.0842022e-19 3.1800036 -0
2.6111095 -2 -1.7840917
-1.0842022e-19 3.1797934 2
2.516351 3.6893488e+19 -1.8309915
-2 3.1820996 -1.0842022e-19
2.6128697 3.6893488e+19 -1.8791858
3.6893488e+19 3.1827643 3.6893488e+19
2.5181921 2 -1.9025648
-1.0842022e-19 3.1834404 3.6893488e+19
2.6139958 0 -1.929014
2 3.1797864 0
2.5163467 -1.0842022e-19 -1.95006
0 3.1853712 -0
2.615617 -1.0842022e-19 -1.9794664
-1.0842022e-19 3.1769431 -0
2.5145845 1.0842022e-19 -1.9969798
-3.6893488e+19 3.1820843 -3.6893488e+19
2.6128569 -3.6893488e+19 -2.0270462
-2 3.1768572 -0
2.5145314 -3.6893488e+19 -2.0451782
-2 3.1467919 2
2.5832191 1.0842022e-19 -2.0497177
-2 2.951149 -2
2.4368043 3.6893488e+19 -1.934545
0 2.9486773 -2
2.434411 -0 -1.959349
2 2.9019642 1.0842022e-19
2.2996476 3.6893488e+19 -1.9468715
0 2.8038425 0
2.2941816 1.0842022e-19 -1.9092696
3.6893488e+19 2.7786262 -3.6893488e+19
2.1654084 -2 -1.9023325
-0 2.7491784 2
2.2333066 -3.6893488e+19 -1.8952153
3.6893488e+19 2.7145772 0
2.096323 -1.0842022e-19 -1.8902432
-1.0842022e-19 2.6665542 2
2.1533096 -3.6893488e+19 -1.8831969
3.6893488e+19 2.6489208 3.6893488e+19
2.0473788 0 -1.8818058
-1.0842022e-19 2.5999787 -3.6893488e+19
2.0888507 -3.6893488e+19 -1.8690298
-3.6893488e+19 2.5901737 -1.0842022e-19
2.0035853 -3.6893488e+19 -1.869229
2 2.5626216 -0
2.0526814 3.6893488e+19 -1.8610612
3.6893488e+19 2.5465291 -2
1.97105 1.0842022e-19 -1.8548559
-2 2.5244503 -1.0842022e-19
2.0157239 3.6893488e+19 -1.8481303
0 2.5128295 1.0842022e-19
1.9459285 1.0842022e-19 -1.8437905
0 2.4754882 -2
1.9496533 1.0842022e-19 -1.8374982
0 3.2415266 2
2.657407 3.6893488e+19 2.6816649
-2 3.2414422 -0
2.6573372 3.6893488e+19 2.6669698
1.0842022e-19 3.2901239 0
2.603374 1.0842022e-19 2.7291031
2 3.2371614 -3.6893488e+19
2.6537888 -2 2.6488883
3.6893488e+19 3.2890897 -0
2.6021142 0 2.7104337
-3.6893488e+19 3.2377701 3.6893488e+19
2.6542935 2 2.6349573
0 3.2858522 -2
2.5981708 -3.6893488e+19 2.6885481
-3.6893488e+19 3.2400095 0
2.6561499 -1.0842022e-19 2.6222706
2 3.2388258 1.0842022e-19
2.6551685 -2 2.6069865
-2 3.2348161 -3.6893488e+19
2.7140326 -0 2.5993133
-0 3.229208 -1.0842022e-19
2.6020422 1.0842022e-19 2.5844131
-3.6893488e+19 3.2372246 0
2.7163382 -1.0842022e-19 2.5866663
0 3.232105 -3.6893488e+19
2.6041703 3.6893488e+19 2.5723794
-2 3.2318721 2
2.711215 2 2.5687797
-2 3.2252214 0
2.7048495 1.0842022e-19 2.5504162
3.6893488e+19 3.2274489 3.6893488e+19
2.60075 -1.0842022e-19 2.5415237
-3.6893488e+19 3.1992266 1.0842022e-19
2.6799691 -0 2.5208142
-1.0842022e-19 3.2304015 3.6893488e+19
2.6029191 -3.6893488e+19 2.5294127
-2 3.229023 -0
2.708488 -3.6893488e+19 2.52476
0 3.2326658 -2
2.6045823 -3.6893488e+19 2.5167809
3.6893488e+19 3.2185094 3.6893488e+19
2.5941827 -2 2.4908795
0 3.2168746 -2
2.5929816 -1.0842022e-19 2.4622812
3.6893488e+19 3.2391684 -3.6893488e+19
2.5479059 2 2.4678833
2 3.2177155 2
2.637671 3.6893488e+19 2.438159
-0 3.2392218 3.6893488e+19
2.5479386 -1.0842022e-19 2.439971
1.0842022e-19 3.1747842 -2
2.6020868 1.0842022e-19 2.3734512
-3.6893488e+19 3.2423544 3.6893488e+19
2.5498464 -3.6893488e+19 2.4146893
-1.0842022e-19 3.1731439 -1.0842022e-19
2.6007273 -3.6893488e+19 2.347646
-1.0842022e-19 3.241931 -1.0842022e-19
2.5495884 -2 2.3863041
1.0842022e-19 3.2065175 2
2.6283894 -2 2.3488224
-1.0842022e-19 3.2267439 -1.0842022e-19
2.5403395 1.0842022e-19 2.3472464
3.6893488e+19 3.2448812 -1.0842022e-19
2.6601875 3.6893488e+19 2.3497195
-1.0842022e-19 3.2266004 0
2.5402522 -3.6893488e+19 2.3200574
-0 3.2393107 2
2.6555705 1.0842022e-19 2.3177259
-1.0842022e-19 3.2210424 -2
2.5368671 -0 2.2895823
3.6893488e+19 3.207341 3.6893488e+19
2.629072 0 2.2707667
3.6893488e+19 3.2368758 -2
2.5465097 1.0842022e-19 2.2717092
-2 3.1797132 1.0842022e-19
2.6061726 -1.0842022e-19 2.2096345
2 3.1878693 -1.0842022e-19
2.6690984 -2 2.1963542
-1.0842022e-19 3.1731565 -1.0842022e-19
2.5608649 0 2.152452
-3.6893488e+19 3.1937528 3.6893488e+19
2.6747298 1.0842022e-19 2.1512904
1.0842022e-19 3.2071757 0
2.5858567 -3.6893488e+19 2.1327994
-0 3.1943371 -3.6893488e+19
2.6752889 2 2.1007192
2 3.2195494 -2
2.5949466 0 2.0897944
-2 3.2114801 -2
2.6916971 1.0842022e-19 2.0612149
1.0842022e-19 3.215138 -2
2.5917058 -0 2.0337598
3.6893488e+19 3.1788268 -1.0842022e-19
2.6604435 -3.6893488e+19 1.9899489
-1.0842022e-19 3.1920226 2
2.5747247 0 1.9694784
1.0842022e-19 3.1824727 -3.6893488e+19
2.663933 3.6893488e+19 1.9423391
-0 3.2510428 -0
2.618849 -0 1.9423162
1.0842022e-19 3.1990433 3.6893488e+19
2.6797934 0 1.898186
3.6893488e+19 3.2429366 2
2.6121278 -2 1.8828939
-2 3.1892488 1.0842022e-19
2.670419 3.6893488e+19 1.8141181
-1.0842022e-19 3.2003834 3.6893488e+19
2.5808668 1.0842022e-19 1.7656661
2 3.2998359 -2
2.6152031 1.0842022e-19 1.7373604
3.6893488e+19 3.263587 -3.6893488e+19
2.6869538 -2 1.5560687
-0 3.2948365 -1.0842022e-19
2.6091139 -3.6893488e+19 -1.380962
-1.0842022e-19 3.26331 1.0842022e-19
2.6864948 -0 -1.6494811
-1.0842022e-19 3.2926805 2
2.606488 -3.6893488e+19 -1.7733247
3.6893488e+19 3.2120602 -3.6893488e+19
2.6329834 2 -1.7958587
-0 3.1805222 -3.6893488e+19
2.5121901 0 -1.8312579
2 3.1839571 -0
2.60969 -3.6893488e+19 -1.8796703
0 3.1790466 -0
2.5112915 0 -1.9011934
-2 3.18487 -1.0842022e-19
2.6104467 0 -1.9295064
1.0842022e-19 3.1794343 -2
2.5115275 -1.0842022e-19 -1.9498158
3.6893488e+19 3.1854558 -2
2.6109321 -3.6893488e+19 -1.9793859
-1.0842022e-19 3.1773 2
2.5102279 -2 -1.9970869
-2 3.1809137 3.6893488e+19
2.6071675 3.6893488e+19 -2.026145
3.6893488e+19 3.1758251 -2
2.5093296 -2 -2.0443461
-0 3.1811829 0
2.6073906 1.0842022e-19 -2.0755172
-0 3.1444273 -3.6893488e+19
2.6275187 0 -2.0724823
0 2.9065769 -2
2.2986848 -3.6893488e+19 -1.9490342
-2 2.8037305 -2
2.29071 3.6893488e+19 -1.9091107
-2 2.7808464 -1.0842022e-19
2.1626384 0 -1.9034722
2 2.7519898 0
2.2323749 2 -1.8965198
1.0842022e-19 2.713944 -1.0842022e-19
2.0908287 3.6893488e+19 -1.8899843
1.0842022e-19 2.6671803 -0
2.1492963 -1.0842022e-19 -1.8833132
2 2.6462955 3.6893488e+19
2.041132 1.0842022e-19 -1.880875
2 2.6000781 -2
2.0850706 -3.6893488e+19 -1.8689454
2 2.5911958 -3.6893488e+19
2.0006537 3.6893488e+19 -1.8698442
-3.6893488e+19 2.5624552 2
2.0490608 3.6893488e+19 -1.8607872
3.6893488e+19 2.5476518 2
1.968665 -3.6893488e+19 -1.8556144
2 2.5247443 1.0842022e-19
2.0129664 -3.6893488e+19 -1.8482286
-0 2.5156474 0
1.9451536 -0 -1.8460293
0 2.5051193 -0
1.9053689 1.0842022e-19 -1.8434565
-1.0842022e-19 2.4764776 1.0842022e-19
1.9474669 -1.0842022e-19 -1.8378242
-0 2.3374743 -2
1.8305236 3.6893488e+19 -1.8178134
-0 2.2964811 -0
1.8055586 3.6893488e+19 -1.8114854
0 2.2610404 -3.6893488e+19
1.8748499 -0 -1.8072699
1.0842022e-19 2.2234495 0
1.8515767 1.0842022e-19 -1.8042915
-3.6893488e+19 2.1787846 -2
1.8302016 3.6893488e+19 -1.8001217
3.6893488e+19 2.1361794 -3.6893488e+19
1.8098122 0 -1.7942629
0 3.2415266 2
2.657407 3.6893488e+19 2.6816649
-2 3.2414422 -0
2.6573372 3.6893488e+19 2.6669698
1.0842022e-19 3.2901239 0
2.603374 1.0842022e-19 2.7291031
1.0842022e-19 3.2011876 1.0842022e-19
2.6239717 -2 2.6194329
3.6893488e+19 3.2890897 -0
2.6021142 0 2.7104337
0 3.2006655 -3.6893488e+19
2.6235387 1.0842022e-19 2.6056736
0 3.2858522 -2
2.5981708 -3.6893488e+19 2.6885481
-2 3.2034273 -3.6893488e+19
2.625828 2 2.5944784
0 3.1927085 3.6893488e+19
2.6169436 -2 2.5733073
2 3.1722496 0
2.6541483 -1.0842022e-19 2.5542336
-0 3.229208 -1.0842022e-19
2.6020422 1.0842022e-19 2.5844131
-2 3.1731145 1.0842022e-19
2.6549764 -3.6893488e+19 2.542367
0 3.232105 -3.6893488e+19
2.6041703 3.6893488e+19 2.5723794
-3.6893488e+19 3.1783707 1.0842022e-19
2.6600072 2 2.5333862
-2 3.2252214 0
2.7048495 1.0842022e-19 2.5504162
3.6893488e+19 3.2274489 3.6893488e+19
2.60075 -1.0842022e-19 2.5415237
-3.6893488e+19 3.1992266 1.0842022e-19
2.6799691 -0 2.5208142
-1.0842022e-19 3.2304015 3.6893488e+19
2.6029191 -3.6893488e+19 2.5294127
-1.0842022e-19 3.1756544 2
2.6574073 -2 2.4882975
0 3.2326658 -2
2.6045823 -3.6893488e+19 2.5167809
3.6893488e+19 3.2185094 3.6893488e+19
2.5941827 -2 2.4908795
0 3.2168746 -2
2.5929816 -1.0842022e-19 2.4622812
-0 3.1800165 2
2.5118823 0 2.4113054
2 3.2177155 2
2.637671 3.6893488e+19 2.438159
-0 3.1805754 -2
2.5122225 -3.6893488e+19 2.3872285
1.0842022e-19 3.1747842 -2
2.6020868 1.0842022e-19 2.3734512
0 3.2227194 2
2.5378885 0 2.3981516
-1.0842022e-19 3.1731439 -1.0842022e-19
2.6007273 -3.6893488e+19 2.347646
1.0842022e-19 3.2232969 2
2.5382402 1.0842022e-19 2.3716712
3.6893488e+19 3.1741614 0
2.6015708 -3.6893488e+19 2.3240993
-1.0842022e-19 3.1814511 -2
2.5127559 1.0842022e-19 2.3142564
-3.6893488e+19 3.1768055 -0
2.6037624 2 2.3016124
-3.6893488e+19 3.1821115 -2
2.5131581 1.0842022e-19 2.2901814
3.6893488e+19 3.1793098 3.6893488e+19
2.6058381 -0 2.2787652
0 3.1793015 -0
2.5114467 0 2.2639213
2 3.1792016 0
2.6057484 -2 2.2541068
-1.0842022e-19 3.2182908 3.6893488e+19
2.5351915 3.6893488e+19 2.2613375
-2 3.1797132 1.0842022e-19
2.6061726 -1.0842022e-19 2.2096345
2 3.1878693 -1.0842022e-19
2.6690984 -2 2.1963542
-1.0842022e-19 3.1731565 -1.0842022e-19
2.5608649 0 2.152452
-3.6893488e+19 3.1937528 3.6893488e+19
2.6747298 1.0842022e-19 2.1512904
-1.0842022e-19 3.1758971 2
2.5628784 3.6893488e+19 2.1066096
-0 3.1943371 -3.6893488e+19
2.6752889 2 2.1007192
1.0842022e-19 3.1790795 -2
2.5652161 -0 2.0605078
-1.0842022e-19 3.1812351 -3.6893488e+19
2.6627486 -2 2.040818
-3.6893488e+19 3.1789563 -0
2.5651257 -2 2.011687
3.6893488e+19 3.1788268 -1.0842022e-19
2.6604435 -3.6893488e+19 1.9899489
-1.0842022e-19 3.1920226 2
2.5747247 0 1.9694784
1.0842022e-19 3.1824727 -3.6893488e+19
2.663933 3.6893488e+19 1.9423391
-2 3.172471 -1.0842022e-19
2.5603614 3.6893488e+19 1.911821
1.0842022e-19 3.1990433 3.6893488e+19
2.6797934 0 1.898186
3.6893488e+19 3.2429366 2
2.6121278 -2 1.8828939
-2 3.1892488 1.0842022e-19
2.670419 3.6893488e+19 1.8141181
2 3.1756423 -1.0842022e-19
2.562691 -1.0842022e-19 1.7579387
2 3.1829093 1.0842022e-19
2.513644 2 1.6713529
-1.0842022e-19 3.1897197 2
2.6144664 -3.6893488e+19 1.5260307
2 3.1845546 -3.6893488e+19
2.5146458 -1.0842022e-19 -1.3180227
-3.6893488e+19 3.1767733 -0
2.6037357 -3.6893488e+19 -1.6172792
-3.6893488e+19 3.1737287 1.0842022e-19
2.5080531 1.0842022e-19 -1.7147375
1.0842022e-19 3.1780965 1.0842022e-19
2.6048324 -3.6893488e+19 -1.7832997
-0 3.1805222 -3.6893488e+19
2.5121901 0 -1.8312579
2 3.1839571 -0
2.60969 -3.6893488e+19 -1.8796703
0 3.1790466 -0
2.5112915 0 -1.9011934
-2 3.18487 -1.0842022e-19
2.6104467 0 -1.9295064
1.0842022e-19 3.1794343 -2
2.5115275 -1.0842022e-19 -1.9498158
3.6893488e+19 3.1854558 -2
2.6109321 -3.6893488e+19 -1.9793859
-1.0842022e-19 3.1773 2
2.5102279 -2 -1.9970869
-2 3.1809137 3.6893488e+19
2.6071675 3.6893488e+19 -2.026145
3.6893488e+19 3.1758251 -2
2.5093296 -2 -2.0443461
1.0842022e-19 3.1468558 0
2.5789382 1.0842022e-19 -2.0496023
-0 3.1444273 -3.6893488e+19
2.6275187 0 -2.0724823
0 2.9065769 -2
2.2986848 -3.6893488e+19 -1.9490342
-2 2.8037305 -2
2.29071 3.6893488e+19 -1.9091107
-2 2.7808464 -1.0842022e-19
2.1626384 0 -1.9034722
2 2.7519898 0
2.2323749 2 -1.8965198
1.0842022e-19 2.713944 -1.0842022e-19
2.0908287 3.6893488e+19 -1.8899843
1.0842022e-19 2.6671803 -0
2.1492963 -1.0842022e-19 -1.8833132
2 2.6462955 3.6893488e+19
2.041132 1.0842022e-19 -1.880875
2 2.6000781 -2
2.0850706 -3.6893488e+19 -1.8689454
2 2.5911958 -3.6893488e+19
2.0006537 3.6893488e+19 -1.8698442
-3.6893488e+19 2.5624552 2
2.0490608 3.6893488e+19 -1.8607872
3.6893488e+19 2.5476518 2
1.968665 -3.6893488e+19 -1.8556144
2 2.5247443 1.0842022e-19
2.0129664 -3.6893488e+19 -1.8482286
-0 2.5156474 0
1.9451536 -0 -1.8460293
0 2.5051193 -0
1.9053689 1.0842022e-19 -1.8434565
-1.0842022e-19 2.4764776 1.0842022e-19
1.9474669 -1.0842022e-19 -1.8378242
-0 2.3374743 -2
1.8305236 3.6893488e+19 -1.8178134
-0 2.2964811 -0
1.8055586 3.6893488e+19 -1.8114854
0 2.2610404 -3.6893488e+19
1.8748499 -0 -1.8072699
1.0842022e-19 2.2234495 0
1.8515767 1.0842022e-19 -1.8042915
-3.6893488e+19 2.1787846 -2
1.8302016 3.6893488e+19 -1.8001217
3.6893488e+19 2.1361794 -3.6893488e+19
1.8098122 0 -1.7942629
1.0842022e-19 3.2424624 2
2.6531653 0 2.6822693
-3.6893488e+19 3.2682364 -3.6893488e+19
2.5713518 0 2.7085757
-1.0842022e-19 3.2413299 -3.6893488e+19
2.6522381 0 2.6666648
2 3.2901704 2
2.5976291 -3.6893488e+19 2.729003
-3.6893488e+19 3.2363858 3.6893488e+19
2.6481907 3.6893488e+19 2.6480532
2 3.2891812 -2
2.5964439 -1.0842022e-19 2.7104094
-2 3.2350097 -2
2.647064 -3.6893488e+19 2.632586
-1.0842022e-19 3.287081 -3.6893488e+19
2.5939279 -0 2.6902711
-3.6893488e+19 3.2389619 0
2.6502998 -1.0842022e-19 2.6212878
-0 3.2834554 -0
2.5895844 3.6893488e+19 2.6681752
-1.0842022e-19 3.2402773 -0
2.6513765 -0 2.6078665
-1.0842022e-19 3.2350981 2
2.7092929 -0 2.5993133
-1.0842022e-19 3.2302701 0
2.5979724 -3.6893488e+19 2.5850048
-0 3.2366984 1.0842022e-19
2.710808 2 2.5861073
1.0842022e-19 3.2317131 -0
2.5990176 1.0842022e-19 2.5719738
1.0842022e-19 3.231432 -3.6893488e+19
2.7058215 0 2.5683033
3.6893488e+19 3.2367795 1.0842022e-19
2.6026886 3.6893488e+19 2.5612102
1.0842022e-19 3.2214403 1.0842022e-19
2.6963615 -0 2.5478525
-0 3.2287564 -3.6893488e+19
2.5968754 -3.6893488e+19 2.5421917
1.0842022e-19 3.2002704 -0
2.6763177 3.6893488e+19 2.5212855
-1.0842022e-19 3.2311027 1.0842022e-19
2.5985756 -0 2.529696
1.0842022e-19 3.2254467 2
2.7001548 -2 2.5225501
0 3.229773 -3.6893488e+19
2.5976119 0 2.515064
-0 3.1901431 -1.0842022e-19
2.6667292 3.6893488e+19 2.4789369
-3.6893488e+19 3.2189012 -2
2.589735 -1.0842022e-19 2.4910712
2 3.2174795 0
2.5887051 -2 2.4626739
3.6893488e+19 3.2409449 -1.0842022e-19
2.54408 -0 2.4694092
-3.6893488e+19 3.2061493 -0
2.6234369 -3.6893488e+19 2.4271088
-3.6893488e+19 3.2384501 -3.6893488e+19
2.5425856 1.0842022e-19 2.439115
2 3.2084816 2
2.6253462 -3.6893488e+19 2.4028735
-3.6893488e+19 3.2386322 -0
2.5426948 -2 2.4114025
-2 3.214602 -2
2.6303568 2 2.3815153
2 3.2409129 2
2.5440609 -3.6893488e+19 2.3853624
3.6893488e+19 3.2068691 -1.0842022e-19
2.6240261 2 2.3489156
0 3.2296903 2
2.5373385 2 2.3492634
-1.0842022e-19 3.2101145 -1.0842022e-19
2.626683 -3.6893488e+19 2.3249872
2 3.2291172 3.6893488e+19
2.5369952 -1.0842022e-19 2.3216288
-3.6893488e+19 3.1796174 1.0842022e-19
2.601716 -2 2.2788246
1.0842022e-19 3.181124 1.0842022e-19
2.5082469 3.6893488e+19 2.2649438
1.0842022e-19 3.1801505 1.0842022e-19
2.6021523 -1.0842022e-19 2.2545404
-2 3.2384737 1.0842022e-19
2.5425999 -2 2.2725003
1.0842022e-19 3.1802046 -3.6893488e+19
2.6021965 -0 2.2099285
2 3.1868796 -0
2.6636393 3.6893488e+19 2.1950865
2 3.1760466 -3.6893488e+19
2.5586853 2 2.15502
2 3.175565 2
2.5583365 -2 2.1061726
0 3.1989393 3.6893488e+19
2.6750574 -2 2.1041455
-1.0842022e-19 3.2196972 -3.6893488e+19
2.5903118 -1.0842022e-19 2.0897498
-1.0842022e-19 3.2146077 2
2.5866244 2 2.0333102
0 3.2457263 3.6893488e+19
2.7193556 -1.0842022e-19 2.027221
2 3.1928959 -0
2.5708933 2 1.9698139
0 3.2614281 1.0842022e-19
2.7450423 -0 1.9824013
-0 3.2511702 -2
2.6139629 3.6893488e+19 1.942328
1.0842022e-19 3.2603765 -1.0842022e-19
2.7430508 -3.6893488e+19 1.9217504
0 3.2396514 -1.0842022e-19
2.6047692 -1.0842022e-19 1.8819494
-2 3.1975014 0
2.6736963 -1.0842022e-19 1.8175592
-3.6893488e+19 3.1760778 2
2.5587082 -2 1.7580155
1.0842022e-19 3.2998848 3.6893488e+19
2.609267 -3.6893488e+19 1.7373114
3.6893488e+19 3.1894512 -2
2.6097665 2 1.5258626
2 3.2949917 -0
2.603405 -0 -1.3809826
0 3.177968 -3.6893488e+19
2.6003654 1.0842022e-19 -1.6178352
-2 3.2920313 -0
2.5998585 2 -1.7729412
2 3.1972311 -1.0842022e-19
2.6161356 -0 -1.790292
-0 3.1838949 0
2.5099068 1.0842022e-19 -1.8327971
3.6893488e+19 3.1815736 0
2.6033175 2 -1.8788933
-0 3.1810896 0
2.5082264 -0 -1.9018573
-3.6893488e+19 3.1828547 1.0842022e-19
2.6043663 -1.0842022e-19 -1.9285846
-1.0842022e-19 3.1767814 0
2.5056458 -2 -1.9485081
-2 3.1828291 3.6893488e+19
2.6043453 1.0842022e-19 -1.9778876
-3.6893488e+19 3.1763766 1.0842022e-19
2.5054033 0 -1.9964621
-1.0842022e-19 3.1799681 2
2.6020031 2 -2.0254004
-1.0842022e-19 3.1749015 -3.6893488e+19
2.5045195 -2 -2.0435994
2 3.1830208 1.0842022e-19
2.6045022 0 -2.0767403
-3.6893488e+19 3.1446567 -3.6893488e+19
2.6236625 0 -2.0724823
2 2.9063897 1.0842022e-19
2.2944434 0 -1.9488541
-3.6893488e+19 2.8033001 3.6893488e+19
2.2871659 -1.0842022e-19 -1.9087929
2 2.7828739 3.6893488e+19
2.1599038 0 -1.9045112
0 2.7522578 3.6893488e+19
2.2276773 -2 -1.8965902
-2 2.7162359 1.0842022e-19
2.0878041 -3.6893488e+19 -1.8906131
-0 2.6673017 0
2.145103 -2 -1.8832744
-2 2.6468399 2
2.0375242 -0 -1.8809963
2 2.6005242 0
2.0818777 1.0842022e-19 -1.8691143
3.6893488e+19 2.5912254 -0
1.9972296 2 -1.8697563
2 2.562516 -0
2.0458913 1.0842022e-19 -1.8606958
-2 2.5501108 3.6893488e+19
1.9674407 3.6893488e+19 -1.8574162
3.6893488e+19 2.5250251 -1.0842022e-19
2.0103948 3.6893488e+19 -1.8483269
1.0842022e-19 2.5145423 0
1.9416701 0 -1.8450117
-0 2.5053363 3.6893488e+19
1.9029486 -2 -1.8435616
-3.6893488e+19 2.4769609 3.6893488e+19
1.9452374 3.6893488e+19 -1.8379329
1.0842022e-19 2.466552 2
1.8897343 -2 -1.8379917
1.0842022e-19 3.2424624 2
2.6531653 0 2.6822693
-3.6893488e+19 3.2682364 -3.6893488e+19
2.5713518 0 2.7085757
-1.0842022e-19 3.2413299 -3.6893488e+19
2.6522381 0 2.6666648
2 3.2901704 2
2.5976291 -3.6893488e+19 2.729003
-1.0842022e-19 3.2014446 3.6893488e+19
2.6195853 -2 2.6194575
2 3.2891812 -2
2.5964439 -1.0842022e-19 2.7104094
-3.6893488e+19 3.2006216 -0
2.6189115 1.0842022e-19 2.6054602
-1.0842022e-19 3.287081 -3.6893488e+19
2.5939279 -0 2.6902711
-3.6893488e+19 3.2389619 0
2.6502998 -1.0842022e-19 2.6212878
-0 3.2834554 -0
2.5895844 3.6893488e+19 2.6681752
3.6893488e+19 3.191123 2
2.6111352 -2 2.5719874
-0 3.1724951 1.0842022e-19
2.6500201 -1.0842022e-19 2.5542336
-1.0842022e-19 3.2302701 0
2.5979724 -3.6893488e+19 2.5850048
3.6893488e+19 3.172641 -0
2.6501582 1.0842022e-19 2.5418701
1.0842022e-19 3.2317131 -0
2.5990176 1.0842022e-19 2.5719738
-1.0842022e-19 3.1775992 3.6893488e+19
2.6548526 3.6893488e+19 2.5327113
3.6893488e+19 3.2367795 1.0842022e-19
2.6026886 3.6893488e+19 2.5612102
1.0842022e-19 3.2214403 1.0842022e-19
2.6963615 -0 2.5478525
-0 3.2287564 -3.6893488e+19
2.5968754 -3.6893488e+19 2.5421917
1.0842022e-19 3.2002704 -0
2.6763177 3.6893488e+19 2.5212855
-1.0842022e-19 3.2311027 1.0842022e-19
2.5985756 -0 2.529696
1.0842022e-19 3.1777394 -1.0842022e-19
2.6549852 -0 2.4904039
0 3.229773 -3.6893488e+19
2.5976119 0 2.515064
-0 3.1901431 -1.0842022e-19
2.6667292 3.6893488e+19 2.4789369
-3.6893488e+19 3.2189012 -2
2.589735 -1.0842022e-19 2.4910712
2 3.2174795 0
2.5887051 -2 2.4626739
-1.0842022e-19 3.1810346 -2
2.5081933 2 2.412127
-3.6893488e+19 3.2061493 -0
2.6234369 -3.6893488e+19 2.4271088
-2 3.180212 2
2.5077007 -3.6893488e+19 2.386759
-3.6893488e+19 3.1761241 0
2.5988562 1.0842022e-19 2.3744409
-3.6893488e+19 3.2386322 -0
2.5426948 -2 2.4114025
3.6893488e+19 3.1743317 -2
2.5973885 1.0842022e-19 2.3484466
-0 3.1827748 -2
2.5092356 -1.0842022e-19 2.3397245
-3.6893488e+19 3.1749845 -1.0842022e-19
2.597923 -2 2.3245649
-3.6893488e+19 3.1840727 0
2.5100133 2 2.3160493
-1.0842022e-19 3.2101145 -1.0842022e-19
2.626683 -3.6893488e+19 2.3249872
-0 3.1808851 0
2.5081038 -2 2.2892509
-3.6893488e+19 3.1796174 1.0842022e-19
2.601716 -2 2.2788246
1.0842022e-19 3.181124 1.0842022e-19
2.5082469 3.6893488e+19 2.2649438
1.0842022e-19 3.1801505 1.0842022e-19
2.6021523 -1.0842022e-19 2.2545404
-2 3.2384737 1.0842022e-19
2.5425999 -2 2.2725003
1.0842022e-19 3.1802046 -3.6893488e+19
2.6021965 -0 2.2099285
2 3.1868796 -0
2.6636393 3.6893488e+19 2.1950865
2 3.1760466 -3.6893488e+19
2.5586853 2 2.15502
2 3.175565 2
2.5583365 -2 2.1061726
0 3.1989393 3.6893488e+19
2.6750574 -2 2.1041455
0 3.1781342 -2
2.5601978 1.0842022e-19 2.0596857
1.0842022e-19 3.1793628 3.6893488e+19
2.5610881 -3.6893488e+19 2.0118182
-0 3.1770704 3.6893488e+19
2.6543519 0 1.9888272
2 3.1928959 -0
2.5708933 2 1.9698139
-0 3.1847305 1.0842022e-19
2.6616046 1.0842022e-19 1.9432309
1.0842022e-19 3.1724751 2
2.5560977 0 1.9117504
-3.6893488e+19 3.188663 2
2.665328 2 1.8946763
-0 3.1859391 -0
2.5658529 -2 1.8599505
-2 3.1975014 0
2.6736963 -1.0842022e-19 1.8175592
-3.6893488e+19 3.1760778 2
2.5587082 -2 1.7580155
1.0842022e-19 3.1786497 -0
2.5067647 -2 1.6696042
3.6893488e+19 3.1894512 -2
2.6097665 2 1.5258626
-1.0842022e-19 3.1857347 -1.0842022e-19
2.5110087 3.6893488e+19 -1.3184756
0 3.177968 -3.6893488e+19
2.6003654 1.0842022e-19 -1.6178352
-1.0842022e-19 3.1838055 3.6893488e+19
2.5098531 -2 -1.719763
1.0842022e-19 3.1780365 -3.6893488e+19
2.6004214 -1.0842022e-19 -1.7831979
-0 3.1838949 0
2.5099068 1.0842022e-19 -1.8327971
3.6893488e+19 3.1815736 0
2.6033175 2 -1.8788933
-0 3.1810896 0
2.5082264 -0 -1.9018573
-3.6893488e+19 3.1828547 1.0842022e-19
2.6043663 -1.0842022e-19 -1.9285846
-1.0842022e-19 3.1767814 0
2.5056458 -2 -1.9485081
-2 3.1828291 3.6893488e+19
2.6043453 1.0842022e-19 -1.9778876
-3.6893488e+19 3.1763766 1.0842022e-19
2.5054033 0 -1.9964621
-1.0842022e-19 3.1799681 2
2.6020031 2 -2.0254004
-1.0842022e-19 3.1749015 -3.6893488e+19
2.5045195 -2 -2.0435994
0 3.1469638 -3.6893488e+19
2.5749831 -2 -2.0495329
-3.6893488e+19 3.1446567 -3.6893488e+19
2.6236625 0 -2.0724823
2 2.9063897 1.0842022e-19
2.2944434 0 -1.9488541
-3.6893488e+19 2.8033001 3.6893488e+19
2.2871659 -1.0842022e-19 -1.9087929
2 2.7828739 3.6893488e+19
2.1599038 0 -1.9045112
0 2.7522578 3.6893488e+19
2.2276773 -2 -1.8965902
-2 2.7162359 1.0842022e-19
2.0878041 -3.6893488e+19 -1.8906131
-0 2.6673017 0
2.145103 -2 -1.8832744
-2 2.6468399 2
2.0375242 -0 -1.8809963
2 2.6005242 0
2.0818777 1.0842022e-19 -1.8691143
3.6893488e+19 2.5912254 -0
1.9972296 2 -1.8697563
2 2.562516 -0
2.0458913 1.0842022e-19 -1.8606958
-2 2.5501108 3.6893488e+19
1.9674407 3.6893488e+19 -1.8574162
3.6893488e+19 2.5250251 -1.0842022e-19
2.0103948 3.6893488e+19 -1.8483269
1.0842022e-19 2.5145423 0
1.9416701 0 -1.8450117
-0 2.5053363 3.6893488e+19
1.9029486 -2 -1.8435616
-3.6893488e+19 2.4769609 3.6893488e+19
1.9452374 3.6893488e+19 -1.8379329
1.0842022e-19 2.466552 2
1.8897343 -2 -1.8379917
1.0842022e-19 3.2399693 -2
2.6457839 -3.6893488e+19 2.679852
-0 3.2682953 3.6893488e+19
2.5656824 -2 2.708498
-3.6893488e+19 3.239042 -3.6893488e+19
2.645035 3.6893488e+19 2.6645041
0 3.2909193 0
2.5923023 -2 2.7300527
-1.0842022e-19 3.2352631 -0
2.6419826 -0 2.6469231
-3.6893488e+19 3.2888687 -3.6893488e+19
2.5898895 -1.0842022e-19 2.7097335
-0 3.2352979 3.6893488e+19
2.6420107 -0 2.6326098
-3.6893488e+19 3.2881949 -1.0842022e-19
2.5890968 0 2.691808
3.6893488e+19 3.234705 2
2.6415317 2 2.6178596
0 3.2835047 1.0842022e-19
2.5835781 0 2.6680856
-2 3.2348089 -2
2.6416156 -1.0842022e-19 2.6036868
1.0842022e-19 3.2354569 1.0842022e-19
2.7042701 3.6893488e+19 2.5993564
-2 3.2301929 -1.0842022e-19
2.5927279 1.0842022e-19 2.5847936
-2 3.2320306 1.0842022e-19
2.5940397 3.6893488e+19 2.5720346
-3.6893488e+19 3.171824 -2
2.6447251 2 2.5287213
-3.6893488e+19 3.2366133 -2
2.5973103 3.6893488e+19 2.5609577
-3.6893488e+19 3.2218809 -3.6893488e+19
2.6915662 -2 2.5479474
-3.6893488e+19 3.2297118 3.6893488e+19
2.5923846 1.0842022e-19 2.5426373
-0 3.2232783 0
2.692874 3.6893488e+19 2.5349722
1.0842022e-19 3.2309942 1.0842022e-19
2.5932999 0 2.5295014
-0 3.2297175 0
2.6988995 -1.0842022e-19 2.5248291
1.0842022e-19 3.2301512 2
2.5926981 0 2.5151482
3.6893488e+19 3.1875184 -0
2.6594112 -3.6893488e+19 2.4757876
3.6893488e+19 3.2189388 2
2.5846956 -2 2.4908795
1.0842022e-19 3.2226162 -1.0842022e-19
2.5873201 -0 2.4675379
-0 3.2410741 -0
2.5389044 2 2.4693506
0 3.2082486 -1.0842022e-19
2.6201608 -0 2.4288461
-2 3.2391315 1.0842022e-19
2.5377617 3.6893488e+19 2.4395568
3.6893488e+19 3.2106137 0
2.6220715 -0 2.404532
2 3.2366695 0
2.5363133 1.0842022e-19 2.409591
2 3.2408266 -2
2.5387588 3.6893488e+19 2.3851452
-0 3.2084236 0
2.6203024 -3.6893488e+19 2.3499165
-2 3.2287679 -0
2.5316646 1.0842022e-19 2.3484566
-0 3.2072465 0
2.6193516 0 2.3227899
-0 3.2293956 2
2.5320339 -2 2.3216908
1.0842022e-19 3.2071142 3.6893488e+19
2.6192446 -0 2.2965124
1.0842022e-19 3.1823704 -2
2.5043683 -0 2.2656066
-1.0842022e-19 3.1729553 -1.0842022e-19
2.5916519 2 2.2501497
0 3.2402983 -3.6893488e+19
2.5384479 2 2.273412
-0 3.1761236 0
2.5942113 1.0842022e-19 2.2053235
2 3.1892443 3.6893488e+19
2.6610262 2 2.1972201
-3.6893488e+19 3.2316201 1.0842022e-19
2.5937467 -3.6893488e+19 2.2076354
1.0842022e-19 3.2023664 -0
2.6733053 2 2.1585901
1.0842022e-19 3.2315283 -3.6893488e+19
2.5936809 2 2.1528211
-0 3.2040787 3.6893488e+19
2.6749077 -3.6893488e+19 2.1079793
1.0842022e-19 3.2193651 2
2.5849998 0 2.08935
-3.6893488e+19 3.1749718 -1.0842022e-19
2.6476707 3.6893488e+19 2.0362513
2 3.2258322 1.0842022e-19
2.5896156 -1.0842022e-19 2.0400181
-0 3.2235465 -3.6893488e+19
2.5879841 -1.0842022e-19 1.9849156
-2 3.2506578 0
2.6078041 2 1.9418454
-2 3.2031405 3.6893488e+19
2.6740298 -1.0842022e-19 1.8993591
-2 3.2426193 2
2.6015971 2 1.8826869
-2 3.1973815 2
2.6686409 -2 1.8173891
3.6893488e+19 3.1747711 -1.0842022e-19
2.5531716 1.0842022e-19 1.7575452
-2 3.3004494 -2
2.6035156 -1.0842022e-19 1.737666
-3.6893488e+19 3.1928706 0
2.6077392 -0 1.5269556
-1.0842022e-19 3.2951217 -3.6893488e+19
2.5972469 1.0842022e-19 -1.3809896
1.0842022e-19 3.1789615 -1.0842022e-19
2.5965035 1.0842022e-19 -1.6182694
0 3.2926705 2
2.5943627 0 -1.7732074
2 3.1811128 2
2.5982413 -0 -1.7842501
1.0842022e-19 3.2918282 3.6893488e+19
2.5933716 3.6893488e+19 -1.8897054
-2 3.1834877 0
2.6001599 1.0842022e-19 -1.8793961
-0 3.1811025 2
2.5036225 0 -1.9018029
-1.0842022e-19 3.1835444 0
2.6002057 -0 -1.928774
0 3.1766074 0
2.500978 -3.6893488e+19 -1.9483501
-1.0842022e-19 3.1837943 -1.0842022e-19
2.6004074 -1.0842022e-19 -1.9782742
2 3.1764805 1.0842022e-19
2.5009034 -0 -1.9964263
2 3.1808398 3.6893488e+19
2.5980208 1.0842022e-19 -2.0258119
1.0842022e-19 3.1751902 1.0842022e-19
2.5001442 -1.0842022e-19 -2.0436847
2 3.183037 -3.6893488e+19
2.5997956 -0 -2.0765786
1.0842022e-19 3.1441705 3.6893488e+19
2.6188481 -2 -2.0718865
0 2.9103274 -3.6893488e+19
2.2928627 -2 -1.9506863
-3.6893488e+19 2.8040943 2
2.2845588 3.6893488e+19 -1.9091107
2 2.7848487 0
2.15661 -2 -1.9055166
3.6893488e+19 2.7504098 2
2.218646 2 -1.8954269
3.6893488e+19 2.7149827 2
2.081872 0 -1.8901693
-0 2.66768 0
2.1408474 -1.0842022e-19 -1.8833132
-2 2.6466587 -1.0842022e-19
2.033107 1.0842022e-19 -1.880875
1.0842022e-19 2.600255 3.6893488e+19
2.0777538 -2 -1.8687766
-2 2.586973 1.0842022e-19
1.9905077 2 -1.8665925
2 2.5602844 -2
2.0403509 2 -1.8588687
3.6893488e+19 2.5506196 -3.6893488e+19
1.9645611 -2 -1.8577006
-0 2.5238621 0
2.0062687 2 -1.8472457
