# .PCD v0.7 - Point Cloud Data file format
VERSION 0.7
FIELDS x y z
SIZE 4 4 4
TYPE F F F
COUNT 1 1 1
WIDTH 1741
HEIGHT 1
VIEWPOINT 0 0 0 1 0 0 0
POINTS 1741
DATA ascii
-1.0842022e-19 3.1465991 -3.6893488e+19
2.2599537 1.0842022e-19 2.3818944
-0 3.1500812 -0
2.0780737 -0 2.3731389
-0 3.1506519 0
2.3359716 -3.6893488e+19 2.3638418
-1.0842022e-19 3.1533124 3.6893488e+19
2.0807235 1.0842022e-19 2.3533416
-0 3.1528738 -0
2.3378346 2 2.3430007
-2 3.2434289 -0
2.1546206 -3.6893488e+19 2.4044268
1.0842022e-19 3.1551099 1.0842022e-19
2.3397098 -2 2.3219478
-3.6893488e+19 3.1555347 0
2.082546 2 2.3095219
-2 3.1546052 3.6893488e+19
2.3392866 -3.6893488e+19 2.298655
2 3.1530898 1.0842022e-19
2.0805409 1.0842022e-19 2.2849545
-3.6893488e+19 3.1491559 3.6893488e+19
2.334717 -3.6893488e+19 2.2720737
-3.6893488e+19 3.1563451 1.0842022e-19
2.0832105 1.0842022e-19 2.2644041
-2 3.1496918 3.6893488e+19
2.3351665 0 2.2497621
1.0842022e-19 3.1588376 0
2.0852542 1.0842022e-19 2.2361104
-2 3.1613121 -0
2.0872834 -3.6893488e+19 2.1928904
-2 3.1438828 -2
2.3302951 1.0842022e-19 2.1536999
-2 3.1765237 -0
2.4634025 3.6893488e+19 2.1646686
-1.0842022e-19 3.1444795 -3.6893488e+19
2.2585645 3.6893488e+19 2.1091533
-2 3.1518929 0
2.4366422 1.0842022e-19 2.0953436
-0 3.2251625 3.6893488e+19
2.3114488 2 2.1292789
0 3.2805133 3.6893488e+19
2.5547674 -0 2.1687732
-0 3.1475537 1.0842022e-19
2.2605796 -0 2.0227492
2 3.1599495 1.0842022e-19
2.4453952 3.6893488e+19 2.0097697
2 3.1448612 -3.6893488e+19
2.2588146 -1.0842022e-19 1.97664
3.6893488e+19 3.1544807 1.0842022e-19
2.4394536 -3.6893488e+19 1.9607215
0 3.1481256 2
2.2609544 1.0842022e-19 1.9339168
-0 3.154438 -2
2.4394071 -1.0842022e-19 1.9151329
-3.6893488e+19 3.1486316 -2
2.261286 -3.6893488e+19 1.8895061
2 3.1510494 2
2.2628708 2 1.815919
-0 3.1423917 -3.6893488e+19
2.2571959 3.6893488e+19 1.6979026
-3.6893488e+19 3.1469126 -3.6893488e+19
2.0754755 1.0842022e-19 1.5972477
-2 3.1431582 3.6893488e+19
2.3296876 -3.6893488e+19 1.3035591
0 3.1466343 1.0842022e-19
2.0752473 -0 -1.5073256
3.6893488e+19 3.1400433 2
2.3270755 2 -1.6528128
-1.0842022e-19 3.1432781 2
2.0724952 1.0842022e-19 -1.7412844
3.6893488e+19 3.1422858 -2
2.3289559 2 -1.7898513
-2 3.1421502 -3.6893488e+19
2.0715702 -3.6893488e+19 -1.8329136
-1.0842022e-19 3.1410346 -3.6893488e+19
2.0706553 -3.6893488e+19 -1.8973467
-3.6893488e+19 3.1531892 -1.0842022e-19
2.0806224 -2 -1.9469939
1.0842022e-19 3.1442673 -3.6893488e+19
2.3306174 -1.0842022e-19 -1.9655653
0 3.1083715 -2
2.0438709 0 -1.9651711
2 3.1084526 -3.6893488e+19
2.3005846 0 -1.9862442
-0 3.0964837 2
2.0341229 -0 -1.9967915
-0 3.0014567 1.0842022e-19
2.1717243 1.0842022e-19 -1.9439805
-0 2.7626598 -3.6893488e+19
1.9221623 -2 -1.8566693
-0 2.8009689 2
2.0769918 -0 -1.891996
1.0842022e-19 2.7629881 -1.0842022e-19
1.9223775 1.0842022e-19 -1.8807468
-0 2.7277086 3.6893488e+19
2.0095065 -2 -1.8761864
3.6893488e+19 2.7015367 -0
1.8979815 -2 -1.8748572
-1.0842022e-19 2.6534791 0
1.9691827 -2 -1.8609713
2 2.6338546 -2
1.8758001 -2 -1.8589991
2 2.6001718 -1.0842022e-19
1.9402244 0 -1.8496187
-0 2.583483 -0
1.8435839 1.0842022e-19 -1.8470688
-0 2.5565317 -0
1.9165177 2 -1.8389945
0 2.5439484 -3.6893488e+19
1.8176706 1.0842022e-19 -1.8373151
0 2.5258782 -0
1.8998657 0 -1.8332487
-1.0842022e-19 2.5111446 2
1.7961693 2 -1.8283603
2 2.4892695 -0
1.8828933 2 -1.8235636
2 2.4735973 1.0842022e-19
1.7802114 -2 -1.8227868
3.6893488e+19 2.4542789 -0
1.6862584 1.0842022e-19 -1.8207459
3.6893488e+19 3.2204919 -2
2.1160238 0 2.686096
0 3.1796346 0
2.0842385 -3.6893488e+19 2.6356099
0 3.2392073 2
2.3998587 3.6893488e+19 2.6836491
-2 3.1830406 -0
2.0868883 -1.0842022e-19 2.625989
2 3.2553265 2
2.4173877 3.6893488e+19 2.6876717
-1.0842022e-19 3.2436473 -0
2.4034879 3.6893488e+19 2.6586509
-3.6893488e+19 3.2603672 -2
2.1551106 -3.6893488e+19 2.6717775
-2 3.1844261 -2
2.3550828 3.6893488e+19 2.5969527
-2 3.2483258 1.0842022e-19
2.1376777 -2 2.6391678
-0 3.2413523 -0
2.401612 2 2.628119
-2 3.2414753 0
2.1323483 -3.6893488e+19 2.6195931
-2 3.2125225 -1.0842022e-19
2.3780477 -2 2.5925128
2 3.2420454 -2
2.1327915 3.6893488e+19 2.6058207
3.6893488e+19 3.2098603 -1.0842022e-19
2.3758717 0 2.5772302
-1.0842022e-19 3.2396514 3.6893488e+19
2.3106077 2 2.5836058
3.6893488e+19 3.1917078 3.6893488e+19
2.4704664 1.0842022e-19 2.5462568
-0 3.1970487 0
2.2835829 -1.0842022e-19 2.5417283
-2 3.2460268 -3.6893488e+19
2.3146517 -1.0842022e-19 2.5594652
-0 3.2034073 3.6893488e+19
2.4829276 0 2.5279489
3.6893488e+19 3.2327166 0
2.3062086 1.0842022e-19 2.5373456
-0 3.2265413 0
2.3022914 2 2.5200591
3.6893488e+19 3.2133763 -0
2.4935455 -2 2.507443
2 3.2304878 1.0842022e-19
2.3047948 -0 2.5086019
-2 3.1979883 -2
2.4771557 1.0842022e-19 2.4465189
-1.0842022e-19 3.146652 -3.6893488e+19
2.2516139 1.0842022e-19 2.3818645
-3.6893488e+19 3.2478881 0
2.1373372 1.0842022e-19 2.4642987
-3.6893488e+19 3.1536953 -3.6893488e+19
2.3299646 0 2.3665063
-1.0842022e-19 3.2454877 2
2.1354697 1.0842022e-19 2.4340394
3.6893488e+19 3.231663 -2
2.3936923 2 2.4099693
-0 3.2439904 -0
2.1343048 -1.0842022e-19 2.404834
0 3.2304599 1.0842022e-19
2.392709 -1.0842022e-19 2.3817263
-2 3.2434607 1.0842022e-19
2.1338928 3.6893488e+19 2.3765814
-2 3.1538172 -0
2.3300643 1.0842022e-19 2.2979927
1.0842022e-19 3.243248 -2
2.1337271 3.6893488e+19 2.348644
2 3.1531365 -0
2.3295078 0 2.2747126
3.6893488e+19 3.243135 1.0842022e-19
2.1336393 0 2.3208351
-2 3.1523728 -3.6893488e+19
2.3288836 0 2.2514889
1.0842022e-19 3.2456746 -2
2.1356149 2 2.2946415
2 3.1517129 1.0842022e-19
2.3283443 -3.6893488e+19 2.2068605
-3.6893488e+19 3.2476628 -2
2.1371617 -1.0842022e-19 2.2679002
-0 3.1678927 0
2.4451008 -1.0842022e-19 2.1561341
0 3.2318671 -1.0842022e-19
2.3056695 3.6893488e+19 2.1886222
-2 3.2188497 -1.0842022e-19
2.4993753 -0 2.1527369
-2 3.2243917 -3.6893488e+19
2.3009276 2 2.1285837
0 3.2802873 1.0842022e-19
2.5485361 -3.6893488e+19 2.1682882
-3.6893488e+19 3.2222414 -3.6893488e+19
2.2995636 -0 2.0739217
2 3.2761457 3.6893488e+19
2.5441248 -0 2.099843
-3.6893488e+19 3.215646 0
2.2953801 -1.0842022e-19 2.0172122
-0 3.1625493 -2
2.4394093 -0 1.9648492
-1.0842022e-19 3.155138 1.0842022e-19
2.4315157 0 1.9153605
-3.6893488e+19 3.1510205 1.0842022e-19
2.2543852 2 1.8903126
2 3.1531277 1.0842022e-19
2.2557218 -0 1.8168678
1.0842022e-19 3.3062775 -1.0842022e-19
2.5762184 -1.0842022e-19 1.8492389
-2 3.1414466 -2
2.246624 1.0842022e-19 1.6973842
-1.0842022e-19 3.148494 -2
2.0600123 1.0842022e-19 1.598104
-2 3.1421146 1.0842022e-19
2.3204992 -2 1.3030368
3.6893488e+19 3.1476538 0
2.0593588 1.0842022e-19 -1.5076485
-3.6893488e+19 3.1389987 2
2.3179524 0 -1.6523623
-0 3.1462636 -3.6893488e+19
2.0582771 -3.6893488e+19 -1.7430841
0 3.29199 -0
2.204313 3.6893488e+19 -1.9047896
3.6893488e+19 3.1372807 -3.6893488e+19
2.3165479 -1.0842022e-19 -1.8745618
-1.0842022e-19 3.145236 -3.6893488e+19
2.0574777 -1.0842022e-19 -1.8989104
-3.6893488e+19 3.1377454 3.6893488e+19
2.3169279 -3.6893488e+19 -1.9184324
-3.6893488e+19 3.152462 -0
2.0630994 3.6893488e+19 -1.946613
-3.6893488e+19 3.1464248 -0
2.3240221 2 -1.9666862
1.0842022e-19 3.1716743 -0
2.0780456 3.6893488e+19 -2.0031457
-1.0842022e-19 3.1090157 2
2.2934453 3.6893488e+19 -1.9865512
1.0842022e-19 3.0964668 -0
2.0195372 -2 -1.996747
-2 3.0041955 0
2.165539 0 -1.94604
3.6893488e+19 2.7627153 -3.6893488e+19
1.916652 -2 -1.8566693
-2 2.8024356 1.0842022e-19
2.0721266 -2 -1.8926377
-1.0842022e-19 2.7622974 2
1.916387 -2 -1.8803759
-0 2.7308445 0
2.0060756 -2 -1.8769699
-2 2.6997674 -0
1.8926537 0 -1.8738257
0 2.6531272 2
1.9646869 2 -1.8606824
0 2.6334388 3.6893488e+19
1.8682323 -3.6893488e+19 -1.8586962
3.6893488e+19 2.6004188 0
1.9366169 3.6893488e+19 -1.8496978
-3.6893488e+19 2.5830567 -1.0842022e-19
1.8362727 0 -1.8467381
3.6893488e+19 2.5563929 3.6893488e+19
1.9131707 -3.6893488e+19 -1.8388221
-1.0842022e-19 2.5440104 -1.0842022e-19
1.8115039 1.0842022e-19 -1.8373151
1.0842022e-19 2.5259755 -2
1.8969717 0 -1.8332487
-1.0842022e-19 2.5108278 0
1.7904547 2 -1.8280706
0 2.4894421 1.0842022e-19
1.8803271 2 -1.8235636
-3.6893488e+19 2.4732015 3.6893488e+19
1.7750864 2 -1.8225799
-3.6893488e+19 2.4543383 -3.6893488e+19
1.6767285 1.0842022e-19 -1.8207459
2 2.4128053 2
1.660573 -0 -1.8145198
-2 2.3553913 -1.0842022e-19
1.6382401 3.6893488e+19 -1.8082983
3.6893488e+19 2.3117075 1.0842022e-19
1.617496 1.0842022e-19 -1.8034935
-1.0842022e-19 2.2777548 1.0842022e-19
1.5910822 -2 -1.7999091
-0 2.2423973 3.6893488e+19
1.756114 -0 -1.7954469
3.6893488e+19 2.2017026 -2
1.7405559 0 -1.7944729
-2 2.1640403 3.6893488e+19
1.7204988 0 -1.7924246
-3.6893488e+19 2.1303778 -3.6893488e+19
1.7025716 -2 -1.7899743
3.6893488e+19 3.2204919 -2
2.1160238 0 2.686096
0 3.1796346 0
2.0842385 -3.6893488e+19 2.6356099
0 3.2392073 2
2.3998587 3.6893488e+19 2.6836491
-2 3.1830406 -0
2.0868883 -1.0842022e-19 2.625989
2 3.2553265 2
2.4173877 3.6893488e+19 2.6876717
-1.0842022e-19 3.2436473 -0
2.4034879 3.6893488e+19 2.6586509
3.6893488e+19 3.2111688 3.6893488e+19
2.1087708 1.0842022e-19 2.6235313
-2 3.1844261 -2
2.3550828 3.6893488e+19 2.5969527
-2 3.2483258 1.0842022e-19
2.1376777 -2 2.6391678
2 3.1865439 -3.6893488e+19
2.3568137 1.0842022e-19 2.5859413
-2 3.2414753 0
2.1323483 -3.6893488e+19 2.6195931
0 3.198581 -3.6893488e+19
2.3666523 -0 2.5821886
2 3.2420454 -2
2.1327915 3.6893488e+19 2.6058207
-1.0842022e-19 3.1871765 -1.0842022e-19
2.3573308 -2 2.5610886
1.0842022e-19 3.1927841 2
2.2808776 1.0842022e-19 2.5516744
3.6893488e+19 3.1917078 3.6893488e+19
2.4704664 1.0842022e-19 2.5462568
-0 3.1970487 0
2.2835829 -1.0842022e-19 2.5417283
-2 3.2460268 -3.6893488e+19
2.3146517 -1.0842022e-19 2.5594652
-0 3.2034073 3.6893488e+19
2.4829276 0 2.5279489
3.6893488e+19 3.2327166 0
2.3062086 1.0842022e-19 2.5373456
-2 3.1909757 1.0842022e-19
2.2797306 1.0842022e-19 2.4998078
3.6893488e+19 3.2133763 -0
2.4935455 -2 2.507443
2 3.2304878 1.0842022e-19
2.3047948 -0 2.5086019
-2 3.1979883 -2
2.4771557 1.0842022e-19 2.4465189
-1.0842022e-19 3.146652 -3.6893488e+19
2.2516139 1.0842022e-19 2.3818645
-3.6893488e+19 3.2478881 0
2.1373372 1.0842022e-19 2.4642987
-3.6893488e+19 3.1536953 -3.6893488e+19
2.3299646 0 2.3665063
-3.6893488e+19 3.1537685 -2
2.0641158 1.0842022e-19 2.3536949
2 3.1522102 1.0842022e-19
2.3287508 0 2.3423429
-1.0842022e-19 3.1537561 1.0842022e-19
2.0641062 -2 2.3308854
2 3.1532707 -2
2.3296175 -2 2.3203993
-0 3.1567066 2
2.0664015 -3.6893488e+19 2.3103755
-2 3.1538172 -0
2.3300643 1.0842022e-19 2.2979927
3.6893488e+19 3.1552567 3.6893488e+19
2.0652735 2 2.286449
2 3.1531365 -0
2.3295078 0 2.2747126
-1.0842022e-19 3.1535673 0
2.0639594 -1.0842022e-19 2.262562
-2 3.1523728 -3.6893488e+19
2.3288836 0 2.2514889
2 3.160105 1.0842022e-19
2.0690453 3.6893488e+19 2.2375536
2 3.1517129 1.0842022e-19
2.3283443 -3.6893488e+19 2.2068605
-1.0842022e-19 3.1608677 1.0842022e-19
2.0696387 -2 2.192354
-0 3.1678927 0
2.4451008 -1.0842022e-19 2.1561341
0 3.1459005 1.0842022e-19
2.2511373 3.6893488e+19 2.1103706
-1.0842022e-19 3.1620569 -0
2.438885 0 2.1039526
-2 3.1497498 0
2.2535791 -3.6893488e+19 2.0690162
0 3.2802873 1.0842022e-19
2.5485361 -3.6893488e+19 2.1682882
-2 3.1479177 -2
2.2524168 3.6893488e+19 2.0229414
-0 3.1613631 -3.6893488e+19
2.4381459 1.0842022e-19 2.0105736
0 3.1555297 0
2.2572455 0 1.9827143
-0 3.1625493 -2
2.4394093 -0 1.9648492
-1.0842022e-19 3.155138 1.0842022e-19
2.4315157 0 1.9153605
-3.6893488e+19 3.1510205 1.0842022e-19
2.2543852 2 1.8903126
2 3.1531277 1.0842022e-19
2.2557218 -0 1.8168678
1.0842022e-19 3.3062775 -1.0842022e-19
2.5762184 -1.0842022e-19 1.8492389
-2 3.1414466 -2
2.246624 1.0842022e-19 1.6973842
-1.0842022e-19 3.148494 -2
2.0600123 1.0842022e-19 1.598104
-2 3.1421146 1.0842022e-19
2.3204992 -2 1.3030368
3.6893488e+19 3.1476538 0
2.0593588 1.0842022e-19 -1.5076485
-3.6893488e+19 3.1389987 2
2.3179524 0 -1.6523623
-0 3.1462636 -3.6893488e+19
2.0582771 -3.6893488e+19 -1.7430841
-1.0842022e-19 3.1457593 -0
2.0578849 3.6893488e+19 -1.8347998
3.6893488e+19 3.1372807 -3.6893488e+19
2.3165479 -1.0842022e-19 -1.8745618
-1.0842022e-19 3.145236 -3.6893488e+19
2.0574777 -1.0842022e-19 -1.8989104
-3.6893488e+19 3.1377454 3.6893488e+19
2.3169279 -3.6893488e+19 -1.9184324
-3.6893488e+19 3.152462 -0
2.0630994 3.6893488e+19 -1.946613
-3.6893488e+19 3.1464248 -0
2.3240221 2 -1.9666862
1.0842022e-19 3.1716743 -0
2.0780456 3.6893488e+19 -2.0031457
-1.0842022e-19 3.1090157 2
2.2934453 3.6893488e+19 -1.9865512
1.0842022e-19 3.0964668 -0
2.0195372 -2 -1.996747
-2 3.0041955 0
2.165539 0 -1.94604
3.6893488e+19 2.7627153 -3.6893488e+19
1.916652 -2 -1.8566693
-2 2.8024356 1.0842022e-19
2.0721266 -2 -1.8926377
-1.0842022e-19 2.7622974 2
1.916387 -2 -1.8803759
-0 2.7308445 0
2.0060756 -2 -1.8769699
-2 2.6997674 -0
1.8926537 0 -1.8738257
0 2.6531272 2
1.9646869 2 -1.8606824
0 2.6334388 3.6893488e+19
1.8682323 -3.6893488e+19 -1.8586962
3.6893488e+19 2.6004188 0
1.9366169 3.6893488e+19 -1.8496978
-3.6893488e+19 2.5830567 -1.0842022e-19
1.8362727 0 -1.8467381
3.6893488e+19 2.5563929 3.6893488e+19
1.9131707 -3.6893488e+19 -1.8388221
-1.0842022e-19 2.5440104 -1.0842022e-19
1.8115039 1.0842022e-19 -1.8373151
1.0842022e-19 2.5259755 -2
1.8969717 0 -1.8332487
-1.0842022e-19 2.5108278 0
1.7904547 2 -1.8280706
0 2.4894421 1.0842022e-19
1.8803271 2 -1.8235636
-3.6893488e+19 2.4732015 3.6893488e+19
1.7750864 2 -1.8225799
-3.6893488e+19 2.4543383 -3.6893488e+19
1.6767285 1.0842022e-19 -1.8207459
2 2.4128053 2
1.660573 -0 -1.8145198
-2 2.3553913 -1.0842022e-19
1.6382401 3.6893488e+19 -1.8082983
3.6893488e+19 2.3117075 1.0842022e-19
1.617496 1.0842022e-19 -1.8034935
-1.0842022e-19 2.2777548 1.0842022e-19
1.5910822 -2 -1.7999091
-0 2.2423973 3.6893488e+19
1.756114 -0 -1.7954469
3.6893488e+19 2.2017026 -2
1.7405559 0 -1.7944729
-2 2.1640403 3.6893488e+19
1.7204988 0 -1.7924246
-3.6893488e+19 2.1303778 -3.6893488e+19
1.7025716 -2 -1.7899743
-0 3.1817286 -0
2.067724 -3.6893488e+19 2.6374414
-2 3.1839485 0
2.0693579 0 2.6267307
-1.0842022e-19 3.2546792 -1.0842022e-19
2.4055419 3.6893488e+19 2.6864469
2 3.242316 0
2.391973 -2 2.6574409
2 3.2114096 -1.0842022e-19
2.0895672 -2 2.6236799
-0 3.2523344 -1.0842022e-19
2.1214032 3.6893488e+19 2.6440725
3.6893488e+19 3.1852238 -3.6893488e+19
2.3465171 1.0842022e-19 2.584837
1.0842022e-19 3.2414751 -2
2.1116934 3.6893488e+19 2.6195471
-1.0842022e-19 3.1932864 -0
2.3529365 0 2.5781813
-0 3.2416456 2
2.111819 0 2.6054876
0 3.187629 3.6893488e+19
2.3484321 -2 2.5613282
-2 3.250361 2
2.5113213 2 2.6002102
-3.6893488e+19 3.2396593 -1.0842022e-19
2.3002841 -3.6893488e+19 2.5835428
2 3.2504742 -0
2.5114393 1.0842022e-19 2.5858738
3.6893488e+19 3.2071733 0
2.4771874 -1.0842022e-19 2.5433288
1.0842022e-19 3.2445581 -1.0842022e-19
2.3032882 -2 2.5584857
-0 3.2039316 0
2.4738038 0 2.5281742
2 3.2327228 3.6893488e+19
2.2960303 2 2.5372906
-3.6893488e+19 3.2327473 -3.6893488e+19
2.2960453 3.6893488e+19 2.5235202
-3.6893488e+19 3.2122777 -2
2.4825151 -3.6893488e+19 2.5067439
-2 3.2313271 -2
2.2951744 2 2.5090008
-2 3.23124 -3.6893488e+19
2.295121 1.0842022e-19 2.4905293
1.0842022e-19 3.2003882 0
2.4701052 2 2.4487557
2 3.1503527 -1.0842022e-19
2.2410336 0 2.3853486
3.6893488e+19 3.2503238 0
2.118444 2 2.466814
-1.0842022e-19 3.2054052 3.6893488e+19
2.3625853 -1.0842022e-19 2.4133432
0 3.2474422 -1.0842022e-19
2.1160848 2 2.4356973
1.0842022e-19 3.2052579 0
2.362468 3.6893488e+19 2.387392
-2 3.1523466 2
2.0461009 2 2.3296895
-3.6893488e+19 3.2072227 -3.6893488e+19
2.3640323 2 2.3631685
-2 3.2458215 3.6893488e+19
2.1148922 3.6893488e+19 2.3783362
0 3.2075577 -3.6893488e+19
2.3642988 -2 2.3375604
-2 3.2445529 -0
2.1139586 -0 2.3495231
-0 3.2497933 0
2.3979263 1.0842022e-19 2.3404882
-1.0842022e-19 3.2418892 -0
2.1119983 3.6893488e+19 2.3199849
3.6893488e+19 3.2479992 -1.0842022e-19
2.3964977 2 2.3111744
-0 3.2464209 2
2.1153333 -1.0842022e-19 2.2950485
-1.0842022e-19 3.1490583 0
2.317723 -1.0842022e-19 2.2037218
-0 3.2478492 2
2.1163845 -3.6893488e+19 2.2679672
-1.0842022e-19 3.2217648 -0
2.4924176 -2 2.2083321
0 3.2295702 2
2.2940969 0 2.1864424
-3.6893488e+19 3.2209301 -0
2.4915464 2 2.1543844
-0 3.2246132 3.6893488e+19
2.2910571 -2 2.1286829
-0 3.2801518 1.0842022e-19
2.5424163 2 2.167942
1.0842022e-19 3.2229607 -2
2.2900436 3.6893488e+19 2.0743487
0 3.1615982 2
2.4296169 -2 2.0106323
0 3.213624 1.0842022e-19
2.284318 2 2.0159974
1.0842022e-19 3.1681428 1.0842022e-19
2.4364481 -0 1.967687
-3.6893488e+19 3.2756081 2
2.3380342 0 2.0045323
3.6893488e+19 3.2952306 -1.0842022e-19
2.5581551 1.0842022e-19 1.9909184
1.0842022e-19 3.1506042 2
2.2413421 -2 1.8901381
2 3.1526804 -3.6893488e+19
2.2438884 2 1.8166158
1.0842022e-19 3.3013637 -0
2.5645566 3.6893488e+19 1.8455651
0 3.1416514 -2
2.2303612 1.0842022e-19 1.6974471
-3.6893488e+19 3.1491053 3.6893488e+19
2.0437155 -3.6893488e+19 1.5984185
-3.6893488e+19 3.1413786 3.6893488e+19
2.3116086 -2 1.3026557
-3.6893488e+19 3.1478591 -1.0842022e-19
2.0427983 -3.6893488e+19 -1.5077004
-2 3.1389151 2
2.3096471 1.0842022e-19 -1.6522893
2 3.1468434 1.0842022e-19
2.0420508 1.0842022e-19 -1.7434096
-3.6893488e+19 3.1390445 -2
2.3097501 1.0842022e-19 -1.7884017
3.6893488e+19 3.2963023 0
2.1861184 -2 -1.9070561
-3.6893488e+19 3.1360772 -0
2.3073876 -3.6893488e+19 -1.8737205
0 3.1863866 1.0842022e-19
2.071152 3.6893488e+19 -1.914394
-1.0842022e-19 3.1379101 3.6893488e+19
2.308847 -0 -1.9184594
-0 3.1517007 -0
2.0456254 2 -1.9462167
0 3.1464055 3.6893488e+19
2.3156106 -0 -1.9666183
-1.0842022e-19 3.1890085 -1.0842022e-19
2.0730815 1.0842022e-19 -2.0135195
-3.6893488e+19 3.1105087 3.6893488e+19
2.2870305 1.0842022e-19 -1.9874722
-0 3.0971022 2
2.0054445 2 -1.997169
1.0842022e-19 3.0060022 -2
2.1576483 -3.6893488e+19 -1.947381
-3.6893488e+19 2.9244611 0
2.1930432 0 -1.9261775
-0 2.800746 -0
2.0639119 -2 -1.8917918
-0 2.762351 3.6893488e+19
1.9108871 -2 -1.8803759
-3.6893488e+19 2.7322474 -2
2.0016794 -0 -1.8772964
1.0842022e-19 2.7001081 0
1.8880147 -2 -1.8739631
-1.0842022e-19 2.6533899 -2
1.9605247 -0 -1.8607546
0 2.6356299 2
1.861488 1.0842022e-19 -1.8599837
-2 2.6018989 2
1.9336522 -2 -1.850569
3.6893488e+19 2.5828764 -3.6893488e+19
1.8291368 -3.6893488e+19 -1.8465726
-3.6893488e+19 2.557363 -3.6893488e+19
1.9104093 -1.0842022e-19 -1.8394252
2 2.5434499 -1.0842022e-19
1.8049585 0 -1.836867
1.0842022e-19 2.5250835 0
1.893563 -2 -1.8325039
1.0842022e-19 2.5108812 -1.0842022e-19
1.7849857 2 -1.8280706
3.6893488e+19 2.4905977 1.0842022e-19
1.8780187 -2 -1.8239636
-1.0842022e-19 2.4730504 -1.0842022e-19
1.7700493 0 -1.8224764
1.0842022e-19 2.4543948 -2
1.6672024 1.0842022e-19 -1.8207459
-0 3.1817286 -0
2.067724 -3.6893488e+19 2.6374414
-2 3.1839485 0
2.0693579 0 2.6267307
-1.0842022e-19 3.2546792 -1.0842022e-19
2.4055419 3.6893488e+19 2.6864469
2 3.242316 0
2.391973 -2 2.6574409
2 3.2114096 -1.0842022e-19
2.0895672 -2 2.6236799
-0 3.2523344 -1.0842022e-19
2.1214032 3.6893488e+19 2.6440725
3.6893488e+19 3.1852238 -3.6893488e+19
2.3465171 1.0842022e-19 2.584837
1.0842022e-19 3.2414751 -2
2.1116934 3.6893488e+19 2.6195471
-1.0842022e-19 3.1932864 -0
2.3529365 0 2.5781813
-0 3.2416456 2
2.111819 0 2.6054876
0 3.187629 3.6893488e+19
2.3484321 -2 2.5613282
-2 3.250361 2
2.5113213 2 2.6002102
-3.6893488e+19 3.2396593 -1.0842022e-19
2.3002841 -3.6893488e+19 2.5835428
2 3.2504742 -0
2.5114393 1.0842022e-19 2.5858738
3.6893488e+19 3.2071733 0
2.4771874 -1.0842022e-19 2.5433288
1.0842022e-19 3.2445581 -1.0842022e-19
2.3032882 -2 2.5584857
-0 3.2039316 0
2.4738038 0 2.5281742
2 3.2327228 3.6893488e+19
2.2960303 2 2.5372906
-2 3.1910658 1.0842022e-19
2.2704842 1.0842022e-19 2.4998078
-3.6893488e+19 3.2122777 -2
2.4825151 -3.6893488e+19 2.5067439
1.0842022e-19 3.1992099 -3.6893488e+19
2.2754784 -2 2.4834371
-2 3.23124 -3.6893488e+19
2.295121 1.0842022e-19 2.4905293
1.0842022e-19 3.2003882 0
2.4701052 2 2.4487557
2 3.1503527 -1.0842022e-19
2.2410336 0 2.3853486
-3.6893488e+19 3.1780279 -0
2.0650005 3.6893488e+19 2.399102
-0 3.1534004 0
2.3211801 -2 2.3661416
1.0842022e-19 3.1784892 1.0842022e-19
2.06534 -0 2.375303
3.6893488e+19 3.1518836 -0
2.3199723 -2 2.3419743
-2 3.1523466 2
2.0461009 2 2.3296895
2 3.1539962 3.6893488e+19
2.3216543 -1.0842022e-19 2.3208909
-3.6893488e+19 3.1552963 3.6893488e+19
2.0482717 2 2.3092611
2 3.153955 -2
2.3216214 -3.6893488e+19 2.2980154
1.0842022e-19 3.1551516 1.0842022e-19
2.0481651 3.6893488e+19 2.286339
-2 3.1478825 3.6893488e+19
2.3167868 0 2.2710607
3.6893488e+19 3.1563866 -0
2.0490739 3.6893488e+19 2.2643635
1.0842022e-19 3.1465578 2
2.315732 -0 2.2455776
-3.6893488e+19 3.160218 3.6893488e+19
2.0518937 0 2.2376277
-1.0842022e-19 3.1490583 0
2.317723 -1.0842022e-19 2.2037218
-0 3.2478492 2
2.1163845 -3.6893488e+19 2.2679672
0 3.1744709 -3.6893488e+19
2.443053 2 2.1623847
2 3.1474123 0
2.2374272 -1.0842022e-19 2.1116729
-0 3.1625087 0
2.4305675 3.6893488e+19 2.1042182
-2 3.1480887 2
2.2382569 -3.6893488e+19 2.0676258
-1.0842022e-19 3.1618779 3.6893488e+19
2.429909 3.6893488e+19 2.0572281
-1.0842022e-19 3.1480925 -2
2.2382615 0 2.0230055
0 3.1615982 2
2.4296169 -2 2.0106323
-3.6893488e+19 3.1468313 -3.6893488e+19
2.2367146 -2 1.9776762
1.0842022e-19 3.1681428 1.0842022e-19
2.4364481 -0 1.967687
0 3.1483846 -0
2.2386196 0 1.93396
-3.6893488e+19 3.1561453 -3.6893488e+19
2.4239254 -3.6893488e+19 1.9157143
1.0842022e-19 3.1506042 2
2.2413421 -2 1.8901381
2 3.1526804 -3.6893488e+19
2.2438884 2 1.8166158
1.0842022e-19 3.3013637 -0
2.5645566 3.6893488e+19 1.8455651
0 3.1416514 -2
2.2303612 1.0842022e-19 1.6974471
-3.6893488e+19 3.1491053 3.6893488e+19
2.0437155 -3.6893488e+19 1.5984185
-3.6893488e+19 3.1413786 3.6893488e+19
2.3116086 -2 1.3026557
-3.6893488e+19 3.1478591 -1.0842022e-19
2.0427983 -3.6893488e+19 -1.5077004
-2 3.1389151 2
2.3096471 1.0842022e-19 -1.6522893
2 3.1468434 1.0842022e-19
2.0420508 1.0842022e-19 -1.7434096
-3.6893488e+19 3.1390445 -2
2.3097501 1.0842022e-19 -1.7884017
2 3.1477437 0
2.0427134 0 -1.8358256
-3.6893488e+19 3.1360772 -0
2.3073876 -3.6893488e+19 -1.8737205
3.6893488e+19 3.1455035 2
2.0410647 0 -1.8989928
-1.0842022e-19 3.1379101 3.6893488e+19
2.308847 -0 -1.9184594
-0 3.1517007 -0
2.0456254 2 -1.9462167
0 3.1464055 3.6893488e+19
2.3156106 -0 -1.9666183
-1.0842022e-19 3.1890085 -1.0842022e-19
2.0730815 1.0842022e-19 -2.0135195
-3.6893488e+19 3.1105087 3.6893488e+19
2.2870305 1.0842022e-19 -1.9874722
-0 3.0971022 2
2.0054445 2 -1.997169
1.0842022e-19 3.0060022 -2
2.1576483 -3.6893488e+19 -1.947381
-3.6893488e+19 2.9244611 0
2.1930432 0 -1.9261775
-0 2.800746 -0
2.0639119 -2 -1.8917918
-0 2.762351 3.6893488e+19
1.9108871 -2 -1.8803759
-3.6893488e+19 2.7322474 -2
2.0016794 -0 -1.8772964
1.0842022e-19 2.7001081 0
1.8880147 -2 -1.8739631
-1.0842022e-19 2.6533899 -2
1.9605247 -0 -1.8607546
0 2.6356299 2
1.861488 1.0842022e-19 -1.8599837
-2 2.6018989 2
1.9336522 -2 -1.850569
3.6893488e+19 2.5828764 -3.6893488e+19
1.8291368 -3.6893488e+19 -1.8465726
-3.6893488e+19 2.557363 -3.6893488e+19
1.9104093 -1.0842022e-19 -1.8394252
2 2.5434499 -1.0842022e-19
1.8049585 0 -1.836867
1.0842022e-19 2.5250835 0
1.893563 -2 -1.8325039
1.0842022e-19 2.5108812 -1.0842022e-19
1.7849857 2 -1.8280706
3.6893488e+19 2.4905977 1.0842022e-19
1.8780187 -2 -1.8239636
-1.0842022e-19 2.4730504 -1.0842022e-19
1.7700493 0 -1.8224764
1.0842022e-19 2.4543948 -2
1.6672024 1.0842022e-19 -1.8207459
0 3.181776 1.0842022e-19
2.0508163 -3.6893488e+19 2.6374414
-3.6893488e+19 3.2402289 -2
2.0915401 2 2.6755435
0 3.2421603 1.0842022e-19
2.3821192 1.0842022e-19 2.6572142
0 3.2125618 -3.6893488e+19
2.0722644 3.6893488e+19 2.624572
0 3.1851759 -3.6893488e+19
2.3378756 2 2.5847194
-1.0842022e-19 3.2415595 -3.6893488e+19
2.0924671 1.0842022e-19 2.6195703
-2 3.1948001 -3.6893488e+19
2.3453481 2 2.5792227
3.6893488e+19 3.2394259 0
2.0909808 -0 2.6038437
-1.0842022e-19 3.1885304 -0
2.3404803 2 2.5618947
3.6893488e+19 3.2502875 -3.6893488e+19
2.5062618 -1.0842022e-19 2.5999966
-0 3.2394118 -1.0842022e-19
2.2904949 -0 2.5833127
-1.0842022e-19 3.2512872 1.0842022e-19
2.5072856 3.6893488e+19 2.5868576
1.0842022e-19 3.2514346 -0
2.5074363 -2 2.5725458
-3.6893488e+19 3.2431402 -3.6893488e+19
2.2927079 -1.0842022e-19 2.5575447
-0 3.2516766 1.0842022e-19
2.5076842 1.0842022e-19 2.5583627
-0 3.2326577 -1.0842022e-19
2.2864859 -1.0842022e-19 2.5371988
1.0842022e-19 3.2344413 -3.6893488e+19
2.2875445 0 2.5244293
-0 3.2166002 0
2.4777381 2 2.5090628
-3.6893488e+19 3.232775 -3.6893488e+19
2.2865555 1.0842022e-19 2.509732
3.6893488e+19 3.2317927 1.0842022e-19
2.2859726 2 2.4910018
-3.6893488e+19 3.1986232 -0
2.459332 -3.6893488e+19 2.4468558
-2 3.2318981 -2
2.2860351 0 2.4637523
-2 3.2483766 -0
2.0972166 3.6893488e+19 2.4646456
-0 3.2061639 -3.6893488e+19
2.354171 -3.6893488e+19 2.4139321
1.0842022e-19 3.2463174 -2
2.0957818 1.0842022e-19 2.4346645
2 3.20645 3.6893488e+19
2.3543932 2 2.3883131
2 3.2483609 2
2.0972056 0 2.4083204
-3.6893488e+19 3.2077661 -0
2.3554151 -1.0842022e-19 2.3635125
1.0842022e-19 3.2464354 -1.0842022e-19
2.0958641 -0 2.378763
3.6893488e+19 3.2078226 1.0842022e-19
2.355459 -3.6893488e+19 2.3376746
2 3.2435498 -1.0842022e-19
2.0938537 -0 2.3487759
1.0842022e-19 3.2081044 -2
2.3556776 -3.6893488e+19 2.312012
2 3.2436547 1.0842022e-19
2.0939269 -1.0842022e-19 2.3210981
1.0842022e-19 3.2087049 -0
2.356144 2 2.2865524
3.6893488e+19 3.2446072 -1.0842022e-19
2.0945904 2 2.2939384
1.0842022e-19 3.2113314 3.6893488e+19
2.3581831 0 2.2621994
0 3.2484646 1.0842022e-19
2.0972779 -1.0842022e-19 2.2682691
-0 3.2095609 1.0842022e-19
2.3568087 -2 2.2206492
-3.6893488e+19 3.2208929 1.0842022e-19
2.4821334 3.6893488e+19 2.2073405
-0 3.235477 -0
2.2881594 3.6893488e+19 2.1917365
-1.0842022e-19 3.2212958 2
2.4825459 3.6893488e+19 2.1545703
-1.0842022e-19 3.2268796 -3.6893488e+19
2.2830563 0 2.1304212
2 3.1573637 0
2.4170876 -3.6893488e+19 2.0537646
1.0842022e-19 3.2236707 -2
2.2811515 1.0842022e-19 2.0747757
0 3.1593125 -3.6893488e+19
2.4190826 3.6893488e+19 2.0091031
3.6893488e+19 3.1469669 2
2.221247 -0 1.9777119
-3.6893488e+19 3.2801614 2
2.536849 1.0842022e-19 2.0416145
2 3.2823722 2
2.3352094 1.0842022e-19 2.010731
-0 3.1585979 -3.6893488e+19
2.4183512 -2 1.9166622
1.0842022e-19 3.14884 -3.6893488e+19
2.2234702 3.6893488e+19 1.8894953
3.6893488e+19 3.3075178 -1.0842022e-19
2.5648582 1.0842022e-19 1.9316803
-3.6893488e+19 3.1519444 3.6893488e+19
2.2271559 -3.6893488e+19 1.8162303
-1.0842022e-19 3.307441 2
2.5647798 -3.6893488e+19 1.8499418
3.6893488e+19 3.1427832 -2
2.2162802 2 1.6979811
1.0842022e-19 3.1504917 -1.0842022e-19
2.0290205 2 1.59917
1.0842022e-19 3.1398556 1.0842022e-19
2.3026886 -0 1.3019217
2 3.1481838 -2
2.0274127 -3.6893488e+19 -1.5077941
0 3.1387289 -1.0842022e-19
2.3018136 -2 -1.6521796
-2 3.1468556 -2
2.0264874 -1.0842022e-19 -1.7433904
-1.0842022e-19 3.1358104 1.0842022e-19
2.2995479 0 -1.7870044
1.0842022e-19 3.1473503 0
2.0268321 0 -1.8355939
-0 3.1352372 -0
2.2991028 3.6893488e+19 -1.8731197
-1.0842022e-19 3.1860909 3.6893488e+19
2.0538225 -1.0842022e-19 -1.9142647
-3.6893488e+19 3.1384387 -0
2.3015885 -3.6893488e+19 -1.9186484
0 3.1518073 -3.6893488e+19
2.029937 -3.6893488e+19 -1.9462471
1.0842022e-19 3.1062758 1.0842022e-19
2.2766168 0 -1.9846274
1.0842022e-19 3.0957992 -1.0842022e-19
1.9909166 -3.6893488e+19 -1.996214
-2 3.0044792 1.0842022e-19
2.1451616 2 -1.9461597
-0 2.9264529 -0
2.1866324 -3.6893488e+19 -1.9269481
3.6893488e+19 2.8711684 -1.0842022e-19
1.9703104 -1.0842022e-19 -1.9135894
3.6893488e+19 2.8030691 3.6893488e+19
2.0603034 -1.0842022e-19 -1.8928419
2 2.7333899 -1.0842022e-19
1.9974642 -0 -1.8775576
1.0842022e-19 2.7000668 2
1.8835707 -3.6893488e+19 -1.8738943
3.6893488e+19 2.6568565 3.6893488e+19
1.9582841 -2 -1.8627053
2 2.6363225 0
1.8543054 2 -1.8603623
2 2.60337 2
1.9309025 2 -1.8514403
-1.0842022e-19 2.581944 2
1.8220285 -1.0842022e-19 -1.8459113
0 2.5577075 2
1.9075263 0 -1.8395976
-2 2.5433798 1.0842022e-19
1.7991384 2 -1.8367773
1.0842022e-19 2.522825 0
1.8896687 2 -1.8307352
-1.0842022e-19 2.5120459 0
1.7805399 2 -1.8289397
0 2.49174 -1.0842022e-19
1.8758694 3.6893488e+19 -1.8243638
3.6893488e+19 2.4748735 -0
1.7659328 -0 -1.8232008
-0 2.4541962 -1.0842022e-19
1.6582181 0 -1.820639
2 2.4146388 -0
1.6444384 -0 -1.815317
1.0842022e-19 2.3574562 -2
1.624038 -0 -1.8093202
-0 2.3100495 2
1.5910101 2 -1.8025026
0 2.2755992 -0
1.5670086 3.6893488e+19 -1.7985111
0 2.2432122 -3.6893488e+19
1.7512462 0 -1.795616
-0 2.2024891 2
1.7316451 -1.0842022e-19 -1.7946557
-0 2.1691773 1.0842022e-19
1.7145916 2 -1.7943896
2 2.133539 -2
1.696347 3.6893488e+19 -1.7912353
0 3.181776 1.0842022e-19
2.0508163 -3.6893488e+19 2.6374414
1.0842022e-19 3.1853998 2
2.0533409 0 2.627949
-0 3.1858611 -1.0842022e-19
2.3384078 2 2.6106322
0 3.2125618 -3.6893488e+19
2.0722644 3.6893488e+19 2.624572
0 3.1851759 -3.6893488e+19
2.3378756 2 2.5847194
-1.0842022e-19 3.2415595 -3.6893488e+19
2.0924671 1.0842022e-19 2.6195703
-2 3.1948001 -3.6893488e+19
2.3453481 2 2.5792227
3.6893488e+19 3.2394259 0
2.0909808 -0 2.6038437
-1.0842022e-19 3.1885304 -0
2.3404803 2 2.5618947
3.6893488e+19 3.2502875 -3.6893488e+19
2.5062618 -1.0842022e-19 2.5999966
-0 3.2394118 -1.0842022e-19
2.2904949 -0 2.5833127
-1.0842022e-19 3.2512872 1.0842022e-19
2.5072856 3.6893488e+19 2.5868576
1.0842022e-19 3.2514346 -0
2.5074363 -2 2.5725458
-3.6893488e+19 3.2431402 -3.6893488e+19
2.2927079 -1.0842022e-19 2.5575447
-0 3.2516766 1.0842022e-19
2.5076842 1.0842022e-19 2.5583627
-0 3.2326577 -1.0842022e-19
2.2864859 -1.0842022e-19 2.5371988
2 3.1911473 -1.0842022e-19
2.261847 1.0842022e-19 2.4998078
-0 3.2166002 0
2.4777381 2 2.5090628
-2 3.1991692 -3.6893488e+19
2.2666085 1.0842022e-19 2.4833043
3.6893488e+19 3.2317927 1.0842022e-19
2.2859726 2 2.4910018
-3.6893488e+19 3.1986232 -0
2.459332 -3.6893488e+19 2.4468558
-3.6893488e+19 3.1536136 3.6893488e+19
2.2291374 1.0842022e-19 2.3884156
-0 3.1780438 3.6893488e+19
2.0482161 1.0842022e-19 2.3990731
1.0842022e-19 3.1499124 -3.6893488e+19
2.3104966 3.6893488e+19 2.3628883
-0 3.1775119 0
2.0478456 3.6893488e+19 2.3744061
2 3.1525371 -0
2.3125346 -0 2.342448
0 3.1781693 -0
2.0483034 -2 2.3508103
0 3.1530101 -2
2.3129017 2 2.3200307
-1.0842022e-19 3.1768479 -3.6893488e+19
2.0473828 3.6893488e+19 2.3256702
-3.6893488e+19 3.1455343 2
2.3070977 -0 2.291733
1.0842022e-19 3.1730783 0
2.0447567 1.0842022e-19 2.2989759
-2 3.1459947 -0
2.3074551 -1.0842022e-19 2.2697096
1.0842022e-19 3.1573336 -2
2.0337873 2 2.2649505
0 3.1455679 1.0842022e-19
2.3071237 -3.6893488e+19 2.2442214
-0 3.1588931 0
2.034874 3.6893488e+19 2.2359993
1.0842022e-19 3.1472619 -1.0842022e-19
2.3084388 2 2.2015705
0 3.2484646 1.0842022e-19
2.0972779 -1.0842022e-19 2.2682691
-0 3.2095609 1.0842022e-19
2.3568087 -2 2.2206492
-1.0842022e-19 3.1773279 1.0842022e-19
2.4375284 -3.6893488e+19 2.165029
-0 3.1478279 1.0842022e-19
2.2222691 -2 2.1119843
-0 3.1621749 0
2.4220138 -2 2.1038196
-2 3.1477575 2
2.2221856 -3.6893488e+19 2.0673029
2 3.1573637 0
2.4170876 -3.6893488e+19 2.0537646
3.6893488e+19 3.1489756 -2
2.2236314 1.0842022e-19 2.0235605
0 3.1593125 -3.6893488e+19
2.4190826 3.6893488e+19 2.0091031
3.6893488e+19 3.1469669 2
2.221247 -0 1.9777119
3.6893488e+19 3.1547983 2
2.4144609 2 1.9606732
3.6893488e+19 3.1473677 -3.6893488e+19
2.2217226 3.6893488e+19 1.9334565
-0 3.1585979 -3.6893488e+19
2.4183512 -2 1.9166622
1.0842022e-19 3.14884 -3.6893488e+19
2.2234702 3.6893488e+19 1.8894953
-3.6893488e+19 3.158505 0
2.4182563 0 1.8663433
-3.6893488e+19 3.1519444 3.6893488e+19
2.2271559 -3.6893488e+19 1.8162303
-3.6893488e+19 3.1569355 -2
2.4166491 -1.0842022e-19 1.7738689
3.6893488e+19 3.1427832 -2
2.2162802 2 1.6979811
1.0842022e-19 3.1504917 -1.0842022e-19
2.0290205 2 1.59917
1.0842022e-19 3.1398556 1.0842022e-19
2.3026886 -0 1.3019217
2 3.1481838 -2
2.0274127 -3.6893488e+19 -1.5077941
0 3.1387289 -1.0842022e-19
2.3018136 -2 -1.6521796
-2 3.1468556 -2
2.0264874 -1.0842022e-19 -1.7433904
-1.0842022e-19 3.1358104 1.0842022e-19
2.2995479 0 -1.7870044
1.0842022e-19 3.1473503 0
2.0268321 0 -1.8355939
-0 3.1352372 -0
2.2991028 3.6893488e+19 -1.8731197
-1.0842022e-19 3.1489489 -1.0842022e-19
2.0279458 -3.6893488e+19 -1.9002742
-3.6893488e+19 3.1384387 -0
2.3015885 -3.6893488e+19 -1.9186484
0 3.1518073 -3.6893488e+19
2.029937 -3.6893488e+19 -1.9462471
1.0842022e-19 3.1062758 1.0842022e-19
2.2766168 0 -1.9846274
1.0842022e-19 3.0957992 -1.0842022e-19
1.9909166 -3.6893488e+19 -1.996214
-2 3.0044792 1.0842022e-19
2.1451616 2 -1.9461597
-0 2.9264529 -0
2.1866324 -3.6893488e+19 -1.9269481
3.6893488e+19 2.8711684 -1.0842022e-19
1.9703104 -1.0842022e-19 -1.9135894
3.6893488e+19 2.8030691 3.6893488e+19
2.0603034 -1.0842022e-19 -1.8928419
2 2.7333899 -1.0842022e-19
1.9974642 -0 -1.8775576
1.0842022e-19 2.7000668 2
1.8835707 -3.6893488e+19 -1.8738943
3.6893488e+19 2.6568565 3.6893488e+19
1.9582841 -2 -1.8627053
2 2.6363225 0
1.8543054 2 -1.8603623
2 2.60337 2
1.9309025 2 -1.8514403
-1.0842022e-19 2.581944 2
1.8220285 -1.0842022e-19 -1.8459113
0 2.5577075 2
1.9075263 0 -1.8395976
-2 2.5433798 1.0842022e-19
1.7991384 2 -1.8367773
1.0842022e-19 2.522825 0
1.8896687 2 -1.8307352
-1.0842022e-19 2.5120459 0
1.7805399 2 -1.8289397
0 2.49174 -1.0842022e-19
1.8758694 3.6893488e+19 -1.8243638
3.6893488e+19 2.4748735 -0
1.7659328 -0 -1.8232008
-0 2.4541962 -1.0842022e-19
1.6582181 0 -1.820639
2 2.4146388 -0
1.6444384 -0 -1.815317
1.0842022e-19 2.3574562 -2
1.624038 -0 -1.8093202
-0 2.3100495 2
1.5910101 2 -1.8025026
0 2.2755992 -0
1.5670086 3.6893488e+19 -1.7985111
0 2.2432122 -3.6893488e+19
1.7512462 0 -1.795616
-0 2.2024891 2
1.7316451 -1.0842022e-19 -1.7946557
-0 2.1691773 1.0842022e-19
1.7145916 2 -1.7943896
2 2.133539 -2
1.696347 3.6893488e+19 -1.7912353
-3.6893488e+19 3.275378 -0
2.4159548 2 2.7520192
-2 3.181519 -3.6893488e+19
2.0325012 3.6893488e+19 2.6371682
-1.0842022e-19 3.2390931 -2
2.0701931 -1.0842022e-19 2.6745105
1.0842022e-19 3.2109716 -0
2.0517828 0 2.6366544
2 3.1900234 -3.6893488e+19
2.3323245 -0 2.6139846
-1.0842022e-19 3.2126741 -2
2.0528975 2 2.6246216
0 3.2523177 1.0842022e-19
2.3811224 -3.6893488e+19 2.6527202
3.6893488e+19 3.1928937 2
2.3344924 3.6893488e+19 2.5905702
-3.6893488e+19 3.2426126 0
2.3720424 0 2.6145201
-2 3.2369604 -3.6893488e+19
2.0687969 0 2.6020224
-1.0842022e-19 3.1900804 -1.0842022e-19
2.3323677 -0 2.5629184
3.6893488e+19 3.1933043 -1.0842022e-19
2.4444377 -2 2.5598505
-2 3.2409496 -2
2.2810545 -0 2.5842962
0 3.2523344 1.0842022e-19
2.5029795 0 2.5881488
-1.0842022e-19 3.2511811 -0
2.5018234 0 2.572114
0 3.2420027 -3.6893488e+19
2.2816572 -1.0842022e-19 2.5567765
-1.0842022e-19 3.2516835 -3.6893488e+19
2.502327 2 2.5582688
-1.0842022e-19 3.2331507 -1.0842022e-19
2.2765899 -2 2.5374372
-0 3.2311792 0
2.4824097 -2 2.5308619
-1.0842022e-19 3.2348115 3.6893488e+19
2.2775407 0 2.5245867
2 3.1996567 2
2.2574155 2 2.4837363
-0 3.2321939 2
2.2760422 -3.6893488e+19 2.4913168
2 3.232764 -3.6893488e+19
2.2763684 3.6893488e+19 2.4644966
-0 3.246695 -2
2.0751698 -0 2.4630265
-0 3.1482813 -3.6893488e+19
2.3007991 -2 2.3613176
3.6893488e+19 3.2448204 0
2.0739427 1.0842022e-19 2.4333055
0 3.149204 2
2.301496 -1.0842022e-19 2.3395271
0 3.1766946 2
2.0293429 -3.6893488e+19 2.3495634
-3.6893488e+19 3.211875 -3.6893488e+19
2.3488278 0 2.3666835
-0 3.2493188 3.6893488e+19
2.0768876 3.6893488e+19 2.3809209
-0 3.2118411 2
2.3488023 1.0842022e-19 2.3405533
-3.6893488e+19 3.2432933 1.0842022e-19
2.072943 -2 2.348556
0 3.2113504 -1.0842022e-19
2.3484316 2 2.3141441
-1.0842022e-19 3.2432425 -1.0842022e-19
2.0729096 2 2.3207946
-2 3.2081375 -1.0842022e-19
2.3460052 -1.0842022e-19 2.2861261
2 3.1611493 -2
2.0191658 -1.0842022e-19 2.2386267
-0 3.2100816 -1.0842022e-19
2.3474734 -2 2.2614233
-2 3.2501943 -0
2.0775881 -0 2.269275
-1.0842022e-19 3.2105145 2
2.3478005 -3.6893488e+19 2.2215075
-0 3.1770365 3.6893488e+19
2.4281285 3.6893488e+19 2.1646085
0 3.238713 0
2.2797742 -0 2.1945958
1.0842022e-19 3.1794968 3.6893488e+19
2.4305949 -2 2.1185665
-1.0842022e-19 3.149826 2
2.207778 1.0842022e-19 2.0688922
-1.0842022e-19 3.1800482 -2
2.4311478 3.6893488e+19 2.0705738
0 3.2251315 1.0842022e-19
2.2719991 1.0842022e-19 2.0757151
-1.0842022e-19 3.1592624 -3.6893488e+19
2.4103088 0 2.0089855
3.6893488e+19 3.1478839 3.6893488e+19
2.2055542 -3.6893488e+19 1.9781942
-1.0842022e-19 3.2815561 2
2.5322762 -3.6893488e+19 2.0429688
-2 3.2895923 -1.0842022e-19
2.3315666 3.6893488e+19 2.0173466
1.0842022e-19 3.1597257 2
2.4107733 -1.0842022e-19 1.9170667
1.0842022e-19 3.2898772 1.0842022e-19
2.3318927 0 1.9527318
1.0842022e-19 3.3089685 -2
2.5597584 -0 1.9324768
2 3.1543901 -0
2.2130034 -0 1.8173571
2 3.3078222 -1.0842022e-19
2.5586092 0 1.8501461
2 3.1432011 3.6893488e+19
2.2001927 -1.0842022e-19 1.6981539
-0 3.1558127 -0
2.0156722 2 1.6021233
2 3.1396735 2
2.2942982 -3.6893488e+19 1.3017946
-0 3.147135 -1.0842022e-19
2.0099912 0 -1.5074298
1.0842022e-19 3.1395731 2
2.2942224 2 -1.6524719
-2 3.1485856 -2
2.0109408 -2 -1.7444243
-2 3.1351917 -1.0842022e-19
2.2909133 3.6893488e+19 -1.7867039
3.6893488e+19 3.1464264 -3.6893488e+19
2.0095272 -2 -1.835081
0 3.1350541 2
2.2908094 2 -1.8729395
-2 3.171905 1.0842022e-19
2.0262074 -2 -1.9089036
-1.0842022e-19 3.1367013 -2
2.2920535 -1.0842022e-19 -1.9178519
-3.6893488e+19 3.1524134 -0
2.0134468 3.6893488e+19 -1.9465215
1.0842022e-19 3.1393244 -0
2.2940345 -3.6893488e+19 -1.9626442
0 3.151819 -3.6893488e+19
2.0130575 -0 -1.9911429
-3.6893488e+19 3.1075463 0
2.2700346 0 -1.9854051
-0 3.0945272 -2
1.9755507 -1.0842022e-19 -1.9952813
3.6893488e+19 2.9260991 2
2.1771886 -3.6893488e+19 -1.9267426
3.6893488e+19 2.8722975 3.6893488e+19
1.9631296 2 -1.9140557
-2 2.8011267 2
2.0518968 -3.6893488e+19 -1.8918793
1.0842022e-19 2.7794983 -0
1.9100047 3.6893488e+19 -1.8888451
-0 2.7344167 -2
1.9928277 -1.0842022e-19 -1.8777862
-0 2.7011478 -1.0842022e-19
1.8791345 2 -1.8744446
-0 2.6567442 -2
1.9538921 -0 -1.8625609
-2 2.6360233 2
1.8459873 -1.0842022e-19 -1.8601351
0 2.6018801 -2
1.9263898 0 -1.8504107
-3.6893488e+19 2.5821316 -3.6893488e+19
1.8151358 1.0842022e-19 -1.845994
-0 2.5581803 -2
1.9044842 0 -1.839856
0 2.5434361 -0
1.7929837 2 -1.8367773
-3.6893488e+19 2.5242739 3.6893488e+19
1.8874876 -0 -1.8317592
3.6893488e+19 2.5127165 -0
1.7753977 -0 -1.8294225
1.0842022e-19 2.4921501 2
1.8717042 3.6893488e+19 -1.8244638
-2 2.4747162 3.6893488e+19
1.7608807 2 -1.8230973
-2 2.4547431 3.6893488e+19
1.6488527 -0 -1.8208529
-3.6893488e+19 3.275378 -0
2.4159548 2 2.7520192
-2 3.181519 -3.6893488e+19
2.0325012 3.6893488e+19 2.6371682
3.6893488e+19 3.1856921 2
2.0352333 -2 2.6281607
1.0842022e-19 3.2109716 -0
2.0517828 0 2.6366544
2 3.1900234 -3.6893488e+19
2.3323245 -0 2.6139846
-1.0842022e-19 3.2126741 -2
2.0528975 2 2.6246216
0 3.2523177 1.0842022e-19
2.3811224 -3.6893488e+19 2.6527202
3.6893488e+19 3.1928937 2
2.3344924 3.6893488e+19 2.5905702
0 3.1960135 3.6893488e+19
2.3368485 0 2.5800378
-2 3.2369604 -3.6893488e+19
2.0687969 0 2.6020224
-1.0842022e-19 3.1900804 -1.0842022e-19
2.3323677 -0 2.5629184
3.6893488e+19 3.1933043 -1.0842022e-19
2.4444377 -2 2.5598505
-2 3.2409496 -2
2.2810545 -0 2.5842962
0 3.2523344 1.0842022e-19
2.5029795 0 2.5881488
-1.0842022e-19 3.2511811 -0
2.5018234 0 2.572114
0 3.2420027 -3.6893488e+19
2.2816572 -1.0842022e-19 2.5567765
-1.0842022e-19 3.2516835 -3.6893488e+19
2.502327 2 2.5582688
-1.0842022e-19 3.2331507 -1.0842022e-19
2.2765899 -2 2.5374372
-2 3.1962569 -2
2.4473979 1.0842022e-19 2.510478
-0 3.1908612 3.6893488e+19
2.2523804 3.6893488e+19 2.4993882
2 3.1996567 2
2.2574155 2 2.4837363
-0 3.2321939 2
2.2760422 -3.6893488e+19 2.4913168
2 3.151803 -2
2.2100413 -0 2.3865991
-1.0842022e-19 3.1759822 -0
2.0288765 0 2.3971071
-0 3.1482813 -3.6893488e+19
2.3007991 -2 2.3613176
2 3.1762867 2
2.0290759 2 2.3732917
0 3.149204 2
2.301496 -1.0842022e-19 2.3395271
0 3.1766946 2
2.0293429 -3.6893488e+19 2.3495634
-3.6893488e+19 3.1644428 0
2.3130052 3.6893488e+19 2.3290269
-3.6893488e+19 3.1766465 -0
2.0293114 -2 2.3254805
-0 3.1448901 2
2.298238 -2 2.2911847
-0 3.1730628 0
2.0269654 -1.0842022e-19 2.2989318
-1.0842022e-19 3.1519842 -1.0842022e-19
2.3035958 -2 2.2737203
0 3.1761138 3.6893488e+19
2.0289626 3.6893488e+19 2.2771354
-3.6893488e+19 3.1504748 3.6893488e+19
2.3024559 0 2.2501135
2 3.1611493 -2
2.0191658 -1.0842022e-19 2.2386267
1.0842022e-19 3.1478581 0
2.3004797 0 2.2021348
-2 3.2501943 -0
2.0775881 -0 2.269275
-3.6893488e+19 3.1448464 2
2.2982051 2 2.1542721
-0 3.1770365 3.6893488e+19
2.4281285 3.6893488e+19 2.1646085
2 3.1470637 -0
2.2046151 -2 2.1112199
1.0842022e-19 3.1794968 3.6893488e+19
2.4305949 -2 2.1185665
-1.0842022e-19 3.149826 2
2.207778 1.0842022e-19 2.0688922
-1.0842022e-19 3.1800482 -2
2.4311478 3.6893488e+19 2.0705738
2 3.1496124 0
2.2075334 -3.6893488e+19 2.0239446
-1.0842022e-19 3.1592624 -3.6893488e+19
2.4103088 0 2.0089855
3.6893488e+19 3.1478839 3.6893488e+19
2.2055542 -3.6893488e+19 1.9781942
-1.0842022e-19 3.2815561 2
2.5322762 -3.6893488e+19 2.0429688
3.6893488e+19 3.1448576 -0
2.2020893 -3.6893488e+19 1.9322628
1.0842022e-19 3.1597257 2
2.4107733 -1.0842022e-19 1.9170667
-2 3.1520011 -2
2.2102683 2 1.8905741
2 3.1588268 -2
2.4098721 -0 1.8664531
2 3.1543901 -0
2.2130034 -0 1.8173571
2 3.1593652 -1.0842022e-19
2.4104118 3.6893488e+19 1.774708
2 3.1432011 3.6893488e+19
2.2001927 -1.0842022e-19 1.6981539
-0 3.1558127 -0
2.0156722 2 1.6021233
2 3.1396735 2
2.2942982 -3.6893488e+19 1.3017946
-0 3.147135 -1.0842022e-19
2.0099912 0 -1.5074298
1.0842022e-19 3.1395731 2
2.2942224 2 -1.6524719
-2 3.1485856 -2
2.0109408 -2 -1.7444243
-2 3.1351917 -1.0842022e-19
2.2909133 3.6893488e+19 -1.7867039
3.6893488e+19 3.1464264 -3.6893488e+19
2.0095272 -2 -1.835081
0 3.1350541 2
2.2908094 2 -1.8729395
-2 3.171905 1.0842022e-19
2.0262074 -2 -1.9089036
-1.0842022e-19 3.1367013 -2
2.2920535 -1.0842022e-19 -1.9178519
-3.6893488e+19 3.1524134 -0
2.0134468 3.6893488e+19 -1.9465215
1.0842022e-19 3.1393244 -0
2.2940345 -3.6893488e+19 -1.9626442
2 3.1042984 -2
1.9819474 3.6893488e+19 -1.9626244
-3.6893488e+19 3.1075463 0
2.2700346 0 -1.9854051
-0 3.0945272 -2
1.9755507 -1.0842022e-19 -1.9952813
3.6893488e+19 2.9260991 2
2.1771886 -3.6893488e+19 -1.9267426
3.6893488e+19 2.8722975 3.6893488e+19
1.9631296 2 -1.9140557
-2 2.8011267 2
2.0518968 -3.6893488e+19 -1.8918793
1.0842022e-19 2.7794983 -0
1.9100047 3.6893488e+19 -1.8888451
-0 2.7344167 -2
1.9928277 -1.0842022e-19 -1.8777862
-0 2.7011478 -1.0842022e-19
1.8791345 2 -1.8744446
-0 2.6567442 -2
1.9538921 -0 -1.8625609
-2 2.6360233 2
1.8459873 -1.0842022e-19 -1.8601351
0 2.6018801 -2
1.9263898 0 -1.8504107
-3.6893488e+19 2.5821316 -3.6893488e+19
1.8151358 1.0842022e-19 -1.845994
-0 2.5581803 -2
1.9044842 0 -1.839856
0 2.5434361 -0
1.7929837 2 -1.8367773
-3.6893488e+19 2.5242739 3.6893488e+19
1.8874876 -0 -1.8317592
3.6893488e+19 2.5127165 -0
1.7753977 -0 -1.8294225
1.0842022e-19 2.4921501 2
1.8717042 3.6893488e+19 -1.8244638
-2 2.4747162 3.6893488e+19
1.7608807 2 -1.8230973
-2 2.4547431 3.6893488e+19
1.6488527 -0 -1.8208529
2 3.2775238 0
2.4074581 -0 2.7539208
-0 3.236412 -2
2.0480099 -2 2.6863739
-2 3.238564 -3.6893488e+19
2.0493283 0 2.6740074
1.0842022e-19 3.1897318 -0
2.3228052 -0 2.6265097
2 3.2099802 1.0842022e-19
2.031816 -0 2.6357827
0 3.1898565 2
2.3228967 0 2.6137578
-1.0842022e-19 3.2516465 -0
2.3694654 0 2.6515515
-2 3.2443855 -0
2.3629262 1.0842022e-19 2.6157427
3.6893488e+19 3.237134 -2
2.0484521 -2 2.6021111
-3.6893488e+19 3.1882572 -1.0842022e-19
2.3217227 3.6893488e+19 2.5615461
1.0842022e-19 3.1938457 -2
2.4355319 2 2.5601282
1.0842022e-19 3.2409787 1.0842022e-19
2.2707267 -3.6893488e+19 2.5842543
-0 3.2091501 -2
2.4505496 -1.0842022e-19 2.5575495
-0 3.2414556 1.0842022e-19
2.2709897 2 2.5704618
3.6893488e+19 3.2511556 1.0842022e-19
2.4929025 -0 2.5719764
-1.0842022e-19 3.2420623 -0
2.2713242 0 2.5567575
-3.6893488e+19 3.2515659 -1.0842022e-19
2.4937079 -2 2.5580246
-1.0842022e-19 3.2400858 3.6893488e+19
2.2702343 -2 2.5415094
2 3.1947443 2
2.4364138 2 2.5095108
-3.6893488e+19 3.2396238 -3.6893488e+19
2.2699795 -3.6893488e+19 2.527261
2 3.1930008 2
2.4347029 -0 2.4915969
0 3.2430913 0
2.2718916 3.6893488e+19 2.5151825
0 3.2324994 -0
2.2660511 -3.6893488e+19 2.4915373
-1.0842022e-19 3.2353292 3.6893488e+19
2.2676115 0 2.4668789
-0 3.245692 -1.0842022e-19
2.0536954 3.6893488e+19 2.4620435
-0 3.1501102 0
2.2937193 3.6893488e+19 2.3628883
-3.6893488e+19 3.244406 1.0842022e-19
2.0529077 1.0842022e-19 2.4328978
3.6893488e+19 3.2070782 -0
2.3355391 0 2.3886552
-3.6893488e+19 3.2489026 1.0842022e-19
2.0556626 1.0842022e-19 2.4086766
1.0842022e-19 3.2075284 2
2.3358696 2 2.3631439
-3.6893488e+19 3.2492774 1.0842022e-19
2.0558922 -3.6893488e+19 2.3808496
0 3.2080493 1.0842022e-19
2.336252 -3.6893488e+19 2.3376746
2 3.2485704 2
2.055459 -1.0842022e-19 2.3522482
3.6893488e+19 3.2089202 1.0842022e-19
2.3368914 1.0842022e-19 2.3124132
-3.6893488e+19 3.2460637 0
2.0539234 -3.6893488e+19 2.3225958
-1.0842022e-19 3.2077839 -1.0842022e-19
2.3360572 -3.6893488e+19 2.2858355
0 3.23207 3.6893488e+19
2.0453496 -2 2.2864261
3.6893488e+19 3.1435783 -3.6893488e+19
2.288924 -1.0842022e-19 2.1971619
3.6893488e+19 3.2525415 2
2.0594492 -1.0842022e-19 2.2717729
-1.0842022e-19 3.1458745 1.0842022e-19
2.2906098 2 2.1552258
2 3.2775695 2
2.5223703 -3.6893488e+19 2.2694037
-2 3.2395499 -3.6893488e+19
2.2699387 -0 2.1952753
-3.6893488e+19 3.2775397 2
2.5223413 0 2.2261794
-0 3.1494327 -2
2.190496 0 2.0685198
3.6893488e+19 3.1819232 -2
2.4238327 -1.0842022e-19 2.0718668
-3.6893488e+19 3.1506515 -1.0842022e-19
2.1918402 -1.0842022e-19 2.0246065
3.6893488e+19 3.1595814 0
2.4019096 3.6893488e+19 2.0091031
2 3.2984912 2
2.3291774 1.0842022e-19 2.0923183
3.6893488e+19 3.2825158 -2
2.5272238 2 2.0438719
3.6893488e+19 3.1547246 3.6893488e+19
2.196332 2 1.8915004
3.6893488e+19 3.3090689 -1.0842022e-19
2.5532796 -0 1.9324768
1.0842022e-19 3.2131314 3.6893488e+19
2.2553716 3.6893488e+19 1.8452581
3.6893488e+19 3.3087752 -2
2.5529914 -0 1.8507696
-3.6893488e+19 3.1428993 0
2.1832912 -0 1.6979654
-0 3.1542623 1.0842022e-19
1.9976794 1.0842022e-19 1.6012321
3.6893488e+19 3.1383681 -2
2.2850993 -0 1.3011595
-1.0842022e-19 3.1483004 3.6893488e+19
1.9940267 2 -1.5078046
1.0842022e-19 3.1387968 3.6893488e+19
2.285414 2 -1.652131
-2 3.2538178 -3.6893488e+19
2.061013 -1.0842022e-19 -1.7806324
-2 3.1374016 0
2.28439 -3.6893488e+19 -1.7875919
3.6893488e+19 3.1490903 -2
1.9945105 -0 -1.8364707
-0 3.1348679 -1.0842022e-19
2.2825298 1.0842022e-19 -1.8727592
-2 3.1692016 -1.0842022e-19
2.0068321 -3.6893488e+19 -1.907869
3.6893488e+19 3.1360803 2
2.2834198 0 -1.9175415
-2 3.1533291 -0
1.9971076 2 -1.9469483
1.0842022e-19 3.1407878 -3.6893488e+19
2.2868755 2 -1.9633915
2 3.1507373 1.0842022e-19
1.9955196 -3.6893488e+19 -1.9904687
-1.0842022e-19 3.1085975 -0
2.2632449 2 -1.9860395
3.6893488e+19 3.093596 -1.0842022e-19
1.9605108 -2 -1.9945929
-2 2.8713698 -0
1.9547741 -1.0842022e-19 -1.9136168
-3.6893488e+19 2.8057454 2
2.0500185 2 -1.8940088
-3.6893488e+19 2.7795496 -1.0842022e-19
1.9041443 3.6893488e+19 -1.8888451
-1.0842022e-19 2.7304885 -0
1.9857442 -2 -1.8767087
-2 2.7001112 2
1.8731923 0 -1.8738257
0 2.6573715 2
1.9498705 -2 -1.8628498
-1.0842022e-19 2.6358457 3.6893488e+19
1.8377562 1.0842022e-19 -1.8599837
1.0842022e-19 2.601747 -0
1.9225792 1.0842022e-19 -1.8502523
1.0842022e-19 2.5820687 -0
1.8081033 -1.0842022e-19 -1.8459113
-0 2.5585277 2
1.9013743 2 -1.8400283
2 2.5443594 -1.0842022e-19
1.7873104 -3.6893488e+19 -1.8374046
2 2.5248573 2
1.8848544 1.0842022e-19 -1.8321316
-3.6893488e+19 2.5128889 -0
1.7699575 -0 -1.829519
3.6893488e+19 2.4915693 -1.0842022e-19
1.8661808 0 -1.8241638
3.6893488e+19 2.4748037 -0
1.7559038 2 -1.8230973
2 2.4542937 3.6893488e+19
1.639166 0 -1.820639
2 2.4137349 3.6893488e+19
1.6267414 -2 -1.8148614
-1.0842022e-19 2.3562939 2
1.5932906 -3.6893488e+19 -1.8086815
-3.6893488e+19 2.3113525 -0
1.5657563 2 -1.8032104
-0 2.2773857 -1.0842022e-19
1.5449458 -2 -1.7995985
-1.0842022e-19 2.2435362 3.6893488e+19
1.7421459 0 -1.795616
-1.0842022e-19 2.2003469 -0
1.7209557 -1.0842022e-19 -1.7937416
1.0842022e-19 2.1694529 1.0842022e-19
1.705798 2 -1.7943896
-3.6893488e+19 2.1279685 1.0842022e-19
1.6854445 2 -1.7887135
2 3.2775238 0
2.4074581 -0 2.7539208
3.6893488e+19 3.1847329 -0
