# .PCD v0.7 - Point Cloud Data file format
VERSION 0.7
FIELDS x y z
SIZE 4 4 4
TYPE F F F
COUNT 1 1 1
WIDTH 1686
HEIGHT 1
VIEWPOINT 0 0 0 1 0 0 0
POINTS 1686
DATA ascii
2 2.4452558 0
-1.8903276 -2 -1.8151517
2 2.4100702 -0
-1.8792384 1.0842022e-19 -1.8118397
-1.0842022e-19 2.3530381 2
-1.8475282 3.6893488e+19 -1.806071
-2 2.306407 -2
-1.8181355 2 -1.7997628
-3.6893488e+19 2.2701464 -1.0842022e-19
-1.7952796 -1.0842022e-19 -1.794667
3.6893488e+19 2.249547 -1.0842022e-19
-1.6451627 -3.6893488e+19 -1.7947019
1.0842022e-19 2.1982906 0
-1.6302682 -3.6893488e+19 -1.7902138
-1.0842022e-19 2.1648133 -1.0842022e-19
-1.6160802 1.0842022e-19 -1.7898967
-0 2.1275318 1.0842022e-19
-1.594413 -2 -1.7860774
0 3.1423056 -2
-2.4945586 -2 2.6211851
1.0842022e-19 3.1318779 -0
-2.3159795 1.0842022e-19 2.603179
-0 3.1401048 -0
-2.4917843 -2 2.6075094
2 3.1304176 -1.0842022e-19
-2.3147712 -1.0842022e-19 2.5906188
-0 3.1308503 1.0842022e-19
-2.4801178 -1.0842022e-19 2.5877433
3.6893488e+19 3.1255898 0
-2.3107767 -1.0842022e-19 2.5752611
-0 3.1304862 2
-2.4796588 -0 2.5761828
-2 3.1339722 3.6893488e+19
-2.4840534 1.0842022e-19 2.567862
-3.6893488e+19 3.0703311 -3.6893488e+19
-2.2650535 0 2.5086696
-0 3.1323597 2
-2.4820206 3.6893488e+19 2.5552995
1.0842022e-19 3.0715959 -2
-2.2660999 0 2.500324
2 3.1279025 2
-2.4764016 -1.0842022e-19 2.5406721
1.0842022e-19 3.0709219 -1.0842022e-19
-2.2655423 -1.0842022e-19 2.4809582
-1.0842022e-19 3.1247497 -3.6893488e+19
-2.4724269 1.0842022e-19 2.5273023
2 3.0716064 2
-2.2661088 3.6893488e+19 2.4633489
-0 3.0683811 3.6893488e+19
-2.3219965 1.0842022e-19 2.441453
-3.6893488e+19 3.1125226 -3.6893488e+19
-2.17138 0 2.4895709
-2 3.0703151 -2
-2.3239524 -2 2.4256165
2 3.1069391 -3.6893488e+19
-2.1648898 0 2.4615319
-2 3.071594 -2
-2.3252459 -3.6893488e+19 2.4087701
1.0842022e-19 3.0836122 -3.6893488e+19
-2.1377757 -0 2.4122498
-0 3.0720623 -2
-2.3257194 2 2.3908298
0 3.0825438 2
-2.136534 -1.0842022e-19 2.3919158
3.6893488e+19 3.0732517 1.0842022e-19
-2.3269224 0 2.3737082
1.0842022e-19 3.0836172 3.6893488e+19
-2.1377816 -2 2.374141
-0 3.0731061 -0
-2.3267751 3.6893488e+19 2.3550239
3.6893488e+19 3.0844903 1.0842022e-19
-2.1387966 -1.0842022e-19 2.3560715
2 3.0688546 -1.0842022e-19
-2.3224752 3.6893488e+19 2.3321111
2 3.083431 -1.0842022e-19
-2.1375651 2 2.3359869
-1.0842022e-19 3.071842 3.6893488e+19
-2.3254967 -2 2.3168473
-2 3.1232173 -3.6893488e+19
-2.4704952 3.6893488e+19 2.3583355
-1.0842022e-19 3.0758827 -0
-2.2696471 -1.0842022e-19 2.3014603
3.6893488e+19 3.0455308 0
-2.37256 -3.6893488e+19 2.2668393
-0 3.0892396 -3.6893488e+19
-2.280699 -2 2.2945616
1.0842022e-19 3.0471964 -1.0842022e-19
-2.3746595 -0 2.2513671
3.6893488e+19 3.0909712 3.6893488e+19
-2.2821319 -3.6893488e+19 2.2767377
-0 3.0466373 -3.6893488e+19
-2.3739548 0 2.2179565
-0 3.0900886 3.6893488e+19
-2.2814016 -0 2.2567749
0 3.0487685 1.0842022e-19
-2.3766415 -1.0842022e-19 2.1872823
-2 3.0707004 3.6893488e+19
-2.2653592 1.0842022e-19 2.1980147
-0 3.0498106 1.0842022e-19
-2.3779554 -1.0842022e-19 2.1547029
3.6893488e+19 3.0749149 -2
-2.2688463 0 2.1672192
-0 3.0502546 3.6893488e+19
-2.378515 1.0842022e-19 2.1211798
-1.0842022e-19 3.0758009 -1.0842022e-19
-2.2695794 -1.0842022e-19 2.1316073
1.0842022e-19 3.048929 -1.0842022e-19
-2.3768437 -2 2.0856118
0 3.118669 -3.6893488e+19
-2.3050499 -2 2.1402755
0 3.0706875 -0
-2.1227527 -2 2.0705671
-3.6893488e+19 3.0708869 1.0842022e-19
-2.3245308 -2 2.0543675
0 3.0708501 2
-2.1229417 -3.6893488e+19 2.0347278
-3.6893488e+19 3.0645087 3.6893488e+19
-2.3180802 -2 2.0128472
3.6893488e+19 3.198076 1.0842022e-19
-2.2604117 2 2.0973818
-2 3.0661323 -0
-2.3197222 1.0842022e-19 1.9785833
3.6893488e+19 3.0738068 0
-2.1263785 -3.6893488e+19 1.9647508
1.0842022e-19 3.0650153 -2
-2.3185923 -3.6893488e+19 1.9422957
-3.6893488e+19 3.0723658 3.6893488e+19
-2.1247036 2 1.9276963
-0 3.0714433 2
-2.3250935 1.0842022e-19 1.910042
2 3.0774515 -2
-2.1306148 3.6893488e+19 1.8938416
0 3.0740154 1.0842022e-19
-2.3276947 -0 1.8747281
2 3.0777864 -3.6893488e+19
-2.1310041 -1.0842022e-19 1.8396289
-3.6893488e+19 3.0751772 -0
-2.3288698 -3.6893488e+19 1.8024838
2 3.0796015 -3.6893488e+19
-2.1331139 -0 1.7670692
2 3.0737817 3.6893488e+19
-2.3274584 2 1.7077982
-1.0842022e-19 3.0527575 -3.6893488e+19
-2.3816702 -1.0842022e-19 1.6267806
-2 3.0743618 3.6893488e+19
-2.2683887 -0 1.4984865
0 3.0534739 2
-2.3825734 -0 -1.1600014
-3.6893488e+19 3.0712211 -2
-2.26579 -3.6893488e+19 -1.5400873
0 3.0588057 1.0842022e-19
-2.3892949 -2 -1.6496385
2 3.0772345 -2
-2.2707655 -3.6893488e+19 -1.7308865
-1.0842022e-19 3.0597079 2
-2.3904324 -1.0842022e-19 -1.769994
-2 3.0689654 2
-2.2639236 1.0842022e-19 -1.8090671
-3.6893488e+19 3.0535893 -0
-2.382719 -0 -1.8357041
0 3.0692909 0
-2.2641928 -1.0842022e-19 -1.8779503
-2 3.0517161 -0
-2.3803575 1.0842022e-19 -1.8887945
2 3.0243027 -3.6893488e+19
-2.2039359 -2 -1.8907022
1.0842022e-19 3.0100636 -3.6893488e+19
-2.3278482 1.0842022e-19 -1.8990313
-0 3.0208805 3.6893488e+19
-2.1982727 1.0842022e-19 -1.9193625
2 2.8760343 2
-2.0611444 -3.6893488e+19 -1.8886725
0 2.833838 -0
-1.9440191 3.6893488e+19 -1.8821383
-1.0842022e-19 2.7934391 -1.0842022e-19
-2.0467713 -0 -1.8750328
3.6893488e+19 2.7793198 -3.6893488e+19
-1.9123343 3.6893488e+19 -1.8762196
-3.6893488e+19 2.7524726 -2
-2.0053396 -3.6893488e+19 -1.8686317
0 2.7226799 1.0842022e-19
-1.8873554 0 -1.8651232
3.6893488e+19 2.674665 3.6893488e+19
-1.9647436 -3.6893488e+19 -1.853862
1.0842022e-19 2.6411254 -0
-1.8523133 1.0842022e-19 -1.8456589
-3.6893488e+19 2.6123712 -3.6893488e+19
-1.933243 -3.6893488e+19 -1.8407632
0 2.5930686 2
-1.8243837 3.6893488e+19 -1.8378364
-1.0842022e-19 2.5755875 -2
-1.9146423 -2 -1.8372713
1.0842022e-19 2.5507612 -0
-1.7997956 -0 -1.8285149
2 2.5390763 3.6893488e+19
-1.8961794 -2 -1.8298343
-2 2.5227664 -1.0842022e-19
-1.7835257 -3.6893488e+19 -1.8249431
-3.6893488e+19 2.5058053 -0
-1.8793551 -1.0842022e-19 -1.8207574
2 2.4928138 -0
-1.7682061 -1.0842022e-19 -1.8195245
-1.0842022e-19 2.4688194 -1.0842022e-19
-1.8620715 -2 -1.8176899
2 2.4452558 0
-1.8903276 -2 -1.8151517
2 2.4100702 -0
-1.8792384 1.0842022e-19 -1.8118397
-1.0842022e-19 2.3530381 2
-1.8475282 3.6893488e+19 -1.806071
-2 2.306407 -2
-1.8181355 2 -1.7997628
-3.6893488e+19 2.2701464 -1.0842022e-19
-1.7952796 -1.0842022e-19 -1.794667
3.6893488e+19 2.249547 -1.0842022e-19
-1.6451627 -3.6893488e+19 -1.7947019
1.0842022e-19 2.1982906 0
-1.6302682 -3.6893488e+19 -1.7902138
-1.0842022e-19 2.1648133 -1.0842022e-19
-1.6160802 1.0842022e-19 -1.7898967
-0 2.1275318 1.0842022e-19
-1.594413 -2 -1.7860774
3.6893488e+19 3.1420512 -1.0842022e-19
-2.5013523 -3.6893488e+19 2.6210997
2 3.1315908 3.6893488e+19
-2.323868 0 2.6030109
1.0842022e-19 3.1333508 2
-2.4915488 1.0842022e-19 2.6014669
-2 3.1310709 -3.6893488e+19
-2.3234267 2 2.5912981
2 3.1299074 1.0842022e-19
-2.4871335 3.6893488e+19 2.5870481
-3.6893488e+19 3.1255469 -1.0842022e-19
-2.3187385 3.6893488e+19 2.5753138
-2 3.1307194 1.0842022e-19
-2.4881749 0 2.5765195
-2 3.121964 -3.6893488e+19
-2.3156974 -1.0842022e-19 2.5613112
-3.6893488e+19 3.1332371 -2
-2.4914031 0 2.5673864
-3.6893488e+19 3.0706084 2
-2.2721105 -1.0842022e-19 2.5089648
-0 3.1345913 3.6893488e+19
-2.4931395 0 2.55721
3.6893488e+19 3.0712936 1.0842022e-19
-2.272692 -0 2.5001576
-3.6893488e+19 3.0715053 2
-2.2728717 -0 2.4819658
0 3.1236217 -2
-2.4790735 2 2.5265832
-2 3.1203983 1.0842022e-19
-2.3143687 -3.6893488e+19 2.516896
0 3.1172357 -2
-2.1924136 2 2.5085897
-0 3.1314402 3.6893488e+19
-2.3939373 3.6893488e+19 2.5145328
0 3.1154022 -0
-2.1902049 -2 2.4935553
-3.6893488e+19 3.1310012 -0
-2.3934841 -1.0842022e-19 2.5032115
-1.0842022e-19 3.1068695 -3.6893488e+19
-2.1799254 0 2.4615319
-3.6893488e+19 3.0720675 -3.6893488e+19
-2.3326194 0 2.4095099
-0 3.1081243 1.0842022e-19
-2.1814373 -3.6893488e+19 2.442626
-1.0842022e-19 3.0715861 -0
-2.3321223 -2 2.3903832
-1.0842022e-19 3.1082535 1.0842022e-19
-2.1815929 -3.6893488e+19 2.422298
-3.6893488e+19 3.1143756 -3.6893488e+19
-2.3763137 -0 2.4213929
2 3.1064515 -0
-2.1794219 0 2.399827
2 3.1131341 -1.0842022e-19
-2.3750315 0 2.3991404
-1.0842022e-19 3.1066048 -0
-2.1796067 -0 2.3796868
1.0842022e-19 3.1131015 0
-2.3749979 -2 2.3783247
-3.6893488e+19 3.0846336 -2
-2.1531377 1.0842022e-19 2.3372645
3.6893488e+19 3.1117275 3.6893488e+19
-2.3735788 -3.6893488e+19 2.3562336
1.0842022e-19 3.1233678 2
-2.4787481 -3.6893488e+19 2.3586297
-3.6893488e+19 3.0684452 -2
-2.2702744 -0 2.2946615
2 3.1211526 0
-2.4759078 -2 2.3352597
0 3.0893006 0
-2.2879751 -0 2.2946959
-1.0842022e-19 3.122721 1.0842022e-19
-2.4779189 3.6893488e+19 2.3153775
-3.6893488e+19 3.1266499 -3.6893488e+19
-2.3196745 0 2.3057797
3.6893488e+19 3.1209257 -0
-2.4756167 2 2.292697
2 3.1214604 -3.6893488e+19
-2.3152699 0 2.2805388
1.0842022e-19 3.1190789 0
-2.4732487 -0 2.2702079
1.0842022e-19 3.1231496 0
-2.3167038 -0 2.2607145
-3.6893488e+19 3.0492239 -3.6893488e+19
-2.3836777 2 2.1540802
0 3.1219106 1.0842022e-19
-2.3156521 -0 2.2276971
-0 3.0507751 -1.0842022e-19
-2.3856666 -1.0842022e-19 2.1219788
-0 3.1208687 -0
-2.3147678 -1.0842022e-19 2.1845145
-0 3.2172446 1.0842022e-19
-2.5495605 -3.6893488e+19 2.2624009
-2 3.1185982 2
-2.3128409 -1.0842022e-19 2.1403084
3.6893488e+19 3.0700963 -3.6893488e+19
-2.1356242 -1.0842022e-19 2.0700386
0 3.1739619 1.0842022e-19
-2.4378521 0 2.1522715
3.6893488e+19 3.0705075 0
-2.1361198 3.6893488e+19 2.0344794
-2 3.1508808 1.0842022e-19
-2.4140151 3.6893488e+19 2.0851445
-2 3.1709406 2
-2.2535565 0 2.0764081
-1.0842022e-19 3.0663047 -2
-2.3266678 -2 1.9787848
2 3.0722804 1.0842022e-19
-2.1382556 1.0842022e-19 1.9637802
3.6893488e+19 3.0644138 -1.0842022e-19
-2.3247149 -0 1.9419931
-2 3.0706213 1.0842022e-19
-2.1362569 2 1.9267691
-3.6893488e+19 3.2132146 1.0842022e-19
-2.4783912 -3.6893488e+19 1.9807055
3.6893488e+19 3.2128694 2
-2.4780345 1.0842022e-19 1.9284335
2 3.2120366 -1.0842022e-19
-2.4771743 1.0842022e-19 1.8761337
1.0842022e-19 3.0796309 2
-2.1471107 -1.0842022e-19 1.7671095
2 3.2133195 -3.6893488e+19
-2.4784992 3.6893488e+19 1.7737257
0 3.1140952 1.0842022e-19
-2.4668584 -2 1.6525297
-0 3.0767274 -1.0842022e-19
-2.2773037 -2 1.5001838
-0 3.1136398 -2
-2.4662745 -2 -1.1918031
-0 3.0719717 1.0842022e-19
-2.2732675 1.0842022e-19 -1.5405188
-3.6893488e+19 3.0545108 -1.0842022e-19
-2.3904569 -0 -1.6476192
2 3.1656423 -3.6893488e+19
-2.3527684 1.0842022e-19 -1.7716726
-0 3.0565548 -2
-2.3930776 3.6893488e+19 -1.7685779
-3.6893488e+19 3.1672781 -1.0842022e-19
-2.354157 -3.6893488e+19 -1.8658673
1.0842022e-19 3.0561464 -2
-2.3925538 -1.0842022e-19 -1.8375676
-0 3.1648238 3.6893488e+19
-2.3520739 2 -1.9162794
-2 3.0520525 2
-2.3873048 1.0842022e-19 -1.8890074
-3.6893488e+19 3.070972 -1.0842022e-19
-2.272419 3.6893488e+19 -1.9146866
-2 3.0093997 2
-2.3326135 -2 -1.898713
2 3.0201538 1.0842022e-19
-2.208576 1.0842022e-19 -1.9189547
-0 2.8771722 1.0842022e-19
-2.070118 1.0842022e-19 -1.8891306
-2 2.8334615 1.0842022e-19
-1.9508629 -2 -1.882015
2 2.7953832 3.6893488e+19
-2.0550609 1.0842022e-19 -1.8759035
0 2.7805722 -3.6893488e+19
-1.9190044 -1.0842022e-19 -1.8768102
3.6893488e+19 2.7512741 1.0842022e-19
-2.0095067 3.6893488e+19 -1.8675567
-0 2.7184825 0
-1.8910968 -3.6893488e+19 -1.8630372
1.0842022e-19 2.6720483 3.6893488e+19
-1.9679379 1.0842022e-19 -1.8525285
-3.6893488e+19 2.6420438 -3.6893488e+19
-1.8611503 -0 -1.8462201
-2 2.6094058 -2
-1.9355905 0 -1.8390696
-2 2.5930016 -0
-1.8316094 3.6893488e+19 -1.8378364
0 2.5757253 -1.0842022e-19
-1.9181985 -3.6893488e+19 -1.8374325
3.6893488e+19 2.5507026 -3.6893488e+19
-1.8061302 -0 -1.8285149
3.6893488e+19 2.5391026 3.6893488e+19
-1.8992872 0 -1.829922
0 2.5227134 0
-1.7892708 -3.6893488e+19 -1.8249431
-0 2.5052257 2
-1.8817939 -1.0842022e-19 -1.8203795
0 2.4937103 -3.6893488e+19
-1.7736948 2 -1.8199164
-1.0842022e-19 2.468415 -0
-1.8668809 0 -1.8175886
-2 2.4453149 0
-1.8927505 -1.0842022e-19 -1.8152566
3.6893488e+19 3.1420512 -1.0842022e-19
-2.5013523 -3.6893488e+19 2.6210997
2 3.1315908 3.6893488e+19
-2.323868 0 2.6030109
1.0842022e-19 3.1333508 2
-2.4915488 1.0842022e-19 2.6014669
-2 3.1310709 -3.6893488e+19
-2.3234267 2 2.5912981
2 3.1299074 1.0842022e-19
-2.4871335 3.6893488e+19 2.5870481
-3.6893488e+19 3.1255469 -1.0842022e-19
-2.3187385 3.6893488e+19 2.5753138
-2 3.1307194 1.0842022e-19
-2.4881749 0 2.5765195
2 3.0711255 -2
-2.2725492 1.0842022e-19 2.5187626
-3.6893488e+19 3.1332371 -2
-2.4914031 0 2.5673864
-3.6893488e+19 3.0706084 2
-2.2721105 -1.0842022e-19 2.5089648
-0 3.1345913 3.6893488e+19
-2.4931395 0 2.55721
3.6893488e+19 3.0712936 1.0842022e-19
-2.272692 -0 2.5001576
-3.6893488e+19 3.0715053 2
-2.2728717 -0 2.4819658
0 3.1236217 -2
-2.4790735 2 2.5265832
-2 3.0730164 -0
-2.2741542 1.0842022e-19 2.4655089
0 3.1172357 -2
-2.1924136 2 2.5085897
-0 3.1314402 3.6893488e+19
-2.3939373 3.6893488e+19 2.5145328
0 3.1154022 -0
-2.1902049 -2 2.4935553
-3.6893488e+19 3.1310012 -0
-2.3934841 -1.0842022e-19 2.5032115
-1.0842022e-19 3.1068695 -3.6893488e+19
-2.1799254 0 2.4615319
-3.6893488e+19 3.0720675 -3.6893488e+19
-2.3326194 0 2.4095099
2 3.0821304 -1.0842022e-19
-2.1501219 1.0842022e-19 2.4104989
-1.0842022e-19 3.0715861 -0
-2.3321223 -2 2.3903832
1.0842022e-19 3.0824482 3.6893488e+19
-2.1505048 2 2.3918796
3.6893488e+19 3.0735111 -2
-2.3341103 -1.0842022e-19 2.3741338
-1.0842022e-19 3.0835521 -3.6893488e+19
-2.1518347 -2 2.374141
-2 3.0728438 -0
-2.3334212 -0 2.3548551
-1.0842022e-19 3.0843942 -3.6893488e+19
-2.1528492 -2 2.3560386
-3.6893488e+19 3.068532 1.0842022e-19
-2.3289683 0 2.331887
-3.6893488e+19 3.0846336 -2
-2.1531377 1.0842022e-19 2.3372645
-2 3.0701339 1.0842022e-19
-2.3306227 -3.6893488e+19 2.3152719
3.6893488e+19 3.0684273 -0
-2.4083011 2 2.3058581
-3.6893488e+19 3.0684452 -2
-2.2702744 -0 2.2946615
-1.0842022e-19 3.0708294 2
-2.4113812 -3.6893488e+19 2.289803
0 3.0893006 0
-2.2879751 -0 2.2946959
1.0842022e-19 3.0448318 3.6893488e+19
-2.3780458 2 2.2489431
2 3.0899806 -2
-2.288552 -2 2.2760098
-0 3.046114 -3.6893488e+19
-2.3796899 1.0842022e-19 2.2173264
-2 3.0922225 -2
-2.2904549 0 2.2584574
2 3.0479059 -2
-2.3819876 1.0842022e-19 2.1862025
2 3.0811381 0
-2.2810473 3.6893488e+19 2.2127235
-3.6893488e+19 3.0492239 -3.6893488e+19
-2.3836777 2 2.1540802
-2 3.0790381 -3.6893488e+19
-2.2792649 2 2.1726303
-0 3.0507751 -1.0842022e-19
-2.3856666 -1.0842022e-19 2.1219788
-1.0842022e-19 3.0767028 3.6893488e+19
-2.277283 3.6893488e+19 2.1327693
-1.0842022e-19 3.0429859 -3.6893488e+19
-2.375679 -3.6893488e+19 2.0790772
3.6893488e+19 3.0765507 -1.0842022e-19
-2.2771537 -2 2.0957842
3.6893488e+19 3.0700963 -3.6893488e+19
-2.1356242 -1.0842022e-19 2.0700386
-3.6893488e+19 3.071769 -3.6893488e+19
-2.3323112 -3.6893488e+19 2.0553069
3.6893488e+19 3.0705075 0
-2.1361198 3.6893488e+19 2.0344794
-2 3.0721717 1.0842022e-19
-2.3327272 1.0842022e-19 2.0193422
-2 3.1709406 2
-2.2535565 0 2.0764081
-1.0842022e-19 3.0663047 -2
-2.3266678 -2 1.9787848
2 3.0722804 1.0842022e-19
-2.1382556 1.0842022e-19 1.9637802
3.6893488e+19 3.0644138 -1.0842022e-19
-2.3247149 -0 1.9419931
-2 3.0706213 1.0842022e-19
-2.1362569 2 1.9267691
-0 3.0689189 -3.6893488e+19
-2.3293676 0 1.9088386
1.0842022e-19 3.0736585 -2
-2.3342624 2 1.874537
2 3.0738285 2
-2.3344381 -1.0842022e-19 1.801807
1.0842022e-19 3.0796309 2
-2.1471107 -1.0842022e-19 1.7671095
-0 3.0737658 -3.6893488e+19
-2.3343732 0 1.707858
0 3.0623505 1.0842022e-19
-2.4005091 1.0842022e-19 1.6308525
-0 3.0767274 -1.0842022e-19
-2.2773037 -2 1.5001838
3.6893488e+19 3.0592096 3.6893488e+19
-2.3964818 -0 -1.1630937
-0 3.0719717 1.0842022e-19
-2.2732675 1.0842022e-19 -1.5405188
-3.6893488e+19 3.0545108 -1.0842022e-19
-2.3904569 -0 -1.6476192
-2 3.0756526 -3.6893488e+19
-2.2763915 3.6893488e+19 -1.7298338
-0 3.0565548 -2
-2.3930776 3.6893488e+19 -1.7685779
-2 3.0690639 1.0842022e-19
-2.2707996 -2 -1.8091747
1.0842022e-19 3.0561464 -2
-2.3925538 -1.0842022e-19 -1.8375676
3.6893488e+19 3.0686436 -0
-2.2704427 3.6893488e+19 -1.8777262
1.0842022e-19 3.017045 1.0842022e-19
-2.3424165 0 -1.8707932
3.6893488e+19 3.024724 0
-2.2163339 -2 -1.8909572
-2 3.0093997 2
-2.3326135 -2 -1.898713
2 3.0201538 1.0842022e-19
-2.208576 1.0842022e-19 -1.9189547
-0 2.8771722 1.0842022e-19
-2.070118 1.0842022e-19 -1.8891306
-2 2.8334615 1.0842022e-19
-1.9508629 -2 -1.882015
2 2.7953832 3.6893488e+19
-2.0550609 1.0842022e-19 -1.8759035
0 2.7805722 -3.6893488e+19
-1.9190044 -1.0842022e-19 -1.8768102
3.6893488e+19 2.7512741 1.0842022e-19
-2.0095067 3.6893488e+19 -1.8675567
-0 2.7184825 0
-1.8910968 -3.6893488e+19 -1.8630372
1.0842022e-19 2.6720483 3.6893488e+19
-1.9679379 1.0842022e-19 -1.8525285
-3.6893488e+19 2.6420438 -3.6893488e+19
-1.8611503 -0 -1.8462201
-2 2.6094058 -2
-1.9355905 0 -1.8390696
-2 2.5930016 -0
-1.8316094 3.6893488e+19 -1.8378364
0 2.5757253 -1.0842022e-19
-1.9181985 -3.6893488e+19 -1.8374325
3.6893488e+19 2.5507026 -3.6893488e+19
-1.8061302 -0 -1.8285149
3.6893488e+19 2.5391026 3.6893488e+19
-1.8992872 0 -1.829922
0 2.5227134 0
-1.7892708 -3.6893488e+19 -1.8249431
-0 2.5052257 2
-1.8817939 -1.0842022e-19 -1.8203795
0 2.4937103 -3.6893488e+19
-1.7736948 2 -1.8199164
-1.0842022e-19 2.468415 -0
-1.8668809 0 -1.8175886
-2 2.4453149 0
-1.8927505 -1.0842022e-19 -1.8152566
-2 3.1419752 2
-2.5055223 -2 2.6211851
-1.0842022e-19 3.130908 0
-2.3313711 2 2.6024785
0 3.12781 3.6893488e+19
-2.3286757 -2 2.5884726
-3.6893488e+19 3.1270812 -1.0842022e-19
-2.3280418 -1.0842022e-19 2.5767348
-1.0842022e-19 3.1319764 1.0842022e-19
-2.4980085 -2 2.5777361
-0 3.1217072 -1.0842022e-19
-2.3233666 -1.0842022e-19 2.5611839
0 3.1330447 -0
-2.4994011 -3.6893488e+19 2.5673611
-0 3.1225114 0
-2.3240664 1.0842022e-19 2.5509732
2 3.135185 3.6893488e+19
-2.5010958 -2 2.5578144
0 3.0711422 -3.6893488e+19
-2.2793775 2 2.5001101
1.0842022e-19 3.1270087 1.0842022e-19
-2.4915316 -2 2.5402288
1.0842022e-19 3.1242511 -1.0842022e-19
-2.3255796 0 2.5305972
-3.6893488e+19 3.1295617 -3.6893488e+19
-2.4948602 -1.0842022e-19 2.5310996
3.6893488e+19 3.1215785 -2
-2.3232546 -2 2.5178218
-0 3.1159036 0
-2.2062502 -2 2.5077035
-0 3.1313708 -3.6893488e+19
-2.4020016 0 2.5145752
-3.6893488e+19 3.1149292 2
-2.2050352 -0 2.4930158
-2 3.1305041 -0
-2.4010882 -1.0842022e-19 2.5029676
2 3.1074131 -1.0842022e-19
-2.195663 -1.0842022e-19 2.4623275
-3.6893488e+19 3.1134875 -0
-2.3831511 -1.0842022e-19 2.4623334
-0 3.1079907 2
-2.1963835 -1.0842022e-19 2.4425499
-3.6893488e+19 3.0749075 -2
-2.342484 -3.6893488e+19 2.3945501
-3.6893488e+19 3.1087363 -2
-2.1973131 -1.0842022e-19 2.4229522
0 3.1177168 2
-2.387609 2 2.4254022
1.0842022e-19 3.0834544 1.0842022e-19
-2.1657887 -0 2.3741064
0 3.1180446 -1.0842022e-19
-2.3879545 1.0842022e-19 2.404676
1.0842022e-19 3.084111 1.0842022e-19
-2.1666074 1.0842022e-19 2.3558085
0 3.1168489 2
-2.3866942 -3.6893488e+19 2.38236
1.0842022e-19 3.0851848 2
-2.1679463 1.0842022e-19 2.3378878
-3.6893488e+19 3.0697477 0
-2.3370452 2 2.3149993
-3.6893488e+19 3.1233625 -1.0842022e-19
-2.486778 1.0842022e-19 2.358777
-1.0842022e-19 3.1135087 -2
-2.3162344 1.0842022e-19 2.3364542
-1.0842022e-19 3.0696819 1.0842022e-19
-2.416791 -3.6893488e+19 2.2888889
3.6893488e+19 3.1143782 2
-2.3169909 3.6893488e+19 2.316566
2 3.1244037 3.6893488e+19
-2.4881353 -0 2.3169355
2 3.1184146 -0
-2.3205023 1.0842022e-19 2.2991781
1.0842022e-19 3.1230402 -3.6893488e+19
-2.4863575 -3.6893488e+19 2.2944901
-1.0842022e-19 3.1172729 -1.0842022e-19
-2.319509 2 2.2774544
-0 3.0468888 -0
-2.387074 0 2.1848977
-2 3.0899894 0
-2.295774 0 2.2252262
1.0842022e-19 3.0494661 -2
-2.390434 1.0842022e-19 2.1545784
-2 3.1206288 1.0842022e-19
-2.3224287 -3.6893488e+19 2.2261851
2 3.0504017 -3.6893488e+19
-2.3916538 0 2.1216745
-2 3.1204543 2
-2.3222768 -0 2.1841514
3.6893488e+19 3.2149851 -3.6893488e+19
-2.5531161 -3.6893488e+19 2.2612426
-2 3.1180604 1.0842022e-19
-2.3201942 3.6893488e+19 2.1398487
3.6893488e+19 3.0685394 1.0842022e-19
-2.147191 1.0842022e-19 2.0685461
2 3.1740024 -1.0842022e-19
-2.4469395 -2 2.1524475
-0 3.0696032 0
-2.1485176 -3.6893488e+19 2.0337336
-0 3.1503725 2
-2.4220314 0 2.0848341
0 3.0984418 -0
-2.1844766 3.6893488e+19 2.0202448
1.0842022e-19 3.0665061 -2
-2.3336279 -0 1.9790088
-3.6893488e+19 3.0975544 -1.0842022e-19
-2.1833704 2 1.9805918
-3.6893488e+19 3.0640275 1.0842022e-19
-2.3310156 -2 1.9418229
-2 3.0945947 2
-2.1796799 -3.6893488e+19 1.9400246
-1.0842022e-19 3.2294691 1.0842022e-19
-2.5027034 2 1.9888828
-1.0842022e-19 3.0704079 -0
-2.1495209 0 1.8908033
3.6893488e+19 3.2278261 1.0842022e-19
-2.5018375 1.0842022e-19 1.9342623
-0 3.0732958 2
-2.1531219 2 1.8367724
-2 3.2127149 -3.6893488e+19
-2.4877462 1.0842022e-19 1.8763621
2 3.0763247 -1.0842022e-19
-2.1568985 2 1.7657125
0 3.2034643 1.0842022e-19
-2.4779952 0 1.770612
0 3.1138484 -1.0842022e-19
-2.4743736 -0 1.652491
1.0842022e-19 3.0753617 3.6893488e+19
-2.2830484 2 1.4993914
1.0842022e-19 3.1101856 0
-2.4695983 3.6893488e+19 -1.1900617
-3.6893488e+19 3.0743973 0
-2.2822096 -3.6893488e+19 -1.5418127
1.0842022e-19 3.0558624 1.0842022e-19
-2.3987734 3.6893488e+19 -1.6483372
1.0842022e-19 3.1675134 -0
-2.3632157 0 -1.7723744
-2 3.0553763 -1.0842022e-19
-2.3981397 -3.6893488e+19 -1.7680866
1.0842022e-19 3.0683529 -0
-2.2769511 -3.6893488e+19 -1.808816
1.0842022e-19 3.0553074 1.0842022e-19
-2.3980498 -3.6893488e+19 -1.8370749
0 3.0695167 -0
-2.2779634 -0 -1.8781122
-0 3.0558093 0
-2.3987043 2 -1.8907959
-2 3.0695775 0
-2.2780166 -1.0842022e-19 -1.9140172
-1.0842022e-19 3.0083034 2
-2.3367677 1.0842022e-19 -1.8981473
3.6893488e+19 3.0199845 2
-2.2197461 3.6893488e+19 -1.9188964
-1.0842022e-19 2.8757005 -1.0842022e-19
-2.0768406 -1.0842022e-19 -1.8886267
-2 2.8315275 3.6893488e+19
-1.9566931 0 -1.8812758
3.6893488e+19 2.7982523 2
-2.0643868 -1.0842022e-19 -1.8771698
-0 2.7795203 -3.6893488e+19
-1.9242687 -3.6893488e+19 -1.8763602
-0 2.7532294 -2
-2.0169282 -1.0842022e-19 -1.8695277
-2 2.7195077 2
-1.8963588 -2 -1.8636061
2 2.6727695 -3.6893488e+19
-1.9728199 -3.6893488e+19 -1.8529952
0 2.6433327 -2
-1.8702258 -1.0842022e-19 -1.8469919
-0 2.608047 -2
-1.9387081 -2 -1.8383331
-1.0842022e-19 2.5929327 -3.6893488e+19
-1.8388036 3.6893488e+19 -1.8378364
-3.6893488e+19 2.5756137 0
-1.9216143 -3.6893488e+19 -1.8374325
-2 2.5501454 1.0842022e-19
-1.8121277 -3.6893488e+19 -1.8281786
-2 2.5383863 1.0842022e-19
-1.9019936 -0 -1.8294842
2 2.5224104 3.6893488e+19
-1.794836 1.0842022e-19 -1.8247612
0 2.5050151 3.6893488e+19
-1.8844053 1.0842022e-19 -1.8202851
1.0842022e-19 2.4923708 3.6893488e+19
-1.7784859 0 -1.8194267
-2 2.4712138 2
-1.8733525 -3.6893488e+19 -1.8188055
-1.0842022e-19 2.4443901 0
-1.8948454 1.0842022e-19 -1.814942
-0 2.4109509 -0
-1.8839461 -3.6893488e+19 -1.8123987
3.6893488e+19 2.3507826 0
-1.8536695 -2 -1.8050658
-2 2.3049273 -2
-1.8237772 2 -1.7990655
-2 2.2694314 3.6893488e+19
-1.800638 2 -1.7943605
-1.0842022e-19 2.244926 2
-1.6542825 -1.0842022e-19 -1.7931987
-0 2.2010548 -0
-1.6406065 -2 -1.7912984
1.0842022e-19 2.1651382 -1.0842022e-19
-1.6294103 3.6893488e+19 -1.7900912
3.6893488e+19 2.1317706 1.0842022e-19
-1.6130174 -0 -1.7879504
-2 3.1419752 2
-2.5055223 -2 2.6211851
-1.0842022e-19 3.130908 0
-2.3313711 2 2.6024785
0 3.12781 3.6893488e+19
-2.3286757 -2 2.5884726
3.6893488e+19 3.070106 3.6893488e+19
-2.2784762 -2 2.5273666
-1.0842022e-19 3.1319764 1.0842022e-19
-2.4980085 -2 2.5777361
0 3.0706093 -0
-2.278914 0 2.5184062
0 3.1330447 -0
-2.4994011 -3.6893488e+19 2.5673611
3.6893488e+19 3.0710969 0
-2.2793384 -3.6893488e+19 2.5094323
2 3.135185 3.6893488e+19
-2.5010958 -2 2.5578144
0 3.0711422 -3.6893488e+19
-2.2793775 2 2.5001101
1.0842022e-19 3.1270087 1.0842022e-19
-2.4915316 -2 2.5402288
-2 3.0712926 3.6893488e+19
-2.2795086 1.0842022e-19 2.4817827
-3.6893488e+19 3.1295617 -3.6893488e+19
-2.4948602 -1.0842022e-19 2.5310996
2 3.0717635 1.0842022e-19
-2.2799182 1.0842022e-19 2.4638338
-0 3.1159036 0
-2.2062502 -2 2.5077035
-0 3.1313708 -3.6893488e+19
-2.4020016 0 2.5145752
-3.6893488e+19 3.1149292 2
-2.2050352 -0 2.4930158
-2 3.1305041 -0
-2.4010882 -1.0842022e-19 2.5029676
2 3.1074131 -1.0842022e-19
-2.195663 -1.0842022e-19 2.4623275
-3.6893488e+19 3.1134875 -0
-2.3831511 -1.0842022e-19 2.4623334
-0 3.1079907 2
-2.1963835 -1.0842022e-19 2.4425499
-3.6893488e+19 3.0749075 -2
-2.342484 -3.6893488e+19 2.3945501
-1.0842022e-19 3.082443 3.6893488e+19
-2.1645277 1.0842022e-19 2.3919523
2 3.0735846 0
-2.3410895 -1.0842022e-19 2.3743467
1.0842022e-19 3.0834544 1.0842022e-19
-2.1657887 -0 2.3741064
-0 3.0726414 2
-2.3400953 -2 2.3547537
1.0842022e-19 3.084111 1.0842022e-19
-2.1666074 1.0842022e-19 2.3558085
3.6893488e+19 3.0686383 -2
-2.3358755 3.6893488e+19 2.3321111
1.0842022e-19 3.0851848 2
-2.1679463 1.0842022e-19 2.3378878
-3.6893488e+19 3.0697477 0
-2.3370452 2 2.3149993
3.6893488e+19 3.0680168 3.6893488e+19
-2.4146199 2 2.3055933
3.6893488e+19 3.0756702 2
-2.2833169 -2 2.3014317
-1.0842022e-19 3.0696819 1.0842022e-19
-2.416791 -3.6893488e+19 2.2888889
0 3.0896375 2
-2.2954676 2 2.2950716
-2 3.0461178 -0
-2.3860688 -3.6893488e+19 2.2506659
2 3.0889575 3.6893488e+19
-2.2948761 3.6893488e+19 2.2752569
1.0842022e-19 3.1230402 -3.6893488e+19
-2.4863575 -3.6893488e+19 2.2944901
-1.0842022e-19 3.0911672 3.6893488e+19
-2.2967985 -3.6893488e+19 2.2577329
-0 3.0468888 -0
-2.387074 0 2.1848977
-2 3.0899894 0
-2.295774 0 2.2252262
1.0842022e-19 3.0494661 -2
-2.390434 1.0842022e-19 2.1545784
-2 3.0869353 -3.6893488e+19
-2.2931168 2 2.1828957
2 3.0504017 -3.6893488e+19
-2.3916538 0 2.1216745
-2 3.1204543 2
-2.3222768 -0 2.1841514
-1.0842022e-19 3.046031 -1.0842022e-19
-2.3859556 3.6893488e+19 2.0826385
2 3.0718398 -1.0842022e-19
-2.2799845 -1.0842022e-19 2.0908918
3.6893488e+19 3.0685394 1.0842022e-19
-2.147191 1.0842022e-19 2.0685461
2 3.1740024 -1.0842022e-19
-2.4469395 -2 2.1524475
-0 3.0696032 0
-2.1485176 -3.6893488e+19 2.0337336
-0 3.1503725 2
-2.4220314 0 2.0848341
0 3.0984418 -0
-2.1844766 3.6893488e+19 2.0202448
1.0842022e-19 3.0665061 -2
-2.3336279 -0 1.9790088
-3.6893488e+19 3.071126 -0
-2.1504164 3.6893488e+19 1.9630573
-3.6893488e+19 3.0640275 1.0842022e-19
-2.3310156 -2 1.9418229
-3.6893488e+19 3.070152 -3.6893488e+19
-2.1492019 -3.6893488e+19 1.9265459
-1.0842022e-19 3.2294691 1.0842022e-19
-2.5027034 2 1.9888828
-1.0842022e-19 3.0704079 -0
-2.1495209 0 1.8908033
3.6893488e+19 3.2278261 1.0842022e-19
-2.5018375 1.0842022e-19 1.9342623
-0 3.0732958 2
-2.1531219 2 1.8367724
-3.6893488e+19 3.0736866 -2
-2.341197 -1.0842022e-19 1.8017901
2 3.0763247 -1.0842022e-19
-2.1568985 2 1.7657125
2 3.0746775 0
-2.3422415 -2 1.7085145
0 3.1138484 -1.0842022e-19
-2.4743736 -0 1.652491
1.0842022e-19 3.0753617 3.6893488e+19
-2.2830484 2 1.4993914
-3.6893488e+19 3.0578139 -0
-2.4013178 -3.6893488e+19 -1.1624264
-3.6893488e+19 3.0743973 0
-2.2822096 -3.6893488e+19 -1.5418127
1.0842022e-19 3.0558624 1.0842022e-19
-2.3987734 3.6893488e+19 -1.6483372
-1.0842022e-19 3.0745668 3.6893488e+19
-2.282357 -0 -1.7291321
-2 3.0553763 -1.0842022e-19
-2.3981397 -3.6893488e+19 -1.7680866
1.0842022e-19 3.0683529 -0
-2.2769511 -3.6893488e+19 -1.808816
1.0842022e-19 3.0553074 1.0842022e-19
-2.3980498 -3.6893488e+19 -1.8370749
0 3.0695167 -0
-2.2779634 -0 -1.8781122
3.6893488e+19 3.0172093 -3.6893488e+19
-2.3483787 -0 -1.8710487
3.6893488e+19 3.024833 -3.6893488e+19
-2.2281818 -3.6893488e+19 -1.8910528
-1.0842022e-19 3.0083034 2
-2.3367677 1.0842022e-19 -1.8981473
3.6893488e+19 3.0199845 2
-2.2197461 3.6893488e+19 -1.9188964
-1.0842022e-19 2.8757005 -1.0842022e-19
-2.0768406 -1.0842022e-19 -1.8886267
-2 2.8315275 3.6893488e+19
-1.9566931 0 -1.8812758
3.6893488e+19 2.7982523 2
-2.0643868 -1.0842022e-19 -1.8771698
-0 2.7795203 -3.6893488e+19
-1.9242687 -3.6893488e+19 -1.8763602
-0 2.7532294 -2
-2.0169282 -1.0842022e-19 -1.8695277
-2 2.7195077 2
-1.8963588 -2 -1.8636061
2 2.6727695 -3.6893488e+19
-1.9728199 -3.6893488e+19 -1.8529952
0 2.6433327 -2
-1.8702258 -1.0842022e-19 -1.8469919
-0 2.608047 -2
-1.9387081 -2 -1.8383331
-1.0842022e-19 2.5929327 -3.6893488e+19
-1.8388036 3.6893488e+19 -1.8378364
-3.6893488e+19 2.5756137 0
-1.9216143 -3.6893488e+19 -1.8374325
-2 2.5501454 1.0842022e-19
-1.8121277 -3.6893488e+19 -1.8281786
-2 2.5383863 1.0842022e-19
-1.9019936 -0 -1.8294842
2 2.5224104 3.6893488e+19
-1.794836 1.0842022e-19 -1.8247612
0 2.5050151 3.6893488e+19
-1.8844053 1.0842022e-19 -1.8202851
1.0842022e-19 2.4923708 3.6893488e+19
-1.7784859 0 -1.8194267
-2 2.4712138 2
-1.8733525 -3.6893488e+19 -1.8188055
-1.0842022e-19 2.4443901 0
-1.8948454 1.0842022e-19 -1.814942
-0 2.4109509 -0
-1.8839461 -3.6893488e+19 -1.8123987
3.6893488e+19 2.3507826 0
-1.8536695 -2 -1.8050658
-2 2.3049273 -2
-1.8237772 2 -1.7990655
-2 2.2694314 3.6893488e+19
-1.800638 2 -1.7943605
-1.0842022e-19 2.244926 2
-1.6542825 -1.0842022e-19 -1.7931987
-0 2.2010548 -0
-1.6406065 -2 -1.7912984
1.0842022e-19 2.1651382 -1.0842022e-19
-1.6294103 3.6893488e+19 -1.7900912
3.6893488e+19 2.1317706 1.0842022e-19
-1.6130174 -0 -1.7879504
0 3.1428573 3.6893488e+19
-2.5103266 -3.6893488e+19 2.6221805
-0 3.1304955 -3.6893488e+19
-2.3390861 2 2.6021984
-1.0842022e-19 3.1278222 2
-2.3367038 -0 2.5885813
-1.0842022e-19 3.1265171 0
-2.3355408 1.0842022e-19 2.5763402
-1.0842022e-19 3.1227858 2
-2.3322155 -3.6893488e+19 2.5621769
-2 3.1320641 -2
-2.5031745 -1.0842022e-19 2.5666852
-2 3.1204855 3.6893488e+19
-2.3301656 2 2.5494227
-1.0842022e-19 3.1350191 -1.0842022e-19
-2.5051327 -2 2.5578144
3.6893488e+19 3.1218796 -1.0842022e-19
-2.3314078 -3.6893488e+19 2.5397086
-0 3.1277549 -3.6893488e+19
-2.500319 -3.6893488e+19 2.5409286
-0 3.1227081 -1.0842022e-19
-2.3321462 0 2.529521
-2 3.1280942 0
-2.5005441 1.0842022e-19 2.5301335
0 3.1235502 -2
-2.3328965 1.0842022e-19 2.5193207
1.0842022e-19 3.115705 -1.0842022e-19
-2.2214332 1.0842022e-19 2.5076172
-0 3.1298032 -0
-2.4084532 2 2.5135796
-2 3.11642 2
-2.2223551 2 2.4951327
2 3.1303716 0
-2.4090645 -1.0842022e-19 2.5029676
-2 3.1095836 -0
-2.2135422 -3.6893488e+19 2.4652319
-2 3.1307685 1.0842022e-19
-2.4094915 -2 2.4844828
1.0842022e-19 3.1077626 -0
-2.2111945 2 2.4423597
-2 3.1302283 2
-2.4089105 -1.0842022e-19 2.4618897
1.0842022e-19 3.1088469 3.6893488e+19
-2.2125924 2 2.4231703
-3.6893488e+19 3.1192439 0
-2.3970976 1.0842022e-19 2.4273181
-3.6893488e+19 3.0836318 2
-2.1800876 1.0842022e-19 2.3743834
1.0842022e-19 3.11764 -2
-2.3953724 0 2.4043722
0 3.0836093 0
-2.1800585 -2 2.3553479
-0 3.1168745 0
-2.3945494 -1.0842022e-19 2.3825202
2 3.0853624 0
-2.1823184 -2 2.3381369
2 3.0696056 1.0842022e-19
-2.3437147 2 2.3149691
1.0842022e-19 3.0776463 -3.6893488e+19
-2.4342291 -3.6893488e+19 2.3149819
3.6893488e+19 3.113589 0
-2.3240197 0 2.3366256
-2 3.058238 1.0842022e-19
-2.4085078 -1.0842022e-19 2.2786674
1.0842022e-19 3.1133468 3.6893488e+19
-2.3238037 -2 2.3157609
2 3.1273701 2
-2.5000641 -3.6893488e+19 2.3195841
-3.6893488e+19 3.1175048 0
-2.3275094 -2 2.2985253
-0 3.1164558 -0
-2.3265743 1.0842022e-19 2.276917
-3.6893488e+19 3.0469759 0
-2.3935821 1.0842022e-19 2.1852126
-3.6893488e+19 3.0753489 -3.6893488e+19
-2.2899411 -2 2.2048931
-0 3.0506582 -2
-2.3984621 3.6893488e+19 2.156364
3.6893488e+19 3.120553 2
-2.3302257 -3.6893488e+19 2.2262249
-2 3.04935 2
-2.3967285 1.0842022e-19 2.120533
-3.6893488e+19 3.1202545 -3.6893488e+19
-2.3299596 -1.0842022e-19 2.1840425
-3.6893488e+19 3.2135239 3.6893488e+19
-2.5571539 1.0842022e-19 2.260534
-1.0842022e-19 3.1202476 -2
-2.3299534 -1.0842022e-19 2.1422784
0 3.1656568 -1.0842022e-19
-2.2679131 3.6893488e+19 2.1657517
-3.6893488e+19 3.071454 -1.0842022e-19
-2.3457026 -0 2.0552189
-0 3.0693502 -3.6893488e+19
-2.1616769 -3.6893488e+19 2.0335679
0 3.15113 -1.0842022e-19
-2.4313886 -0 2.0855844
1.0842022e-19 3.0973427 2
-2.1977623 -2 2.0194483
-0 3.0630851 2
-2.3367023 2 1.9766126
-1.0842022e-19 3.096642 2
-2.1968591 3.6893488e+19 1.9800341
-3.6893488e+19 3.2428975 0
-2.5150394 -0 2.0511901
3.6893488e+19 3.0969515 1.0842022e-19
-2.197258 -1.0842022e-19 1.9413639
-3.6893488e+19 3.2281873 -0
-2.5071294 -3.6893488e+19 1.9883273
1.0842022e-19 3.0757594 1.0842022e-19
-2.169939 -1.0842022e-19 1.8931847
-2 3.2257707 0
-2.50583 2 1.9335337
-0 3.0740073 1.0842022e-19
-2.1676805 2 1.8372825
3.6893488e+19 3.223485 -2
-2.5046008 -2 1.8793483
0 3.0753226 -0
-2.1693759 -2 1.7653095
2 3.2124112 -2
-2.4972925 -2 1.7735367
2 3.0530508 -3.6893488e+19
-2.4016328 2 1.6270651
1.0842022e-19 3.2142203 0
-2.4136992 3.6893488e+19 1.5529649
-0 3.0496657 -0
-2.3971467 0 -1.1581949
-1.0842022e-19 3.2114544 0
-2.4112344 -2 -1.612359
1.0842022e-19 3.0554533 -2
-2.4048169 1.0842022e-19 -1.6482027
-1.0842022e-19 3.1643183 0
-2.3692281 -1.0842022e-19 -1.7712888
-1.0842022e-19 3.0521622 0
-2.4004555 1.0842022e-19 -1.7666416
-0 3.0689442 0
-2.2842336 -2 -1.8092105
-1.0842022e-19 3.0532649 -0
-2.4019167 -2 -1.8357469
2 3.0692382 -0
-2.2844954 -3.6893488e+19 -1.8780375
-2 3.0517945 -0
-2.3999681 1.0842022e-19 -1.8890074
-1.0842022e-19 3.0686162 -3.6893488e+19
-2.283941 -0 -1.913571
1.0842022e-19 3.0077918 2
-2.3416512 2 -1.8979175
3.6893488e+19 3.0199997 -3.6893488e+19
-2.2312312 1.0842022e-19 -1.9189547
-3.6893488e+19 2.8774536 -2
-2.0863752 1.0842022e-19 -1.8893138
-0 2.8332632 -2
-1.9648061 0 -1.8819904
3.6893488e+19 2.7966638 -1.0842022e-19
-2.0690422 -3.6893488e+19 -1.8765366
-3.6893488e+19 2.7800841 0
-1.9305295 1.0842022e-19 -1.8766415
-1.0842022e-19 2.7532647 -2
-2.0223694 -1.0842022e-19 -1.8696471
3.6893488e+19 2.7217729 2
-1.9020416 -3.6893488e+19 -1.864807
2 2.6697791 3.6893488e+19
-1.9757223 -2 -1.8514614
1.0842022e-19 2.6431267 -1.0842022e-19
-1.8766956 1.0842022e-19 -1.8469218
-2 2.6079221 -2
-1.9424608 -2 -1.8383331
-3.6893488e+19 2.592613 0
-1.8458327 -0 -1.8376821
-1.0842022e-19 2.5752532 3.6893488e+19
-1.9248942 -2 -1.8372713
1.0842022e-19 2.5492141 2
-1.8178596 -2 -1.8275902
0 2.538286 -0
-1.9050162 -0 -1.8294842
0 2.5223539 1.0842022e-19
-1.8005468 1.0842022e-19 -1.8247612
-3.6893488e+19 2.504926 -2
-1.887078 1.0842022e-19 -1.8202851
-1.0842022e-19 2.4912765 -0
-1.7833271 3.6893488e+19 -1.8190348
-0 2.4690776 -1.0842022e-19
-1.8761154 0 -1.8179942
-3.6893488e+19 2.4444439 -0
-1.8972553 -3.6893488e+19 -1.8150468
0 3.1428573 3.6893488e+19
-2.5103266 -3.6893488e+19 2.6221805
-0 3.1304955 -3.6893488e+19
-2.3390861 2 2.6021984
-1.0842022e-19 3.1278222 2
-2.3367038 -0 2.5885813
3.6893488e+19 3.0691636 -2
-2.2844288 1.0842022e-19 2.5266299
-2 3.0704863 2
-2.2856078 2 2.5183806
-2 3.1320641 -2
-2.5031745 -1.0842022e-19 2.5666852
1.0842022e-19 3.0694818 2
-2.2847126 -3.6893488e+19 2.5082018
-1.0842022e-19 3.1350191 -1.0842022e-19
-2.5051327 -2 2.5578144
-3.6893488e+19 3.0704091 -1.0842022e-19
-2.2855389 0 2.4992228
-0 3.1277549 -3.6893488e+19
-2.500319 -3.6893488e+19 2.5409286
1.0842022e-19 3.0712306 0
-2.2862711 3.6893488e+19 2.4818285
-2 3.1280942 0
-2.5005441 1.0842022e-19 2.5301335
2 3.0713038 -1.0842022e-19
-2.2863362 3.6893488e+19 2.4633048
1.0842022e-19 3.115705 -1.0842022e-19
-2.2214332 1.0842022e-19 2.5076172
-0 3.1298032 -0
-2.4084532 2 2.5135796
-2 3.11642 2
-2.2223551 2 2.4951327
2 3.1303716 0
-2.4090645 -1.0842022e-19 2.5029676
-2 3.1095836 -0
-2.2135422 -3.6893488e+19 2.4652319
-2 3.1307685 1.0842022e-19
-2.4094915 -2 2.4844828
1.0842022e-19 3.1077626 -0
-2.2111945 2 2.4423597
2 3.0731711 2
-2.3475492 -0 2.3925784
-0 3.0826821 2
-2.1788633 2 2.3923156
1.0842022e-19 3.0718162 -0
-2.346092 -2 2.3724308
-3.6893488e+19 3.0836318 2
-2.1800876 1.0842022e-19 2.3743834
-0 3.0728664 1.0842022e-19
-2.3472216 1.0842022e-19 2.3551252
0 3.0836093 0
-2.1800585 -2 2.3553479
-0 3.0669913 3.6893488e+19
-2.3409033 -3.6893488e+19 2.3305097
2 3.0853624 0
-2.1823184 -2 2.3381369
2 3.0696056 1.0842022e-19
-2.3437147 2 2.3149691
1.0842022e-19 3.0776463 -3.6893488e+19
-2.4342291 -3.6893488e+19 2.3149819
-1.0842022e-19 3.0751443 0
-2.2897589 3.6893488e+19 2.3010318
-2 3.058238 1.0842022e-19
-2.4085078 -1.0842022e-19 2.2786674
1.0842022e-19 3.1133468 3.6893488e+19
-2.3238037 -2 2.3157609
2 3.1273701 2
-2.5000641 -3.6893488e+19 2.3195841
2 3.0781372 -0
-2.2924259 -3.6893488e+19 2.2665467
-1.0842022e-19 3.0744328 -1.0842022e-19
-2.2891247 -2 2.2403235
-3.6893488e+19 3.0469759 0
-2.3935821 1.0842022e-19 2.1852126
-3.6893488e+19 3.0753489 -3.6893488e+19
-2.2899411 -2 2.2048931
-0 3.0506582 -2
-2.3984621 3.6893488e+19 2.156364
1.0842022e-19 3.0925968 0
-2.3053119 -2 2.1902962
-2 3.04935 2
-2.3967285 1.0842022e-19 2.120533
-3.6893488e+19 3.1202545 -3.6893488e+19
-2.3299596 -1.0842022e-19 2.1840425
2 3.0485487 1.0842022e-19
-2.3956664 -2 2.0856118
0 3.0634415 3.6893488e+19
-2.2793295 -2 2.082092
-3.6893488e+19 3.0694058 -1.0842022e-19
-2.1617486 -3.6893488e+19 2.0694788
-3.6893488e+19 3.071454 -1.0842022e-19
-2.3457026 -0 2.0552189
-0 3.0693502 -3.6893488e+19
-2.1616769 -3.6893488e+19 2.0335679
-2 3.0677118 -0
-2.3416781 3.6893488e+19 2.0157971
-0 3.0691545 -0
-2.1614246 -3.6893488e+19 1.9975816
-0 3.0630851 2
-2.3367023 2 1.9766126
0 3.0713396 -1.0842022e-19
-2.1642413 -1.0842022e-19 1.9632431
-3.6893488e+19 3.2428975 0
-2.5150394 -0 2.0511901
0 3.0705216 -1.0842022e-19
-2.1631868 3.6893488e+19 1.9267863
-3.6893488e+19 3.2281873 -0
-2.5071294 -3.6893488e+19 1.9883273
1.0842022e-19 3.0757594 1.0842022e-19
-2.169939 -1.0842022e-19 1.8931847
-2 3.2257707 0
-2.50583 2 1.9335337
-0 3.0740073 1.0842022e-19
-2.1676805 2 1.8372825
3.6893488e+19 3.223485 -2
-2.5046008 -2 1.8793483
0 3.0753226 -0
-2.1693759 -2 1.7653095
-2 3.0735421 1.0842022e-19
-2.3479483 0 1.707858
2 3.0530508 -3.6893488e+19
-2.4016328 2 1.6270651
0 3.0730939 2
-2.2879314 3.6893488e+19 1.4977245
-0 3.0496657 -0
-2.3971467 0 -1.1581949
-1.0842022e-19 3.0757325 -0
-2.290283 3.6893488e+19 -1.5425476
1.0842022e-19 3.0554533 -2
-2.4048169 1.0842022e-19 -1.6482027
-0 3.0732 3.6893488e+19
-2.2880261 -2 -1.7282329
-1.0842022e-19 3.0521622 0
-2.4004555 1.0842022e-19 -1.7666416
-0 3.0689442 0
-2.2842336 -2 -1.8092105
-1.0842022e-19 3.0532649 -0
-2.4019167 -2 -1.8357469
2 3.0692382 -0
-2.2844954 -3.6893488e+19 -1.8780375
-0 3.0157382 -3.6893488e+19
-2.3521826 0 -1.8697996
3.6893488e+19 3.0248468 -2
-2.2398703 -3.6893488e+19 -1.8911006
1.0842022e-19 3.0077918 2
-2.3416512 2 -1.8979175
3.6893488e+19 3.0199997 -3.6893488e+19
-2.2312312 1.0842022e-19 -1.9189547
-3.6893488e+19 2.8774536 -2
-2.0863752 1.0842022e-19 -1.8893138
-0 2.8332632 -2
-1.9648061 0 -1.8819904
3.6893488e+19 2.7966638 -1.0842022e-19
-2.0690422 -3.6893488e+19 -1.8765366
-3.6893488e+19 2.7800841 0
-1.9305295 1.0842022e-19 -1.8766415
-1.0842022e-19 2.7532647 -2
-2.0223694 -1.0842022e-19 -1.8696471
3.6893488e+19 2.7217729 2
-1.9020416 -3.6893488e+19 -1.864807
2 2.6697791 3.6893488e+19
-1.9757223 -2 -1.8514614
1.0842022e-19 2.6431267 -1.0842022e-19
-1.8766956 1.0842022e-19 -1.8469218
-2 2.6079221 -2
-1.9424608 -2 -1.8383331
-3.6893488e+19 2.592613 0
-1.8458327 -0 -1.8376821
-1.0842022e-19 2.5752532 3.6893488e+19
-1.9248942 -2 -1.8372713
1.0842022e-19 2.5492141 2
-1.8178596 -2 -1.8275902
0 2.538286 -0
-1.9050162 -0 -1.8294842
0 2.5223539 1.0842022e-19
-1.8005468 1.0842022e-19 -1.8247612
-3.6893488e+19 2.504926 -2
-1.887078 1.0842022e-19 -1.8202851
-1.0842022e-19 2.4912765 -0
-1.7833271 3.6893488e+19 -1.8190348
-0 2.4690776 -1.0842022e-19
-1.8761154 0 -1.8179942
-3.6893488e+19 2.4444439 -0
-1.8972553 -3.6893488e+19 -1.8150468
2 3.1425352 1.0842022e-19
-2.5143452 -0 2.6220384
2 3.1302016 0
-2.3469009 1.0842022e-19 2.6020303
2 3.1277106 1.0842022e-19
-2.3446281 -0 2.5885813
2 3.1399226 -2
-2.5125856 -2 2.5963807
-1.0842022e-19 3.0674908 2
-2.2896829 -1.0842022e-19 2.5252614
2 3.1400561 -3.6893488e+19
-2.5126755 0 2.5849595
-3.6893488e+19 3.1241043 -0
-2.3413377 3.6893488e+19 2.5633738
1.0842022e-19 3.1204066 2
-2.3379638 -0 2.5494473
3.6893488e+19 3.1356668 1.0842022e-19
-2.5097198 2 2.5584674
-1.0842022e-19 3.1240253 2
-2.3412657 -2 2.5414665
1.0842022e-19 3.1222928 3.6893488e+19
-2.3396847 -1.0842022e-19 2.5292919
-0 3.1277468 -0
-2.5043862 -1.0842022e-19 2.5299985
0 3.1234398 -3.6893488e+19
-2.3407311 1.0842022e-19 2.5193207
1.0842022e-19 3.1155958 -3.6893488e+19
-2.2367332 -0 2.5075955
-1.0842022e-19 3.1294239 -0
-2.416151 3.6893488e+19 2.5134101
3.6893488e+19 3.1227906 1.0842022e-19
-2.2463121 2 2.5019245
-2 3.1300528 -3.6893488e+19
-2.4168408 2 2.5028458
0 3.1093836 3.6893488e+19
-2.2284627 2 2.4650729
-1.0842022e-19 3.1301131 2
-2.4169071 1.0842022e-19 2.4838212
-2 3.108886 -2
-2.2278004 0 2.4438443
-3.6893488e+19 3.1311951 -3.6893488e+19
-2.4180937 1.0842022e-19 2.4632292
0 3.1107726 -2
-2.2303119 2 2.4255326
1.0842022e-19 3.1180706 -0
-2.4036987 -0 2.4261117
-3.6893488e+19 3.0841153 -1.0842022e-19
-2.1948221 -0 2.3750064
-1.0842022e-19 3.1172023 -1.0842022e-19
-2.4027464 1.0842022e-19 2.4040346
1.0842022e-19 3.0802653 2
-2.1896963 -2 2.3518615
-3.6893488e+19 3.1170509 3.6893488e+19
-2.4025805 -3.6893488e+19 2.3828404
-2 3.123204 1.0842022e-19
-2.2468626 3.6893488e+19 2.3763726
-3.6893488e+19 3.0692151 2
-2.3501143 3.6893488e+19 2.3146963
-0 3.0718107 -3.6893488e+19
-2.4334342 -2 2.3095076
1.0842022e-19 3.1120319 -2
-2.3303225 -1.0842022e-19 2.3352828
1.0842022e-19 3.1128073 0
-2.3310301 0 2.3153853
0 3.2459991 -1.0842022e-19
-2.4525559 -1.0842022e-19 2.4030206
2 3.1154201 2
-2.3334141 -3.6893488e+19 2.2762158
-0 3.0468459 0
-2.3998103 1.0842022e-19 2.1852126
-1.0842022e-19 3.0747888 1.0842022e-19
-2.2963417 1.0842022e-19 2.2042444
-1.0842022e-19 3.0519085 -0
-2.4066288 0 2.1582327
3.6893488e+19 3.1207221 -1.0842022e-19
-2.3382516 -2 2.226583
1.0842022e-19 3.120331 0
-2.3378949 -0 2.1842604
2 3.2221441 3.6893488e+19
-2.5679562 -1.0842022e-19 2.2654953
3.6893488e+19 3.0686467 3.6893488e+19
-2.2907374 -2 2.0877068
-0 3.1802692 2
-2.286418 -1.0842022e-19 2.18046
2 3.0692999 0
-2.3502073 0 2.0532815
-0 3.1812541 1.0842022e-19
-2.2870736 -1.0842022e-19 2.1330156
-1.0842022e-19 3.152904 3.6893488e+19
-2.4419041 -0 2.0871887
0 3.0692728 1.0842022e-19
-2.1750615 -2 1.9977264
1.0842022e-19 3.2268682 -0
-2.5115137 -1.0842022e-19 2.0952823
1.0842022e-19 3.0970967 -2
-2.2121046 -2 1.9803852
-0 3.2434647 2
-2.5206153 2 2.0516441
3.6893488e+19 3.0961611 -2
-2.2108591 -3.6893488e+19 1.940969
-1.0842022e-19 3.2290075 -0
-2.512687 -1.0842022e-19 1.988821
-0 3.0728564 2
-2.1798327 1.0842022e-19 1.8919393
1.0842022e-19 3.2254777 2
-2.5107512 3.6893488e+19 1.9334859
-1.0842022e-19 3.0727234 3.6893488e+19
-2.1796556 0 1.8364868
0 3.2235951 0
-2.5097189 3.6893488e+19 1.8794245
1.0842022e-19 3.0742874 -0
-2.1817377 -0 1.7648931
-1.0842022e-19 3.2191813 -3.6893488e+19
-2.5072982 -3.6893488e+19 1.7757651
1.0842022e-19 3.0524867 0
-2.4074075 2 1.6268841
0 3.2150767 -0
-2.4243419 -0 1.5533459
-3.6893488e+19 3.0483942 0
-2.4018958 -1.0842022e-19 -1.1575927
-3.6893488e+19 3.2112248 3.6893488e+19
-2.4208276 -2 -1.6123111
3.6893488e+19 3.0537479 1.0842022e-19
-2.4091063 -2 -1.6474397
1.0842022e-19 3.1620848 0
-2.3759916 -2 -1.7705431
-0 3.0511055 1.0842022e-19
-2.4055474 -1.0842022e-19 -1.7662081
-0 3.0695019 2
-2.2915177 2 -1.8095872
-1.0842022e-19 3.0503592 -0
-2.4045422 -0 -1.8338192
-2 3.0697024 -3.6893488e+19
-2.2917006 0 -1.8782617
1.0842022e-19 3.0491366 2
-2.4028955 1.0842022e-19 -1.8878435
1.0842022e-19 3.0678394 -1.0842022e-19
-2.2900007 3.6893488e+19 -1.9132204
-0 3.0047531 -2
-2.343117 -2 -1.896238
-0 3.0182135 -1.0842022e-19
-2.2394431 1.0842022e-19 -1.9178866
-3.6893488e+19 2.8769698 -3.6893488e+19
-2.0939522 3.6893488e+19 -1.8891764
-3.6893488e+19 2.828588 2
-1.9687318 3.6893488e+19 -1.8801668
-1.0842022e-19 2.7934046 0
-2.0718055 3.6893488e+19 -1.8751911
-1.0842022e-19 2.7757332 -2
-1.9335477 2 -1.8744019
0 2.7508259 3.6893488e+19
-2.025105 1.0842022e-19 -1.8673775
-0 2.7214229 -0
-1.9069064 -0 -1.8646806
0 2.672966 -2
-1.9819539 3.6893488e+19 -1.8532619
0 2.6429181 -0
-1.8807771 -1.0842022e-19 -1.8468516
-1.0842022e-19 2.6084123 -3.6893488e+19
-1.9465528 -0 -1.8387014
-2 2.5901797 -1.0842022e-19
-1.8514479 -2 -1.8362169
-2 2.5748906 3.6893488e+19
-1.9281696 -2 -1.8371102
1.0842022e-19 2.5486534 3.6893488e+19
-1.823805 1.0842022e-19 -1.8272541
0 2.5385535 -1.0842022e-19
-1.9082422 -0 -1.8297468
-1.0842022e-19 2.5222952 -3.6893488e+19
-1.8062592 1.0842022e-19 -1.8247612
-0 2.5049586 0
-1.889819 -1.0842022e-19 -1.8203795
-1.0842022e-19 2.4936504 3.6893488e+19
-1.7893045 -3.6893488e+19 -1.8200142
2 2.4669394 0
-1.8780345 0 -1.8171829
1.0842022e-19 2.4437592 0
-1.8994205 2 -1.8148371
-0 2.412554 -3.6893488e+19
-1.8889132 -0 -1.8132932
0 2.351701 -3.6893488e+19
-1.8618461 1.0842022e-19 -1.8056941
-0 2.3046627 1.0842022e-19
-1.8301692 2 -1.7990655
1.0842022e-19 2.2735827 2
-1.8092389 -3.6893488e+19 -1.7971193
-0 2.2486472 -0
-1.6659676 -3.6893488e+19 -1.7945349
-1.0842022e-19 2.1998842 -2
-1.6497375 1.0842022e-19 -1.7909369
-2 2.1649628 3.6893488e+19
-1.6381145 3.6893488e+19 -1.7900912
-3.6893488e+19 2.1252735 3.6893488e+19
-1.6248089 -1.0842022e-19 -1.7852449
2 3.1425352 1.0842022e-19
-2.5143452 -0 2.6220384
2 3.1302016 0
-2.3469009 1.0842022e-19 2.6020303
2 3.1277106 1.0842022e-19
-2.3446281 -0 2.5885813
2 3.1399226 -2
-2.5125856 -2 2.5963807
-1.0842022e-19 3.0674908 2
-2.2896829 -1.0842022e-19 2.5252614
2 3.1400561 -3.6893488e+19
-2.5126755 0 2.5849595
3.6893488e+19 3.0705132 -1.0842022e-19
-2.2924404 3.6893488e+19 2.5184824
3.6893488e+19 3.069844 3.6893488e+19
-2.2918298 1.0842022e-19 2.5085711
3.6893488e+19 3.1356668 1.0842022e-19
-2.5097198 2 2.5584674
2 3.0706193 -0
-2.2925372 -1.0842022e-19 2.4996977
1.0842022e-19 3.0713189 3.6893488e+19
-2.2931755 -2 2.4821031
-0 3.1277468 -0
-2.5043862 -1.0842022e-19 2.5299985
-1.0842022e-19 3.0711477 -2
-2.2930193 -1.0842022e-19 2.4632165
1.0842022e-19 3.1155958 -3.6893488e+19
-2.2367332 -0 2.5075955
-1.0842022e-19 3.1294239 -0
-2.416151 3.6893488e+19 2.5134101
3.6893488e+19 3.1227906 1.0842022e-19
-2.2463121 2 2.5019245
-2 3.1300528 -3.6893488e+19
-2.4168408 2 2.5028458
0 3.1093836 3.6893488e+19
-2.2284627 2 2.4650729
-1.0842022e-19 3.1301131 2
-2.4169071 1.0842022e-19 2.4838212
-2 3.108886 -2
-2.2278004 0 2.4438443
-1.0842022e-19 3.0724437 -2
-2.3536553 -1.0842022e-19 2.3918343
0 3.0847368 -0
-2.1956494 1.0842022e-19 2.3948233
1.0842022e-19 3.0704758 2
-2.3514969 1.0842022e-19 2.3710117
-3.6893488e+19 3.0841153 -1.0842022e-19
-2.1948221 -0 2.3750064
-0 3.0730276 -1.0842022e-19
-2.3542957 2 2.3554289
1.0842022e-19 3.0802653 2
-2.1896963 -2 2.3518615
-3.6893488e+19 3.1170509 3.6893488e+19
-2.4025805 -3.6893488e+19 2.3828404
-2 3.0834672 -3.6893488e+19
-2.1939592 3.6893488e+19 2.3362985
-3.6893488e+19 3.0692151 2
-2.3501143 3.6893488e+19 2.3146963
-0 3.0718107 -3.6893488e+19
-2.4334342 -2 2.3095076
-0 3.0756035 -2
-2.2970848 1.0842022e-19 2.3015461
1.0842022e-19 3.1128073 0
-2.3310301 0 2.3153853
3.6893488e+19 3.0793376 -3.6893488e+19
-2.3004918 -1.0842022e-19 2.267601
0 3.0746462 -3.6893488e+19
-2.2962112 -3.6893488e+19 2.2407908
-0 3.0468459 0
-2.3998103 1.0842022e-19 2.1852126
-1.0842022e-19 3.0747888 1.0842022e-19
-2.2963417 1.0842022e-19 2.2042444
-1.0842022e-19 3.0519085 -0
-2.4066288 0 2.1582327
3.6893488e+19 3.1207221 -1.0842022e-19
-2.3382516 -2 2.226583
3.6893488e+19 3.0709701 -2
-2.2928572 -1.0842022e-19 2.1263783
-1.0842022e-19 3.0398407 -2
-2.3903751 -1.0842022e-19 2.0759656
3.6893488e+19 3.0686467 3.6893488e+19
-2.2907374 -2 2.0877068
2 3.1667175 2
-2.2773969 1.0842022e-19 2.1669023
2 3.0692999 0
-2.3502073 0 2.0532815
-2 3.0711162 0
-2.177516 0 2.0351975
-0 3.0667021 -1.0842022e-19
-2.347358 -3.6893488e+19 2.0150466
0 3.0692728 1.0842022e-19
-2.1750615 -2 1.9977264
-2 3.0610869 0
-2.3411994 -2 1.9752464
0 3.0727019 -3.6893488e+19
-2.1796267 1.0842022e-19 1.9641932
-0 3.2434647 2
-2.5206153 2 2.0516441
-3.6893488e+19 3.0740318 2
-2.1813977 3.6893488e+19 1.9287609
-1.0842022e-19 3.2290075 -0
-2.512687 -1.0842022e-19 1.988821
-0 3.0728564 2
-2.1798327 1.0842022e-19 1.8919393
1.0842022e-19 3.2254777 2
-2.5107512 3.6893488e+19 1.9334859
-1.0842022e-19 3.0727234 3.6893488e+19
-2.1796556 0 1.8364868
-1.0842022e-19 3.0678556 0
-2.3486233 -0 1.7987278
1.0842022e-19 3.0742874 -0
-2.1817377 -0 1.7648931
2 3.0685666 2
-2.3494029 2 1.7047342
1.0842022e-19 3.0524867 0
-2.4074075 2 1.6268841
-1.0842022e-19 3.072222 1.0842022e-19
-2.2939997 3.6893488e+19 1.4971292
-3.6893488e+19 3.0483942 0
-2.4018958 -1.0842022e-19 -1.1575927
0 3.0710101 -2
-2.2928936 0 -1.5401673
