# .PCD v0.7 - Point Cloud Data file format
VERSION 0.7
FIELDS x y z
SIZE 4 4 4
TYPE F F F
COUNT 1 1 1
WIDTH 1687
HEIGHT 1
VIEWPOINT 0 0 0 1 0 0 0
POINTS 1687
DATA ascii
-2 3.1157079 -0
-2.5332632 0 2.3748984
2 3.0735042 3.6893488e+19
-2.6151733 -0 2.3192775
-3.6893488e+19 3.0727477 3.6893488e+19
-2.6143196 -3.6893488e+19 2.2995787
1.0842022e-19 3.0965075 1.0842022e-19
-2.5625877 -2 2.3072941
3.6893488e+19 3.0520527 3.6893488e+19
-2.5909588 -1.0842022e-19 2.2626598
2 3.0977309 0
-2.5636914 1.0842022e-19 2.28828
-0 3.0513976 -0
-2.5902193 -0 2.2388966
1.0842022e-19 3.1546924 -0
-2.6150768 1.0842022e-19 2.3121488
2 3.0543211 -1.0842022e-19
-2.5935192 -3.6893488e+19 2.2080541
3.6893488e+19 3.0517783 0
-2.5906491 -3.6893488e+19 2.1689911
-3.6893488e+19 3.1023705 -1.0842022e-19
-2.5678768 1.0842022e-19 2.2123928
3.6893488e+19 3.0572245 -0
-2.5967968 3.6893488e+19 2.1407158
-2 3.1047475 -1.0842022e-19
-2.5700212 1.0842022e-19 2.1747091
0 3.0572309 -0
-2.5968039 -1.0842022e-19 2.1049314
1.0842022e-19 3.0966458 3.6893488e+19
-2.5627124 -0 2.1251788
-1.0842022e-19 3.105931 0
-2.5256906 -2 2.1124706
0 3.0665116 -0
-2.5658753 2 2.0578914
3.6893488e+19 3.111377 3.6893488e+19
-2.5299087 -1.0842022e-19 2.0768218
-3.6893488e+19 3.0700555 -0
-2.5694122 2 2.0244293
-3.6893488e+19 3.1128869 0
-2.5310783 1.0842022e-19 2.0368445
-3.6893488e+19 3.1888394 0
-2.6879575 -2 2.0757182
-0 3.1121426 -0
-2.5305016 -3.6893488e+19 1.9950256
3.6893488e+19 3.0909505 -3.6893488e+19
-2.590265 -0 1.9637964
-0 3.1098163 1.0842022e-19
-2.5286999 1.0842022e-19 1.952518
-3.6893488e+19 3.0903051 -2
-2.5896211 -0 1.9242284
-3.6893488e+19 3.1118262 0
-2.5302567 3.6893488e+19 1.9124986
3.6893488e+19 3.0892794 -3.6893488e+19
-2.5885973 1.0842022e-19 1.8846673
1.0842022e-19 3.1085436 2
-2.527714 -2 1.8655412
-3.6893488e+19 3.0913591 -3.6893488e+19
-2.590673 -3.6893488e+19 1.8174766
-3.6893488e+19 3.1126356 -1.0842022e-19
-2.5308836 -0 1.7858565
3.6893488e+19 3.1058538 1.0842022e-19
-2.6051385 -0 1.7376211
2 3.074055 -3.6893488e+19
-2.6157949 1.0842022e-19 1.6430415
-0 3.1077321 0
-2.5727136 -3.6893488e+19 1.5229141
-2 3.0710845 -1.0842022e-19
-2.612442 3.6893488e+19 -1.1032559
2 3.1109321 -3.6893488e+19
-2.5756001 -0 -1.5558802
-0 3.0737226 -0
-2.6154199 2 -1.6572493
1.0842022e-19 3.1080179 2
-2.5729713 3.6893488e+19 -1.7517383
-1.0842022e-19 3.0706308 -0
-2.6119299 -3.6893488e+19 -1.7772081
-3.6893488e+19 3.1123407 1.0842022e-19
-2.5768712 0 -1.8361371
-3.6893488e+19 3.067945 -2
-2.6088982 0 -1.8496453
-2 3.0723343 -3.6893488e+19
-2.5407808 0 -1.8807883
-1.0842022e-19 3.0276053 -3.6893488e+19
-2.5633624 -0 -1.8802671
-1.0842022e-19 3.0481699 2
-2.5189819 2 -1.9050999
-2 3.0224342 3.6893488e+19
-2.5575254 -2 -1.909449
-1.0842022e-19 2.8384678 -3.6893488e+19
-2.3820643 0 -1.8623782
-0 2.8139663 3.6893488e+19
-2.283232 1.0842022e-19 -1.8602225
-1.0842022e-19 2.7924573 0
-2.2030525 -2 -1.8593653
1.0842022e-19 2.7575495 -1.0842022e-19
-2.2570317 -0 -1.8486793
-1.0842022e-19 2.7347178 -0
-2.1254437 2 -1.8468262
-0 2.6801505 -3.6893488e+19
-2.1792858 -1.0842022e-19 -1.8365957
3.6893488e+19 2.6676443 3.6893488e+19
-2.0734911 3.6893488e+19 -1.8399416
-0 2.625021 -2
-2.1242671 2 -1.8311164
-3.6893488e+19 2.5799634 -3.6893488e+19
-2.0793002 -3.6893488e+19 -1.8254132
-0 2.5104971 -0
-1.951771 3.6893488e+19 -1.7888066
-2 2.5440028 0
-2.043412 -1.0842022e-19 -1.8205693
-3.6893488e+19 2.5093722 3.6893488e+19
-1.9508998 2 -1.8029274
1.0842022e-19 2.5164046 1.0842022e-19
-2.0158691 -0 -1.8176336
0 2.5086029 0
-1.9503038 -0 -1.8172038
-2 2.4778953 -1.0842022e-19
-1.9884673 -0 -1.8116271
3.6893488e+19 2.4716752 0
-1.9326707 -0 -1.813802
-1.0842022e-19 2.4389572 -2
-1.9690374 -1.0842022e-19 -1.8091594
-3.6893488e+19 3.0594625 2
-2.6028228 1.0842022e-19 2.5509896
-3.6893488e+19 3.1286359 2
-2.5957382 3.6893488e+19 2.6075685
3.6893488e+19 3.0648544 3.6893488e+19
-2.6089699 2 2.5466218
1.0842022e-19 3.1280448 0
-2.5951984 -0 2.5956438
-1.0842022e-19 3.062144 -3.6893488e+19
-2.6058798 -1.0842022e-19 2.5345674
2 3.1257043 1.0842022e-19
-2.5930612 -3.6893488e+19 2.5822406
1.0842022e-19 3.0563512 -3.6893488e+19
-2.5992751 1.0842022e-19 2.5199919
0 3.1260211 3.6893488e+19
-2.5933504 -2 2.5712819
-3.6893488e+19 3.1300671 -2
-2.5970449 0 2.5521195
2 3.1306312 -1.0842022e-19
-2.5975599 -3.6893488e+19 2.5412884
-3.6893488e+19 3.0570958 2
-2.6001244 -0 2.4672825
-0 3.1262589 2
-2.5935676 0 2.5268197
3.6893488e+19 3.1027861 -1.0842022e-19
-2.5270872 0 2.502703
0 3.1321971 1.0842022e-19
-2.6356809 2 2.5213959
-0 3.1267269 -0
-2.6301608 -3.6893488e+19 2.5063686
0 3.1086414 -1.0842022e-19
-2.5316861 -3.6893488e+19 2.4718695
1.0842022e-19 3.109612 2
-2.5324485 -3.6893488e+19 2.4521973
1.0842022e-19 3.0700588 -1.0842022e-19
-2.5729761 -0 2.3978758
0 3.1103539 2
-2.5330312 -3.6893488e+19 2.4321871
3.6893488e+19 3.2220027 0
-2.7263052 -0 2.5295122
-3.6893488e+19 3.0989013 2
-2.5240362 -0 2.3982117
-3.6893488e+19 3.1324861 1.0842022e-19
-2.6359727 -2 2.4305758
-2 3.1002972 -3.6893488e+19
-2.5251324 1.0842022e-19 2.3795276
-0 3.1155822 2
-2.5371377 -2 2.3749607
-0 3.0888126 2
-2.6362851 1.0842022e-19 2.3346343
-1.0842022e-19 3.1699724 1.0842022e-19
-2.6334832 -0 2.3969877
0 3.0878603 0
-2.6351993 1.0842022e-19 2.3138392
-3.6893488e+19 3.1693907 3.6893488e+19
-2.632952 -0 2.3721504
1.0842022e-19 3.1658776 -3.6893488e+19
-2.6297438 3.6893488e+19 2.3449805
1.0842022e-19 3.0977156 0
-2.6464355 -2 2.2822237
1.0842022e-19 3.0939629 -1.0842022e-19
-2.6421568 -0 2.259053
1.0842022e-19 3.0508657 1.0842022e-19
-2.5930212 -1.0842022e-19 2.1680341
3.6893488e+19 3.1027081 -0
-2.572063 -0 2.2131104
-2 3.0598133 2
-2.6032226 -0 2.1443007
3.6893488e+19 3.158927 1.0842022e-19
-2.6233974 2 2.2398641
0 3.0907314 2
-2.6384726 1.0842022e-19 2.1439254
1.0842022e-19 3.1572404 -0
-2.6218572 0 2.1910229
3.6893488e+19 3.1488717 1.0842022e-19
-2.5632842 1.0842022e-19 2.1564076
-2 3.0670297 -0
-2.5699196 1.0842022e-19 2.058598
-1.0842022e-19 3.1489131 0
-2.5633168 -2 2.1109529
-0 3.1949697 -0
-2.6990256 0 2.1317866
-2 3.1124568 2
-2.534683 2 2.0366507
3.6893488e+19 3.187371 0
-2.6913579 1.0842022e-19 2.0748415
2 3.141156 0
-2.557224 -3.6893488e+19 2.014791
-3.6893488e+19 3.1802306 3.6893488e+19
-2.6841524 -0 2.0199575
0 3.1418114 0
-2.5577388 -2 1.9706384
-1.0842022e-19 3.1732473 1.0842022e-19
-2.6771054 1.0842022e-19 1.9668353
-2 3.1086683 -3.6893488e+19
-2.5317073 0 1.9111626
3.6893488e+19 3.1703298 3.6893488e+19
-2.6741612 0 1.9169475
-1.0842022e-19 3.1086979 2
-2.5317307 -1.0842022e-19 1.8657676
-3.6893488e+19 3.1655123 -2
-2.6692998 2 1.8594421
-2 3.1108563 -2
-2.5334258 -3.6893488e+19 1.7851489
-2 3.1617947 -0
-2.6655483 0 1.7625781
1.0842022e-19 3.0776012 1.0842022e-19
-2.6235027 -2 1.6447141
-0 3.1087079 2
-2.5775416 -0 1.5234057
2 3.071207 -0
-2.6162126 -1.0842022e-19 -1.1035124
-0 3.1421893 -2
-2.6081138 -2 -1.5716614
-3.6893488e+19 3.0702066 2
-2.6150723 -0 -1.6556569
-0 3.1390314 -2
-2.6052303 -0 -1.7627989
-3.6893488e+19 3.0694914 0
-2.6142569 3.6893488e+19 -1.7767799
-3.6893488e+19 3.1094146 0
-2.578187 2 -1.8345563
3.6893488e+19 3.0674689 -3.6893488e+19
-2.6119506 3.6893488e+19 -1.8494753
0 3.0720518 1.0842022e-19
-2.5440702 -3.6893488e+19 -1.8807511
-0 3.0586121 0
-2.6018531 -2 -1.8949246
-0 3.0438516 2
-2.5183203 -2 -1.9029443
-0 3.0216916 -0
-2.5597594 -1.0842022e-19 -1.9091324
1.0842022e-19 2.8378565 -3.6893488e+19
-2.3851948 -0 -1.8621253
1.0842022e-19 2.8140235 -3.6893488e+19
-2.2867393 2 -1.860405
-2 2.7893679 0
-2.2045543 3.6893488e+19 -1.857008
-1.0842022e-19 2.7571988 -3.6893488e+19
-2.2595432 -2 -1.8485215
-1.0842022e-19 2.6804731 -0
-2.184397 -0 -1.8368934
-3.6893488e+19 2.5095172 0
-1.9538317 -3.6893488e+19 -1.7586293
-3.6893488e+19 2.6246538 -1.0842022e-19
-2.1280689 2 -1.8310499
-2 2.5091519 2
-1.9535447 -1.0842022e-19 -1.7732339
-1.0842022e-19 2.5781755 -0
-2.081167 3.6893488e+19 -1.8244582
0 2.5107312 2
-1.954785 -2 -1.7890373
-3.6893488e+19 2.5432057 -1.0842022e-19
-2.0458784 -2 -1.8201672
2 2.5091178 -3.6893488e+19
-1.9535178 -1.0842022e-19 -1.8028435
-1.0842022e-19 2.5158675 2
-2.018291 -3.6893488e+19 -1.8173715
-2 2.5081043 -3.6893488e+19
-1.9527218 -0 -1.8169312
-1.0842022e-19 2.4780643 0
-1.9912111 -1.0842022e-19 -1.8118157
2 2.4702139 -2
-1.934659 -0 -1.8133131
2 2.4386692 -0
-1.9713339 -1.0842022e-19 -1.8091594
0 2.3858583 -0
-1.9699612 -3.6893488e+19 -1.805298
-1.0842022e-19 2.3344107 3.6893488e+19
-1.9406332 -2 -1.8009276
0 2.2973623 1.0842022e-19
-1.9195135 -0 -1.7989891
1.0842022e-19 2.2649131 -0
-1.9010155 0 -1.7957009
0 2.2361717 -1.0842022e-19
-1.8159258 -0 -1.7926917
-2 2.1900988 3.6893488e+19
-1.7978325 0 -1.7896959
-3.6893488e+19 2.1528332 0
-1.7831979 -3.6893488e+19 -1.7876143
3.6893488e+19 2.1204879 1.0842022e-19
-1.7704954 -1.0842022e-19 -1.7855294
-3.6893488e+19 3.0594625 2
-2.6028228 1.0842022e-19 2.5509896
-1.0842022e-19 3.0813992 2
-2.5526056 0 2.5629601
3.6893488e+19 3.0648544 3.6893488e+19
-2.6089699 2 2.5466218
-2 3.0756483 1.0842022e-19
-2.5473545 -1.0842022e-19 2.5477381
-1.0842022e-19 3.062144 -3.6893488e+19
-2.6058798 -1.0842022e-19 2.5345674
-3.6893488e+19 3.0849619 1.0842022e-19
-2.5558589 -0 2.5462117
1.0842022e-19 3.0563512 -3.6893488e+19
-2.5992751 1.0842022e-19 2.5199919
3.6893488e+19 3.0861731 2
-2.5569646 -1.0842022e-19 2.5372348
-0 3.0982728 0
-2.5680132 -0 2.5268457
2 3.1306312 -1.0842022e-19
-2.5975599 -3.6893488e+19 2.5412884
-3.6893488e+19 3.0570958 2
-2.6001244 -0 2.4672825
-0 3.1262589 2
-2.5935676 0 2.5268197
3.6893488e+19 3.1027861 -1.0842022e-19
-2.5270872 0 2.502703
-3.6893488e+19 3.0741761 -2
-2.577131 -0 2.4603913
-0 3.1267269 -0
-2.6301608 -3.6893488e+19 2.5063686
0 3.1086414 -1.0842022e-19
-2.5316861 -3.6893488e+19 2.4718695
1.0842022e-19 3.109612 2
-2.5324485 -3.6893488e+19 2.4521973
1.0842022e-19 3.0700588 -1.0842022e-19
-2.5729761 -0 2.3978758
0 3.1103539 2
-2.5330312 -3.6893488e+19 2.4321871
0 3.0763559 1.0842022e-19
-2.5793307 0 2.3865252
-3.6893488e+19 3.0989013 2
-2.5240362 -0 2.3982117
-3.6893488e+19 3.1324861 1.0842022e-19
-2.6359727 -2 2.4305758
-2 3.1002972 -3.6893488e+19
-2.5251324 1.0842022e-19 2.3795276
-0 3.1155822 2
-2.5371377 -2 2.3749607
3.6893488e+19 3.0737417 1.0842022e-19
-2.6191025 -1.0842022e-19 2.3197491
-1.0842022e-19 3.1699724 1.0842022e-19
-2.6334832 -0 2.3969877
0 3.0878603 0
-2.6351993 1.0842022e-19 2.3138392
0 3.0960293 1.0842022e-19
-2.5659645 1.0842022e-19 2.3070524
-2 3.0960391 2
-2.5659735 -0 2.2870479
2 3.052191 1.0842022e-19
-2.5945323 -2 2.2405474
2 3.0537062 -1.0842022e-19
-2.5962596 -0 2.207468
1.0842022e-19 3.0508657 1.0842022e-19
-2.5930212 -1.0842022e-19 2.1680341
3.6893488e+19 3.1027081 -0
-2.572063 -0 2.2131104
-2 3.0598133 2
-2.6032226 -0 2.1443007
3.6893488e+19 3.1024709 0
-2.5718465 -0 2.1722338
-0 3.0525358 0
-2.5949254 0 2.099767
1.0842022e-19 3.0961969 2
-2.5661175 -2 2.1249154
-3.6893488e+19 3.1035459 1.0842022e-19
-2.5276842 -3.6893488e+19 2.1102254
-2 3.0670297 -0
-2.5699196 1.0842022e-19 2.058598
-2 3.1105802 2
-2.5332091 -1.0842022e-19 2.0762677
-2 3.0669405 0
-2.5698297 2 2.0219369
-2 3.1124568 2
-2.534683 2 2.0366507
-0 3.0708921 -2
-2.573817 -2 1.988331
-0 3.1141331 -0
-2.5359995 -1.0842022e-19 1.9964982
0 3.090848 2
-2.5939548 1.0842022e-19 1.9638724
-0 3.1095715 0
-2.5324168 -1.0842022e-19 1.9524834
-1.0842022e-19 3.0915356 2
-2.5946488 1.0842022e-19 1.9249732
-2 3.1086683 -3.6893488e+19
-2.5317073 0 1.9111626
1.0842022e-19 3.0895112 3.6893488e+19
-2.5926058 -3.6893488e+19 1.8848476
-1.0842022e-19 3.1086979 2
-2.5317307 -1.0842022e-19 1.8657676
2 3.0923774 0
-2.5954983 1.0842022e-19 1.8181776
-2 3.1108563 -2
-2.5334258 -3.6893488e+19 1.7851489
2 3.0945308 3.6893488e+19
-2.5976713 2 1.7302113
1.0842022e-19 3.0776012 1.0842022e-19
-2.6235027 -2 1.6447141
-0 3.1087079 2
-2.5775416 -0 1.5234057
2 3.071207 -0
-2.6162126 -1.0842022e-19 -1.1035124
-2 3.1101694 -2
-2.578876 -2 -1.5556052
-3.6893488e+19 3.0702066 2
-2.6150723 -0 -1.6556569
-1.0842022e-19 3.109755 -2
-2.5784976 -2 -1.7524289
-3.6893488e+19 3.0694914 0
-2.6142569 3.6893488e+19 -1.7767799
-3.6893488e+19 3.1094146 0
-2.578187 2 -1.8345563
3.6893488e+19 3.0674689 -3.6893488e+19
-2.6119506 3.6893488e+19 -1.8494753
0 3.0720518 1.0842022e-19
-2.5440702 -3.6893488e+19 -1.8807511
-3.6893488e+19 3.0288713 2
-2.5679452 1.0842022e-19 -1.8809584
-0 3.0438516 2
-2.5183203 -2 -1.9029443
-0 3.0216916 -0
-2.5597594 -1.0842022e-19 -1.9091324
1.0842022e-19 2.8378565 -3.6893488e+19
-2.3851948 -0 -1.8621253
1.0842022e-19 2.8140235 -3.6893488e+19
-2.2867393 2 -1.860405
-2 2.7893679 0
-2.2045543 3.6893488e+19 -1.857008
-1.0842022e-19 2.7571988 -3.6893488e+19
-2.2595432 -2 -1.8485215
-1.0842022e-19 2.6804731 -0
-2.184397 -0 -1.8368934
-3.6893488e+19 2.5095172 0
-1.9538317 -3.6893488e+19 -1.7586293
-3.6893488e+19 2.6246538 -1.0842022e-19
-2.1280689 2 -1.8310499
-2 2.5091519 2
-1.9535447 -1.0842022e-19 -1.7732339
-1.0842022e-19 2.5781755 -0
-2.081167 3.6893488e+19 -1.8244582
0 2.5107312 2
-1.954785 -2 -1.7890373
-3.6893488e+19 2.5432057 -1.0842022e-19
-2.0458784 -2 -1.8201672
2 2.5091178 -3.6893488e+19
-1.9535178 -1.0842022e-19 -1.8028435
-1.0842022e-19 2.5158675 2
-2.018291 -3.6893488e+19 -1.8173715
-2 2.5081043 -3.6893488e+19
-1.9527218 -0 -1.8169312
-1.0842022e-19 2.4780643 0
-1.9912111 -1.0842022e-19 -1.8118157
2 2.4702139 -2
-1.934659 -0 -1.8133131
2 2.4386692 -0
-1.9713339 -1.0842022e-19 -1.8091594
0 2.3858583 -0
-1.9699612 -3.6893488e+19 -1.805298
-1.0842022e-19 2.3344107 3.6893488e+19
-1.9406332 -2 -1.8009276
0 2.2973623 1.0842022e-19
-1.9195135 -0 -1.7989891
1.0842022e-19 2.2649131 -0
-1.9010155 0 -1.7957009
0 2.2361717 -1.0842022e-19
-1.8159258 -0 -1.7926917
-2 2.1900988 3.6893488e+19
-1.7978325 0 -1.7896959
-3.6893488e+19 2.1528332 0
-1.7831979 -3.6893488e+19 -1.7876143
3.6893488e+19 2.1204879 1.0842022e-19
-1.7704954 -1.0842022e-19 -1.7855294
2 3.0614824 -0
-2.6086531 3.6893488e+19 2.5531812
1.0842022e-19 3.1265392 -1.0842022e-19
-2.5979724 -1.0842022e-19 2.6058021
-0 3.0653214 1.0842022e-19
-2.6130736 -3.6893488e+19 2.5472844
-3.6893488e+19 3.1271935 1.0842022e-19
-2.5985773 -2 2.5950727
-1.0842022e-19 3.0616755 -1.0842022e-19
-2.6088755 -1.0842022e-19 2.5343533
-2 3.1256273 3.6893488e+19
-2.5971298 2 2.5823724
-3.6893488e+19 3.0561509 -1.0842022e-19
-2.6025143 -3.6893488e+19 2.5200176
-1.0842022e-19 3.1247518 -3.6893488e+19
-2.5963206 -1.0842022e-19 2.57039
2 3.0624173 2
-2.6097295 -2 2.5066543
1.0842022e-19 3.1302276 -3.6893488e+19
-2.6013808 3.6893488e+19 2.5524285
3.6893488e+19 3.1305821 3.6893488e+19
-2.6017087 -1.0842022e-19 2.5414259
-0 3.0545616 -3.6893488e+19
-2.6006842 0 2.463774
-3.6893488e+19 3.1251636 0
-2.5967014 3.6893488e+19 2.5261798
0 3.1026943 -0
-2.5308509 2 2.5027678
3.6893488e+19 3.1323016 3.6893488e+19
-2.6400452 -0 2.5216503
-1.0842022e-19 3.1252818 3.6893488e+19
-2.6328833 -0 2.5055549
-2 3.1105132 -2
-2.5370772 1.0842022e-19 2.4745781
0 3.109426 1.0842022e-19
-2.5362115 -3.6893488e+19 2.4521973
1.0842022e-19 3.0728407 -1.0842022e-19
-2.5793798 2 2.4016006
2 3.2217495 -0
-2.7313049 3.6893488e+19 2.5295477
-1.0842022e-19 3.1020293 1.0842022e-19
-2.5303216 -0 2.4019897
-2 3.1295321 -0
-2.6372197 -2 2.4275341
-2 3.1012402 3.6893488e+19
-2.5296931 1.0842022e-19 2.3807461
1.0842022e-19 3.0887079 -0
-2.6400015 3.6893488e+19 2.3347816
-3.6893488e+19 3.1716862 2
-2.6396945 -0 2.3988473
-2 3.0886815 3.6893488e+19
-2.6399713 3.6893488e+19 2.3148379
-2 3.170501 1.0842022e-19
-2.6385992 -0 2.3733599
-3.6893488e+19 3.085084 -0
-2.635829 -3.6893488e+19 2.2918181
2 3.1355462 -0
-2.6062961 -0 2.3200121
-2 3.0995471 1.0842022e-19
-2.6524825 -1.0842022e-19 2.2839231
-3.6893488e+19 3.160666 -3.6893488e+19
-2.6295102 3.6893488e+19 2.3171351
3.6893488e+19 3.0974736 -0
-2.6500947 -1.0842022e-19 2.2618933
2 3.1615624 0
-2.6303387 -1.0842022e-19 2.2940748
0 3.0524359 0
-2.5982366 -2 2.1705308
2 3.1374302 1.0842022e-19
-2.6080372 -3.6893488e+19 2.2545033
-3.6893488e+19 3.0944049 -3.6893488e+19
-2.6465614 0 2.1886544
-3.6893488e+19 3.1584079 3.6893488e+19
-2.6274235 2 2.2395365
0 3.0910153 0
-2.6426585 -3.6893488e+19 2.1445491
2 3.1570868 2
-2.6262026 2 2.1911216
-3.6893488e+19 3.1553948 2
-2.5728166 0 2.1632679
-0 3.0666683 -1.0842022e-19
-2.5730824 -1.0842022e-19 2.0584507
-1.0842022e-19 3.1524708 2
-2.5704882 1.0842022e-19 2.1143606
1.0842022e-19 3.1930113 -3.6893488e+19
-2.7019844 -1.0842022e-19 2.1303585
-3.6893488e+19 3.1107693 1.0842022e-19
-2.5372813 0 2.0354638
-2 3.1842372 1.0842022e-19
-2.693033 3.6893488e+19 2.0727282
1.0842022e-19 3.1121688 -3.6893488e+19
-2.5383954 -2 1.9952953
1.0842022e-19 3.1790376 -2
-2.6877277 -3.6893488e+19 2.0193875
0 3.1421294 1.0842022e-19
-2.5622532 -3.6893488e+19 1.9709318
2 3.1704545 -1.0842022e-19
-2.6789708 0 1.9655474
1.0842022e-19 3.1086361 0
-2.5355825 -2 1.9112314
3.6893488e+19 3.1692033 -0
-2.6776943 1.0842022e-19 1.9166106
-2 3.1091251 -2
-2.5359719 1.0842022e-19 1.8661792
2 3.1658423 -2
-2.6742651 1.0842022e-19 1.859784
1.0842022e-19 3.1084633 -2
-2.5354447 0 1.7841692
-2 3.1614306 -0
-2.6697643 1.0842022e-19 1.7625477
0 3.0949233 1.0842022e-19
-2.6471581 1.0842022e-19 1.6524802
-3.6893488e+19 3.1074266 0
-2.5803101 -2 1.5229645
1.0842022e-19 3.0708463 0
-2.6194351 2 -1.1034269
-2 3.1505399 0
-2.6201525 0 -1.5759696
-3.6893488e+19 3.0697565 -2
-2.6181803 -2 -1.6555547
-3.6893488e+19 3.1086559 -3.6893488e+19
-2.5814459 -1.0842022e-19 -1.752116
3.6893488e+19 3.0689819 1.0842022e-19
-2.6172884 3.6893488e+19 -1.7766514
0 3.1041453 3.6893488e+19
-2.5772774 -0 -1.8316081
0 3.0684021 3.6893488e+19
-2.6166205 -2 -1.8503038
1.0842022e-19 3.0710669 2
-2.5467086 -3.6893488e+19 -1.8804296
-3.6893488e+19 3.0686171 0
-2.6168685 0 -1.8997353
0 3.0418797 -2
-2.5197356 -1.0842022e-19 -1.9020092
2 3.0206177 -3.6893488e+19
-2.5615997 1.0842022e-19 -1.9086223
2 2.8380234 -3.6893488e+19
-2.3892133 -0 -1.8624203
-2 2.8109756 0
-2.2873831 0 -1.8582604
-1.0842022e-19 2.7904427 1.0842022e-19
-2.2125602 1.0842022e-19 -1.8579903
-1.0842022e-19 2.756 -0
-2.2611854 -2 -1.8476274
2 2.5093687 1.0842022e-19
-1.9565357 -3.6893488e+19 -1.7376388
0 2.6805503 1.0842022e-19
-2.1892712 2 -1.8370721
0 2.5101173 -0
-1.9571317 -0 -1.7590076
1.0842022e-19 2.6246471 -3.6893488e+19
-2.1322355 1.0842022e-19 -1.831183
0 2.510241 1.0842022e-19
-1.9572303 -1.0842022e-19 -1.7739338
1.0842022e-19 2.5769916 2
-2.0836148 1.0842022e-19 -1.8238705
-3.6893488e+19 2.5103517 -0
-1.9573185 -2 -1.7888834
1.0842022e-19 2.5427699 -3.6893488e+19
-2.0486999 -1.0842022e-19 -1.8200064
-1.0842022e-19 2.5097167 -3.6893488e+19
-1.9568129 -3.6893488e+19 -1.8033468
3.6893488e+19 2.5154498 1.0842022e-19
-2.0208266 1.0842022e-19 -1.8171968
-0 2.5076046 -3.6893488e+19
-1.9551309 -1.0842022e-19 -1.8166587
-2 2.4779882 0
-1.9938351 -2 -1.81191
-1.0842022e-19 2.4702146 -2
-1.9372163 -1.0842022e-19 -1.8134109
2 2.4386191 -3.6893488e+19
-1.9737517 -3.6893488e+19 -1.8092606
2 3.0614824 -0
-2.6086531 3.6893488e+19 2.5531812
-0 3.0796869 -1.0842022e-19
-2.5546746 2 2.5615301
-0 3.0653214 1.0842022e-19
-2.6130736 -3.6893488e+19 2.5472844
-1.0842022e-19 3.075423 -1.0842022e-19
-2.5507343 -2 2.5477109
-1.0842022e-19 3.0616755 -1.0842022e-19
-2.6088755 -1.0842022e-19 2.5343533
-2 3.1256273 3.6893488e+19
-2.5971298 2 2.5823724
-3.6893488e+19 3.0561509 -1.0842022e-19
-2.6025143 -3.6893488e+19 2.5200176
-1.0842022e-19 3.1247518 -3.6893488e+19
-2.5963206 -1.0842022e-19 2.57039
2 3.0624173 2
-2.6097295 -2 2.5066543
2 3.0964196 0
-2.570138 -1.0842022e-19 2.525538
3.6893488e+19 3.1305821 3.6893488e+19
-2.6017087 -1.0842022e-19 2.5414259
-0 3.0545616 -3.6893488e+19
-2.6006842 0 2.463774
-3.6893488e+19 3.1251636 0
-2.5967014 3.6893488e+19 2.5261798
0 3.1026943 -0
-2.5308509 2 2.5027678
3.6893488e+19 3.1323016 3.6893488e+19
-2.6400452 -0 2.5216503
0 3.0690539 -2
-2.5755162 3.6893488e+19 2.434531
-2 3.1105132 -2
-2.5370772 1.0842022e-19 2.4745781
0 3.109426 1.0842022e-19
-2.5362115 -3.6893488e+19 2.4521973
1.0842022e-19 3.0728407 -1.0842022e-19
-2.5793798 2 2.4016006
2 3.2217495 -0
-2.7313049 3.6893488e+19 2.5295477
-1.0842022e-19 3.1020293 1.0842022e-19
-2.5303216 -0 2.4019897
-2 3.1295321 -0
-2.6372197 -2 2.4275341
-2 3.1012402 3.6893488e+19
-2.5296931 1.0842022e-19 2.3807461
-2 3.0733798 0
-2.6223524 1.0842022e-19 2.3196313
-1.0842022e-19 3.1352677 -0
-2.6060388 2 2.3644013
-2 3.0886815 3.6893488e+19
-2.6399713 3.6893488e+19 2.3148379
1.0842022e-19 3.1352954 2
-2.6060643 0 2.3421011
-3.6893488e+19 3.085084 -0
-2.635829 -3.6893488e+19 2.2918181
-3.6893488e+19 3.0953162 -2
-2.5691183 -0 2.2866204
-2 3.0995471 1.0842022e-19
-2.6524825 -1.0842022e-19 2.2839231
-3.6893488e+19 3.160666 -3.6893488e+19
-2.6295102 3.6893488e+19 2.3171351
2 3.0516841 -2
-2.5973709 -3.6893488e+19 2.2047629
2 3.1615624 0
-2.6303387 -1.0842022e-19 2.2940748
0 3.0524359 0
-2.5982366 -2 2.1705308
2 3.1374302 1.0842022e-19
-2.6080372 -3.6893488e+19 2.2545033
-0 3.0580242 1.0842022e-19
-2.6046712 -1.0842022e-19 2.1423175
-2 3.1015606 -0
-2.5748889 1.0842022e-19 2.1713967
1.0842022e-19 3.0520995 -0
-2.5978491 3.6893488e+19 2.0995243
-3.6893488e+19 3.0968394 0
-2.5705261 1.0842022e-19 2.1258373
-0 3.1039443 -3.6893488e+19
-2.5318463 -2 2.1108179
-0 3.0666683 -1.0842022e-19
-2.5730824 -1.0842022e-19 2.0584507
-0 3.1053445 -0
-2.5329614 -3.6893488e+19 2.0716965
-1.0842022e-19 3.068212 -2
-2.5746574 1.0842022e-19 2.0232091
-3.6893488e+19 3.1107693 1.0842022e-19
-2.5372813 0 2.0354638
-0 3.0708606 -2
-2.5773597 2 1.9884659
1.0842022e-19 3.1121688 -3.6893488e+19
-2.5383954 -2 1.9952953
1.0842022e-19 3.1790376 -2
-2.6877277 -3.6893488e+19 2.0193875
0 3.1120198 0
-2.5382769 -0 1.9539676
2 3.1704545 -1.0842022e-19
-2.6789708 0 1.9655474
1.0842022e-19 3.1086361 0
-2.5355825 -2 1.9112314
-0 3.0910416 2
-2.5979495 -2 1.8855455
-2 3.1091251 -2
-2.5359719 1.0842022e-19 1.8661792
-2 3.0910602 1.0842022e-19
-2.5979686 -3.6893488e+19 1.8175621
1.0842022e-19 3.1084633 -2
-2.5354447 0 1.7841692
-0 3.0932727 -3.6893488e+19
-2.6002257 1.0842022e-19 1.7295229
1.0842022e-19 3.0730915 1.0842022e-19
-2.6220202 3.6893488e+19 1.6428291
-3.6893488e+19 3.1074266 0
-2.5803101 -2 1.5229645
1.0842022e-19 3.0708463 0
-2.6194351 2 -1.1034269
-1.0842022e-19 3.1058426 -3.6893488e+19
-2.578846 1.0842022e-19 -1.5535429
-3.6893488e+19 3.0697565 -2
-2.6181803 -2 -1.6555547
-3.6893488e+19 3.1086559 -3.6893488e+19
-2.5814459 -1.0842022e-19 -1.752116
3.6893488e+19 3.0689819 1.0842022e-19
-2.6172884 3.6893488e+19 -1.7766514
0 3.1041453 3.6893488e+19
-2.5772774 -0 -1.8316081
0 3.0684021 3.6893488e+19
-2.6166205 -2 -1.8503038
1.0842022e-19 3.0710669 2
-2.5467086 -3.6893488e+19 -1.8804296
-1.0842022e-19 3.028002 -2
-2.5701025 -2 -1.880648
0 3.0418797 -2
-2.5197356 -1.0842022e-19 -1.9020092
2 3.0206177 -3.6893488e+19
-2.5615997 1.0842022e-19 -1.9086223
2 2.8380234 -3.6893488e+19
-2.3892133 -0 -1.8624203
-2 2.8109756 0
-2.2873831 0 -1.8582604
-1.0842022e-19 2.7904427 1.0842022e-19
-2.2125602 1.0842022e-19 -1.8579903
-1.0842022e-19 2.756 -0
-2.2611854 -2 -1.8476274
2 2.5093687 1.0842022e-19
-1.9565357 -3.6893488e+19 -1.7376388
0 2.6805503 1.0842022e-19
-2.1892712 2 -1.8370721
0 2.5101173 -0
-1.9571317 -0 -1.7590076
1.0842022e-19 2.6246471 -3.6893488e+19
-2.1322355 1.0842022e-19 -1.831183
0 2.510241 1.0842022e-19
-1.9572303 -1.0842022e-19 -1.7739338
1.0842022e-19 2.5769916 2
-2.0836148 1.0842022e-19 -1.8238705
-3.6893488e+19 2.5103517 -0
-1.9573185 -2 -1.7888834
1.0842022e-19 2.5427699 -3.6893488e+19
-2.0486999 -1.0842022e-19 -1.8200064
-1.0842022e-19 2.5097167 -3.6893488e+19
-1.9568129 -3.6893488e+19 -1.8033468
3.6893488e+19 2.5154498 1.0842022e-19
-2.0208266 1.0842022e-19 -1.8171968
-0 2.5076046 -3.6893488e+19
-1.9551309 -1.0842022e-19 -1.8166587
-2 2.4779882 0
-1.9938351 -2 -1.81191
-1.0842022e-19 2.4702146 -2
-1.9372163 -1.0842022e-19 -1.8134109
2 2.4386191 -3.6893488e+19
-1.9737517 -3.6893488e+19 -1.8092606
-1.0842022e-19 3.062474 -0
-2.6133373 2 2.5543766
-2 3.1259248 0
-2.6015499 -3.6893488e+19 2.6054375
-3.6893488e+19 3.0651121 0
-2.616405 -1.0842022e-19 2.547312
-0 3.1269643 1.0842022e-19
-2.6025219 -2 2.5950727
2 3.0597692 3.6893488e+19
-2.6101921 3.6893488e+19 2.5328279
2 3.1255479 1.0842022e-19
-2.6011972 -1.0842022e-19 2.582504
0 3.0560076 1.0842022e-19
-2.6058183 0 2.5200956
0 3.1284268 -3.6893488e+19
-2.6038892 2 2.5737286
-2 3.0775898 -2
-2.6309135 1.0842022e-19 2.5292187
1.0842022e-19 3.0963883 1.0842022e-19
-2.5739284 -3.6893488e+19 2.5256805
-3.6893488e+19 3.1287055 -3.6893488e+19
-2.6041501 3.6893488e+19 2.5401654
0 3.051173 2
-2.6001966 1.0842022e-19 2.4589608
-3.6893488e+19 3.125325 2
-2.6009889 2 2.5264666
-2 3.1282279 -2
-2.640106 3.6893488e+19 2.5189362
-1.0842022e-19 3.0944445 -1.0842022e-19
-2.5280297 0 2.4737909
1.0842022e-19 3.1311808 0
-2.6431515 2 2.5097461
-1.0842022e-19 3.1146185 3.6893488e+19
-2.5443139 -0 2.4802339
3.6893488e+19 3.195874 -1.0842022e-19
-2.7098763 -1.0842022e-19 2.5406568
-2 3.0757959 3.6893488e+19
-2.5860274 2 2.4055488
-1.0842022e-19 3.100419 -3.6893488e+19
-2.5328522 -3.6893488e+19 2.4003606
-2 3.1014812 0
-2.5337098 0 2.3812072
-1.0842022e-19 3.094471 -2
-2.6505425 2 2.3407357
-1.0842022e-19 3.1816778 3.6893488e+19
-2.6536877 -1.0842022e-19 2.408546
-1.0842022e-19 3.1714859 1.0842022e-19
-2.6441567 -1.0842022e-19 2.3744619
1.0842022e-19 3.1170633 -2
-2.6768122 1.0842022e-19 2.3199103
3.6893488e+19 3.1340706 2
-2.6091673 -1.0842022e-19 2.3189812
-0 3.1305752 1.0842022e-19
-2.6058986 -0 2.2940762
-0 3.0711255 0
-2.5503037 -1.0842022e-19 2.2091885
-3.6893488e+19 3.0556757 -0
-2.6054325 -0 2.1753578
1.0842022e-19 3.1377711 -2
-2.6126277 -2 2.2548821
0 3.0573425 3.6893488e+19
-2.6073704 1.0842022e-19 2.1417456
1.0842022e-19 3.1027431 -3.6893488e+19
-2.5798709 -3.6893488e+19 2.1730709
-3.6893488e+19 3.1009054 1.0842022e-19
-2.6580245 -1.0842022e-19 2.1562994
-3.6893488e+19 3.1047053 0
-2.5817063 -1.0842022e-19 2.1345944
-1.0842022e-19 3.1538372 -2
-2.5759704 2 2.1618958
-1.0842022e-19 3.0664861 0
-2.5764253 1.0842022e-19 2.0584803
-2 3.1538503 3.6893488e+19
-2.5759811 -0 2.1158011
3.6893488e+19 3.1938021 -1.0842022e-19
-2.7077394 0 2.1312933
1.0842022e-19 3.1506007 -3.6893488e+19
-2.5733578 0 2.067147
2 3.1839764 -0
-2.6976051 -2 2.0727506
0 3.1479719 -3.6893488e+19
-2.5712359 -2 2.0196857
0 3.1792035 3.6893488e+19
-2.6926823 1.0842022e-19 2.0196726
0 3.1701424 -3.6893488e+19
-2.6833365 0 1.9655319
0 3.1095812 -1.0842022e-19
-2.5402477 -2 1.911741
-0 3.1686802 -3.6893488e+19
-2.6818285 -2 1.9165143
-3.6893488e+19 3.1412168 -1.0842022e-19
-2.5657835 1.0842022e-19 1.8814344
0 3.1652005 -3.6893488e+19
-2.6782393 3.6893488e+19 1.8595788
0 3.1085818 -3.6893488e+19
-2.5394409 -0 1.7843052
-3.6893488e+19 3.1611245 0
-2.6740358 2 1.7625376
2 3.097333 -0
-2.6538703 2 1.6536617
-3.6893488e+19 3.1073008 1.0842022e-19
-2.5841334 0 1.5230024
-1.0842022e-19 3.0700934 -1.0842022e-19
-2.6221969 2 -1.1030635
-3.6893488e+19 3.1503878 1.0842022e-19
-2.6244266 -0 -1.5760154
-2 3.0696948 -0
-2.6217334 -3.6893488e+19 -1.6556423
1.0842022e-19 3.1081643 -1.0842022e-19
-2.5849407 -3.6893488e+19 -1.7520188
2 3.0679905 -0
-2.6197517 -1.0842022e-19 -1.7762945
-1.0842022e-19 3.0983014 3.6893488e+19
-2.5757174 2 -1.8283224
2 3.0670512 1.0842022e-19
-2.6186595 -2 -1.8495177
2 3.0706284 0
-2.5498388 1.0842022e-19 -1.8803308
-0 3.069936 0
-2.622014 -2 -1.9004688
-1.0842022e-19 3.0634787 -2
-2.5431526 -0 -1.9133573
-2 3.0205629 -1.0842022e-19
-2.564604 0 -1.9087102
-0 2.8411856 -1.0842022e-19
-2.3967223 -0 -1.8648227
0 2.812489 3.6893488e+19
-2.292227 -1.0842022e-19 -1.859538
-0 2.7907801 -1.0842022e-19
-2.2194254 0 -1.8583832
-3.6893488e+19 2.7546196 2
-2.2626159 1.0842022e-19 -1.8465756
1.0842022e-19 2.5092328 -2
-1.9592482 -3.6893488e+19 -1.7376388
-1.0842022e-19 2.680624 1.0842022e-19
-2.1941476 -3.6893488e+19 -1.8372507
0 2.5102255 -1.0842022e-19
-1.9600495 -3.6893488e+19 -1.7591336
-1.0842022e-19 2.6237919 3.6893488e+19
-2.1355307 3.6893488e+19 -1.8308504
3.6893488e+19 2.5099823 -2
-1.9598533 -0 -1.7738638
1.0842022e-19 2.5761688 -3.6893488e+19
-2.0864117 -3.6893488e+19 -1.8235031
-1.0842022e-19 2.5102153 -0
-1.9600414 -2 -1.7888834
3.6893488e+19 2.5416083 -3.6893488e+19
-2.050766 0 -1.8193631
3.6893488e+19 2.5094585 0
-1.9594306 0 -1.8032629
2 2.5151513 -2
-2.023478 3.6893488e+19 -1.8171095
2 2.5074697 -3.6893488e+19
-1.9578251 -1.0842022e-19 -1.8166587
-2 2.4788728 -1.0842022e-19
-1.9969558 1.0842022e-19 -1.8123816
-2 2.4677732 -2
-1.9387892 0 -1.812531
3.6893488e+19 2.4392884 2
-1.976542 1.0842022e-19 -1.8096657
1.0842022e-19 2.3859932 -3.6893488e+19
-1.9744117 2 -1.8056329
1.0842022e-19 2.336051 -1.0842022e-19
-1.9453759 3.6893488e+19 -1.802057
-3.6893488e+19 2.2962015 0
-1.9222081 -3.6893488e+19 -1.7985711
-3.6893488e+19 2.2633281 3.6893488e+19
-1.9030958 -1.0842022e-19 -1.7949353
-3.6893488e+19 2.2342157 1.0842022e-19
-1.8204254 -0 -1.7921911
-1.0842022e-19 2.192533 2
-1.8036026 1.0842022e-19 -1.7907794
0 2.1533756 -1.0842022e-19
-1.7877989 -0 -1.788003
-0 2.1224992 -2
-1.7753375 2 -1.7865691
-1.0842022e-19 3.062474 -0
-2.6133373 2 2.5543766
2 3.0794866 -3.6893488e+19
-2.5581224 2 2.5615301
-3.6893488e+19 3.0651121 0
-2.616405 -1.0842022e-19 2.547312
-0 3.0709484 2
-2.550138 -0 2.5437958
2 3.0597692 3.6893488e+19
-2.6101921 3.6893488e+19 2.5328279
2 3.1255479 1.0842022e-19
-2.6011972 -1.0842022e-19 2.582504
0 3.0560076 1.0842022e-19
-2.6058183 0 2.5200956
0 3.1284268 -3.6893488e+19
-2.6038892 2 2.5737286
-2 3.0775898 -2
-2.6309135 1.0842022e-19 2.5292187
1.0842022e-19 3.0963883 1.0842022e-19
-2.5739284 -3.6893488e+19 2.5256805
3.6893488e+19 3.0959203 -2
-2.5734906 -1.0842022e-19 2.5150452
0 3.051173 2
-2.6001966 1.0842022e-19 2.4589608
-3.6893488e+19 3.125325 2
-2.6009889 2 2.5264666
-2 3.1282279 -2
-2.640106 3.6893488e+19 2.5189362
-1.0842022e-19 3.0944445 -1.0842022e-19
-2.5280297 0 2.4737909
-0 3.06881 0
-2.5788221 -1.0842022e-19 2.4344902
-1.0842022e-19 3.1146185 3.6893488e+19
-2.5443139 -0 2.4802339
3.6893488e+19 3.195874 -1.0842022e-19
-2.7098763 -1.0842022e-19 2.5406568
-2 3.0757959 3.6893488e+19
-2.5860274 2 2.4055488
-1.0842022e-19 3.100419 -3.6893488e+19
-2.5328522 -3.6893488e+19 2.4003606
-2 3.1014812 0
-2.5337098 0 2.3812072
-2 3.0659239 0
-2.6173489 -3.6893488e+19 2.3124981
-1.0842022e-19 3.1816778 3.6893488e+19
-2.6536877 -1.0842022e-19 2.408546
1.0842022e-19 3.1311889 -3.6893488e+19
-2.6064723 1.0842022e-19 2.3386607
1.0842022e-19 3.0867109 2
-2.6415193 1.0842022e-19 2.293457
-0 3.0993147 -1.0842022e-19
-2.5766649 -3.6893488e+19 2.2901154
-0 3.1305752 1.0842022e-19
-2.6058986 -0 2.2940762
-0 3.0711255 0
-2.5503037 -1.0842022e-19 2.2091885
-3.6893488e+19 3.0556757 -0
-2.6054325 -0 2.1753578
1.0842022e-19 3.1377711 -2
-2.6126277 -2 2.2548821
0 3.0573425 3.6893488e+19
-2.6073704 1.0842022e-19 2.1417456
1.0842022e-19 3.1027431 -3.6893488e+19
-2.5798709 -3.6893488e+19 2.1730709
-2 3.0533078 -1.0842022e-19
-2.602679 -1.0842022e-19 2.1011879
-3.6893488e+19 3.1047053 0
-2.5817063 -1.0842022e-19 2.1345944
0 3.102108 -0
-2.5342155 1.0842022e-19 2.1091342
-1.0842022e-19 3.0664861 0
-2.5764253 1.0842022e-19 2.0584803
1.0842022e-19 3.1067488 3.6893488e+19
-2.5379615 1.0842022e-19 2.0731373
3.6893488e+19 3.067908 0
-2.5778918 3.6893488e+19 2.0231311
2 3.1093259 3.6893488e+19
-2.5400417 -0 2.0344706
-0 3.0710385 -0
-2.5811205 0 1.9887582
1.0842022e-19 3.1105099 -2
-2.5409973 -0 1.9942998
1.0842022e-19 3.0741856 -2
-2.5843663 -1.0842022e-19 1.9536889
-2 3.0896888 3.6893488e+19
-2.6003566 0 1.9242595
0 3.1095812 -1.0842022e-19
-2.5402477 -2 1.911741
-3.6893488e+19 3.0896633 1.0842022e-19
-2.6003304 -0 1.8850883
-1.0842022e-19 3.1081407 1.0842022e-19
-2.5390851 -3.6893488e+19 1.8656441
1.0842022e-19 3.0910132 1.0842022e-19
-2.6017225 3.6893488e+19 1.8176647
0 3.1085818 -3.6893488e+19
-2.5394409 -0 1.7843052
0 3.0944648 -2
-2.6052823 1.0842022e-19 1.7304745
-2 3.072937 0
-2.6255035 3.6893488e+19 1.6428689
-3.6893488e+19 3.1073008 1.0842022e-19
-2.5841334 0 1.5230024
-1.0842022e-19 3.0700934 -1.0842022e-19
-2.6221969 2 -1.1030635
-1.0842022e-19 3.1041658 -0
-2.5812016 -2 -1.5528095
-2 3.0696948 -0
-2.6217334 -3.6893488e+19 -1.6556423
1.0842022e-19 3.1081643 -1.0842022e-19
-2.5849407 -3.6893488e+19 -1.7520188
2 3.0679905 -0
-2.6197517 -1.0842022e-19 -1.7762945
-1.0842022e-19 3.0983014 3.6893488e+19
-2.5757174 2 -1.8283224
2 3.0670512 1.0842022e-19
-2.6186595 -2 -1.8495177
2 3.0706284 0
-2.5498388 1.0842022e-19 -1.8803308
-0 3.026082 -0
-2.5710216 2 -1.879844
-1.0842022e-19 3.0400598 -2
-2.5212522 1.0842022e-19 -1.9011534
-2 3.0205629 -1.0842022e-19
-2.564604 0 -1.9087102
-0 2.8411856 -1.0842022e-19
-2.3967223 -0 -1.8648227
0 2.812489 3.6893488e+19
-2.292227 -1.0842022e-19 -1.859538
-0 2.7907801 -1.0842022e-19
-2.2194254 0 -1.8583832
-3.6893488e+19 2.7546196 2
-2.2626159 1.0842022e-19 -1.8465756
0 2.5102115 -0
-1.9600382 -3.6893488e+19 -1.738536
-1.0842022e-19 2.680624 1.0842022e-19
-2.1941476 -3.6893488e+19 -1.8372507
0 2.5102255 -1.0842022e-19
-1.9600495 -3.6893488e+19 -1.7591336
-1.0842022e-19 2.6237919 3.6893488e+19
-2.1355307 3.6893488e+19 -1.8308504
3.6893488e+19 2.5099823 -2
-1.9598533 -0 -1.7738638
1.0842022e-19 2.5761688 -3.6893488e+19
-2.0864117 -3.6893488e+19 -1.8235031
-1.0842022e-19 2.5102153 -0
-1.9600414 -2 -1.7888834
3.6893488e+19 2.5416083 -3.6893488e+19
-2.050766 0 -1.8193631
3.6893488e+19 2.5094585 0
-1.9594306 0 -1.8032629
2 2.5151513 -2
-2.023478 3.6893488e+19 -1.8171095
2 2.5074697 -3.6893488e+19
-1.9578251 -1.0842022e-19 -1.8166587
-2 2.4788728 -1.0842022e-19
-1.9969558 1.0842022e-19 -1.8123816
-2 2.4677732 -2
-1.9387892 0 -1.812531
3.6893488e+19 2.4392884 2
-1.976542 1.0842022e-19 -1.8096657
1.0842022e-19 2.3859932 -3.6893488e+19
-1.9744117 2 -1.8056329
1.0842022e-19 2.336051 -1.0842022e-19
-1.9453759 3.6893488e+19 -1.802057
-3.6893488e+19 2.2962015 0
-1.9222081 -3.6893488e+19 -1.7985711
-3.6893488e+19 2.2633281 3.6893488e+19
-1.9030958 -1.0842022e-19 -1.7949353
-3.6893488e+19 2.2342157 1.0842022e-19
-1.8204254 -0 -1.7921911
-1.0842022e-19 2.192533 2
-1.8036026 1.0842022e-19 -1.7907794
0 2.1533756 -1.0842022e-19
-1.7877989 -0 -1.788003
-0 2.1224992 -2
-1.7753375 2 -1.7865691
3.6893488e+19 3.0624981 -2
-2.616915 -1.0842022e-19 2.5546327
-1.0842022e-19 3.1229374 -1.0842022e-19
-2.6028752 0 2.6028302
3.6893488e+19 3.0651054 2
-2.6199765 2 2.547533
0 3.1270888 3.6893488e+19
-2.6068032 2 2.5953991
2 3.0574236 3.6893488e+19
-2.6109569 2 2.530901
-1.0842022e-19 3.1257627 1.0842022e-19
-2.6055486 -0 2.5828991
1.0842022e-19 3.129504 -0
-2.6090884 3.6893488e+19 2.5748498
-1.0842022e-19 3.0721755 2
-2.5548441 1.0842022e-19 2.5161605
2 3.1288912 -3.6893488e+19
-2.6085086 2 2.5404863
3.6893488e+19 3.0510018 1.0842022e-19
-2.6034169 -1.0842022e-19 2.4590507
-1.0842022e-19 3.1266208 -1.0842022e-19
-2.6063604 -2 2.5275917
2 3.1269584 -0
-2.643007 -0 2.5182152
1.0842022e-19 3.0942314 0
-2.5316093 -2 2.4737492
-2 3.1308625 2
-2.6470776 -0 2.5097053
-2 3.1164801 2
-2.5498106 -2 2.4829423
3.6893488e+19 3.1944366 2
-2.7133582 1.0842022e-19 2.5399165
-1.0842022e-19 3.0876842 0
-2.5262532 3.6893488e+19 2.4252927
1.0842022e-19 3.0766516 2
-2.5905585 3.6893488e+19 2.4068897
-1.0842022e-19 3.0878875 -3.6893488e+19
-2.5264194 -0 2.4058805
3.6893488e+19 3.0996871 3.6893488e+19
-2.5360725 1.0842022e-19 2.3997369
-2 3.0982594 0
-2.5349047 -0 2.3779137
0 3.0997889 3.6893488e+19
-2.5361557 -3.6893488e+19 2.3593268
-2 3.0995376 0
-2.6604047 -3.6893488e+19 2.3460116
1.0842022e-19 3.1781194 2
-2.6550887 -3.6893488e+19 2.4054275
1.0842022e-19 3.0741014 3.6893488e+19
-2.6305389 3.6893488e+19 2.3017428
-1.0842022e-19 3.1747036 -0
-2.6518567 0 2.377553
-1.0842022e-19 3.1174388 -1.0842022e-19
-2.6814229 3.6893488e+19 2.3204825
2 3.1772525 0
-2.6542685 0 2.3550634
-1.0842022e-19 3.1179962 -1.0842022e-19
-2.6820774 2 2.2993636
-3.6893488e+19 3.1332173 3.6893488e+19
-2.6126022 -0 2.2963002
-0 3.1142659 0
-2.6776977 -1.0842022e-19 2.2749677
0 3.0684438 -1.0842022e-19
-2.5513129 -2 2.2056339
-1.0842022e-19 3.0556514 -0
-2.6088762 2 2.1756492
-2 3.0732064 -1.0842022e-19
-2.5558195 -2 2.1751492
3.6893488e+19 3.0570478 0
-2.6105158 2 2.1416693
2 3.0737126 0
-2.5562985 0 2.1384916
-0 3.1013553 3.6893488e+19
-2.6625388 -2 2.1571312
-3.6893488e+19 3.1527669 -1.0842022e-19
-2.5794961 1.0842022e-19 2.1610227
2 3.0658188 -3.6893488e+19
-2.5792644 -2 2.0580385
0 3.1527188 -2
-2.5794566 -0 2.11497
-0 3.1923838 -3.6893488e+19
-2.7112179 -2 2.1303325
-3.6893488e+19 3.1521001 -0
-2.5789506 3.6893488e+19 2.0685034
-0 3.1826248 1.0842022e-19
-2.7010436 3.6893488e+19 2.0719638
1.0842022e-19 3.1118784 -3.6893488e+19
-2.5460458 -2 1.9953575
0 3.1782477 0
-2.69648 1.0842022e-19 2.0192547
-0 3.10971 -2
-2.5442719 2 1.9528804
-1.0842022e-19 3.1677718 0
-2.6855583 1.0842022e-19 1.9644613
-2 3.111012 -0
-2.5453372 2 1.9124711
0 3.1670058 -0
-2.6847594 1.0842022e-19 1.9159609
3.6893488e+19 3.1414375 -3.6893488e+19
-2.5702276 -0 1.8815784
-2 3.1656141 -3.6893488e+19
-2.6833086 3.6893488e+19 1.859972
0 3.1402597 2
-2.5692642 2 1.7984709
-3.6893488e+19 3.0934448 -2
-2.6080668 -0 1.729948
-1.0842022e-19 3.1006956 -1.0842022e-19
-2.6617641 -3.6893488e+19 1.655268
2 3.154917 -1.0842022e-19
-2.6331344 2 1.5428293
-3.6893488e+19 3.0717678 -3.6893488e+19
-2.627799 -2 -1.1044317
-1.0842022e-19 3.1482561 -3.6893488e+19
-2.6268318 -3.6893488e+19 -1.5750681
2 3.0689409 2
-2.6244798 -1.0842022e-19 -1.655394
0 3.1437962 -1.0842022e-19
-2.6226118 1.0842022e-19 -1.7647413
0 3.0666983 0
-2.6218467 2 -1.7757949
-0 3.0991514 -0
-2.5803688 -2 -1.828944
-0 3.0648303 3.6893488e+19
-2.6196535 -0 -1.8481156
0 3.0681815 -2
-2.5510647 2 -1.8794158
0 3.0684628 -3.6893488e+19
-2.6239183 -3.6893488e+19 -1.8998904
-0 3.0617661 -2
-2.5449946 0 -1.9125649
3.6893488e+19 3.0211654 3.6893488e+19
-2.5683849 3.6893488e+19 -1.9091852
-1.0842022e-19 2.839427 2
-2.3985333 -1.0842022e-19 -1.8637691
-3.6893488e+19 2.8111422 0
-2.2944045 -3.6893488e+19 -1.8586709
-1.0842022e-19 2.7867725 -1.0842022e-19
-2.2192066 -2 -1.855289
-1.0842022e-19 2.7551718 -0
-2.2660356 3.6893488e+19 -1.8472067
2 2.6804528 0
-2.1987791 -0 -1.8373103
-3.6893488e+19 2.5094759 -1.0842022e-19
-1.9622725 2 -1.7588185
1.0842022e-19 2.6220903 1.0842022e-19
-2.1379318 2 -1.8300523
0 2.5095999 0
-1.9623739 2 -1.7737238
-0 2.5759475 -2
-2.0898244 -3.6893488e+19 -1.8235031
-1.0842022e-19 2.5099549 3.6893488e+19
-1.9626644 3.6893488e+19 -1.7888066
-1.0842022e-19 2.539602 -2
-2.0519316 -1.0842022e-19 -1.8181568
0 2.5093207 2
-1.9621454 0 -1.8032629
2 2.5147305 0
-2.0260012 -1.0842022e-19 -1.8169347
3.6893488e+19 2.5078206 1.0842022e-19
-1.9609183 3.6893488e+19 -1.8170221
0 2.4790299 1.0842022e-19
-1.9997121 2 -1.8125702
-0 2.4677684 -2
-1.9413363 2 -1.8126287
0 2.4389906 3.6893488e+19
-1.9788401 1.0842022e-19 -1.8096657
3.6893488e+19 3.0624981 -2
-2.616915 -1.0842022e-19 2.5546327
-1.0842022e-19 3.079432 -3.6893488e+19
-2.5617101 3.6893488e+19 2.5616703
3.6893488e+19 3.0651054 2
-2.6199765 2 2.547533
-0 3.0696824 -1.0842022e-19
-2.552485 2 2.5428171
2 3.0574236 3.6893488e+19
-2.6109569 2 2.530901
-1.0842022e-19 3.1257627 1.0842022e-19
-2.6055486 -0 2.5828991
1.0842022e-19 3.129504 -0
-2.6090884 3.6893488e+19 2.5748498
-1.0842022e-19 3.0721755 2
-2.5548441 1.0842022e-19 2.5161605
2 3.0948107 -1.0842022e-19
-2.5762615 -2 2.5143576
3.6893488e+19 3.0510018 1.0842022e-19
-2.6034169 -1.0842022e-19 2.4590507
-1.0842022e-19 3.1266208 -1.0842022e-19
-2.6063604 -2 2.5275917
2 3.1269584 -0
-2.643007 -0 2.5182152
1.0842022e-19 3.0942314 0
-2.5316093 -2 2.4737492
-1.0842022e-19 3.0679076 2
-2.5814424 3.6893488e+19 2.4335544
-2 3.1164801 2
-2.5498106 -2 2.4829423
3.6893488e+19 3.1944366 2
-2.7133582 1.0842022e-19 2.5399165
-1.0842022e-19 3.0876842 0
-2.5262532 3.6893488e+19 2.4252927
1.0842022e-19 3.0766516 2
-2.5905585 3.6893488e+19 2.4068897
-1.0842022e-19 3.0878875 -3.6893488e+19
-2.5264194 -0 2.4058805
3.6893488e+19 3.0996871 3.6893488e+19
-2.5360725 1.0842022e-19 2.3997369
-2 3.0982594 0
-2.5349047 -0 2.3779137
0 3.0997889 3.6893488e+19
-2.5361557 -3.6893488e+19 2.3593268
2 3.0670226 2
-2.6222274 1.0842022e-19 2.3138247
1.0842022e-19 3.1781194 2
-2.6550887 -3.6893488e+19 2.4054275
1.0842022e-19 3.0741014 3.6893488e+19
-2.6305389 3.6893488e+19 2.3017428
-1.0842022e-19 3.1747036 -0
-2.6518567 0 2.377553
-3.6893488e+19 3.0867219 -3.6893488e+19
-2.6453571 0 2.2936912
2 3.1035476 3.6893488e+19
-2.5845284 0 2.2938118
-1.0842022e-19 3.1179962 -1.0842022e-19
-2.6820774 2 2.2993636
-0 3.1026678 0
-2.5836961 1.0842022e-19 2.2726796
-0 3.1142659 0
-2.6776977 -1.0842022e-19 2.2749677
0 3.0684438 -1.0842022e-19
-2.5513129 -2 2.2056339
-1.0842022e-19 3.0556514 -0
-2.6088762 2 2.1756492
-2 3.0732064 -1.0842022e-19
-2.5558195 -2 2.1751492
3.6893488e+19 3.0570478 0
-2.6105158 2 2.1416693
2 3.0737126 0
-2.5562985 0 2.1384916
3.6893488e+19 3.0538239 3.6893488e+19
-2.6067305 1.0842022e-19 2.1020546
2 3.104732 -3.6893488e+19
-2.5401995 -3.6893488e+19 2.1120028
2 3.0658188 -3.6893488e+19
-2.5792644 -2 2.0580385
0 3.1527188 -2
-2.5794566 -0 2.11497
0 3.0661826 -1.0842022e-19
-2.5796437 -0 2.0218329
3.6893488e+19 3.1087985 1.0842022e-19
-2.5435264 0 2.0342042
-2 3.069854 0
-2.5834718 0 1.9880388
1.0842022e-19 3.1118784 -3.6893488e+19
-2.5460458 -2 1.9953575
-2 3.0723641 1.0842022e-19
-2.5860887 -2 1.9526819
-0 3.10971 -2
-2.5442719 2 1.9528804
3.6893488e+19 3.081207 -3.6893488e+19
-2.5953078 0 1.9200237
-2 3.111012 -0
-2.5453372 2 1.9124711
0 3.0793965 2
-2.5934203 -3.6893488e+19 1.8810939
-3.6893488e+19 3.1095726 -3.6893488e+19
-2.5441597 0 1.8667349
-2 3.1656141 -3.6893488e+19
-2.6833086 3.6893488e+19 1.859972
2 3.1088197 -3.6893488e+19
-2.5435436 -1.0842022e-19 1.7844957
-3.6893488e+19 3.0934448 -2
-2.6080668 -0 1.729948
-2 3.0734699 -2
-2.6297975 -2 1.643214
-2 3.0974104 -0
-2.5787215 -0 1.5189941
-3.6893488e+19 3.0717678 -3.6893488e+19
-2.627799 -2 -1.1044317
-1.0842022e-19 3.1482561 -3.6893488e+19
-2.6268318 -3.6893488e+19 -1.5750681
2 3.0689409 2
-2.6244798 -1.0842022e-19 -1.655394
1.0842022e-19 3.1080048 -0
-2.5887458 0 -1.7520405
0 3.0666983 0
-2.6218467 2 -1.7757949
-0 3.0991514 -0
-2.5803688 -2 -1.828944
-0 3.0648303 3.6893488e+19
-2.6196535 -0 -1.8481156
0 3.0681815 -2
-2.5510647 2 -1.8794158
1.0842022e-19 3.0257213 -1.0842022e-19
-2.573734 -0 -1.8797734
-2 3.0384223 1.0842022e-19
-2.5229068 3.6893488e+19 -1.9003927
3.6893488e+19 3.0211654 3.6893488e+19
-2.5683849 3.6893488e+19 -1.9091852
-1.0842022e-19 2.839427 2
-2.3985333 -1.0842022e-19 -1.8637691
-3.6893488e+19 2.8111422 0
-2.2944045 -3.6893488e+19 -1.8586709
-1.0842022e-19 2.7867725 -1.0842022e-19
-2.2192066 -2 -1.855289
-1.0842022e-19 2.7551718 -0
-2.2660356 3.6893488e+19 -1.8472067
2 2.6804528 0
-2.1987791 -0 -1.8373103
-3.6893488e+19 2.5094759 -1.0842022e-19
-1.9622725 2 -1.7588185
1.0842022e-19 2.6220903 1.0842022e-19
-2.1379318 2 -1.8300523
0 2.5095999 0
-1.9623739 2 -1.7737238
-0 2.5759475 -2
-2.0898244 -3.6893488e+19 -1.8235031
-1.0842022e-19 2.5099549 3.6893488e+19
-1.9626644 3.6893488e+19 -1.7888066
-1.0842022e-19 2.539602 -2
-2.0519316 -1.0842022e-19 -1.8181568
0 2.5093207 2
-1.9621454 0 -1.8032629
2 2.5147305 0
-2.0260012 -1.0842022e-19 -1.8169347
3.6893488e+19 2.5078206 1.0842022e-19
-1.9609183 3.6893488e+19 -1.8170221
0 2.4790299 1.0842022e-19
-1.9997121 2 -1.8125702
-0 2.4677684 -2
-1.9413363 2 -1.8126287
0 2.4389906 3.6893488e+19
-1.9788401 1.0842022e-19 -1.8096657
2 3.0799708 2
-2.5658102 3.6893488e+19 2.5623713
-2 3.0707028 0
-2.5569401 -2 2.5439317
2 3.0540001 0
-2.6103401 -3.6893488e+19 2.5279837
-1.0842022e-19 3.1256812 -3.6893488e+19
-2.6095588 -3.6893488e+19 2.5830307
-2 3.0597963 1.0842022e-19
-2.5465016 -1.0842022e-19 2.5153437
-2 3.0847034 1.0842022e-19
-2.6467338 -2 2.5154898
-1.0842022e-19 3.1288981 -3.6893488e+19
-2.6126378 2 2.5406697
-2 3.1265397 -0
-2.6103806 3.6893488e+19 2.5277021
0 3.1243515 2
-2.6444087 3.6893488e+19 2.5165401
-2 3.0940187 -3.6893488e+19
-2.5351279 -0 2.4737077
-2 3.0673652 -2
-2.5843692 -3.6893488e+19 2.4331067
3.6893488e+19 3.1181288 -0
-2.5551107 -0 2.4853721
3.6893488e+19 3.1936891 -0
-2.7174613 1.0842022e-19 2.5396242
-2 3.0885334 3.6893488e+19
-2.5305817 -3.6893488e+19 2.4265883
1.0842022e-19 3.0872848 2
-2.5295467 -3.6893488e+19 2.405371
-1.0842022e-19 3.0688393 -3.6893488e+19
-2.5859222 2 2.378639
-1.0842022e-19 3.0993805 0
-2.539572 -0 2.3995981
1.0842022e-19 3.0978324 1.0842022e-19
-2.5382888 -0 2.3776503
-2 3.0996034 0
-2.5397568 -3.6893488e+19 2.3593268
-1.0842022e-19 3.095583 -3.6893488e+19
-2.6596293 -3.6893488e+19 2.3423567
-3.6893488e+19 3.169524 -1.0842022e-19
-2.6515203 -0 2.3975313
-2 3.0684061 -2
-2.6274159 3.6893488e+19 2.2966657
-2 3.1750176 -1.0842022e-19
-2.6567781 -3.6893488e+19 2.3780634
0 3.1168919 0
-2.6848874 3.6893488e+19 2.3202484
3.6893488e+19 3.1760535 -2
-2.6577694 -2 2.3542838
0 3.1176276 0
-2.6857595 -2 2.2992907
-1.0842022e-19 3.131954 -2
-2.6155624 0 2.2955043
2 3.1136911 2
-2.6810935 1.0842022e-19 2.2747424
-3.6893488e+19 3.1333456 -1.0842022e-19
-2.6168945 0 2.2744164
1.0842022e-19 3.0915182 -1.0842022e-19
-2.6548111 2 2.2259581
1.0842022e-19 3.1344476 -0
-2.617949 1.0842022e-19 2.2530081
2 3.0573525 0
-2.6143138 -0 2.1423557
-2 3.1354103 -2
-2.6188705 0 2.2128193
-2 3.0997734 3.6893488e+19
-2.6645966 1.0842022e-19 2.1556063
3.6893488e+19 3.1344144 -2
-2.6179173 0 2.1673191
3.6893488e+19 3.1005738 0
-2.540561 0 2.1079493
1.0842022e-19 3.065093 3.6893488e+19
-2.5819752 2 2.057538
-1.0842022e-19 3.1008096 -3.6893488e+19
-2.5407562 1.0842022e-19 2.0680952
1.0842022e-19 3.1918139 -3.6893488e+19
-2.7154856 -1.0842022e-19 2.1300988
0 3.0974526 -1.0842022e-19
-2.5379739 0 2.025363
2 3.181186 -1.0842022e-19
-2.7042882 1.0842022e-19 2.0711095
3.6893488e+19 3.1997082 3.6893488e+19
-2.622725 -1.0842022e-19 2.0550687
-3.6893488e+19 3.1797101 -1.0842022e-19
-2.7027335 0 2.0203567
-0 3.1071646 -3.6893488e+19
-2.5460234 2 1.9515516
-3.6893488e+19 3.1712959 -1.0842022e-19
-2.6938684 -3.6893488e+19 1.9664162
-3.6893488e+19 3.1752093 0
-2.6024201 3.6893488e+19 1.9414641
-0 3.1677818 -1.0842022e-19
-2.690166 -0 1.916382
0 3.1434023 -2
-2.5760577 -1.0842022e-19 1.882309
-2 3.1647296 0
-2.6869504 -1.0842022e-19 1.8596301
2 3.1419194 -1.0842022e-19
-2.5748286 -0 1.7993009
2 3.0933645 -3.6893488e+19
-2.6117613 -2 1.7300493
2 3.1009688 -3.6893488e+19
-2.6660132 -0 1.655507
-3.6893488e+19 3.1409013 -1.0842022e-19
-2.624126 -1.0842022e-19 1.5371194
-1.0842022e-19 3.0692465 -3.6893488e+19
-2.628412 0 -1.1028069
-1.0842022e-19 3.1413867 0
-2.6245906 -0 -1.5717378
0 3.0695977 1.0842022e-19
-2.6288283 1.0842022e-19 -1.6558323
-0 3.1417923 -3.6893488e+19
-2.6249785 -3.6893488e+19 -1.7641153
3.6893488e+19 3.0664878 1.0842022e-19
-2.6251421 0 -1.7758092
-0 3.1014597 -1.0842022e-19
-2.5863769 -1.0842022e-19 -1.8304181
2 3.0682759 0
-2.6272616 1.0842022e-19 -1.8507288
-1.0842022e-19 3.0674093 -1.0842022e-19
-2.5537877 3.6893488e+19 -1.8791808
2 3.0681312 -0
-2.62709 -2 -1.8998481
-0 3.0643699 -2
-2.5508788 -1.0842022e-19 -1.9140229
-3.6893488e+19 3.0218577 -2
-2.5722408 3.6893488e+19 -1.9097129
2 2.8424025 2
-2.4058595 0 -1.8660451
3.6893488e+19 2.808948 3.6893488e+19
-2.2956896 3.6893488e+19 -1.8571652
-3.6893488e+19 2.7881486 -0
-2.2276442 -0 -1.8565168
-1.0842022e-19 2.7532494 1.0842022e-19
-2.2668183 -3.6893488e+19 -1.8456814
0 2.7310088 2
-2.1486673 -2 -1.8457047
-3.6893488e+19 2.6826963 -2
-2.2058797 -1.0842022e-19 -1.8385609
-3.6893488e+19 2.6582475 -1.0842022e-19
-2.0883617 0 -1.8356555
2 2.6194272 -2
-2.1392205 -1.0842022e-19 -1.828722
0 2.57621 -1.0842022e-19
-2.0936878 -3.6893488e+19 -1.823797
-0 2.509207 1.0842022e-19
-1.9648348 2 -1.7884219
2 2.5396478 3.6893488e+19
-2.0551667 -1.0842022e-19 -1.8183177
2 2.5056462 0
-1.9618835 -1.0842022e-19 -1.8008301
3.6893488e+19 2.5141907 -1.0842022e-19
-2.0283456 0 -1.8166727
-0 2.5081716 0
-1.9639766 2 -1.8173854
-1.0842022e-19 2.4794288 2
-2.002558 -0 -1.8128531
1.0842022e-19 2.4670334 -2
-1.9435421 -2 -1.8124331
-1.0842022e-19 2.4396565 -0
-1.9816064 1.0842022e-19 -1.8100706
2 2.384691 0
-1.9779927 -3.6893488e+19 -1.805298
-0 2.3350637 -2
-1.9485803 1.0842022e-19 -1.8018061
2 2.2948012 -0
-1.9247181 -1.0842022e-19 -1.7980139
3.6893488e+19 2.2643485 1.0842022e-19
-1.90667 2 -1.795854
0 2.2337022 3.6893488e+19
-1.8254498 -0 -1.7921911
3.6893488e+19 2.191582 1.0842022e-19
