# .PCD v0.7 - Point Cloud Data file format
VERSION 0.7
FIELDS x y z
SIZE 4 4 4
TYPE F F F
COUNT 1 1 1
WIDTH 1728
HEIGHT 1
VIEWPOINT 0 0 0 1 0 0 0
POINTS 1728
DATA ascii
3.0923605 1.0842022e-19 2.5994277
-0 3.1731932 -3.6893488e+19
3.0938373 1.0842022e-19 2.5696874
3.6893488e+19 3.2108967 -2
3.0853932 -3.6893488e+19 2.5760789
-1.0842022e-19 3.1876678 -2
3.1055977 1.0842022e-19 2.564574
-3.6893488e+19 3.2087159 -2
3.0838063 0 2.5584109
-0 3.1747622 -3.6893488e+19
3.0951121 -0 2.5397568
2 3.2138259 1.0842022e-19
3.0875249 -0 2.5455689
0 3.2140305 2
3.0876737 -3.6893488e+19 2.5294471
-2 3.1355615 -2
3.0129459 -0 2.4412963
-0 3.2103779 0
3.101264 3.6893488e+19 2.5156009
-0 3.1346126 3.6893488e+19
3.0122988 -2 2.4139035
0 3.1199069 0
3.0322354 -0 2.4005466
-3.6893488e+19 3.1194336 1.0842022e-19
3.0318744 -2 2.3738358
-3.6893488e+19 3.1201289 0
3.0324049 1.0842022e-19 2.3483336
-1.0842022e-19 3.1348052 3.6893488e+19
3.0124302 -0 2.3353906
1.0842022e-19 3.122292 0
3.0340552 0 2.3240395
1.0842022e-19 3.1331334 0
3.0112901 1.0842022e-19 2.3078797
-0 3.1215415 -0
3.0334826 0 2.2971463
3.6893488e+19 3.1348646 1.0842022e-19
3.0124707 2 2.2831244
2 3.1971664 2
3.0911837 0 2.3260765
3.6893488e+19 3.1311698 3.6893488e+19
3.0099509 2 2.2545435
-3.6893488e+19 3.1191652 0
3.0316696 -2 2.236351
-1.0842022e-19 3.1845458 2
3.1030612 -0 2.2775373
-2 3.1144733 1.0842022e-19
3.0152264 -1.0842022e-19 2.1716537
2 3.1085114 1.0842022e-19
3.0412846 -0 2.1562574
0 3.1150422 -3.6893488e+19
3.01564 2 2.1217992
2 3.1111112 3.6893488e+19
3.0433967 -3.6893488e+19 2.1071646
3.6893488e+19 3.1155176 1.0842022e-19
3.0159862 2 2.0717514
-2 3.1163847 1.0842022e-19
3.0476816 3.6893488e+19 2.0596175
1.0842022e-19 3.1165817 -1.0842022e-19
3.0167603 -2 2.0220301
1.0842022e-19 3.1111722 3.6893488e+19
3.0434463 -2 2.0032396
-1.0842022e-19 3.1092179 3.6893488e+19
3.0114019 2 1.9669614
-1.0842022e-19 3.1249473 -1.0842022e-19
3.0546384 0 1.9589585
0 3.1091342 -0
3.0113409 -0 1.9173292
2 3.1213231 -2
3.0516937 3.6893488e+19 1.9035506
1.0842022e-19 3.1111045 2
3.0127747 0 1.8618397
1.0842022e-19 3.1089492 -2
3.04164 2 1.8186584
1.0842022e-19 3.1122744 1.0842022e-19
3.0136261 -1.0842022e-19 1.7626327
-0 3.1134021 3.6893488e+19
2.9956675 -0 1.6721232
1.0842022e-19 3.1111345 -1.0842022e-19
3.025542 2 1.5277754
-0 3.1177204 2
3.0007787 -3.6893488e+19 -1.3204516
-0 3.1131198 3.6893488e+19
3.0270569 0 -1.6269504
-3.6893488e+19 3.1155593 -0
3.0289183 2 -1.7914914
-0 3.1175253 3.6893488e+19
3.0006456 -1.0842022e-19 -1.8356977
2 3.062041 2
2.9761686 1.0842022e-19 -1.854684
0 3.0664234 2
2.9315901 1.0842022e-19 -1.8834302
-1.0842022e-19 3.0503702 -0
2.9583592 2 -1.9027117
0 2.7788062 -2
2.6754527 1.0842022e-19 -1.8058923
-1.0842022e-19 2.7710154 2
2.6196554 3.6893488e+19 -1.812529
0 2.7012219 -0
2.5942779 -1.0842022e-19 -1.8030746
-1.0842022e-19 2.6914921 -3.6893488e+19
2.5510895 3.6893488e+19 -1.8075902
-0 2.6214721 3.6893488e+19
2.5334296 0 -1.7977046
2 2.5809948 0
2.5189278 -1.0842022e-19 -1.7945551
-2 2.5769086 1.0842022e-19
2.4757812 -2 -1.7970432
-3.6893488e+19 2.5393193 -3.6893488e+19
2.4701343 -0 -1.7940526
-2 2.5367265 -2
2.4173002 -1.0842022e-19 -1.7957381
1.0842022e-19 2.5065701 1.0842022e-19
2.4169178 3.6893488e+19 -1.7934215
3.6893488e+19 2.5067494 1.0842022e-19
2.3736718 -1.0842022e-19 -1.7956661
0 2.4604487 0
2.3741069 1.0842022e-19 -1.7927433
-1.0842022e-19 2.4652677 -2
2.3385739 -1.0842022e-19 -1.795763
3.6893488e+19 2.4226818 1.0842022e-19
2.3434219 -2 -1.7942559
1.0842022e-19 2.4214962 -2
2.3067214 3.6893488e+19 -1.79432
2 2.3781683 -3.6893488e+19
2.3072553 3.6893488e+19 -1.7901063
-3.6893488e+19 2.3821831 -0
2.2781136 -2 -1.7918034
2 2.3508852 2
2.2850883 -0 -1.7909006
1.0842022e-19 2.3236196 -0
2.2629354 1.0842022e-19 -1.7897429
-3.6893488e+19 2.296979 0
2.1550689 2 -1.7872955
-1.0842022e-19 2.2598066 2
2.104367 2 -1.7847716
-1.0842022e-19 2.2117884 2
2.0649314 1.0842022e-19 -1.7828581
-2 2.1610365 -0
2.0303195 3.6893488e+19 -1.7796876
2 2.0989184 0
2.0334904 -2 -1.7776448
-1.0842022e-19 2.0663822 1.0842022e-19
2.0070553 2 -1.775134
3.6893488e+19 2.0438435 3.6893488e+19
1.9887429 -1.0842022e-19 -1.7753825
2 2.0190907 -0
1.9686316 1.0842022e-19 -1.7727923
0 3.2580178 0
3.1415992 0 2.7974918
3.6893488e+19 3.2560186 2
3.1385651 -3.6893488e+19 2.7857683
0 3.2547421 -3.6893488e+19
3.1366274 -1.0842022e-19 2.7749991
1.0842022e-19 3.2549837 -1.0842022e-19
3.1369941 -3.6893488e+19 2.7659347
1.0842022e-19 3.2556484 -3.6893488e+19
3.1380029 -1.0842022e-19 2.7460222
1.0842022e-19 3.1874194 1.0842022e-19
3.1035008 -2 2.6440909
1.0842022e-19 3.2592349 0
3.1252191 2 2.6709225
1.0842022e-19 3.2225356 -0
3.0919762 0 2.6169465
-3.6893488e+19 3.2213898 0
3.0911472 0 2.5994463
-0 3.191021 3.6893488e+19
3.1064115 3.6893488e+19 2.5824494
0 3.2102938 0
3.0831168 -1.0842022e-19 2.5750349
3.6893488e+19 3.1896074 -2
3.105269 -1.0842022e-19 2.565299
0 3.2084336 -2
3.0817704 2 2.5576365
-3.6893488e+19 3.1899517 1.0842022e-19
3.1055474 -3.6893488e+19 2.5494831
-0 3.2139537 0
3.0857656 0 2.54509
-3.6893488e+19 3.1880076 -1.0842022e-19
3.1039762 -2 2.5321941
-2 3.2150626 1.0842022e-19
3.0865681 0 2.5295379
-3.6893488e+19 3.210825 1.0842022e-19
3.0997021 -1.0842022e-19 2.5153303
3.6893488e+19 3.2071478 -3.6893488e+19
3.0969114 -0 2.4940298
1.0842022e-19 3.5561874 1.0842022e-19
3.4152863 0 2.8080473
1.0842022e-19 3.2057211 -1.0842022e-19
3.0958288 2 2.4602346
0 3.2116807 0
3.1003513 -0 2.4336302
2 3.2083247 -0
3.0978045 -0 2.3981283
-3.6893488e+19 3.5278285 0
3.3768229 3.6893488e+19 2.6957235
1.0842022e-19 3.2105751 3.6893488e+19
3.0995123 2 2.36762
1.0842022e-19 3.52757 -3.6893488e+19
3.376472 -3.6893488e+19 2.6576612
-0 3.1968405 -3.6893488e+19
3.0890896 3.6893488e+19 2.325191
1.0842022e-19 3.5279231 -1.0842022e-19
3.376951 -0 2.620532
-2 3.2000859 -2
3.0915525 -2 2.2958899
2 3.1850796 1.0842022e-19
3.1016099 0 2.2772901
-0 3.2244704 -1.0842022e-19
3.0933764 3.6893488e+19 2.2739334
0 3.1772969 3.6893488e+19
3.0953202 -3.6893488e+19 2.2331784
-0 3.2282677 1.0842022e-19
3.0961246 -0 2.236197
0 3.1109304 -2
3.0416861 3.6893488e+19 2.1062303
2 3.2546918 -2
3.1186433 -0 2.197541
-0 3.1153407 3.6893488e+19
3.0452504 3.6893488e+19 2.0580816
2 3.2523613 3.6893488e+19
3.1152701 1.0842022e-19 2.1238308
0 3.1596463 -0
3.0810559 -3.6893488e+19 2.0366197
-2 3.1294603 -2
3.0246172 -3.6893488e+19 1.9787529
3.6893488e+19 3.1276865 -3.6893488e+19
3.0552275 -0 1.9600394
3.6893488e+19 3.1099682 2
3.0105107 -3.6893488e+19 1.9173998
-0 3.1245651 -1.0842022e-19
3.052705 1.0842022e-19 1.9045634
1.0842022e-19 3.1259401 -3.6893488e+19
3.0220695 0 1.8711025
-0 3.1128457 0
3.0432341 0 1.8203462
3.6893488e+19 3.1257212 -1.0842022e-19
3.0219111 -1.0842022e-19 1.7674707
1.0842022e-19 3.1149802 -0
2.9950278 3.6893488e+19 1.6725634
0 3.1106839 2
3.0237088 -0 1.5272814
-0 3.116668 3.6893488e+19
2.9973171 2 -1.319546
-3.6893488e+19 3.1139426 1.0842022e-19
3.0261819 -0 -1.6269851
1.0842022e-19 3.1174846 2
2.9984245 -2 -1.7224559
-1.0842022e-19 3.1154661 0
3.027338 1.0842022e-19 -1.791118
2 3.1160591 0
2.9964912 -2 -1.8344841
0 3.0615675 1.0842022e-19
2.9728727 -1.0842022e-19 -1.8538795
3.6893488e+19 3.0673227 2
2.9303894 0 -1.8835717
1.0842022e-19 3.0509686 1.0842022e-19
2.9567866 2 -1.9027117
-0 2.7790132 -2
2.6734643 1.0842022e-19 -1.8056668
0 2.7697921 -1.0842022e-19
2.6159227 0 -1.8113507
-2 2.7051055 -2
2.5953617 -3.6893488e+19 -1.8042502
-2 2.6959989 -0
2.5524573 -0 -1.8091264
-2 2.6225104 3.6893488e+19
2.5326836 -0 -1.797843
3.6893488e+19 2.581697 -0
2.5180612 -1.0842022e-19 -1.7945551
-1.0842022e-19 2.5776308 -0
2.474216 -0 -1.7970964
-0 2.5377007 3.6893488e+19
2.4650111 -3.6893488e+19 -1.7927508
3.6893488e+19 2.5372713 -0
2.4157991 -1.0842022e-19 -1.7957381
1.0842022e-19 2.5070174 0
2.4154177 2 -1.793358
2 2.5076413 -2
2.3729124 0 -1.7959343
1.0842022e-19 2.4625893 -1.0842022e-19
2.3738418 0 -1.7931664
-1.0842022e-19 2.4659495 2
2.3372099 0 -1.7956891
-3.6893488e+19 2.4224153 2
2.3413754 -3.6893488e+19 -1.7937911
-0 2.4235079 2
2.3064947 1.0842022e-19 -1.7948056
3.6893488e+19 2.3799393 1.0842022e-19
2.3070483 -2 -1.7905283
-1.0842022e-19 2.3837161 -3.6893488e+19
2.2776971 -1.0842022e-19 -1.7921549
2 2.3512423 -2
2.2838566 -2 -1.7907178
0 3.2580178 0
3.1415992 0 2.7974918
3.6893488e+19 3.2560186 2
3.1385651 -3.6893488e+19 2.7857683
0 3.2547421 -3.6893488e+19
3.1366274 -1.0842022e-19 2.7749991
1.0842022e-19 3.2549837 -1.0842022e-19
3.1369941 -3.6893488e+19 2.7659347
1.0842022e-19 3.2556484 -3.6893488e+19
3.1380029 -1.0842022e-19 2.7460222
1.0842022e-19 3.1874194 1.0842022e-19
3.1035008 -2 2.6440909
1.0842022e-19 3.2592349 0
3.1252191 2 2.6709225
1.0842022e-19 3.2225356 -0
3.0919762 0 2.6169465
-3.6893488e+19 3.2213898 0
3.0911472 0 2.5994463
3.6893488e+19 3.1724076 0
3.0913692 -2 2.5684183
0 3.2102938 0
3.0831168 -1.0842022e-19 2.5750349
3.6893488e+19 3.1710477 3.6893488e+19
3.09027 -3.6893488e+19 2.5519874
0 3.2084336 -2
3.0817704 2 2.5576365
-1.0842022e-19 3.1751573 -1.0842022e-19
3.0935912 -2 2.5394123
-0 3.2139537 0
3.0857656 0 2.54509
-3.6893488e+19 3.1880076 -1.0842022e-19
3.1039762 -2 2.5321941
-2 3.2150626 1.0842022e-19
3.0865681 0 2.5295379
-3.6893488e+19 3.210825 1.0842022e-19
3.0997021 -1.0842022e-19 2.5153303
3.6893488e+19 3.2071478 -3.6893488e+19
3.0969114 -0 2.4940298
1.0842022e-19 3.5561874 1.0842022e-19
3.4152863 0 2.8080473
-3.6893488e+19 3.1211851 0
3.031678 3.6893488e+19 2.3748615
-0 3.1218576 3.6893488e+19
3.0321882 -3.6893488e+19 2.3492646
-2 3.1201317 2
3.0308785 -2 2.3215187
2 3.1334546 1.0842022e-19
3.0100424 0 2.3075902
0 3.1215124 2
3.0319262 -1.0842022e-19 2.2965322
-2 3.1316812 3.6893488e+19
3.0088398 3.6893488e+19 2.2802837
-3.6893488e+19 3.1212125 2
3.0316987 2 2.2701523
1.0842022e-19 3.134248 0
3.0105805 -0 2.2561431
-0 3.1203229 -1.0842022e-19
3.0310235 -0 2.2369063
2 3.1850796 1.0842022e-19
3.1016099 0 2.2772901
-3.6893488e+19 3.1153932 -3.6893488e+19
3.0144367 3.6893488e+19 2.1719165
-3.6893488e+19 3.1238573 -1.0842022e-19
3.0521331 -2 2.1727502
-3.6893488e+19 3.1159124 0
3.0148127 -3.6893488e+19 2.121979
0 3.1109304 -2
3.0416861 3.6893488e+19 2.1062303
-0 3.1096363 0
3.0102706 -0 2.065974
-0 3.1153407 3.6893488e+19
3.0452504 3.6893488e+19 2.0580816
2 3.2523613 3.6893488e+19
3.1152701 1.0842022e-19 2.1238308
2 3.1126914 0
3.0431094 -1.0842022e-19 2.0037665
1.0842022e-19 3.1097739 2
3.01037 3.6893488e+19 1.9668851
3.6893488e+19 3.1276865 -3.6893488e+19
3.0552275 -0 1.9600394
3.6893488e+19 3.1099682 2
3.0105107 -3.6893488e+19 1.9173998
-0 3.1245651 -1.0842022e-19
3.052705 1.0842022e-19 1.9045634
-2 3.1089807 0
3.0097961 -3.6893488e+19 1.8600003
-0 3.1128457 0
3.0432341 0 1.8203462
3.6893488e+19 3.1257212 -1.0842022e-19
3.0219111 -1.0842022e-19 1.7674707
1.0842022e-19 3.1149802 -0
2.9950278 3.6893488e+19 1.6725634
0 3.1106839 2
3.0237088 -0 1.5272814
-0 3.116668 3.6893488e+19
2.9973171 2 -1.319546
-3.6893488e+19 3.1139426 1.0842022e-19
3.0261819 -0 -1.6269851
2 3.0869923 0
2.9570675 -0 -1.7039975
-1.0842022e-19 3.1154661 0
3.027338 1.0842022e-19 -1.791118
-1.0842022e-19 3.0846899 -1.0842022e-19
2.9539447 1.0842022e-19 -1.8165326
0 3.0615675 1.0842022e-19
2.9728727 -1.0842022e-19 -1.8538795
3.6893488e+19 3.0673227 2
2.9303894 0 -1.8835717
1.0842022e-19 3.0509686 1.0842022e-19
2.9567866 2 -1.9027117
-0 2.7790132 -2
2.6734643 1.0842022e-19 -1.8056668
0 2.7697921 -1.0842022e-19
2.6159227 0 -1.8113507
-2 2.7051055 -2
2.5953617 -3.6893488e+19 -1.8042502
-2 2.6959989 -0
2.5524573 -0 -1.8091264
-2 2.6225104 3.6893488e+19
2.5326836 -0 -1.797843
3.6893488e+19 2.581697 -0
2.5180612 -1.0842022e-19 -1.7945551
-1.0842022e-19 2.5776308 -0
2.474216 -0 -1.7970964
-0 2.5377007 3.6893488e+19
2.4650111 -3.6893488e+19 -1.7927508
3.6893488e+19 2.5372713 -0
2.4157991 -1.0842022e-19 -1.7957381
1.0842022e-19 2.5070174 0
2.4154177 2 -1.793358
2 2.5076413 -2
2.3729124 0 -1.7959343
1.0842022e-19 2.4625893 -1.0842022e-19
2.3738418 0 -1.7931664
-1.0842022e-19 2.4659495 2
2.3372099 0 -1.7956891
-3.6893488e+19 2.4224153 2
2.3413754 -3.6893488e+19 -1.7937911
-0 2.4235079 2
2.3064947 1.0842022e-19 -1.7948056
3.6893488e+19 2.3799393 1.0842022e-19
2.3070483 -2 -1.7905283
-1.0842022e-19 2.3837161 -3.6893488e+19
2.2776971 -1.0842022e-19 -1.7921549
2 2.3512423 -2
2.2838566 -2 -1.7907178
-2 3.2587841 0
3.1406336 -3.6893488e+19 2.7977853
-3.6893488e+19 3.2569275 -1.0842022e-19
3.137831 0 2.786216
0 3.2560017 0
3.1364334 -3.6893488e+19 2.7664685
-2 3.2553465 1.0842022e-19
3.1354446 -2 2.7444572
1.0842022e-19 3.2219665 -0
3.1293838 -0 2.6569364
-0 3.2590363 -3.6893488e+19
3.1228709 -3.6893488e+19 2.669807
2 3.2238793 -2
3.0910637 1.0842022e-19 2.617296
-0 3.2212019 2
3.0891368 -3.6893488e+19 2.5986481
0 3.1917348 2
3.1050825 0 2.5822864
-1.0842022e-19 3.2112637 3.6893488e+19
3.081984 -0 2.5751057
-3.6893488e+19 3.1904867 -3.6893488e+19
3.1040792 -2 2.5652645
3.6893488e+19 3.2137229 1.0842022e-19
3.0837541 -2 2.5605991
-3.6893488e+19 3.1910732 2
3.1045508 1.0842022e-19 2.5496144
3.6893488e+19 3.1890528 1.0842022e-19
3.1029267 -2 2.5322719
-0 3.2209265 0
3.0889387 -0 2.5325286
-2 3.2095325 -0
3.0968311 -3.6893488e+19 2.5140629
-3.6893488e+19 3.2089958 -1.0842022e-19
3.096426 -1.0842022e-19 2.4950461
-2 3.5568388 -1.0842022e-19
3.413831 3.6893488e+19 2.8081572
-1.0842022e-19 3.2104459 -3.6893488e+19
3.0975204 -1.0842022e-19 2.4640868
-3.6893488e+19 3.2126696 -1.0842022e-19
3.0991988 3.6893488e+19 2.4337001
1.0842022e-19 3.2088599 -3.6893488e+19
3.0963233 0 2.3978052
-1.0842022e-19 3.5199609 -3.6893488e+19
3.364094 -0 2.6823361
3.6893488e+19 3.2119102 2
3.0986257 -1.0842022e-19 2.3679566
-3.6893488e+19 3.5282743 -2
3.3753064 -0 2.6579738
-3.6893488e+19 3.198895 0
3.0888026 3.6893488e+19 2.3260403
2 3.5280144 -2
3.3749557 1.0842022e-19 2.6199989
-2 3.2018487 -0
3.0910318 1.0842022e-19 2.2964616
1.0842022e-19 3.1858032 -1.0842022e-19
3.1003144 1.0842022e-19 2.2771664
1.0842022e-19 3.2261772 2
3.0927176 -3.6893488e+19 2.2744002
3.6893488e+19 3.1804602 -3.6893488e+19
3.0960195 -0 2.2357306
-1.0842022e-19 3.2288926 -1.0842022e-19
3.094672 -1.0842022e-19 2.2359142
2 3.1127381 -0
3.0415821 -3.6893488e+19 2.1072605
2 3.2546916 2
3.116617 -3.6893488e+19 2.1966965
-1.0842022e-19 3.1587727 -3.6893488e+19
3.0785863 3.6893488e+19 2.0939808
2 3.2550685 1.0842022e-19
3.1171596 1.0842022e-19 2.1271286
-0 3.1614113 -2
3.0807073 -0 2.0372486
1.0842022e-19 3.1094649 3.6893488e+19
3.0087166 0 1.9662902
-1.0842022e-19 3.1261704 0
3.0523796 -2 1.9587557
2 3.1127529 2
3.0110831 -0 1.9183767
-1.0842022e-19 3.1278393 0
3.0537212 0 1.9055862
-0 3.1186111 -3.6893488e+19
3.0152993 -0 1.8658496
-1.0842022e-19 3.1283457 2
3.0541282 -0 1.8282621
1.0842022e-19 3.1135976 1.0842022e-19
3.0116911 -1.0842022e-19 1.7626135
-3.6893488e+19 3.1150043 -3.6893488e+19
2.9922783 -0 1.6722699
2 3.1055119 2
3.0183218 -0 1.524801
1.0842022e-19 3.1206853 -1.0842022e-19
2.9999402 1.0842022e-19 -1.32133
2 3.1200264 -3.6893488e+19
2.9990513 0 -1.7235988
3.6893488e+19 3.1156914 0
3.0260048 -3.6893488e+19 -1.7908916
-1.0842022e-19 3.1168106 2
2.9947145 2 -1.8345433
3.6893488e+19 3.0597906 2
2.9676275 3.6893488e+19 -1.8521242
-0 3.0678067 1.0842022e-19
2.9286234 1.0842022e-19 -1.8835391
-1.0842022e-19 3.0503929 -3.6893488e+19
2.9534416 -3.6893488e+19 -1.9021182
3.6893488e+19 2.782059 3.6893488e+19
2.6757667 -2 -1.8072778
1.0842022e-19 2.773066 -0
2.6182818 3.6893488e+19 -1.8132788
0 2.7102942 3.6893488e+19
2.5974059 -1.0842022e-19 -1.8059354
0 2.6982381 0
2.5522676 -3.6893488e+19 -1.8097237
2 2.6231489 -1.0842022e-19
2.5316331 3.6893488e+19 -1.7977968
-2 2.5835645 -3.6893488e+19
2.5181313 1.0842022e-19 -1.7951508
-1.0842022e-19 2.5785537 -3.6893488e+19
2.4729381 1.0842022e-19 -1.7972558
2 2.540545 -0
2.4671013 -0 -1.7940526
1.0842022e-19 2.538523 2
2.4153156 2 -1.7961587
-2 2.5071707 -3.6893488e+19
2.4134464 -2 -1.7931037
2 2.5080268 -3.6893488e+19
2.3714178 -0 -1.7958672
-2 2.4629822 0
2.3721621 -1.0842022e-19 -1.7929548
-3.6893488e+19 2.4698651 0
2.3381748 -1.0842022e-19 -1.7967988
-2 2.4229181 -1.0842022e-19
2.339957 2 -1.7936362
-1.0842022e-19 2.4234991 3.6893488e+19
2.3048038 2 -1.7944819
-1.0842022e-19 2.3799644 -0
2.3054292 -0 -1.7901907
-2 2.3858559 -3.6893488e+19
2.2777109 1.0842022e-19 -1.7927701
3.6893488e+19 2.3514013 1.0842022e-19
2.2824693 -2 -1.7904438
1.0842022e-19 2.3263478 1.0842022e-19
2.2623303 0 -1.790431
3.6893488e+19 2.2976224 0
2.151401 -0 -1.7870711
-1.0842022e-19 2.2597017 -0
2.1002576 3.6893488e+19 -1.7841415
-2 2.2138398 3.6893488e+19
2.0627885 -3.6893488e+19 -1.7829978
-3.6893488e+19 2.162497 0
2.0281658 3.6893488e+19 -1.7796876
-2 2.1046226 0
2.0350587 0 -1.7794859
-0 2.0727048 -3.6893488e+19
2.0094018 -3.6893488e+19 -1.7774882
0 2.0447061 -2
1.9868954 -1.0842022e-19 -1.7751877
-0 2.0240419 3.6893488e+19
1.9702849 2 -1.7748768
-2 3.2587841 0
3.1406336 -3.6893488e+19 2.7977853
-3.6893488e+19 3.2569275 -1.0842022e-19
3.137831 0 2.786216
0 3.2560017 0
3.1364334 -3.6893488e+19 2.7664685
-2 3.2553465 1.0842022e-19
3.1354446 -2 2.7444572
1.0842022e-19 3.2219665 -0
3.1293838 -0 2.6569364
-0 3.2590363 -3.6893488e+19
3.1228709 -3.6893488e+19 2.669807
2 3.2238793 -2
3.0910637 1.0842022e-19 2.617296
-0 3.2212019 2
3.0891368 -3.6893488e+19 2.5986481
1.0842022e-19 3.1724074 2
3.0895464 -0 2.5677476
-1.0842022e-19 3.2112637 3.6893488e+19
3.081984 -0 2.5751057
-2 3.1737936 2
3.0906608 -3.6893488e+19 2.5533168
3.6893488e+19 3.2137229 1.0842022e-19
3.0837541 -2 2.5605991
3.6893488e+19 3.174799 -2
3.0914688 -0 2.5385594
3.6893488e+19 3.1890528 1.0842022e-19
3.1029267 -2 2.5322719
-0 3.2209265 0
3.0889387 -0 2.5325286
-2 3.2095325 -0
3.0968311 -3.6893488e+19 2.5140629
-3.6893488e+19 3.2089958 -1.0842022e-19
3.096426 -1.0842022e-19 2.4950461
-2 3.5568388 -1.0842022e-19
3.413831 3.6893488e+19 2.8081572
3.6893488e+19 3.1256185 -0
3.0334971 0 2.3785887
0 3.122371 -3.6893488e+19
3.0310459 1.0842022e-19 2.3490553
-0 3.122381 -3.6893488e+19
3.0310535 -2 2.3228328
-1.0842022e-19 3.1340041 1.0842022e-19
3.0089517 3.6893488e+19 2.3074868
2 3.1219997 -3.6893488e+19
3.0307658 -3.6893488e+19 2.296334
1.0842022e-19 3.1317627 2
3.0074401 3.6893488e+19 2.2798481
3.6893488e+19 3.1225202 -1.0842022e-19
3.0311587 3.6893488e+19 2.2705679
3.6893488e+19 3.1302755 -2
3.0064371 -3.6893488e+19 2.253047
1.0842022e-19 3.1225998 -0
3.0312188 -2 2.2389312
-3.6893488e+19 3.109786 -3.6893488e+19
3.0392091 -0 2.2076406
3.6893488e+19 3.1134503 -0
3.011585 -3.6893488e+19 2.1688814
2 3.1115866 -3.6893488e+19
3.0406563 1.0842022e-19 2.1580138
2 3.1146028 -1.0842022e-19
3.0124145 -2 2.1199486
2 3.1127381 -0
3.0415821 -3.6893488e+19 2.1072605
1.0842022e-19 3.1112027 -0
3.0099673 -0 2.0667517
-3.6893488e+19 3.1150408 3.6893488e+19
3.0434332 0 2.0571806
0 3.1115341 -3.6893488e+19
3.0102057 -2 2.0172708
-2 3.1136026 -0
3.0422771 2 2.0038686
1.0842022e-19 3.1094649 3.6893488e+19
3.0087166 0 1.9662902
-1.0842022e-19 3.1261704 0
3.0523796 -2 1.9587557
2 3.1127529 2
3.0110831 -0 1.9183767
-1.0842022e-19 3.1278393 0
3.0537212 0 1.9055862
-0 3.1186111 -3.6893488e+19
3.0152993 -0 1.8658496
0 3.1110055 -2
3.0401893 0 1.8189462
1.0842022e-19 3.1135976 1.0842022e-19
3.0116911 -1.0842022e-19 1.7626135
-3.6893488e+19 3.1150043 -3.6893488e+19
2.9922783 -0 1.6722699
2 3.1055119 2
3.0183218 -0 1.524801
1.0842022e-19 3.1206853 -1.0842022e-19
2.9999402 1.0842022e-19 -1.32133
-0 3.0890656 -0
2.9572949 3.6893488e+19 -1.7048899
3.6893488e+19 3.1016743 -3.6893488e+19
3.0154252 2 -1.784533
-3.6893488e+19 3.0841942 -0
2.9507251 0 -1.8159111
3.6893488e+19 3.0597906 2
2.9676275 3.6893488e+19 -1.8521242
-0 3.0678067 1.0842022e-19
2.9286234 1.0842022e-19 -1.8835391
-1.0842022e-19 3.0503929 -3.6893488e+19
2.9534416 -3.6893488e+19 -1.9021182
3.6893488e+19 2.782059 3.6893488e+19
2.6757667 -2 -1.8072778
1.0842022e-19 2.773066 -0
2.6182818 3.6893488e+19 -1.8132788
0 2.7102942 3.6893488e+19
2.5974059 -1.0842022e-19 -1.8059354
0 2.6982381 0
2.5522676 -3.6893488e+19 -1.8097237
2 2.6231489 -1.0842022e-19
2.5316331 3.6893488e+19 -1.7977968
-2 2.5835645 -3.6893488e+19
2.5181313 1.0842022e-19 -1.7951508
-1.0842022e-19 2.5785537 -3.6893488e+19
2.4729381 1.0842022e-19 -1.7972558
2 2.540545 -0
2.4671013 -0 -1.7940526
1.0842022e-19 2.538523 2
2.4153156 2 -1.7961587
-2 2.5071707 -3.6893488e+19
2.4134464 -2 -1.7931037
2 2.5080268 -3.6893488e+19
2.3714178 -0 -1.7958672
-2 2.4629822 0
2.3721621 -1.0842022e-19 -1.7929548
-3.6893488e+19 2.4698651 0
2.3381748 -1.0842022e-19 -1.7967988
-2 2.4229181 -1.0842022e-19
2.339957 2 -1.7936362
-1.0842022e-19 2.4234991 3.6893488e+19
2.3048038 2 -1.7944819
-1.0842022e-19 2.3799644 -0
2.3054292 -0 -1.7901907
-2 2.3858559 -3.6893488e+19
2.2777109 1.0842022e-19 -1.7927701
3.6893488e+19 2.3514013 1.0842022e-19
2.2824693 -2 -1.7904438
1.0842022e-19 2.3263478 1.0842022e-19
2.2623303 0 -1.790431
3.6893488e+19 2.2976224 0
2.151401 -0 -1.7870711
-1.0842022e-19 2.2597017 -0
2.1002576 3.6893488e+19 -1.7841415
-2 2.2138398 3.6893488e+19
2.0627885 -3.6893488e+19 -1.7829978
-3.6893488e+19 2.162497 0
2.0281658 3.6893488e+19 -1.7796876
-2 2.1046226 0
2.0350587 0 -1.7794859
-0 2.0727048 -3.6893488e+19
2.0094018 -3.6893488e+19 -1.7774882
0 2.0447061 -2
1.9868954 -1.0842022e-19 -1.7751877
-0 2.0240419 3.6893488e+19
1.9702849 2 -1.7748768
-1.0842022e-19 3.2580788 0
3.1375952 2 2.7964287
3.6893488e+19 3.2585223 -3.6893488e+19
3.1382608 3.6893488e+19 2.7874637
-1.0842022e-19 3.2567422 -1.0842022e-19
3.1355877 -3.6893488e+19 2.7761025
2 3.2569985 -0
3.1359725 2 2.7670152
2 3.2598004 -0
3.1220491 -0 2.688633
2 3.1729522 -0
3.0882883 1.0842022e-19 2.6139627
3.6893488e+19 3.2594781 -0
3.1215875 -2 2.6697867
-2 3.1715577 -2
3.087173 -2 2.5973048
-3.6893488e+19 3.1926918 -3.6893488e+19
3.1040766 3.6893488e+19 2.5985169
-3.6893488e+19 3.1925275 -3.6893488e+19
3.1039453 0 2.582232
-0 3.1898994 0
3.1018434 -3.6893488e+19 2.5642285
0 3.2266212 -2
3.0912743 -1.0842022e-19 2.5686793
2 3.1921551 0
3.1036475 3.6893488e+19 2.549762
3.6893488e+19 3.1901066 0
3.1020091 0 2.5323963
2 3.2187762 -1.0842022e-19
3.0856571 -0 2.5307462
-1.0842022e-19 3.2101791 3.6893488e+19
3.0955594 1.0842022e-19 2.5139492
-1.0842022e-19 3.2088959 -3.6893488e+19
3.0945957 -0 2.4940298
-1.0842022e-19 3.2120883 -2
3.096993 -3.6893488e+19 2.4648871
0 3.2149141 2
3.0991149 3.6893488e+19 2.4350038
-0 3.2116208 1.0842022e-19
3.096642 0 2.3994641
-0 3.5203269 3.6893488e+19
3.3626711 1.0842022e-19 2.6822121
1.0842022e-19 3.2129343 -1.0842022e-19
3.0976281 1.0842022e-19 2.3680954
1.0842022e-19 3.1318724 -2
3.0061603 -3.6893488e+19 2.2794693
-1.0842022e-19 3.2016647 3.6893488e+19
3.0891657 -3.6893488e+19 2.3274496
-1.0842022e-19 3.1319876 0
3.0062377 -2 2.2537694
-0 3.202605 -3.6893488e+19
3.0898716 -1.0842022e-19 2.2964125
3.6893488e+19 3.1756473 -3.6893488e+19
3.0904438 1.0842022e-19 2.2701781
3.6893488e+19 3.2279761 1.0842022e-19
3.0922446 -0 2.2749548
3.6893488e+19 3.1817908 -2
3.0953577 -0 2.2362795
-1.0842022e-19 3.2308235 -3.6893488e+19
3.0942833 1.0842022e-19 2.2370195
-0 3.1828964 -2
3.096242 2 2.1755259
-0 3.2549732 0
3.1151364 2 2.1964078
0 3.1620607 -1.0842022e-19
3.079577 -0 2.0960696
-3.6893488e+19 3.110873 -1.0842022e-19
3.0083954 -1.0842022e-19 2.0163152
2 3.162266 -0
3.0797412 0 2.0372827
1.0842022e-19 3.1120508 2
3.0092387 0 1.9674648
1.0842022e-19 3.1697943 -2
3.0857625 1.0842022e-19 1.9825094
-2 3.1117125 -1.0842022e-19
3.0089965 2 1.9175999
3.6893488e+19 3.170522 0
3.0863447 3.6893488e+19 1.9228234
0 3.1186733 2
3.0139806 -0 1.8654685
0 3.1273301 1.0842022e-19
3.0517986 -3.6893488e+19 1.82732
-0 3.1198502 -3.6893488e+19
3.0148232 3.6893488e+19 1.764735
-2 3.1334326 -3.6893488e+19
3.0072069 -3.6893488e+19 1.6806706
3.6893488e+19 3.1099141 2
3.020268 3.6893488e+19 1.5263776
-3.6893488e+19 3.1348929 -1.0842022e-19
3.0081866 -2 -1.3285205
1.0842022e-19 3.1133604 -1.0842022e-19
3.0228558 3.6893488e+19 -1.6262989
-0 3.1158142 -0
3.0246985 -2 -1.7906427
0 3.0813441 1.0842022e-19
2.9445319 0 -1.8139724
0 3.1193244 0
3.0273345 -2 -1.8851372
-3.6893488e+19 3.0704823 -1.0842022e-19
2.9299598 2 -1.8844424
3.6893488e+19 3.0518947 -1.0842022e-19
2.9533997 0 -1.9025981
-0 2.7814288 1.0842022e-19
2.6726632 0 -1.8065368
-1.0842022e-19 2.774137 -1.0842022e-19
2.6177828 -2 -1.8137072
-0 2.7063465 2
2.5926814 1.0842022e-19 -1.8040544
-3.6893488e+19 2.7014635 -1.0842022e-19
2.5528421 -2 -1.8107479
-3.6893488e+19 2.6242344 1.0842022e-19
2.5310216 0 -1.7979815
0 2.5847056 1.0842022e-19
2.5177064 0 -1.795399
1.0842022e-19 2.5798404 -0
2.4723504 1.0842022e-19 -1.7976276
-2 2.5410166 0
2.4655259 -1.0842022e-19 -1.793996
2 2.5392318 -0
2.4141965 1.0842022e-19 -1.7962788
-0 2.5089409 3.6893488e+19
2.4142158 -1.0842022e-19 -1.7939299
-3.6893488e+19 2.5083778 3.6893488e+19
2.370012 2 -1.7958002
-0 2.4617469 1.0842022e-19
2.3693175 1.0842022e-19 -1.7921792
-3.6893488e+19 2.4706891 -3.6893488e+19
2.3370268 -1.0842022e-19 -1.7967988
0 2.4225788 -3.6893488e+19
2.3379896 3.6893488e+19 -1.7931714
-0 2.4268756 1.0842022e-19
2.3056552 -1.0842022e-19 -1.795534
-0 2.3809032 -0
2.3046565 -0 -1.7902751
-1.0842022e-19 2.3863301 3.6893488e+19
2.2766235 0 -1.7926823
-1.0842022e-19 2.3520896 2
2.2816107 -2 -1.7904438
-1.0842022e-19 3.2580788 0
3.1375952 2 2.7964287
3.6893488e+19 3.2585223 -3.6893488e+19
3.1382608 3.6893488e+19 2.7874637
-1.0842022e-19 3.2567422 -1.0842022e-19
3.1355877 -3.6893488e+19 2.7761025
2 3.2569985 -0
3.1359725 2 2.7670152
2 3.2598004 -0
3.1220491 -0 2.688633
2 3.1729522 -0
3.0882883 1.0842022e-19 2.6139627
-2 3.2519941 -2
3.1108701 3.6893488e+19 2.6576793
-2 3.1715577 -2
3.087173 -2 2.5973048
-3.6893488e+19 3.1926918 -3.6893488e+19
3.1040766 3.6893488e+19 2.5985169
-3.6893488e+19 3.1925275 -3.6893488e+19
3.1039453 0 2.582232
-2 3.1750829 0
3.0899928 -2 2.5536449
0 3.2266212 -2
3.0912743 -1.0842022e-19 2.5686793
2 3.1921551 0
3.1036475 3.6893488e+19 2.549762
3.6893488e+19 3.1901066 0
3.1020091 0 2.5323963
2 3.2187762 -1.0842022e-19
3.0856571 -0 2.5307462
1.0842022e-19 3.1302884 0
3.0355675 0 2.4362509
-3.6893488e+19 3.1305332 -2
3.0357513 -1.0842022e-19 2.4096675
-3.6893488e+19 3.1311078 -0
3.0361829 -3.6893488e+19 2.3834162
-3.6893488e+19 3.1318882 3.6893488e+19
3.0367689 0 2.3573196
-0 3.1248085 1.0842022e-19
3.0314527 0 2.3243411
-0 3.5203269 3.6893488e+19
3.3626711 1.0842022e-19 2.6822121
2 3.1216626 -0
3.0290902 -2 2.295522
1.0842022e-19 3.1318724 -2
3.0061603 -3.6893488e+19 2.2794693
1.0842022e-19 3.1232054 -0
3.0302486 3.6893488e+19 2.2705679
-1.0842022e-19 3.1319876 0
3.0062377 -2 2.2537694
2 3.1223874 2
3.0296345 2 2.2377555
-2 3.1134381 1.0842022e-19
3.0406876 -0 2.2113822
-2 3.1122613 -3.6893488e+19
3.0093894 0 2.1667805
-0 3.1131721 -0
3.0404747 -1.0842022e-19 2.1590016
-0 3.1143794 -3.6893488e+19
3.010906 -0 2.1190748
-0 3.1828964 -2
3.096242 2 2.1755259
-0 3.1128514 -3.6893488e+19
3.0098119 -0 2.0676405
-0 3.1156096 -2
3.0424242 -1.0842022e-19 2.0570576
-3.6893488e+19 3.110873 -1.0842022e-19
3.0083954 -1.0842022e-19 2.0163152
2 3.1180468 3.6893488e+19
3.0443735 1.0842022e-19 2.006469
1.0842022e-19 3.1120508 2
3.0092387 0 1.9674648
-3.6893488e+19 3.10622 -0
3.0349143 -2 1.9472978
-2 3.1117125 -1.0842022e-19
3.0089965 2 1.9175999
3.6893488e+19 3.170522 0
3.0863447 3.6893488e+19 1.9228234
0 3.1186733 2
3.0139806 -0 1.8654685
3.6893488e+19 3.10427 3.6893488e+19
3.0333545 -3.6893488e+19 1.8149555
-0 3.1198502 -3.6893488e+19
3.0148232 3.6893488e+19 1.764735
0 3.117317 3.6893488e+19
2.9927931 -0 1.673077
3.6893488e+19 3.1099141 2
3.020268 3.6893488e+19 1.5263776
-1.0842022e-19 3.1200485 0
2.9964581 -1.0842022e-19 -1.3206712
1.0842022e-19 3.1133604 -1.0842022e-19
3.0228558 3.6893488e+19 -1.6262989
-0 3.1158142 -0
3.0246985 -2 -1.7906427
0 3.0813441 1.0842022e-19
2.9445319 0 -1.8139724
-0 3.0643079 -0
2.9720426 1.0842022e-19 -1.8550131
-3.6893488e+19 3.0704823 -1.0842022e-19
2.9299598 2 -1.8844424
3.6893488e+19 3.0518947 -1.0842022e-19
2.9533997 0 -1.9025981
-0 2.7814288 1.0842022e-19
2.6726632 0 -1.8065368
-1.0842022e-19 2.774137 -1.0842022e-19
2.6177828 -2 -1.8137072
-0 2.7063465 2
2.5926814 1.0842022e-19 -1.8040544
-3.6893488e+19 2.7014635 -1.0842022e-19
2.5528421 -2 -1.8107479
-3.6893488e+19 2.6242344 1.0842022e-19
2.5310216 0 -1.7979815
0 2.5847056 1.0842022e-19
2.5177064 0 -1.795399
1.0842022e-19 2.5798404 -0
2.4723504 1.0842022e-19 -1.7976276
-2 2.5410166 0
2.4655259 -1.0842022e-19 -1.793996
2 2.5392318 -0
2.4141965 1.0842022e-19 -1.7962788
-0 2.5089409 3.6893488e+19
2.4142158 -1.0842022e-19 -1.7939299
-3.6893488e+19 2.5083778 3.6893488e+19
2.370012 2 -1.7958002
-0 2.4617469 1.0842022e-19
2.3693175 1.0842022e-19 -1.7921792
-3.6893488e+19 2.4706891 -3.6893488e+19
2.3370268 -1.0842022e-19 -1.7967988
0 2.4225788 -3.6893488e+19
2.3379896 3.6893488e+19 -1.7931714
-0 2.4268756 1.0842022e-19
2.3056552 -1.0842022e-19 -1.795534
-0 2.3809032 -0
2.3046565 -0 -1.7902751
-1.0842022e-19 2.3863301 3.6893488e+19
2.2766235 0 -1.7926823
-1.0842022e-19 2.3520896 2
2.2816107 -2 -1.7904438
-1.0842022e-19 3.2573283 -1.0842022e-19
3.134367 -0 2.7093441
-1.0842022e-19 3.2599723 1.0842022e-19
3.1202424 -3.6893488e+19 2.6881044
-2 3.1758611 0
3.0887928 -2 2.6157022
2 3.2599757 -1.0842022e-19
3.1202469 -3.6893488e+19 2.669807
3.6893488e+19 3.2610343 1.0842022e-19
3.1217546 3.6893488e+19 2.6531847
-2 3.2149596 -0
3.1198974 -3.6893488e+19 2.6152847
-2 3.1905723 -1.0842022e-19
3.1004961 -2 2.5800745
-0 3.1902368 0
3.1002293 -3.6893488e+19 2.5638142
-3.6893488e+19 3.1931753 -0
3.102567 -0 2.5498276
-3.6893488e+19 3.1806157 -3.6893488e+19
3.0925751 2 2.5257306
2 3.211952 -3.6893488e+19
3.0950048 -1.0842022e-19 2.5144475
2 3.2105923 -1.0842022e-19
3.0939894 -0 2.4948857
-3.6893488e+19 3.2106276 -1.0842022e-19
3.0940158 -3.6893488e+19 2.4625108
-0 3.2147036 3.6893488e+19
3.09706 -0 2.4339561
3.6893488e+19 3.2131743 1.0842022e-19
3.0959179 2 2.4000242
-1.0842022e-19 3.2139914 -1.0842022e-19
3.0965281 -0 2.3682141
-2 3.1319447 1.0842022e-19
3.0047631 -3.6893488e+19 2.2790337
2 3.2062461 -0
3.0907435 3.6893488e+19 2.3301239
-2 3.1330454 -2
3.0054972 0 2.2540276
-3.6893488e+19 3.2031674 0
3.0884445 1.0842022e-19 2.2962003
3.6893488e+19 3.1147342 2
3.0401633 -3.6893488e+19 2.2120624
-1.0842022e-19 3.2382212 -3.6893488e+19
3.0976524 -3.6893488e+19 2.2803242
-1.0842022e-19 3.1828878 2
3.0943828 2 2.2364991
-1.0842022e-19 3.1136622 2
3.0089567 3.6893488e+19 2.1176612
3.6893488e+19 3.1827745 1.0842022e-19
3.0942926 2 2.1745195
-3.6893488e+19 3.1108339 0
3.0069427 3.6893488e+19 2.0652852
3.6893488e+19 3.1863785 -1.0842022e-19
3.0971596 -2 2.1157291
1.0842022e-19 3.1097162 2
3.0061467 1.0842022e-19 2.0149662
3.6893488e+19 3.1046884 -3.6893488e+19
3.0321712 3.6893488e+19 1.9966453
-0 3.1697664 1.0842022e-19
3.0839441 -0 1.9820094
-1.0842022e-19 3.137481 1.0842022e-19
3.0259175 1.0842022e-19 1.9292048
0 3.1703489 3.6893488e+19
3.0844073 3.6893488e+19 1.9223922
-0 3.1134319 2
3.0087926 -3.6893488e+19 1.8616076
1.0842022e-19 3.1054745 -1.0842022e-19
3.0327966 2 1.8152041
1.0842022e-19 3.1376724 -1.0842022e-19
3.0260537 -2 1.7711952
-1.0842022e-19 3.1213136 -1.0842022e-19
2.9953439 0 1.6746545
3.6893488e+19 3.1098435 1.0842022e-19
3.0187461 1.0842022e-19 1.5260518
1.0842022e-19 3.135385 -2
3.0070577 -3.6893488e+19 -1.3284245
-1.0842022e-19 3.1118693 2
3.0202591 -1.0842022e-19 -1.6255345
3.6893488e+19 3.1353993 0
3.0070674 2 -1.7321
-2 3.1169569 1.0842022e-19
3.0240588 2 -1.7908351
-1.0842022e-19 3.0831718 0
2.9444618 -3.6893488e+19 -1.8146826
-3.6893488e+19 3.1204238 1.0842022e-19
3.026648 1.0842022e-19 -1.8852744
1.0842022e-19 3.0704718 2
2.9275193 -1.0842022e-19 -1.884203
1.0842022e-19 3.053663 3.6893488e+19
2.9535763 3.6893488e+19 -1.9031916
3.6893488e+19 2.7853839 1.0842022e-19
2.6762733 0 -1.8087279
-0 2.7693169 3.6893488e+19
2.6092772 0 -1.8100653
2 2.7114444 -3.6893488e+19
2.5946257 2 -1.8057003
3.6893488e+19 2.7000723 2
2.5502052 -2 -1.8098518
-3.6893488e+19 2.6281695 -0
2.5324328 1.0842022e-19 -1.7994584
1.0842022e-19 2.5856977 0
2.5170634 1.0842022e-19 -1.7955478
-3.6893488e+19 2.5808635 -3.6893488e+19
2.4712026 3.6893488e+19 -1.79784
-2 2.5416243 0
2.4640021 -1.0842022e-19 -1.793996
0 2.540179 -2
2.4132612 0 -1.7965192
-3.6893488e+19 2.510165 2
2.4139473 -0 -1.7943748
1.0842022e-19 2.5085561 0
2.3682253 3.6893488e+19 -1.7955991
1.0842022e-19 2.4631016 3.6893488e+19
2.3684192 2 -1.7923203
-3.6893488e+19 2.471772 -0
2.3359394 3.6893488e+19 -1.7968729
-0 2.4232662 0
2.3367283 -1.0842022e-19 -1.7930939
1.0842022e-19 2.4276736 2
2.3045378 -1.0842022e-19 -1.795534
-0 2.3818936 -0
2.3038144 -1.0842022e-19 -1.7903595
3.6893488e+19 2.3870523 -1.0842022e-19
2.2756121 0 -1.7926823
-1.0842022e-19 2.3528249 1.0842022e-19
2.280689 -2 -1.7904438
0 2.3274753 -2
2.2605219 3.6893488e+19 -1.7903327
-2 2.2984266 2
2.1481106 -2 -1.7869589
1.0842022e-19 2.2636788 -2
2.1017556 2 -1.7860316
3.6893488e+19 2.2117085 -1.0842022e-19
2.0579667 -3.6893488e+19 -1.7817395
-3.6893488e+19 2.161432 0
2.0244317 -2 -1.7787659
-1.0842022e-19 2.0998871 3.6893488e+19
2.0283518 -1.0842022e-19 -1.7768079
0 2.0713186 3.6893488e+19
2.0056241 3.6893488e+19 -1.7762206
1.0842022e-19 2.0455163 0
1.9850972 -0 -1.7749929
2 2.0251522 0
1.9688966 2 -1.7748768
-1.0842022e-19 3.2573283 -1.0842022e-19
3.134367 -0 2.7093441
-1.0842022e-19 3.2599723 1.0842022e-19
3.1202424 -3.6893488e+19 2.6881044
-2 3.1758611 0
3.0887928 -2 2.6157022
2 3.2599757 -1.0842022e-19
3.1202469 -3.6893488e+19 2.669807
3.6893488e+19 3.2610343 1.0842022e-19
3.1217546 3.6893488e+19 2.6531847
-2 3.2149596 -0
3.1198974 -3.6893488e+19 2.6152847
-2 3.1905723 -1.0842022e-19
3.1004961 -2 2.5800745
-0 3.1902368 0
3.1002293 -3.6893488e+19 2.5638142
-0 3.1792352 3.6893488e+19
3.0914769 -0 2.5403965
-3.6893488e+19 3.1806157 -3.6893488e+19
3.0925751 2 2.5257306
-0 3.1329243 -0
3.0359838 -0 2.4384153
0 3.1329722 2
3.0360196 -0 2.4114864
-3.6893488e+19 3.1336985 -2
3.036562 -1.0842022e-19 2.3852673
-3.6893488e+19 3.1332102 2
3.0361974 -2 2.3578548
-2 3.1223254 -2
3.0280681 -0 2.3215618
-2 3.1215675 -1.0842022e-19
3.0275021 2 2.2948685
-2 3.1319447 1.0842022e-19
3.0047631 -3.6893488e+19 2.2790337
0 3.1222639 -1.0842022e-19
3.0280221 -0 2.2693572
-2 3.1330454 -2
3.0054972 0 2.2540276
2 3.1228926 1.0842022e-19
3.0284917 3.6893488e+19 2.2374616
3.6893488e+19 3.1147342 2
3.0401633 -3.6893488e+19 2.2120624
-1.0842022e-19 3.1134975 2
3.0088394 -3.6893488e+19 2.1674223
-2 3.1138816 -2
3.039485 -0 2.1589468
-1.0842022e-19 3.1136622 2
3.0089567 3.6893488e+19 2.1176612
2 3.1136703 3.6893488e+19
3.0393169 -3.6893488e+19 2.1067333
-3.6893488e+19 3.1108339 0
3.0069427 3.6893488e+19 2.0652852
-3.6893488e+19 3.1148582 2
3.040262 2 2.055788
1.0842022e-19 3.1097162 2
3.0061467 1.0842022e-19 2.0149662
3.6893488e+19 3.1046884 -3.6893488e+19
3.0321712 3.6893488e+19 1.9966453
3.6893488e+19 3.1072085 -3.6893488e+19
3.0341761 1.0842022e-19 1.947433
1.0842022e-19 3.1099966 -1.0842022e-19
3.0063462 -1.0842022e-19 1.9164935
0 3.1703489 3.6893488e+19
3.0844073 3.6893488e+19 1.9223922
-0 3.1134319 2
3.0087926 -3.6893488e+19 1.8616076
1.0842022e-19 3.1054745 -1.0842022e-19
3.0327966 2 1.8152041
-2 3.1142032 0
3.009342 0 1.7623448
-1.0842022e-19 3.1213136 -1.0842022e-19
2.9953439 0 1.6746545
3.6893488e+19 3.1098435 1.0842022e-19
3.0187461 1.0842022e-19 1.5260518
3.6893488e+19 3.1182528 0
2.9912608 -3.6893488e+19 -1.3193812
-1.0842022e-19 3.1118693 2
3.0202591 -1.0842022e-19 -1.6255345
3.6893488e+19 3.1353993 0
3.0070674 2 -1.7321
-2 3.1169569 1.0842022e-19
3.0240588 2 -1.7908351
-1.0842022e-19 3.0831718 0
2.9444618 -3.6893488e+19 -1.8146826
-3.6893488e+19 3.0666764 -1.0842022e-19
2.9730144 -0 -1.856293
1.0842022e-19 3.0704718 2
2.9275193 -1.0842022e-19 -1.884203
1.0842022e-19 3.053663 3.6893488e+19
2.9535763 3.6893488e+19 -1.9031916
3.6893488e+19 2.7853839 1.0842022e-19
2.6762733 0 -1.8087279
-0 2.7693169 3.6893488e+19
2.6092772 0 -1.8100653
2 2.7114444 -3.6893488e+19
2.5946257 2 -1.8057003
3.6893488e+19 2.7000723 2
2.5502052 -2 -1.8098518
-3.6893488e+19 2.6281695 -0
2.5324328 1.0842022e-19 -1.7994584
1.0842022e-19 2.5856977 0
2.5170634 1.0842022e-19 -1.7955478
-3.6893488e+19 2.5808635 -3.6893488e+19
2.4712026 3.6893488e+19 -1.79784
-2 2.5416243 0
2.4640021 -1.0842022e-19 -1.793996
0 2.540179 -2
2.4132612 0 -1.7965192
-3.6893488e+19 2.510165 2
2.4139473 -0 -1.7943748
1.0842022e-19 2.5085561 0
2.3682253 3.6893488e+19 -1.7955991
1.0842022e-19 2.4631016 3.6893488e+19
2.3684192 2 -1.7923203
-3.6893488e+19 2.471772 -0
2.3359394 3.6893488e+19 -1.7968729
-0 2.4232662 0
2.3367283 -1.0842022e-19 -1.7930939
1.0842022e-19 2.4276736 2
2.3045378 -1.0842022e-19 -1.795534
-0 2.3818936 -0
2.3038144 -1.0842022e-19 -1.7903595
3.6893488e+19 2.3870523 -1.0842022e-19
2.2756121 0 -1.7926823
-1.0842022e-19 2.3528249 1.0842022e-19
2.280689 -2 -1.7904438
0 2.3274753 -2
2.2605219 3.6893488e+19 -1.7903327
-2 2.2984266 2
2.1481106 -2 -1.7869589
1.0842022e-19 2.2636788 -2
2.1017556 2 -1.7860316
3.6893488e+19 2.2117085 -1.0842022e-19
2.0579667 -3.6893488e+19 -1.7817395
-3.6893488e+19 2.161432 0
2.0244317 -2 -1.7787659
-1.0842022e-19 2.0998871 3.6893488e+19
2.0283518 -1.0842022e-19 -1.7768079
0 2.0713186 3.6893488e+19
2.0056241 3.6893488e+19 -1.7762206
1.0842022e-19 2.0455163 0
1.9850972 -0 -1.7749929
2 2.0251522 0
1.9688966 2 -1.7748768
-2 3.2231905 -3.6893488e+19
3.1014743 0 2.705523
-1.0842022e-19 3.192518 -1.0842022e-19
3.0786915 2 2.6600738
0 3.2578919 3.6893488e+19
3.1331115 0 2.7094543
2 3.2505202 -3.6893488e+19
3.146466 -2 2.6977119
-0 3.1763833 -1.0842022e-19
3.0873909 -3.6893488e+19 2.6153915
0 3.260726 -3.6893488e+19
3.1192639 -3.6893488e+19 2.6519611
-3.6893488e+19 3.1890879 1.0842022e-19
3.0974441 -0 2.5942442
2 3.2575755 2
3.1148021 3.6893488e+19 2.6290848
-0 3.1930635 -0
3.1005898 0 2.5812531
0 3.2559454 -2
3.1124933 -2 2.6088178
-0 3.196054 -1.0842022e-19
3.1029561 -3.6893488e+19 2.5673018
2 3.1951892 3.6893488e+19
3.1022718 2 2.5505657
2 3.1965375 1.0842022e-19
3.1033387 0 2.5353329
3.6893488e+19 3.2116065 3.6893488e+19
3.09287 2 2.5137355
1.0842022e-19 3.2095199 3.6893488e+19
3.09132 -0 2.4927726
1.0842022e-19 3.2119751 -0
3.0931437 3.6893488e+19 2.4629612
2 3.2154598 0
3.0957322 -0 2.4338164
1.0842022e-19 3.2146773 1.0842022e-19
3.0951509 0 2.4005413
-1.0842022e-19 3.2170467 2
3.096911 1.0842022e-19 2.3699176
-0 3.5329063 1.0842022e-19
3.3752716 -0 2.662642
-1.0842022e-19 3.2079113 2
3.0901253 -2 2.3306839
0 3.1325693 2
3.0037365 -1.0842022e-19 2.2532706
-2 3.2121117 -0
3.0932453 3.6893488e+19 2.3014586
2 3.1233187 -2
3.0454016 1.0842022e-19 2.2219574
-1.0842022e-19 3.2409363 2
3.0976546 0 2.2813604
2 3.1822455 -0
3.0920296 -3.6893488e+19 2.2347701
0 3.1840162 1.0842022e-19
3.0934308 2 2.174855
-0 3.1110716 -2
3.0056913 0 2.0649076
2 3.1893907 -1.0842022e-19
3.0976834 -2 2.1174903
-2 3.1103847 -2
3.0052049 1.0842022e-19 2.0149662
1.0842022e-19 3.1050088 2
3.0309134 -1.0842022e-19 1.9963564
1.0842022e-19 3.1098585 3.6893488e+19
3.0048323 2 1.9653444
3.6893488e+19 3.1057212 -2
3.031477 -3.6893488e+19 1.9462034
-0 3.1435809 2
3.0287127 3.6893488e+19 1.9316882
-1.0842022e-19 3.103354 3.6893488e+19
3.029604 -1.0842022e-19 1.8946161
-3.6893488e+19 3.1422844 -1.0842022e-19
3.0277946 1.0842022e-19 1.8774589
-0 3.1066048 -0
3.0321763 3.6893488e+19 1.8154135
-0 3.1141152 -3.6893488e+19
3.0078466 2 1.7620568
-3.6893488e+19 3.1196682 1.0842022e-19
2.9903603 2 1.6735784
1.0842022e-19 3.1105452 0
3.0178041 1.0842022e-19 1.5260518
-0 3.1184511 0
2.9887457 0 -1.3191481
0 3.1136036 1.0842022e-19
3.0200758 -3.6893488e+19 -1.6258906
-2 3.1350546 3.6893488e+19
3.0053849 2 -1.7314894
-1.0842022e-19 3.11988 2
3.0247378 -0 -1.7918308
-1.0842022e-19 3.0841165 -2
2.9432011 0 -1.8148899
0 3.1313548 -3.6893488e+19
3.0332608 3.6893488e+19 -1.8889952
-2 3.0718367 1.0842022e-19
2.9269123 1.0842022e-19 -1.8845404
1.0842022e-19 3.0544808 1.0842022e-19
2.9523218 -1.0842022e-19 -1.9033052
-1.0842022e-19 2.7850878 1.0842022e-19
2.6735127 1.0842022e-19 -1.8081801
-0 2.7733774 -0
2.6126316 3.6893488e+19 -1.812529
0 2.7125447 -3.6893488e+19
2.5935667 -2 -1.8057786
0 2.7048109 0
2.5516503 0 -1.8114734
-0 2.6275036 1.0842022e-19
2.5304005 -3.6893488e+19 -1.7988122
-2 2.5863948 -2
2.5161843 1.0842022e-19 -1.7955478
-2 2.582701 0
2.4712019 2 -1.7984774
0 2.5417409 2
2.4617007 -3.6893488e+19 -1.793713
0 2.5412276 2
2.4124632 -3.6893488e+19 -1.7968194
0 2.5096295 -1.0842022e-19
2.410882 -3.6893488e+19 -1.7936757
2 2.5088332 2
2.3665833 -2 -1.795465
-3.6893488e+19 2.4658234 -0
2.3685994 -1.0842022e-19 -1.7929548
0 2.4720387 -2
2.3342721 -0 -1.7966509
1.0842022e-19 2.4261 2
2.3371668 -1.0842022e-19 -1.7938685
-3.6893488e+19 2.4272482 -0
2.3025541 -3.6893488e+19 -1.7950484
0 2.3828824 3.6893488e+19
2.3029692 -1.0842022e-19 -1.7904439
-2 2.3885846 -0
2.2751746 -3.6893488e+19 -1.7930337
-2 2.3531673 -3.6893488e+19
2.2794561 1.0842022e-19 -1.7902611
-2 3.2231905 -3.6893488e+19
3.1014743 0 2.705523
-1.0842022e-19 3.192518 -1.0842022e-19
3.0786915 2 2.6600738
-3.6893488e+19 3.1918461 -2
3.0781925 1.0842022e-19 2.6435916
2 3.2505202 -3.6893488e+19
3.146466 -2 2.6977119
-0 3.1763833 -1.0842022e-19
3.0873909 -3.6893488e+19 2.6153915
0 3.260726 -3.6893488e+19
3.1192639 -3.6893488e+19 2.6519611
-3.6893488e+19 3.1890879 1.0842022e-19
3.0974441 -0 2.5942442
2 3.2575755 2
3.1148021 3.6893488e+19 2.6290848
-0 3.1930635 -0
3.1005898 0 2.5812531
0 3.2559454 -2
3.1124933 -2 2.6088178
-0 3.196054 -1.0842022e-19
3.1029561 -3.6893488e+19 2.5673018
-0 3.1800539 2
3.0902956 2 2.5403473
2 3.1965375 1.0842022e-19
3.1033387 0 2.5353329
3.6893488e+19 3.2116065 3.6893488e+19
3.09287 2 2.5137355
1.0842022e-19 3.2095199 3.6893488e+19
3.09132 -0 2.4927726
-2 3.1336229 3.6893488e+19
3.0349457 3.6893488e+19 2.3844419
3.6893488e+19 3.1341074 3.6893488e+19
3.0353055 -1.0842022e-19 2.3579946
2 3.1220767 -3.6893488e+19
3.0263693 3.6893488e+19 2.3207216
2 3.1216168 1.0842022e-19
3.0260279 1.0842022e-19 2.2943337
-0 3.1343236 -2
3.0049 3.6893488e+19 2.2802837
-3.6893488e+19 3.1236901 -2
3.0275679 -0 2.2698631
0 3.1325693 2
3.0037365 -1.0842022e-19 2.2532706
3.6893488e+19 3.1181874 1.0842022e-19
3.0234807 -2 2.2303741
2 3.1233187 -2
3.0454016 1.0842022e-19 2.2219574
-2 3.1246116 1.0842022e-19
3.0152798 -0 2.1793871
-0 3.1108937 -3.6893488e+19
3.0355699 -3.6893488e+19 2.154748
0 3.1840162 1.0842022e-19
3.0934308 2 2.174855
-0 3.1110716 -2
3.0056913 0 2.0649076
2 3.1079767 2
3.0332618 3.6893488e+19 2.0493987
-2 3.1103847 -2
3.0052049 1.0842022e-19 2.0149662
1.0842022e-19 3.1050088 2
3.0309134 -1.0842022e-19 1.9963564
1.0842022e-19 3.1098585 3.6893488e+19
3.0048323 2 1.9653444
3.6893488e+19 3.1057212 -2
3.031477 -3.6893488e+19 1.9462034
2 3.1113286 -3.6893488e+19
3.0058732 -1.0842022e-19 1.9167995
-1.0842022e-19 3.103354 3.6893488e+19
3.029604 -1.0842022e-19 1.8946161
-0 3.1139035 1.0842022e-19
3.0076969 0 1.8614751
-0 3.1066048 -0
3.0321763 3.6893488e+19 1.8154135
-0 3.1141152 -3.6893488e+19
3.0078466 2 1.7620568
-3.6893488e+19 3.1196682 1.0842022e-19
2.9903603 2 1.6735784
1.0842022e-19 3.1105452 0
3.0178041 1.0842022e-19 1.5260518
-0 3.1184511 0
2.9887457 0 -1.3191481
0 3.1136036 1.0842022e-19
3.0200758 -3.6893488e+19 -1.6258906
-2 3.1350546 3.6893488e+19
3.0053849 2 -1.7314894
-1.0842022e-19 3.11988 2
3.0247378 -0 -1.7918308
-1.0842022e-19 3.0841165 -2
2.9432011 0 -1.8148899
-0 3.0678959 2
2.9722507 -0 -1.8567318
-2 3.0718367 1.0842022e-19
2.9269123 1.0842022e-19 -1.8845404
1.0842022e-19 3.0544808 1.0842022e-19
2.9523218 -1.0842022e-19 -1.9033052
-1.0842022e-19 2.7850878 1.0842022e-19
2.6735127 1.0842022e-19 -1.8081801
-0 2.7733774 -0
2.6126316 3.6893488e+19 -1.812529
0 2.7125447 -3.6893488e+19
2.5935667 -2 -1.8057786
0 2.7048109 0
2.5516503 0 -1.8114734
-0 2.6275036 1.0842022e-19
2.5304005 -3.6893488e+19 -1.7988122
-2 2.5863948 -2
2.5161843 1.0842022e-19 -1.7955478
-2 2.582701 0
2.4712019 2 -1.7984774
0 2.5417409 2
2.4617007 -3.6893488e+19 -1.793713
0 2.5412276 2
2.4124632 -3.6893488e+19 -1.7968194
0 2.5096295 -1.0842022e-19
2.410882 -3.6893488e+19 -1.7936757
2 2.5088332 2
2.3665833 -2 -1.795465
-3.6893488e+19 2.4658234 -0
2.3685994 -1.0842022e-19 -1.7929548
0 2.4720387 -2
2.3342721 -0 -1.7966509
1.0842022e-19 2.4261 2
2.3371668 -1.0842022e-19 -1.7938685
-3.6893488e+19 2.4272482 -0
2.3025541 -3.6893488e+19 -1.7950484
0 2.3828824 3.6893488e+19
2.3029692 -1.0842022e-19 -1.7904439
-2 2.3885846 -0
2.2751746 -3.6893488e+19 -1.7930337
-2 2.3531673 -3.6893488e+19
2.2794561 1.0842022e-19 -1.7902611
2 3.1935248 -2
3.077642 2 2.6602108
2 3.2585406 2
3.1319799 1.0842022e-19 2.7097182
-2 3.2513645 0
3.1456678 2 2.6982944
-1.0842022e-19 3.2086017 -1.0842022e-19
3.1109376 3.6893488e+19 2.6421907
-1.0842022e-19 3.206291 -1.0842022e-19
3.1091189 0 2.6235871
2 3.2612712 2
3.1179872 0 2.6520584
-1.0842022e-19 3.1908937 -3.6893488e+19
3.0970006 -0 2.5949469
-0 3.2578371 2
3.1131504 0 2.6287694
2 3.1967978 -3.6893488e+19
3.1016474 0 2.5833559
-1.0842022e-19 3.2617176 3.6893488e+19
3.1186159 1.0842022e-19 2.6162329
-1.0842022e-19 3.1967328 2
3.1015964 -1.0842022e-19 2.5671291
-1.0842022e-19 3.262048 -0
3.1190813 -2 2.598475
1.0842022e-19 3.1979597 0
3.102562 -2 2.5518122
0 3.1940737 -3.6893488e+19
3.0995033 -0 2.5331731
-2 3.2113283 -2
3.0907938 1.0842022e-19 2.5130663
-1.0842022e-19 3.5225563 -2
3.3594921 0 2.7902765
-0 3.2115109 3.6893488e+19
3.0909288 -3.6893488e+19 2.4939494
3.6893488e+19 3.2152972 0
3.0937259 2 2.4653876
0 3.2148614 3.6893488e+19
3.0934038 1.0842022e-19 2.4324198
2 3.2147524 0
3.0933235 0 2.3998303
1.0842022e-19 3.2181785 2
3.0958543 -3.6893488e+19 2.3700957
3.6893488e+19 3.5333443 0
3.3737211 -2 2.6625662
3.6893488e+19 3.1363289 -1.0842022e-19
3.004777 -1.0842022e-19 2.2553174
-2 3.2238436 -0
3.1000392 0 2.3085134
3.6893488e+19 3.191982 -0
3.0978572 0 2.2788053
2 3.240314 -3.6893488e+19
3.0952909 0 2.2804849
2 3.1897838 -3.6893488e+19
3.096127 -0 2.2422071
2 3.1138129 -2
3.0062058 -2 2.1164532
-1.0842022e-19 3.196785 -1.0842022e-19
3.1016374 3.6893488e+19 2.1864522
-3.6893488e+19 3.1127603 0
3.0054648 -3.6893488e+19 2.0657961
-0 3.190716 3.6893488e+19
3.0968609 -3.6893488e+19 2.1178384
1.0842022e-19 3.1109748 -0
3.0042071 2 2.01491
-0 3.2180243 1.0842022e-19
3.1183536 2 2.0741129
-1.0842022e-19 3.1102431 -0
3.0036919 -2 1.9651766
1.0842022e-19 3.1073403 1.0842022e-19
3.0312409 2 1.9466898
1.0842022e-19 3.1134784 -0
3.0059702 0 1.9174823
-2 3.1045508 2
3.0290456 -2 1.8948066
-2 3.1388714 1.0842022e-19
3.0238528 0 1.8761168
2 3.105083 -0
3.0294642 -1.0842022e-19 1.8142097
1.0842022e-19 3.1147888 0
3.0068932 2 1.7620568
3.6893488e+19 3.1274304 -1.0842022e-19
2.9978173 -2 1.6769166
-2 3.1185589 3.6893488e+19
3.0222631 3.6893488e+19 1.5291102
0 3.1310115 0
3.0012703 0 -1.3254193
-1.0842022e-19 3.1164956 3.6893488e+19
3.0207388 -3.6893488e+19 -1.6266463
-2 3.1228085 -2
2.9917212 0 -1.7237397
-1.0842022e-19 3.1225328 3.6893488e+19
3.0251987 -2 -1.792702
-0 3.0751481 -2
2.9288588 -1.0842022e-19 -1.8094733
-3.6893488e+19 3.1241782 3.6893488e+19
3.0264142 -0 -1.8861154
-0 3.073307 -2
2.9264305 -2 -1.8849213
-1.0842022e-19 3.0541668 -2
2.9493902 3.6893488e+19 -1.9028506
-0 2.7869976 2
2.6740236 1.0842022e-19 -1.8090501
0 2.7150495 2
2.5935428 -1.0842022e-19 -1.8064057
-2 2.7014282 -3.6893488e+19
2.5477087 -3.6893488e+19 -1.8097664
-2 2.6299434 3.6893488e+19
2.530673 -1.0842022e-19 -1.7995968
-2 2.5881693 -0
2.5161526 2 -1.7960938
-0 2.5849493 -1.0842022e-19
2.4717588 3.6893488e+19 -1.7993273
3.6893488e+19 2.5423439 0
2.4601724 -3.6893488e+19 -1.793713
0 2.5419703 1.0842022e-19
2.4112251 -2 -1.7969396
-2 2.5093818 -0
2.4082875 -3.6893488e+19 -1.7931672
-1.0842022e-19 2.5098217 3.6893488e+19
2.3659456 2 -1.7958002
3.6893488e+19 2.4669824 -1.0842022e-19
2.3675334 0 -1.7930254
-0 2.4753578 2
2.3347585 1.0842022e-19 -1.7975388
-2 2.4271765 -0
2.3362048 3.6893488e+19 -1.793946
-3.6893488e+19 2.4278347 3.6893488e+19
2.3012917 0 -1.7949675
-2 2.3844566 -2
2.3025825 0 -1.7907816
3.6893488e+19 2.3901179 -0
2.2747304 -2 -1.7933853
0 2.3529193 -3.6893488e+19
2.2777612 3.6893488e+19 -1.7898043
1.0842022e-19 2.3292248 -0
2.2591128 -1.0842022e-19 -1.7905293
-0 2.30216 -0
2.1485384 -3.6893488e+19 -1.788417
0 2.2637672 -1.0842022e-19
2.0978994 2 -1.7855276
0 2.2116604 3.6893488e+19
2.0544567 2 -1.7811803
-0 2.1632748 -2
2.0225472 3.6893488e+19 -1.7789196
-1.0842022e-19 2.1055996 3.6893488e+19
