# .PCD v0.7 - Point Cloud Data file format
VERSION 0.7
FIELDS x y z
SIZE 4 4 4
TYPE F F F
COUNT 1 1 1
WIDTH 1703
HEIGHT 1
VIEWPOINT 0 0 0 1 0 0 0
POINTS 1703
DATA ascii
-3.6893488e+19 3.2701628 -0
1.8936274 3.6893488e+19 2.1678574
0 3.2702034 0
-2.0667815 1.0842022e-19 2.137922
3.6893488e+19 3.2719176 -1.0842022e-19
1.8945602 -1.0842022e-19 2.1097767
0 3.2915955 -3.6893488e+19
-2.091861 1.0842022e-19 2.1034248
-3.6893488e+19 3.2719736 0
1.8945901 -2 2.0490909
-2 3.2610128 -3.6893488e+19
-2.0560067 -1.0842022e-19 2.0080297
-1.0842022e-19 3.2727194 -2
1.8949865 0 1.9890016
-2 3.2642627 -0
-2.0598168 -1.0842022e-19 1.9522023
3.6893488e+19 3.2726867 -2
1.8949691 1.0842022e-19 1.928106
0 3.3399732 0
-2.1485784 -3.6893488e+19 1.9342177
-0 3.315506 1.0842022e-19
1.9177333 1.0842022e-19 1.8856549
2 3.3391619 -2
-2.1476271 -3.6893488e+19 1.841095
3.6893488e+19 3.2658167 -2
-1.8620179 3.6893488e+19 1.5775754
-1.0842022e-19 3.2558591 -1.0842022e-19
-2.2753658 3.6893488e+19 -1.2585542
-2 3.2651439 -2
-1.861418 3.6893488e+19 -1.6355573
-3.6893488e+19 3.2574265 0
-2.2770529 -0 -1.7469994
1.0842022e-19 3.2675204 -3.6893488e+19
-1.863537 3.6893488e+19 -1.8127707
0 3.2686026 1.0842022e-19
-1.864502 -3.6893488e+19 -1.9041963
-2 3.2652824 0
-1.8615416 -1.0842022e-19 -1.9615072
-1.0842022e-19 3.2590442 0
-2.2787938 -2 -1.9859563
-3.6893488e+19 3.2659638 -3.6893488e+19
-1.8621491 -2 -2.0214283
-3.6893488e+19 3.2202361 -0
-2.2530434 1.0842022e-19 -2.016789
1.0842022e-19 3.2355549 -3.6893488e+19
-1.8414747 1.0842022e-19 -2.0520017
-2 2.9277952 -2
1.7274299 1.0842022e-19 -1.9189063
0 2.8644342 -3.6893488e+19
-1.8386279 -0 -1.9041605
0 2.8211963 -0
1.6707584 2 -1.8947814
2 2.7900987 -3.6893488e+19
-1.7950531 -2 -1.8889579
-2 2.766741 3.6893488e+19
1.6418083 -2 -1.885168
3.6893488e+19 2.7364626 -2
-1.7675799 3.6893488e+19 -1.8801353
0 2.7016966 2
1.6151366 3.6893488e+19 -1.8770981
1.0842022e-19 2.6680806 3.6893488e+19
-1.745075 -1.0842022e-19 -1.8721336
1.0842022e-19 2.6411526 -2
1.5829494 -0 -1.8670628
0 2.6207905 -1.0842022e-19
-1.7173539 0 -1.864994
-0 2.5962222 -2
1.559063 3.6893488e+19 -1.8586934
0 2.5699267 0
-1.6875381 3.6893488e+19 -1.8500552
-3.6893488e+19 2.5582974 -2
1.538901 0 -1.8504252
-2 2.543359 -3.6893488e+19
-1.6719644 3.6893488e+19 -1.8478725
-0 2.5271225 -3.6893488e+19
1.5223273 2 -1.843228
-2 2.5077403 -1.0842022e-19
-1.651085 0 -1.8353363
-1.0842022e-19 2.491904 -2
-1.7573516 -1.0842022e-19 -1.8329817
0 2.4699214 -3.6893488e+19
-1.4595047 -1.0842022e-19 -1.8298855
0 2.3808398 3.6893488e+19
-1.7049375 -0 -1.8183854
1.0842022e-19 2.3255436 2
-1.6751815 -1.0842022e-19 -1.8088287
2 2.2881458 -1.0842022e-19
-1.655057 1.0842022e-19 -1.8041697
-2 2.2607481 1.0842022e-19
1.3886223 0 -1.8017173
-2 2.2294033 -0
1.3774332 2 -1.8012402
-3.6893488e+19 2.189878 0
1.3588536 -2 -1.7994249
0 2.1524348 -0
1.3389474 -2 -1.7962748
-1.0842022e-19 3.3140986 -0
-2.3512781 -3.6893488e+19 2.7850389
-3.6893488e+19 3.2756381 1.0842022e-19
-2.3082652 -3.6893488e+19 2.7340987
3.6893488e+19 3.2791326 -0
-2.3121731 1.0842022e-19 2.7239089
-3.6893488e+19 3.3130774 -2
-2.350136 -1.0842022e-19 2.7269113
-0 3.3226383 1.0842022e-19
-2.3608286 -3.6893488e+19 2.7228136
-2 3.2981458 -0
1.8834947 -0 2.668736
0 3.342041 3.6893488e+19
-2.1797285 -3.6893488e+19 2.720876
-1.0842022e-19 3.2977023 -2
1.8832961 -3.6893488e+19 2.6510162
-1.0842022e-19 3.2983992 2
1.8836082 -2 2.6348617
-3.6893488e+19 3.2973993 -2
1.8831605 2 2.6165712
2 3.2915368 -3.6893488e+19
-2.1162767 -3.6893488e+19 2.601263
0 3.2987473 1.0842022e-19
1.883764 -3.6893488e+19 2.6011941
-1.0842022e-19 3.286859 3.6893488e+19
-2.1104 -2 2.5792696
-2 3.2957501 -0
1.8824221 3.6893488e+19 2.5808351
-0 3.3038619 -3.6893488e+19
-2.1317616 0 2.5814974
0 3.2973788 0
1.8831513 0 2.5657644
0 3.3036323 3.6893488e+19
-2.1314731 1.0842022e-19 2.5640004
-0 3.2840052 2
1.8771633 -1.0842022e-19 2.5354578
-1.0842022e-19 3.2980554 -0
-2.1244667 2 2.5413373
-3.6893488e+19 3.2802703 0
-2.3134458 2 2.5164633
-1.0842022e-19 3.2937105 1.0842022e-19
-1.9055821 -1.0842022e-19 2.5202944
-1.0842022e-19 3.2855453 -0
-2.319345 0 2.5053022
1.0842022e-19 3.2922459 -0
-1.9048061 -1.0842022e-19 2.502445
2 3.2998834 -1.0842022e-19
-2.3353801 2 2.5011594
0 3.2939665 2
-1.9057176 0 2.474709
0 3.3027627 -3.6893488e+19
-2.3386002 -1.0842022e-19 2.4729486
-3.6893488e+19 3.2975101 -0
-1.9075948 -2 2.4469318
2 3.2776728 -1.0842022e-19
-2.3105404 -3.6893488e+19 2.402432
-2 3.2958455 3.6893488e+19
-1.906713 -0 2.4111559
0 3.2920072 0
-2.3265717 2 2.3903146
-0 3.2872653 -0
-1.9021679 -2 2.3669665
-2 3.2736282 2
-2.3060174 -1.0842022e-19 2.3349559
1.0842022e-19 3.2860315 -2
-1.9015143 2 2.3332937
-0 3.2971694 -0
-2.332345 -3.6893488e+19 2.3303738
1.0842022e-19 3.2876663 1.0842022e-19
-1.9023803 -1.0842022e-19 2.3029511
1.0842022e-19 3.2779648 -2
1.8739173 -2 2.2771573
1.0842022e-19 3.2999845 1.0842022e-19
-2.1268902 -1.0842022e-19 2.2825117
-3.6893488e+19 3.2938476 3.6893488e+19
-2.1191802 3.6893488e+19 2.2376571
-1.0842022e-19 3.269253 3.6893488e+19
1.866116 -2 2.1664333
2 3.2912016 3.6893488e+19
-2.1158557 2 2.1681101
-3.6893488e+19 3.3118279 -1.0842022e-19
1.8896209 1.0842022e-19 2.1625662
0 3.29088 2
-2.1154516 -3.6893488e+19 2.1025925
-3.6893488e+19 3.3041499 0
1.8861831 3.6893488e+19 2.0844619
-3.6893488e+19 3.292073 2
-2.1169508 3.6893488e+19 2.0387638
2 3.3213012 -3.6893488e+19
1.8938625 -3.6893488e+19 2.0315654
-1.0842022e-19 3.2646735 -2
-2.0825267 0 1.9525368
2 3.3206205 2
1.8935578 -1.0842022e-19 1.9594055
-0 3.3626373 -2
-2.205605 -2 1.9465181
-1.0842022e-19 3.3204708 2
1.8934908 -3.6893488e+19 1.887784
-3.6893488e+19 3.3498421 -0
-2.3912525 -1.0842022e-19 1.7700648
-1.0842022e-19 3.3462009 0
-1.9333869 -2 1.6319228
-3.6893488e+19 3.3483841 -2
-2.389622 0 -1.3068835
1.0842022e-19 3.3384821 -1.0842022e-19
-1.929298 -1.0842022e-19 -1.673059
2 3.2497666 2
-2.2794616 -2 -1.7398046
0 3.3393862 -3.6893488e+19
-1.9297769 1.0842022e-19 -1.8632224
-1.0842022e-19 3.2484503 2
-2.2787256 -1.0842022e-19 -1.8560743
3.6893488e+19 3.2680295 0
-1.8919785 -2 -1.9038734
3.6893488e+19 3.2484815 2
-2.278743 -2 -1.9212921
0 3.2658186 -1.0842022e-19
-1.8908073 -1.0842022e-19 -1.961943
2 3.2564113 -3.6893488e+19
-2.2867622 -2 -1.9836
-2 3.2658751 -0
-1.8908373 3.6893488e+19 -2.0213487
2 3.2558403 2
-2.2861238 -3.6893488e+19 -2.0403545
-0 3.2335997 3.6893488e+19
-1.8780843 -3.6893488e+19 -2.0507975
-1.0842022e-19 2.9263144 2
1.6908822 -2 -1.9183148
1.0842022e-19 2.8614044 -1.0842022e-19
-1.852028 -3.6893488e+19 -1.902894
2 2.8205228 1.0842022e-19
1.643514 1.0842022e-19 -1.894472
-3.6893488e+19 2.7904437 2
-1.8074518 -3.6893488e+19 -1.889137
2 2.7668142 -1.0842022e-19
1.613932 -2 -1.8851995
0 2.7370374 2
-1.7779742 -3.6893488e+19 -1.880302
0 2.7017148 -1.0842022e-19
1.5772551 3.6893488e+19 -1.8770981
0 2.6681635 0
-1.7563416 3.6893488e+19 -1.8722073
2 2.6406698 1.0842022e-19
1.5499223 0 -1.8667544
-0 2.620878 -2
-1.7329792 0 -1.8650746
-2 2.596236 2
1.5300272 3.6893488e+19 -1.8586934
-1.0842022e-19 2.5697703 1.0842022e-19
-1.7008743 1.0842022e-19 -1.8499677
-1.0842022e-19 2.5581853 -3.6893488e+19
1.5129899 -0 -1.8503342
3.6893488e+19 2.54333 0
-1.6842649 3.6893488e+19 -1.8478725
1.0842022e-19 2.5271337 2
1.4981731 2 -1.843228
-2 2.5080874 1.0842022e-19
-1.6621262 2 -1.8356405
-0 2.4923117 -2
-1.7626464 3.6893488e+19 -1.8331915
-0 2.4701509 -1.0842022e-19
-1.4990447 -1.0842022e-19 -1.8299938
-1.0842022e-19 2.4495592 -1.0842022e-19
-1.7506932 -3.6893488e+19 -1.8278289
-1.0842022e-19 3.3140986 -0
-2.3512781 -3.6893488e+19 2.7850389
-3.6893488e+19 3.2756381 1.0842022e-19
-2.3082652 -3.6893488e+19 2.7340987
3.6893488e+19 3.2791326 -0
-2.3121731 1.0842022e-19 2.7239089
2 3.273294 -1.0842022e-19
-2.3056433 -1.0842022e-19 2.6663089
-0 3.3226383 1.0842022e-19
-2.3608286 -3.6893488e+19 2.7228136
-2 3.2981458 -0
1.8834947 -0 2.668736
0 3.342041 3.6893488e+19
-2.1797285 -3.6893488e+19 2.720876
-1.0842022e-19 3.2977023 -2
1.8832961 -3.6893488e+19 2.6510162
-1.0842022e-19 3.2983992 2
1.8836082 -2 2.6348617
-3.6893488e+19 3.2973993 -2
1.8831605 2 2.6165712
2 3.2915368 -3.6893488e+19
-2.1162767 -3.6893488e+19 2.601263
0 3.2762876 -2
1.8724153 -2 2.5747914
-1.0842022e-19 3.286859 3.6893488e+19
-2.1104 -2 2.5792696
-2 3.2957501 -0
1.8824221 3.6893488e+19 2.5808351
2 3.2881598 -0
-2.1120341 1.0842022e-19 2.5643673
-0 3.2770743 0
1.8731201 2 2.5442047
0 3.3036323 3.6893488e+19
-2.1314731 1.0842022e-19 2.5640004
-0 3.2840052 2
1.8771633 -1.0842022e-19 2.5354578
-1.0842022e-19 3.2980554 -0
-2.1244667 2 2.5413373
-3.6893488e+19 3.2802703 0
-2.3134458 2 2.5164633
-0 3.2659442 3.6893488e+19
-1.8908739 -0 2.4894838
-1.0842022e-19 3.2855453 -0
-2.319345 0 2.5053022
-0 3.265918 -3.6893488e+19
-1.89086 -3.6893488e+19 2.4594057
-0 3.2878997 2
-2.3219781 1.0842022e-19 2.4822459
3.6893488e+19 3.2670133 -2
-1.8914402 -3.6893488e+19 2.4311838
-2 3.2775996 -3.6893488e+19
-2.3104587 -1.0842022e-19 2.4336412
-2 3.267319 3.6893488e+19
-1.8916022 3.6893488e+19 2.4015775
2 3.2776728 -1.0842022e-19
-2.3105404 -3.6893488e+19 2.402432
1.0842022e-19 3.2685926 1.0842022e-19
-1.8922768 -2 2.3732805
-2 3.2573371 0
-2.2877979 0 2.3439727
3.6893488e+19 3.2682815 -3.6893488e+19
-1.8921119 1.0842022e-19 2.3427157
-2 3.2582419 2
-2.2888098 -0 2.3161211
-0 3.2668505 3.6893488e+19
-1.891354 2 2.3109434
0 3.257829 3.6893488e+19
-2.2883477 2 2.2866375
-3.6893488e+19 3.266839 -3.6893488e+19
-1.8913479 -3.6893488e+19 2.2810173
1.0842022e-19 3.2779648 -2
1.8739173 -2 2.2771573
-2 3.2870011 3.6893488e+19
-2.1105785 0 2.2702849
-3.6893488e+19 3.2938476 3.6893488e+19
-2.1191802 3.6893488e+19 2.2376571
-1.0842022e-19 3.269253 3.6893488e+19
1.866116 -2 2.1664333
-1.0842022e-19 3.2562947 3.6893488e+19
-2.072 0 2.1179907
-0 3.3031175 1.0842022e-19
1.8857208 1.0842022e-19 2.1510417
-1.0842022e-19 3.2562282 -2
-2.0719163 -0 2.0605893
3.6893488e+19 3.2715318 -0
1.8681567 2 2.048593
2 3.2579126 -1.0842022e-19
-2.0740325 2 2.0049903
3.6893488e+19 3.272543 0
1.8690622 2 1.9888374
-0 3.2569785 3.6893488e+19
-2.072859 0 1.9466484
1.0842022e-19 3.2734475 -1.0842022e-19
1.8698721 0 1.9285957
-0 3.3626373 -2
-2.205605 -2 1.9465181
-1.0842022e-19 3.2729797 -2
1.8694533 2 1.8597313
-3.6893488e+19 3.2578964 -3.6893488e+19
-2.2884233 2 1.7138778
3.6893488e+19 3.2666497 1.0842022e-19
-1.8912476 -3.6893488e+19 1.5782183
2 3.3009999 0
-2.3366289 1.0842022e-19 -1.2821451
-0 3.2649615 -0
-1.8903533 3.6893488e+19 -1.6354694
2 3.2497666 2
-2.2794616 -2 -1.7398046
1.0842022e-19 3.2676816 0
-1.8917942 2 -1.8128914
-1.0842022e-19 3.2484503 2
-2.2787256 -1.0842022e-19 -1.8560743
3.6893488e+19 3.2680295 0
-1.8919785 -2 -1.9038734
3.6893488e+19 3.2484815 2
-2.278743 -2 -1.9212921
0 3.2658186 -1.0842022e-19
-1.8908073 -1.0842022e-19 -1.961943
2 3.2564113 -3.6893488e+19
-2.2867622 -2 -1.9836
-2 3.2658751 -0
-1.8908373 3.6893488e+19 -2.0213487
-0 3.2215848 1.0842022e-19
-2.2637029 1.0842022e-19 -2.0176022
-0 3.2335997 3.6893488e+19
-1.8780843 -3.6893488e+19 -2.0507975
-1.0842022e-19 2.9263144 2
1.6908822 -2 -1.9183148
1.0842022e-19 2.8614044 -1.0842022e-19
-1.852028 -3.6893488e+19 -1.902894
2 2.8205228 1.0842022e-19
1.643514 1.0842022e-19 -1.894472
-3.6893488e+19 2.7904437 2
-1.8074518 -3.6893488e+19 -1.889137
2 2.7668142 -1.0842022e-19
1.613932 -2 -1.8851995
0 2.7370374 2
-1.7779742 -3.6893488e+19 -1.880302
0 2.7017148 -1.0842022e-19
1.5772551 3.6893488e+19 -1.8770981
0 2.6681635 0
-1.7563416 3.6893488e+19 -1.8722073
2 2.6406698 1.0842022e-19
1.5499223 0 -1.8667544
-0 2.620878 -2
-1.7329792 0 -1.8650746
-2 2.596236 2
1.5300272 3.6893488e+19 -1.8586934
-1.0842022e-19 2.5697703 1.0842022e-19
-1.7008743 1.0842022e-19 -1.8499677
-1.0842022e-19 2.5581853 -3.6893488e+19
1.5129899 -0 -1.8503342
3.6893488e+19 2.54333 0
-1.6842649 3.6893488e+19 -1.8478725
1.0842022e-19 2.5271337 2
1.4981731 2 -1.843228
-2 2.5080874 1.0842022e-19
-1.6621262 2 -1.8356405
-0 2.4923117 -2
-1.7626464 3.6893488e+19 -1.8331915
-0 2.4701509 -1.0842022e-19
-1.4990447 -1.0842022e-19 -1.8299938
-1.0842022e-19 2.4495592 -1.0842022e-19
-1.7506932 -3.6893488e+19 -1.8278289
-1.0842022e-19 3.3042674 -0
-2.3531063 0 2.7672398
2 3.2761075 -2
-2.3204262 3.6893488e+19 2.7188604
-2 3.2728744 -1.0842022e-19
-2.3166742 3.6893488e+19 2.6815786
2 3.3154688 3.6893488e+19
-2.3661056 -3.6893488e+19 2.7306435
1.0842022e-19 3.3446591 -0
-1.9614835 -2 2.756943
-1.0842022e-19 3.3467591 3.6893488e+19
-1.9627721 -2 2.7470276
0 3.2978635 -2
1.841769 2 2.6683254
2 3.3417122 -0
-2.2080197 -1.0842022e-19 2.7204735
1.0842022e-19 3.2977123 2
1.8416591 -3.6893488e+19 2.6510162
-1.0842022e-19 3.2974219 1.0842022e-19
1.8414478 -1.0842022e-19 2.6335886
3.6893488e+19 3.2915676 -3.6893488e+19
-2.1408074 0 2.6013377
2 3.2986026 2
1.842307 -2 2.6010125
-1.0842022e-19 3.3039508 -1.0842022e-19
-2.1574056 1.0842022e-19 2.5989256
3.6893488e+19 3.2947543 3.6893488e+19
1.8395064 -2 2.57971
-2 3.3032262 3.6893488e+19
-2.1564345 3.6893488e+19 2.5808392
2 3.2769907 1.0842022e-19
1.826579 3.6893488e+19 2.544106
2 3.3034141 0
-2.1566863 1.0842022e-19 2.5638082
0 3.2847278 -0
1.8322096 -2 2.5361745
-3.6893488e+19 3.2794752 -2
-2.3243346 -0 2.5157568
-0 3.293138 2
-1.9298701 -3.6893488e+19 2.5197802
-1.0842022e-19 3.3047128 -0
-2.3536232 -1.0842022e-19 2.5224903
-3.6893488e+19 3.2965188 -0
-1.9319446 -3.6893488e+19 2.5061481
1.0842022e-19 3.2993159 -0
-2.3473599 1.0842022e-19 2.500731
3.6893488e+19 3.2967815 2
-1.9321058 2 2.4792774
-0 3.303916 -2
-2.3526983 0 2.474839
-3.6893488e+19 3.2967963 -3.6893488e+19
-1.9321148 -0 2.4458804
3.6893488e+19 3.322026 1.0842022e-19
-2.3737154 -2 2.4668005
-1.0842022e-19 3.2959874 -1.0842022e-19
-1.9316185 -3.6893488e+19 2.4113722
2 3.2917197 -0
-2.3385444 -3.6893488e+19 2.390003
-0 3.2883575 -0
-1.9269367 1.0842022e-19 2.3683791
-2 3.2580228 0
-2.299439 -2 2.3159118
3.6893488e+19 3.2871399 1.0842022e-19
-1.9261897 2 2.3346009
1.0842022e-19 3.291595 3.6893488e+19
-2.3383996 -2 2.3242369
2 3.2867019 -1.0842022e-19
-1.9259208 1.0842022e-19 2.3019497
-1.0842022e-19 3.2763834 -1.0842022e-19
1.8261371 0 2.2755716
-2 3.2937498 -3.6893488e+19
-2.1437325 -2 2.2766697
-0 3.2862 -3.6893488e+19
1.833281 0 2.2533278
1.0842022e-19 3.294066 3.6893488e+19
-2.1441562 0 2.2380712
-2 3.2841966 -2
1.8318231 1.0842022e-19 2.1895311
1.0842022e-19 3.2920284 -1.0842022e-19
-2.1414251 -0 2.1693418
-2 3.3121505 -2
1.8521664 -0 2.1629791
-3.6893488e+19 3.2896788 2
-2.1382761 -2 2.1011741
1.0842022e-19 3.3102031 -0
1.8507491 3.6893488e+19 2.0911069
3.6893488e+19 3.2908094 -1.0842022e-19
-2.1397913 1.0842022e-19 2.037545
0 3.3141744 -0
1.8536392 2 2.025311
1.0842022e-19 3.2657535 -0
-2.1062071 -2 1.9533848
-3.6893488e+19 3.3209903 3.6893488e+19
1.8585997 0 1.9596403
2 3.2980084 -3.6893488e+19
-2.1494405 1.0842022e-19 1.911512
-2 3.320169 0
1.8580019 0 1.8876498
-3.6893488e+19 3.2967093 0
-2.1476996 -1.0842022e-19 1.8140856
0 3.3484523 -3.6893488e+19
-2.4043832 1.0842022e-19 1.7695155
-2 3.3449662 -2
-1.9616719 3.6893488e+19 1.6314585
3.6893488e+19 3.348366 1.0842022e-19
-2.4042833 -3.6893488e+19 -1.3069078
1.0842022e-19 3.3426843 -0
-1.9602717 -3.6893488e+19 -1.6752156
-3.6893488e+19 3.3483717 -1.0842022e-19
-2.40429 -0 -1.7921916
3.6893488e+19 3.3406043 -2
-1.9589955 -3.6893488e+19 -1.8640885
-0 3.2483573 2
-2.289175 -1.0842022e-19 -1.8560743
2 3.2679389 0
-1.9144078 -1.0842022e-19 -1.9038286
3.6893488e+19 3.248482 -1.0842022e-19
-2.2892473 2 -1.9213243
-3.6893488e+19 3.2658997 -1.0842022e-19
-1.9131566 -0 -1.9620178
3.6893488e+19 3.2463703 2
-2.288022 -1.0842022e-19 -1.9761479
-0 3.265285 3.6893488e+19
-1.9127795 3.6893488e+19 -2.0207591
1.0842022e-19 3.218164 2
-2.2716551 0 -2.0157106
3.6893488e+19 3.2332025 2
-1.898247 -0 -2.0505645
2 2.8609295 0
-1.866889 -1.0842022e-19 -1.9027094
0 2.8211575 3.6893488e+19
1.6087211 3.6893488e+19 -1.8947532
-3.6893488e+19 2.7893531 2
-1.8189198 0 -1.8886294
-3.6893488e+19 2.7656379 -2
1.5683171 -2 -1.8845991
1.0842022e-19 2.7394779 3.6893488e+19
-1.7890199 -2 -1.8809688
3.6893488e+19 2.7003582 -2
1.5388732 3.6893488e+19 -1.8767122
2 2.6664999 -2
-1.7645656 -3.6893488e+19 -1.8712499
-1.0842022e-19 2.6406827 2
1.517159 0 -1.8667544
0 2.6205897 -1.0842022e-19
-1.748363 0 -1.8649135
-0 2.596123 -0
1.5009449 0 -1.8586093
2 2.5702341 2
-1.7146156 2 -1.8503178
2 2.5594404 -1.0842022e-19
1.4751941 -2 -1.8512442
0 2.5431745 -1.0842022e-19
-1.6964806 -2 -1.847778
3.6893488e+19 2.5272672 -2
1.4517802 -3.6893488e+19 -1.8433259
-3.6893488e+19 2.5083084 -3.6893488e+19
-1.6731141 -1.0842022e-19 -1.8358433
0 2.491972 -0
-1.7677349 -0 -1.8330866
-0 2.4703774 3.6893488e+19
-1.5193123 -0 -1.8301022
-2 2.4477408 3.6893488e+19
-1.7549022 1.0842022e-19 -1.8270463
1.0842022e-19 2.3794634 0
-1.7201861 1.0842022e-19 -1.8177571
-3.6893488e+19 2.3273995 2
-1.6899757 -2 -1.8099445
1.0842022e-19 2.2840979 0
-1.6648496 -3.6893488e+19 -1.8017173
-1.0842022e-19 2.2610137 1.0842022e-19
1.3149519 1.0842022e-19 -1.8018843
-0 2.2245212 -3.6893488e+19
1.2976655 0 -1.7994326
1.0842022e-19 2.1904008 1.0842022e-19
1.2852501 0 -1.7996194
0 2.1534424 3.6893488e+19
1.2718018 2 -1.7966911
1.0842022e-19 3.2756934 -3.6893488e+19
-2.3199456 0 2.7342861
2 3.2761075 -2
-2.3204262 3.6893488e+19 2.7188604
-2 3.2728744 -1.0842022e-19
-2.3166742 3.6893488e+19 2.6815786
1.0842022e-19 3.2740698 -1.0842022e-19
-2.3180614 0 2.6675687
1.0842022e-19 3.3446591 -0
-1.9614835 -2 2.756943
-1.0842022e-19 3.3467591 3.6893488e+19
-1.9627721 -2 2.7470276
0 3.2978635 -2
1.841769 2 2.6683254
2 3.3417122 -0
-2.2080197 -1.0842022e-19 2.7204735
1.0842022e-19 3.2977123 2
1.8416591 -3.6893488e+19 2.6510162
-1.0842022e-19 3.2974219 1.0842022e-19
1.8414478 -1.0842022e-19 2.6335886
3.6893488e+19 3.2915676 -3.6893488e+19
-2.1408074 0 2.6013377
-1.0842022e-19 3.2763739 3.6893488e+19
1.8261302 -3.6893488e+19 2.5748823
3.6893488e+19 3.2869368 0
-2.1346006 -1.0842022e-19 2.5793939
3.6893488e+19 3.2947543 3.6893488e+19
1.8395064 -2 2.57971
2 3.2878044 -0
-2.1357634 -1.0842022e-19 2.5640128
2 3.2769907 1.0842022e-19
1.826579 3.6893488e+19 2.544106
2 3.3034141 0
-2.1566863 1.0842022e-19 2.5638082
0 3.2847278 -0
1.8322096 -2 2.5361745
-3.6893488e+19 3.2794752 -2
-2.3243346 -0 2.5157568
-2 3.2646902 -2
-1.9124144 2 2.4871986
-1.0842022e-19 3.3047128 -0
-2.3536232 -1.0842022e-19 2.5224903
-1.0842022e-19 3.2659366 -0
-1.9131793 1.0842022e-19 2.4594595
1.0842022e-19 3.2993159 -0
-2.3473599 1.0842022e-19 2.500731
-0 3.2669852 -1.0842022e-19
-1.9138227 -0 2.4311588
-0 3.277036 1.0842022e-19
-2.3215039 2 2.4328415
-2 3.2667465 -0
-1.9136763 1.0842022e-19 2.4007363
0 3.277621 3.6893488e+19
-2.3221827 -3.6893488e+19 2.402432
0 3.2683778 0
-1.9146771 -0 2.3729994
-3.6893488e+19 3.257025 3.6893488e+19
-2.298281 -1.0842022e-19 2.3436196
0 3.268923 -1.0842022e-19
-1.9150116 -1.0842022e-19 2.3435512
-2 3.2580228 0
-2.299439 -2 2.3159118
-2 3.2683337 0
-1.9146502 -3.6893488e+19 2.3126862
-3.6893488e+19 3.2532721 -2
-2.2939255 0 2.2816243
2 3.2681985 -0
-1.9145671 -0 2.2824621
-1.0842022e-19 3.2763834 -1.0842022e-19
1.8261371 0 2.2755716
0 3.2557864 2
-2.0928476 -3.6893488e+19 2.2318273
3.6893488e+19 3.27684 -0
1.8264693 2 2.2400856
1.0842022e-19 3.2562125 -1.0842022e-19
-2.0934186 -1.0842022e-19 2.1752443
0 3.2694025 -3.6893488e+19
1.8210566 -2 2.1666505
-0 3.2555189 0
-2.0924892 3.6893488e+19 2.1169157
-2 3.3121505 -2
1.8521664 -0 2.1629791
-1.0842022e-19 3.2555614 -2
-2.092546 2 2.059814
-0 3.2717438 -0
1.8227606 3.6893488e+19 2.0488162
-0 3.2572298 -0
-2.0947824 2 2.0043423
-3.6893488e+19 3.2737076 0
1.8241899 1.0842022e-19 1.9898502
3.6893488e+19 3.2557182 -0
-2.0927563 -1.0842022e-19 1.9457047
-3.6893488e+19 3.3209903 3.6893488e+19
1.8585997 0 1.9596403
-2 3.2559419 1.0842022e-19
-2.0930562 -3.6893488e+19 1.8887131
1.0842022e-19 3.2795973 -3.6893488e+19
1.8284758 3.6893488e+19 1.8654135
-3.6893488e+19 3.2967093 0
-2.1476996 -1.0842022e-19 1.8140856
3.6893488e+19 3.2570848 0
-2.2983503 0 1.7132444
-3.6893488e+19 3.2691991 -3.6893488e+19
-1.9151812 -3.6893488e+19 1.580171
3.6893488e+19 3.348366 1.0842022e-19
-2.4042833 -3.6893488e+19 -1.3069078
3.6893488e+19 3.2685578 0
-1.9147877 3.6893488e+19 -1.6373146
2 3.2472734 1.0842022e-19
-2.2885461 1.0842022e-19 -1.7386529
-1.0842022e-19 3.2677939 -0
-1.9143189 2 -1.8129791
-0 3.2483573 2
-2.289175 -1.0842022e-19 -1.8560743
2 3.2679389 0
-1.9144078 -1.0842022e-19 -1.9038286
3.6893488e+19 3.248482 -1.0842022e-19
-2.2892473 2 -1.9213243
-3.6893488e+19 3.2658997 -1.0842022e-19
-1.9131566 -0 -1.9620178
3.6893488e+19 3.2463703 2
-2.288022 -1.0842022e-19 -1.9761479
2 3.2365069 -1.0842022e-19
-1.8992608 3.6893488e+19 -1.9982729
1.0842022e-19 3.218164 2
-2.2716551 0 -2.0157106
3.6893488e+19 3.2332025 2
-1.898247 -0 -2.0505645
2 2.8609295 0
-1.866889 -1.0842022e-19 -1.9027094
0 2.8211575 3.6893488e+19
1.6087211 3.6893488e+19 -1.8947532
-3.6893488e+19 2.7893531 2
-1.8189198 0 -1.8886294
-3.6893488e+19 2.7656379 -2
1.5683171 -2 -1.8845991
1.0842022e-19 2.7394779 3.6893488e+19
-1.7890199 -2 -1.8809688
3.6893488e+19 2.7003582 -2
1.5388732 3.6893488e+19 -1.8767122
2 2.6664999 -2
-1.7645656 -3.6893488e+19 -1.8712499
-1.0842022e-19 2.6406827 2
1.517159 0 -1.8667544
0 2.6205897 -1.0842022e-19
-1.748363 0 -1.8649135
-0 2.596123 -0
1.5009449 0 -1.8586093
2 2.5702341 2
-1.7146156 2 -1.8503178
2 2.5594404 -1.0842022e-19
1.4751941 -2 -1.8512442
0 2.5431745 -1.0842022e-19
-1.6964806 -2 -1.847778
3.6893488e+19 2.5272672 -2
1.4517802 -3.6893488e+19 -1.8433259
-3.6893488e+19 2.5083084 -3.6893488e+19
-1.6731141 -1.0842022e-19 -1.8358433
0 2.491972 -0
-1.7677349 -0 -1.8330866
-0 2.4703774 3.6893488e+19
-1.5193123 -0 -1.8301022
-2 2.4477408 3.6893488e+19
-1.7549022 1.0842022e-19 -1.8270463
1.0842022e-19 2.3794634 0
-1.7201861 1.0842022e-19 -1.8177571
-3.6893488e+19 2.3273995 2
-1.6899757 -2 -1.8099445
1.0842022e-19 2.2840979 0
-1.6648496 -3.6893488e+19 -1.8017173
-1.0842022e-19 2.2610137 1.0842022e-19
1.3149519 1.0842022e-19 -1.8018843
-0 2.2245212 -3.6893488e+19
1.2976655 0 -1.7994326
1.0842022e-19 2.1904008 1.0842022e-19
1.2852501 0 -1.7996194
0 2.1534424 3.6893488e+19
1.2718018 2 -1.7966911
-1.0842022e-19 3.304863 3.6893488e+19
-2.3666506 -0 2.7678146
0 3.2770298 2
-2.3331761 1.0842022e-19 2.7205174
-2 3.2715681 3.6893488e+19
-2.3266077 -0 2.6795957
-2 3.2739553 -2
-2.3294787 -2 2.6674752
0 3.3454084 -0
-1.9909225 -2 2.7575154
0 3.2807643 0
-2.3376677 -1.0842022e-19 2.6616054
1.0842022e-19 3.3454182 -3.6893488e+19
-1.9909292 2 2.7451322
1.0842022e-19 3.2979329 -2
1.7918433 -3.6893488e+19 2.6684117
-2 3.2977355 -3.6893488e+19
1.7917328 -3.6893488e+19 2.651037
-1.0842022e-19 3.2833784 1.0842022e-19
-2.1536405 -3.6893488e+19 2.6239336
3.6893488e+19 3.2974916 -2
1.7915962 3.6893488e+19 2.6336682
2 3.2855628 -3.6893488e+19
-2.1567516 -2 2.610462
2 3.2950082 -2
1.7902055 -3.6893488e+19 2.6136019
-3.6893488e+19 3.2915344 3.6893488e+19
-2.1652579 0 2.6013377
3.6893488e+19 3.276273 -1.0842022e-19
1.7797137 3.6893488e+19 2.5747552
0 3.303623 -2
-2.1824763 -0 2.5985885
-0 3.2945454 0
1.7899464 3.6893488e+19 2.5794678
-1.0842022e-19 3.3046613 -2
-2.1839554 2 2.5824425
3.6893488e+19 3.275511 1.0842022e-19
1.7792871 -1.0842022e-19 2.5425272
0 3.303194 3.6893488e+19
-2.1818655 2 2.563616
-2 3.2790499 3.6893488e+19
-2.3356059 2 2.5154037
-2 3.2929981 3.6893488e+19
-1.9543663 -1.0842022e-19 2.519666
-2 3.296798 -3.6893488e+19
-1.9570167 0 2.5064032
-0 3.2623601 -2
-2.3155334 2 2.4396329
-0 3.2969365 2
-1.9571134 3.6893488e+19 2.4795535
1.0842022e-19 3.3025701 -1.0842022e-19
-2.3638928 -0 2.4728274
-2 3.2972937 1.0842022e-19
-1.9573625 -2 2.4466515
3.6893488e+19 3.3239965 0
-2.389662 -2 2.4697478
2 3.2957692 -3.6893488e+19
-1.9562991 3.6893488e+19 2.4110911
0 3.2924707 2
-2.3517466 2 2.3910828
0 3.2892609 -2
-1.9517595 1.0842022e-19 2.3695529
3.6893488e+19 3.2947929 -2
-2.3545394 -2 2.3610013
1.0842022e-19 3.2868752 -0
-1.9500955 -2 2.3343103
-3.6893488e+19 3.2901394 -0
-2.348943 1.0842022e-19 2.3226812
-0 3.2872477 0
-1.9503554 1.0842022e-19 2.3025408
-1.0842022e-19 3.273802 1.0842022e-19
1.7783301 -2 2.2729905
0 3.2937012 -3.6893488e+19
-2.1683438 1.0842022e-19 2.2766552
0 3.2857709 -3.6893488e+19
1.7850325 3.6893488e+19 2.2529411
-2 3.296932 0
-2.1729462 -1.0842022e-19 2.2428839
1.0842022e-19 3.2847505 3.6893488e+19
1.7844611 2 2.1903758
-0 3.295769 3.6893488e+19
-2.1712894 -2 2.1747613
2 3.3122838 2
1.7998799 -1.0842022e-19 2.1631444
2 3.2557509 -0
-2.1142881 -2 2.0600786
0 3.3115854 3.6893488e+19
1.7994888 -3.6893488e+19 2.0926178
-1.0842022e-19 3.2572787 -0
-2.1164644 -3.6893488e+19 2.0044193
1.0842022e-19 3.3330116 3.6893488e+19
1.8114876 1.0842022e-19 1.9674855
-3.6893488e+19 3.293823 0
-2.1685178 -0 1.9092617
-2 3.2790577 -1.0842022e-19
1.7812732 3.6893488e+19 1.8649434
1.0842022e-19 3.2961764 0
-2.1718698 2 1.8137673
3.6893488e+19 3.3501298 2
-2.4210918 3.6893488e+19 1.7702394
-1.0842022e-19 3.3453538 -2
-1.9908844 -3.6893488e+19 1.6316133
-3.6893488e+19 3.3485789 3.6893488e+19
-2.4192266 -1.0842022e-19 -1.3070543
-3.6893488e+19 3.3422751 -1.0842022e-19
-1.9887371 -3.6893488e+19 -1.6750159
-3.6893488e+19 3.3404984 3.6893488e+19
-2.4095085 -2 -1.7884446
-3.6893488e+19 3.3415856 1.0842022e-19
-1.9882562 0 -1.8647904
-0 3.247108 1.0842022e-19
-2.2989292 -0 -1.8555397
0 3.2657847 -1.0842022e-19
-1.9353849 -2 -1.9026
1.0842022e-19 3.2484479 -0
-2.2997348 0 -1.9213457
-0 3.2653701 -0
-1.9350958 2 -1.9616069
-0 3.2473333 -0
-2.2990646 0 -1.9766306
2 3.2645838 3.6893488e+19
-1.9345473 2 -2.0200579
1.0842022e-19 3.2178242 -2
-2.2813196 -2 -2.015569
0 3.2323649 2
-1.9182248 -2 -2.0500596
1.0842022e-19 2.8602028 -2
-1.8782669 1.0842022e-19 -1.9024192
1.0842022e-19 2.8170476 -3.6893488e+19
1.5525476 -2 -1.892897
-0 2.7896321 -1.0842022e-19
-1.831274 -1.0842022e-19 -1.8887787
-3.6893488e+19 2.766331 -3.6893488e+19
1.5241462 -3.6893488e+19 -1.8849467
1.0842022e-19 2.7364321 2
-1.7982168 1.0842022e-19 -1.8801687
3.6893488e+19 2.6992478 1.0842022e-19
1.5007901 -2 -1.8763964
3.6893488e+19 2.6664526 0
-1.7732974 -3.6893488e+19 -1.8712499
-2 2.6411915 3.6893488e+19
1.4690685 -0 -1.8670628
-0 2.6199253 -0
-1.7567291 -2 -1.8645104
-3.6893488e+19 2.596132 1.0842022e-19
1.4438351 0 -1.8586093
-1.0842022e-19 2.5684562 -3.6893488e+19
-1.7268023 0 -1.8490924
-0 2.5580792 2
1.4225254 1.0842022e-19 -1.8502432
-1.0842022e-19 2.5433898 -1.0842022e-19
-1.7089503 -3.6893488e+19 -1.8479669
-2 2.5260305 -3.6893488e+19
1.404578 3.6893488e+19 -1.8423464
1.0842022e-19 2.5080309 -2
-1.6837678 2 -1.8356405
-0 2.4923725 3.6893488e+19
-1.7730408 1.0842022e-19 -1.8332964
0 2.4663768 -0
-1.5376489 2 -1.8283687
3.6893488e+19 2.4474065 -2
-1.7595209 2 -1.8269345
-2 3.2757921 1.0842022e-19
-2.3316879 -1.0842022e-19 2.7345533
0 3.2770298 2
-2.3331761 1.0842022e-19 2.7205174
-2 3.2715681 3.6893488e+19
-2.3266077 -0 2.6795957
-2 3.2739553 -2
-2.3294787 -2 2.6674752
0 3.3454084 -0
-1.9909225 -2 2.7575154
0 3.2807643 0
-2.3376677 -1.0842022e-19 2.6616054
1.0842022e-19 3.3454182 -3.6893488e+19
-1.9909292 2 2.7451322
1.0842022e-19 3.2979329 -2
1.7918433 -3.6893488e+19 2.6684117
-2 3.2977355 -3.6893488e+19
1.7917328 -3.6893488e+19 2.651037
-1.0842022e-19 3.2833784 1.0842022e-19
-2.1536405 -3.6893488e+19 2.6239336
3.6893488e+19 3.2974916 -2
1.7915962 3.6893488e+19 2.6336682
2 3.2855628 -3.6893488e+19
-2.1567516 -2 2.610462
2 3.2950082 -2
1.7902055 -3.6893488e+19 2.6136019
-3.6893488e+19 3.2915344 3.6893488e+19
-2.1652579 0 2.6013377
3.6893488e+19 3.276273 -1.0842022e-19
1.7797137 3.6893488e+19 2.5747552
-3.6893488e+19 3.2875686 0
-2.1596091 1.0842022e-19 2.5801568
-0 3.2945454 0
1.7899464 3.6893488e+19 2.5794678
0 3.2893031 2
-2.1620793 -1.0842022e-19 2.5656836
3.6893488e+19 3.275511 1.0842022e-19
1.7792871 -1.0842022e-19 2.5425272
0 3.303194 3.6893488e+19
-2.1818655 2 2.563616
-2 3.2790499 3.6893488e+19
-2.3356059 2 2.5154037
-0 3.2667711 3.6893488e+19
-1.9360729 3.6893488e+19 2.491055
3.6893488e+19 3.2664504 1.0842022e-19
-1.9358493 -2 2.4603717
-0 3.2623601 -2
-2.3155334 2 2.4396329
3.6893488e+19 3.2663181 -3.6893488e+19
-1.9357569 -2 2.4301045
2 3.2619555 3.6893488e+19
-2.3150468 -3.6893488e+19 2.4093587
2 3.2669034 2
-1.9361652 2 2.4009933
3.6893488e+19 3.3239965 0
-2.389662 -2 2.4697478
-1.0842022e-19 3.2672427 0
-1.936402 1.0842022e-19 2.3714421
0 3.2924707 2
-2.3517466 2 2.3910828
-3.6893488e+19 3.2679896 -3.6893488e+19
-1.9369229 -0 2.3423774
-1.0842022e-19 3.2583923 -3.6893488e+19
-2.3107615 1.0842022e-19 2.3164256
-1.0842022e-19 3.2681947 1.0842022e-19
-1.937066 -1.0842022e-19 2.312541
-3.6893488e+19 3.2523837 3.6893488e+19
-2.3035352 -2 2.2806907
-3.6893488e+19 3.2675292 0
-1.9366019 3.6893488e+19 2.2817726
-1.0842022e-19 3.273802 1.0842022e-19
1.7783301 -2 2.2729905
0 3.2551653 -3.6893488e+19
-2.1134539 0 2.2307119
0 3.2857709 -3.6893488e+19
1.7850325 3.6893488e+19 2.2529411
-0 3.2557781 2
-2.114327 -3.6893488e+19 2.1745715
-1.0842022e-19 3.2653363 0
1.7735893 2 2.1603513
-2 3.2552404 -1.0842022e-19
-2.1135612 3.6893488e+19 2.1165574
-2 3.2965789 -3.6893488e+19
1.7910851 -0 2.1423674
2 3.2557509 -0
-2.1142881 -2 2.0600786
0 3.2965636 3.6893488e+19
1.7910765 -2 2.0760999
-1.0842022e-19 3.2572787 -0
-2.1164644 -3.6893488e+19 2.0044193
1.0842022e-19 3.3330116 3.6893488e+19
1.8114876 1.0842022e-19 1.9674855
-1.0842022e-19 3.254477 -1.0842022e-19
-2.1124737 0 1.8879349
-0 3.2659032 1.0842022e-19
1.7739067 -3.6893488e+19 1.8536326
1.0842022e-19 3.2961764 0
-2.1718698 2 1.8137673
-1.0842022e-19 3.2564585 0
-2.3084359 -3.6893488e+19 1.7127661
-0 3.2697003 3.6893488e+19
-1.9381161 0 1.580564
2 3.2528024 -1.0842022e-19
-2.3040385 1.0842022e-19 -1.2570325
-0 3.2701211 -1.0842022e-19
-1.9384096 0 -1.6381214
-3.6893488e+19 3.2489221 0
-2.3000202 -2 -1.7394905
-0 3.2693884 -2
-1.9378985 -0 -1.8141085
-0 3.247108 1.0842022e-19
-2.2989292 -0 -1.8555397
0 3.2657847 -1.0842022e-19
-1.9353849 -2 -1.9026
1.0842022e-19 3.2484479 -0
-2.2997348 0 -1.9213457
-0 3.2653701 -0
-1.9350958 2 -1.9616069
-0 3.2473333 -0
-2.2990646 0 -1.9766306
-3.6893488e+19 3.2362621 1.0842022e-19
-1.919584 -0 -1.9981613
1.0842022e-19 3.2178242 -2
-2.2813196 -2 -2.015569
0 3.2323649 2
-1.9182248 -2 -2.0500596
1.0842022e-19 2.8602028 -2
-1.8782669 1.0842022e-19 -1.9024192
1.0842022e-19 2.8170476 -3.6893488e+19
1.5525476 -2 -1.892897
-0 2.7896321 -1.0842022e-19
-1.831274 -1.0842022e-19 -1.8887787
-3.6893488e+19 2.766331 -3.6893488e+19
1.5241462 -3.6893488e+19 -1.8849467
1.0842022e-19 2.7364321 2
-1.7982168 1.0842022e-19 -1.8801687
3.6893488e+19 2.6992478 1.0842022e-19
1.5007901 -2 -1.8763964
3.6893488e+19 2.6664526 0
-1.7732974 -3.6893488e+19 -1.8712499
-2 2.6411915 3.6893488e+19
1.4690685 -0 -1.8670628
-0 2.6199253 -0
-1.7567291 -2 -1.8645104
-3.6893488e+19 2.596132 1.0842022e-19
1.4438351 0 -1.8586093
-1.0842022e-19 2.5684562 -3.6893488e+19
-1.7268023 0 -1.8490924
-0 2.5580792 2
1.4225254 1.0842022e-19 -1.8502432
-1.0842022e-19 2.5433898 -1.0842022e-19
-1.7089503 -3.6893488e+19 -1.8479669
-2 2.5260305 -3.6893488e+19
1.404578 3.6893488e+19 -1.8423464
1.0842022e-19 2.5080309 -2
-1.6837678 2 -1.8356405
-0 2.4923725 3.6893488e+19
-1.7730408 1.0842022e-19 -1.8332964
0 2.4663768 -0
-1.5376489 2 -1.8283687
3.6893488e+19 2.4474065 -2
-1.7595209 2 -1.8269345
-2 3.3197694 1.0842022e-19
-2.3980651 -2 2.7997694
-2 3.3030832 -3.6893488e+19
-2.3772931 -0 2.7752025
-3.6893488e+19 3.3042235 1.0842022e-19
-2.3787129 3.6893488e+19 2.7673066
-1.0842022e-19 3.2776599 -1.0842022e-19
-2.345645 -1.0842022e-19 2.7216823
2 3.2698936 -0
-2.3359771 1.0842022e-19 2.6770325
-1.0842022e-19 3.2744055 3.6893488e+19
-2.3415937 2 2.6682451
0 3.2807693 2
-2.3495157 -0 2.6616952
2 3.2994776 0
1.7349508 -2 2.670573
-3.6893488e+19 3.2975872 -2
1.7334677 3.6893488e+19 2.6508296
-1.0842022e-19 3.2822971 2
-2.1758244 3.6893488e+19 2.6225517
-3.6893488e+19 3.2954302 3.6893488e+19
1.7317755 3.6893488e+19 2.6310024
-0 3.2856209 1.0842022e-19
-2.1808381 -1.0842022e-19 2.6105788
-2 3.2952609 1.0842022e-19
1.7316427 1.0842022e-19 2.6139066
3.6893488e+19 3.2910674 3.6893488e+19
-2.1890535 2 2.6008167
0 3.2955246 3.6893488e+19
1.7318494 -1.0842022e-19 2.5973783
-0 3.3022268 0
-2.2058868 -1.0842022e-19 2.5970273
-0 3.2942417 -3.6893488e+19
1.7308429 3.6893488e+19 2.5791216
0 3.3058774 2
-2.2113934 0 2.5838096
0 3.3028326 1.0842022e-19
-2.2068005 -2 2.5632796
-2 3.3022766 -1.0842022e-19
-2.2059619 3.6893488e+19 2.5455637
-0 3.293226 -0
-2.3650224 0 2.5289426
2 3.2936943 0
-1.9794952 3.6893488e+19 2.520323
1.0842022e-19 3.296982 1.0842022e-19
-1.9820642 -1.0842022e-19 2.5065775
2 3.3201454 -2
-2.3985329 -0 2.518285
-3.6893488e+19 3.296561 1.0842022e-19
-1.9817353 -3.6893488e+19 2.478976
0 3.3036568 0
-2.3780072 1.0842022e-19 2.4746208
-3.6893488e+19 3.2967157 -0
-1.9818562 3.6893488e+19 2.4458103
2 3.3178654 1.0842022e-19
-2.3956947 -1.0842022e-19 2.4609509
0 3.2659194 -2
-1.9577916 2 2.3696251
3.6893488e+19 3.2964482 -0
-2.3690336 2 2.396481
0 3.2894146 0
-1.976151 1.0842022e-19 2.3697717
2 3.2960541 -1.0842022e-19
-2.3685429 -1.0842022e-19 2.3626184
-3.6893488e+19 3.2908771 -2
-1.9772938 2 2.3389947
-0 3.2943861 -3.6893488e+19
-2.3664665 -2 2.3274696
0 3.2882123 -2
-1.9752114 2 2.303575
1.0842022e-19 3.2809966 2
1.7204517 -3.6893488e+19 2.280158
-2 3.2683938 -1.0842022e-19
-2.1548522 -3.6893488e+19 2.252847
-3.6893488e+19 3.2648711 3.6893488e+19
1.7078009 -2 2.2188759
-3.6893488e+19 3.2670009 -1.0842022e-19
-2.1527512 -1.0842022e-19 2.193254
-1.0842022e-19 3.2661374 3.6893488e+19
1.7087942 1.0842022e-19 2.1615822
3.6893488e+19 3.2549448 3.6893488e+19
-2.1345654 -1.0842022e-19 2.1161766
-0 3.2565467 -1.0842022e-19
-2.1369817 0 2.0610812
-3.6893488e+19 3.2698042 0
1.7116711 1.0842022e-19 2.04667
0 3.3234553 0
-2.2379084 -1.0842022e-19 2.0698988
3.6893488e+19 3.2701905 0
1.711974 -1.0842022e-19 1.986757
-3.6893488e+19 3.3234076 -1.0842022e-19
-2.2378366 2 1.9975662
0 3.2546027 1.0842022e-19
-2.1340492 -2 1.8880194
-0 3.2784696 1.0842022e-19
1.7184693 2 1.8644329
0 3.3515766 -1.0842022e-19
-2.2651634 -0 1.8491033
0 3.3526924 3.6893488e+19
-2.439049 0 1.7713317
-0 3.344177 1.0842022e-19
-2.0189428 3.6893488e+19 1.6311728
3.6893488e+19 3.2514899 2
-2.3130672 -3.6893488e+19 -1.2563733
1.0842022e-19 3.3420515 -0
-2.0172818 -2 -1.6749121
2 3.2467349 -3.6893488e+19
-2.30918 -3.6893488e+19 -1.7384883
1.0842022e-19 3.3416276 1.0842022e-19
-2.0169506 -3.6893488e+19 -1.8648342
2 3.2463853 3.6893488e+19
-2.3089626 2 -1.8552507
-3.6893488e+19 3.2654092 -1.0842022e-19
-1.9573931 -2 -1.9023938
-1.0842022e-19 3.250669 -1.0842022e-19
-2.3120453 -1.0842022e-19 -1.9223738
1.0842022e-19 3.2651043 -1.0842022e-19
-1.9571546 0 -1.9614077
-0 3.246237 3.6893488e+19
-2.3088703 -2 -1.9761763
-2 3.263912 0
-1.9562231 -3.6893488e+19 -2.0193884
-2 3.2152705 1.0842022e-19
-2.2895961 0 -2.0141726
1.0842022e-19 3.231524 -0
-1.9381334 0 -2.0495548
3.6893488e+19 3.0321817 -0
-1.8454992 0 -1.9570813
-2 2.85991 2
-1.8857244 -2 -1.9023136
-1.0842022e-19 2.8189881 1.0842022e-19
1.5001287 2 -1.8937689
3.6893488e+19 2.7892234 2
-1.8431361 -0 -1.8885995
-0 2.7654006 -1.0842022e-19
1.4582162 2 -1.8844727
-2 2.7335081 1.0842022e-19
-1.8073341 1.0842022e-19 -1.8794018
1.0842022e-19 2.6997554 1.0842022e-19
1.4264245 -3.6893488e+19 -1.8765367
-1.0842022e-19 2.6650329 -1.0842022e-19
-1.7815115 -3.6893488e+19 -1.8704399
0 2.6414485 -0
1.4035525 2 -1.8672171
2 2.6200054 3.6893488e+19
-1.7645314 -2 -1.864591
2 2.5967617 1.0842022e-19
1.3860234 0 -1.8590297
2 2.5687912 0
-1.7404364 0 -1.849355
-0 2.5578363 3.6893488e+19
1.3665085 2 -1.8500612
-3.6893488e+19 2.5416143 3.6893488e+19
-1.7199394 3.6893488e+19 -1.8466443
1.0842022e-19 2.5266581 -3.6893488e+19
1.3420479 -2 -1.8428361
1.0842022e-19 2.5077515 2
-1.6943995 -2 -1.8354377
1.0842022e-19 2.4917781 -1.0842022e-19
-1.7780474 -0 -1.8330866
3.6893488e+19 2.4658515 -3.6893488e+19
-1.5570101 -0 -1.8281519
-3.6893488e+19 2.4475644 -3.6893488e+19
-1.7642876 1.0842022e-19 -1.8270463
-0 2.3778303 0
-1.7351711 -2 -1.8170031
-3.6893488e+19 2.3260365 -0
-1.7029333 -2 -1.8092471
0 2.2849712 -0
-1.6773732 -2 -1.8023304
-1.0842022e-19 2.2600398 3.6893488e+19
1.2040105 -1.0842022e-19 -1.8012161
0 2.2255266 0
1.1865337 -2 -1.7997941
0 2.1904211 -1.0842022e-19
1.1727629 0 -1.7996194
0 2.15395 -0
1.1584564 0 -1.7968992
-2 3.3197694 1.0842022e-19
-2.3980651 -2 2.7997694
-2 3.3030832 -3.6893488e+19
-2.3772931 -0 2.7752025
0 3.2757218 -0
-2.3432322 -0 2.7345266
-1.0842022e-19 3.2776599 -1.0842022e-19
-2.345645 -1.0842022e-19 2.7216823
2 3.2698936 -0
-2.3359771 1.0842022e-19 2.6770325
-1.0842022e-19 3.2744055 3.6893488e+19
-2.3415937 2 2.6682451
0 3.2807693 2
-2.3495157 -0 2.6616952
2 3.2994776 0
1.7349508 -2 2.670573
-3.6893488e+19 3.2975872 -2
1.7334677 3.6893488e+19 2.6508296
-1.0842022e-19 3.2822971 2
-2.1758244 3.6893488e+19 2.6225517
-3.6893488e+19 3.2954302 3.6893488e+19
1.7317755 3.6893488e+19 2.6310024
-0 3.2856209 1.0842022e-19
-2.1808381 -1.0842022e-19 2.6105788
-2 3.2952609 1.0842022e-19
1.7316427 1.0842022e-19 2.6139066
3.6893488e+19 3.2910674 3.6893488e+19
-2.1890535 2 2.6008167
0 3.2955246 3.6893488e+19
1.7318494 -1.0842022e-19 2.5973783
3.6893488e+19 3.287735 1.0842022e-19
-2.184027 3.6893488e+19 2.5803874
-0 3.2942417 -3.6893488e+19
1.7308429 3.6893488e+19 2.5791216
-0 3.2905982 -3.6893488e+19
-2.1883457 1.0842022e-19 2.5671351
0 3.3028326 1.0842022e-19
-2.2068005 -2 2.5632796
-2 3.3022766 -1.0842022e-19
-2.2059619 3.6893488e+19 2.5455637
3.6893488e+19 3.2780039 -1.0842022e-19
-2.3460732 -3.6893488e+19 2.5144618
2 3.2936943 0
-1.9794952 3.6893488e+19 2.520323
2 3.2657044 -0
-1.9576236 -3.6893488e+19 2.4591105
0 3.2623541 2
-2.3265915 0 2.4397109
3.6893488e+19 3.265929 -2
-1.9577991 -3.6893488e+19 2.429502
-0 3.2616858 -0
-2.3257596 -3.6893488e+19 2.4090195
3.6893488e+19 3.2657986 0
-1.9576973 -2 2.3993576
-3.6893488e+19 3.26074 -2
-2.3245823 -0 2.3781111
0 3.2659194 -2
-1.9577916 2 2.3696251
3.6893488e+19 3.2964482 -0
-2.3690336 2 2.396481
1.0842022e-19 3.2671328 0
-1.9587398 -1.0842022e-19 2.3413031
2 3.2960541 -1.0842022e-19
-2.3685429 -1.0842022e-19 2.3626184
-3.6893488e+19 3.2683809 -1.0842022e-19
-1.9597151 -2 2.312777
-0 3.2943861 -3.6893488e+19
-2.3664665 -2 2.3274696
-1.0842022e-19 3.2687445 -0
-1.9599992 3.6893488e+19 2.2830696
-1.0842022e-19 3.2726066 -0
1.7138696 3.6893488e+19 2.2717934
-2 3.2683938 -1.0842022e-19
-2.1548522 -3.6893488e+19 2.252847
-3.6893488e+19 3.2648711 3.6893488e+19
1.7078009 -2 2.2188759
-3.6893488e+19 3.2670009 -1.0842022e-19
-2.1527512 -1.0842022e-19 2.193254
-1.0842022e-19 3.2661374 3.6893488e+19
1.7087942 1.0842022e-19 2.1615822
3.6893488e+19 3.2549448 3.6893488e+19
-2.1345654 -1.0842022e-19 2.1161766
-0 3.2565467 -1.0842022e-19
-2.1369817 0 2.0610812
-3.6893488e+19 3.2698042 0
1.7116711 1.0842022e-19 2.04667
-1.0842022e-19 3.2573414 3.6893488e+19
-2.1381805 1.0842022e-19 2.0045121
3.6893488e+19 3.2701905 0
1.711974 -1.0842022e-19 1.986757
0 3.2540672 1.0842022e-19
-2.1332414 -3.6893488e+19 1.9444864
0 3.2546027 1.0842022e-19
-2.1340492 -2 1.8880194
-0 3.2784696 1.0842022e-19
1.7184693 2 1.8644329
0 3.2949235 1.0842022e-19
-2.1948702 0 1.8129914
0 3.3526924 3.6893488e+19
-2.439049 0 1.7713317
1.0842022e-19 3.267997 3.6893488e+19
-1.9594151 1.0842022e-19 1.5792781
3.6893488e+19 3.2514899 2
-2.3130672 -3.6893488e+19 -1.2563733
1.0842022e-19 3.2694488 2
-1.9605495 -1.0842022e-19 -1.6377858
2 3.2467349 -3.6893488e+19
-2.30918 -3.6893488e+19 -1.7384883
-1.0842022e-19 3.2686849 -3.6893488e+19
-1.9599526 2 -1.8136261
2 3.2463853 3.6893488e+19
-2.3089626 2 -1.8552507
-3.6893488e+19 3.2654092 -1.0842022e-19
-1.9573931 -2 -1.9023938
-1.0842022e-19 3.250669 -1.0842022e-19
-2.3120453 -1.0842022e-19 -1.9223738
1.0842022e-19 3.2651043 -1.0842022e-19
-1.9571546 0 -1.9614077
-0 3.246237 3.6893488e+19
-2.3088703 -2 -1.9761763
-0 3.2434456 -1.0842022e-19
-1.9427912 -2 -2.0018425
-2 3.2152705 1.0842022e-19
-2.2895961 0 -2.0141726
2 3.0326397 3.6893488e+19
-1.845857 3.6893488e+19 -1.9258294
3.6893488e+19 3.0321817 -0
-1.8454992 0 -1.9570813
-2 2.85991 2
-1.8857244 -2 -1.9023136
-1.0842022e-19 2.8189881 1.0842022e-19
1.5001287 2 -1.8937689
3.6893488e+19 2.7892234 2
-1.8431361 -0 -1.8885995
-0 2.7654006 -1.0842022e-19
1.4582162 2 -1.8844727
-2 2.7335081 1.0842022e-19
-1.8073341 1.0842022e-19 -1.8794018
1.0842022e-19 2.6997554 1.0842022e-19
1.4264245 -3.6893488e+19 -1.8765367
-1.0842022e-19 2.6650329 -1.0842022e-19
-1.7815115 -3.6893488e+19 -1.8704399
0 2.6414485 -0
1.4035525 2 -1.8672171
2 2.6200054 3.6893488e+19
-1.7645314 -2 -1.864591
2 2.5967617 1.0842022e-19
1.3860234 0 -1.8590297
2 2.5687912 0
-1.7404364 0 -1.849355
-0 2.5578363 3.6893488e+19
1.3665085 2 -1.8500612
-3.6893488e+19 2.5416143 3.6893488e+19
-1.7199394 3.6893488e+19 -1.8466443
1.0842022e-19 2.5266581 -3.6893488e+19
1.3420479 -2 -1.8428361
1.0842022e-19 2.5077515 2
-1.6943995 -2 -1.8354377
1.0842022e-19 2.4917781 -1.0842022e-19
-1.7780474 -0 -1.8330866
3.6893488e+19 2.4658515 -3.6893488e+19
-1.5570101 -0 -1.8281519
-3.6893488e+19 2.4475644 -3.6893488e+19
-1.7642876 1.0842022e-19 -1.8270463
-0 2.3778303 0
-1.7351711 -2 -1.8170031
-3.6893488e+19 2.3260365 -0
-1.7029333 -2 -1.8092471
0 2.2849712 -0
-1.6773732 -2 -1.8023304
-1.0842022e-19 2.2600398 3.6893488e+19
1.2040105 -1.0842022e-19 -1.8012161
0 2.2255266 0
1.1865337 -2 -1.7997941
0 2.1904211 -1.0842022e-19
1.1727629 0 -1.7996194
0 2.15395 -0
1.1584564 0 -1.7968992
1.0842022e-19 3.320416 -3.6893488e+19
-2.4124033 0 2.8004379
-2 3.3031874 2
-2.390229 0 2.7753544
-3.6893488e+19 3.3041756 3.6893488e+19
-2.3915009 3.6893488e+19 2.7673199
3.6893488e+19 3.2783337 -0
-2.3582399 -2 2.7229249
2 3.2992067 2
-2.3851054 3.6893488e+19 2.7235105
-2 3.2807722 2
-2.3613787 -0 2.6617851
0 3.2988043 0
1.6340812 1.0842022e-19 2.6696222
-3.6893488e+19 3.2974985 3.6893488e+19
1.6334953 1.0842022e-19 2.6507051
1.0842022e-19 3.2799978 -2
-2.1959169 -0 2.6195641
-2 3.2971771 -0
1.6333511 1.0842022e-19 2.6332505
1.0842022e-19 3.3020175 1.0842022e-19
-2.2309849 0 2.6313269
2 3.2956817 3.6893488e+19
1.6326801 -1.0842022e-19 2.6144204
-2 3.2880056 -1.0842022e-19
-2.2086701 -2 2.5971706
1.0842022e-19 3.29491 1.0842022e-19
1.6323338 0 2.5966516
1.0842022e-19 3.2877758 2
-2.2083039 -0 2.580476
1.0842022e-19 3.2940753 2
1.6319592 -2 2.5789311
-0 3.3047097 -3.6893488e+19
-2.2352724 -0 2.5825775
3.6893488e+19 3.3026392 -2
-2.2319751 1.0842022e-19 2.5631196
-1.0842022e-19 3.3021917 1.0842022e-19
-2.2312627 -2 2.5455182
1.0842022e-19 3.2993982 -1.0842022e-19
-2.3853517 -0 2.534873
3.6893488e+19 3.2935193 -1.0842022e-19
-2.0040157 2 2.5201802
1.0842022e-19 3.2708633 -3.6893488e+19
-2.3486247 -1.0842022e-19 2.4847319
1.0842022e-19 3.2967446 -2
-2.0068069 -2 2.5063896
0 3.2610295 3.6893488e+19
-2.3359678 0 2.4375815
-0 3.2967741 3.6893488e+19
-2.0068326 0 2.4793527
2 3.3023691 2
-2.3891757 1.0842022e-19 2.4727063
-2 3.296478 -1.0842022e-19
-2.0065763 3.6893488e+19 2.4454832
-3.6893488e+19 3.3184042 3.6893488e+19
-2.4098144 -3.6893488e+19 2.4618282
0 3.2965872 -0
-2.0066707 2 2.4122808
-0 3.298125 1.0842022e-19
-2.3837132 -1.0842022e-19 2.3988063
-3.6893488e+19 3.2669744 -2
-1.9810436 -2 2.3411241
1.0842022e-19 3.2960548 -3.6893488e+19
-2.3810484 -2 2.3626945
1.0842022e-19 3.2908888 2
-2.0017393 -0 2.339031
-3.6893488e+19 3.293921 2
-2.3783023 -1.0842022e-19 2.3270202
3.6893488e+19 3.2683055 2
-1.9821955 1.0842022e-19 2.2826264
-0 3.2731559 -0
1.6201444 -2 2.2723374
3.6893488e+19 3.266942 -3.6893488e+19
-2.1751246 3.6893488e+19 2.2515113
-0 3.265327 3.6893488e+19
1.6131183 -3.6893488e+19 2.2196767
3.6893488e+19 3.2646294 -3.6893488e+19
-2.1714416 -3.6893488e+19 2.1893725
-1.0842022e-19 3.2658286 0
1.6135685 -0 2.1610994
1.0842022e-19 3.2553802 2
-2.1567116 -0 2.1168485
3.6893488e+19 3.2876899 -2
1.6290939 1.0842022e-19 2.1305952
3.6893488e+19 3.2554693 1.0842022e-19
-2.1568537 2 2.059814
3.6893488e+19 3.2888589 1.0842022e-19
1.6296185 0 2.0676179
3.6893488e+19 3.3239601 1.0842022e-19
-2.2579651 -1.0842022e-19 2.0704389
2 3.2753794 3.6893488e+19
1.6221398 -1.0842022e-19 1.9913008
0 3.3231328 -2
-2.2573061 3.6893488e+19 1.9973871
2 3.3524244 3.6893488e+19
1.658142 0 1.9801564
-3.6893488e+19 3.2539303 1.0842022e-19
-2.154403 1.0842022e-19 1.8876727
-0 3.3507473 -2
1.6573894 -0 1.9007874
-1.0842022e-19 3.351048 -0
-2.2795348 -0 1.8487949
3.6893488e+19 3.3532109 -2
-2.4546134 2 1.7715772
-1.0842022e-19 3.3361411 0
-2.0409014 -1.0842022e-19 1.6281188
1.0842022e-19 3.250036 0
-2.3218184 1.0842022e-19 -1.255641
2 3.3418722 -0
-2.045861 -1.0842022e-19 -1.6748322
-2 3.2447939 -0
-2.3184216 -2 -1.7376058
1.0842022e-19 3.3409486 -3.6893488e+19
-2.0450616 -1.0842022e-19 -1.8643737
0 3.2460332 2
-2.3192191 -0 -1.8551351
1.0842022e-19 3.2651572 1.0842022e-19
-1.9794708 2 -1.9022593
1.0842022e-19 3.2481823 1.0842022e-19
-2.3206022 2 -1.9213243
1.0842022e-19 3.2660701 3.6893488e+19
-1.9802608 -3.6893488e+19 -1.9621921
0 3.2453246 -1.0842022e-19
-2.318763 -2 -1.9758072
3.6893488e+19 3.2654397 -1.0842022e-19
-1.9797153 2 -2.0209663
-2 3.2156098 2
-2.2996404 1.0842022e-19 -2.01442
1.0842022e-19 3.2300556 -3.6893488e+19
-1.9577234 0 -2.0486615
0 3.0833421 -0
-2.1790404 3.6893488e+19 -1.9766581
-3.6893488e+19 3.0320377 -0
-1.8690796 -0 -1.9569896
-3.6893488e+19 2.9227328 -3.6893488e+19
1.4396912 -2 -1.9168855
3.6893488e+19 2.8451531 1.0842022e-19
-1.8874204 -0 -1.8960871
-1.0842022e-19 2.8198657 -2
1.393532 1.0842022e-19 -1.8941627
0 2.7879405 -1.0842022e-19
-1.8542831 1.0842022e-19 -1.8880023
-0 2.766402 -0
1.3640831 0 -1.8849784
-3.6893488e+19 2.7358134 3.6893488e+19
-1.8184234 2 -1.8800353
-3.6893488e+19 2.700135 -3.6893488e+19
1.3269873 -2 -1.876642
1.0842022e-19 2.6648557 -0
-1.790172 1.0842022e-19 -1.8703663
0 2.6413288 -1.0842022e-19
1.3005993 3.6893488e+19 -1.8671399
-2 2.6184649 -3.6893488e+19
-1.7717018 -0 -1.863624
-1.0842022e-19 2.596766 3.6893488e+19
1.2806029 0 -1.8590297
-3.6893488e+19 2.5688748 -1.0842022e-19
-1.7519579 2 -1.8494425
1.0842022e-19 2.5579648 0
1.2631918 -2 -1.8501521
3.6893488e+19 2.5415773 2
-1.7321792 3.6893488e+19 -1.8466443
-2 2.5276566 3.6893488e+19
1.2491835 -2 -1.8436197
3.6893488e+19 2.5082154 -1.0842022e-19
-1.7056135 -1.0842022e-19 -1.8358433
-1.0842022e-19 2.4919238 -0
-1.7832873 3.6893488e+19 -1.8331915
3.6893488e+19 2.4655716 1.0842022e-19
-1.5764562 -1.0842022e-19 -1.8280436
-3.6893488e+19 2.4472239 -2
-1.7689041 2 -1.8269345
1.0842022e-19 3.320416 -3.6893488e+19
-2.4124033 0 2.8004379
-2 3.3031874 2
-2.390229 0 2.7753544
-3.6893488e+19 3.2756796 2
-2.3548241 -1.0842022e-19 2.7345533
3.6893488e+19 3.2783337 -0
-2.3582399 -2 2.7229249
1.0842022e-19 3.2702961 -3.6893488e+19
-2.3478947 0 2.677758
-2 3.2807722 2
-2.3613787 -0 2.6617851
0 3.2988043 0
1.6340812 1.0842022e-19 2.6696222
-3.6893488e+19 3.2974985 3.6893488e+19
1.6334953 1.0842022e-19 2.6507051
1.0842022e-19 3.2799978 -2
-2.1959169 -0 2.6195641
-2 3.2971771 -0
1.6333511 1.0842022e-19 2.6332505
0 3.2857697 2
-2.2051091 1.0842022e-19 2.6108124
2 3.2956817 3.6893488e+19
1.6326801 -1.0842022e-19 2.6144204
-2 3.2880056 -1.0842022e-19
-2.2086701 -2 2.5971706
1.0842022e-19 3.29491 1.0842022e-19
1.6323338 0 2.5966516
1.0842022e-19 3.2877758 2
-2.2083039 -0 2.580476
1.0842022e-19 3.2940753 2
1.6319592 -2 2.5789311
-2 3.2905457 -2
-2.2127154 3.6893488e+19 2.5671182
3.6893488e+19 3.3026392 -2
-2.2319751 1.0842022e-19 2.5631196
-1.0842022e-19 3.3021917 1.0842022e-19
-2.2312627 -2 2.5455182
-2 3.2807765 -0
-2.3613842 3.6893488e+19 2.5171549
3.6893488e+19 3.2935193 -1.0842022e-19
-2.0040157 2 2.5201802
1.0842022e-19 3.2708633 -3.6893488e+19
-2.3486247 -1.0842022e-19 2.4847319
1.0842022e-19 3.2967446 -2
-2.0068069 -2 2.5063896
0 3.2610295 3.6893488e+19
-2.3359678 0 2.4375815
-0 3.2967741 3.6893488e+19
-2.0068326 0 2.4793527
-0 3.261523 3.6893488e+19
-2.3366032 3.6893488e+19 2.40885
-2 3.296478 -1.0842022e-19
-2.0065763 3.6893488e+19 2.4454832
3.6893488e+19 3.2613375 -3.6893488e+19
-2.3363643 -2 2.379056
-3.6893488e+19 3.2888067 -0
-1.9999375 -0 2.4014654
-0 3.2532542 -0
-2.3259604 0 2.3387821
-3.6893488e+19 3.2669744 -2
-1.9810436 -2 2.3411241
3.6893488e+19 3.2541406 -3.6893488e+19
-2.3271012 -0 2.3113458
-0 3.2688458 3.6893488e+19
-1.982663 -0 2.3133399
-3.6893488e+19 3.293921 2
-2.3783023 -1.0842022e-19 2.3270202
3.6893488e+19 3.2683055 2
-1.9821955 1.0842022e-19 2.2826264
-0 3.2731559 -0
