# .PCD v0.7 - Point Cloud Data file format
VERSION 0.7
FIELDS x y z
SIZE 4 4 4
TYPE F F F
COUNT 1 1 1
WIDTH 1712
HEIGHT 1
VIEWPOINT 0 0 0 1 0 0 0
POINTS 1712
DATA ascii
1.0842022e-19 3.2542119 3.6893488e+19
1.9765368 2 2.6881289
-2 3.2049842 3.6893488e+19
-1.9348857 -1.0842022e-19 2.6354182
2 3.2543886 2
1.9766942 0 2.6736035
-1.0842022e-19 3.2121234 3.6893488e+19
1.9559069 3.6893488e+19 2.6213315
-2 3.2174394 2
-1.939947 2 2.6188018
2 3.2551324 0
1.9773571 -1.0842022e-19 2.6452258
2 3.2187459 -1.0842022e-19
-1.9404778 0 2.6062665
3.6893488e+19 3.2341011 -2
1.9656993 -2 2.6109705
3.6893488e+19 3.2217829 -3.6893488e+19
-1.9417119 0 2.5949595
-0 3.2379775 -2
1.9674265 0 2.599793
-3.6893488e+19 3.2379434 -3.6893488e+19
2.2063279 -1.0842022e-19 2.5932014
-3.6893488e+19 3.23576 2
2.2042861 2 2.5776949
1.0842022e-19 3.2021773 1.0842022e-19
1.6490809 3.6893488e+19 2.5480454
-3.6893488e+19 3.2415233 0
2.209676 -3.6893488e+19 2.567482
-2 3.2225339 -1.0842022e-19
1.6557924 -3.6893488e+19 2.5479455
-3.6893488e+19 3.2388263 0
2.2071538 -3.6893488e+19 2.5517454
1.0842022e-19 3.2393703 -0
2.2076623 -2 2.5381038
0 3.2131641 0
1.6527032 -0 2.515619
-3.6893488e+19 3.1806624 -3.6893488e+19
2.1527584 -1.0842022e-19 2.482527
0 3.2241743 -1.0842022e-19
1.6563331 3.6893488e+19 2.5084538
-3.6893488e+19 3.1812263 -0
2.1532857 1.0842022e-19 2.4586239
-1.0842022e-19 3.2318962 -0
1.658879 0 2.4979746
0 3.182977 -3.6893488e+19
2.1549227 -1.0842022e-19 2.4358916
-2 3.2240672 1.0842022e-19
1.6562979 -2 2.4630311
-2 3.2131064 1.0842022e-19
-1.9381863 2 2.439362
-3.6893488e+19 3.2415671 0
1.9690261 1.0842022e-19 2.4524906
2 3.1636467 1.0842022e-19
-1.918088 -3.6893488e+19 2.3690543
-3.6893488e+19 3.2388124 -3.6893488e+19
1.9677986 -2 2.4223473
0 3.1613793 1.0842022e-19
-1.9171666 -3.6893488e+19 2.343812
0 3.2375836 2
1.9672511 1.0842022e-19 2.3937836
-3.6893488e+19 3.1613576 -3.6893488e+19
-1.9171578 3.6893488e+19 2.3206143
3.6893488e+19 3.1841719 2
1.9434526 -1.0842022e-19 2.3261969
-1.0842022e-19 3.2165418 3.6893488e+19
-1.9395822 -2 2.3373661
-1.0842022e-19 3.2368217 -1.0842022e-19
1.9669116 -1.0842022e-19 2.3383687
0 3.1637132 -2
-1.9181149 -1.0842022e-19 2.275913
-2 3.1841373 -0
1.9434372 2 2.2773635
3.6893488e+19 3.1568103 -0
-1.9153099 0 2.2469358
1.0842022e-19 3.1630583 -3.6893488e+19
1.934045 1.0842022e-19 2.2314303
2 3.1595724 -2
-1.9164323 -0 2.2043743
0 3.1638191 3.6893488e+19
1.934384 0 2.1859162
-0 3.187279 3.6893488e+19
2.1589463 1.0842022e-19 2.1867104
0 3.170393 -0
1.6386017 -0 2.1456075
0 3.1932833 1.0842022e-19
2.1645615 2 2.143013
-1.0842022e-19 3.1724586 -3.6893488e+19
1.6392827 2 2.100282
1.0842022e-19 3.1821322 -1.0842022e-19
2.1541328 -2 2.0847106
2 3.1752546 3.6893488e+19
1.6402045 -0 2.0550613
-1.0842022e-19 3.2269652 2
2.1960611 2 2.0660336
1.0842022e-19 3.1693504 1.0842022e-19
1.638258 2 2.0039673
2 3.1752727 -3.6893488e+19
2.1477177 -1.0842022e-19 1.9842041
3.6893488e+19 3.1773844 -2
1.6409067 -0 1.9611111
3.6893488e+19 3.1811023 -2
2.1531696 -3.6893488e+19 1.9391975
-2 3.1652508 2
1.6369064 3.6893488e+19 1.9087615
3.6893488e+19 3.1817355 -1.0842022e-19
2.1537619 -2 1.8912156
2 3.3184032 -3.6893488e+19
1.7099522 -3.6893488e+19 1.9224164
2 3.1806011 -3.6893488e+19
2.1527009 -3.6893488e+19 1.8104315
-1.0842022e-19 3.1887848 1.0842022e-19
1.6446655 2 1.7646928
3.6893488e+19 3.1643264 3.6893488e+19
-1.9183642 -1.0842022e-19 1.6714408
-2 3.1704912 -0
1.9373569 -0 1.535272
-2 3.150027 3.6893488e+19
-1.9125535 -0 -1.2084038
1.0842022e-19 3.1476731 0
-1.911597 -1.0842022e-19 -1.6904137
-1.0842022e-19 3.1684375 1.0842022e-19
1.9364419 -2 -1.7718918
0 3.1466744 3.6893488e+19
-1.9111911 -3.6893488e+19 -1.808504
-1.0842022e-19 3.1713624 -1.0842022e-19
1.9377451 2 -1.8669614
0 3.1550577 1.0842022e-19
-1.9145977 -0 -1.888895
-2 3.1747346 -3.6893488e+19
1.9392476 2 -1.9193677
-3.6893488e+19 3.1469305 0
-1.9112953 2 -1.9304272
2 3.171747 -2
1.9379164 -1.0842022e-19 -1.9652686
-0 3.1553655 -1.0842022e-19
-1.9147228 1.0842022e-19 -1.97954
1.0842022e-19 3.1683967 3.6893488e+19
1.9364237 -3.6893488e+19 -2.0103066
-1.0842022e-19 3.1208601 1.0842022e-19
-1.9007014 3.6893488e+19 -2.0014379
0 3.1280186 -1.0842022e-19
1.9184325 0 -2.0274367
0 2.872834 -1.0842022e-19
1.9243383 0 -1.918321
-0 2.8071964 -3.6893488e+19
1.4525626 3.6893488e+19 -1.8970511
-0 2.7627118 2
1.8706899 3.6893488e+19 -1.883335
-3.6893488e+19 2.7441409 -1.0842022e-19
1.4129161 -0 -1.8821025
0 2.702234 -1.0842022e-19
1.8364661 1.0842022e-19 -1.8774489
-1.0842022e-19 2.6730924 -1.0842022e-19
1.3894917 3.6893488e+19 -1.8749319
2 2.6302135 3.6893488e+19
1.8027891 1.0842022e-19 -1.8606623
-1.0842022e-19 2.6019716 -2
1.357087 3.6893488e+19 -1.8526639
3.6893488e+19 2.5831211 -0
1.7807685 -0 -1.850203
1.0842022e-19 2.5649073 3.6893488e+19
1.3326471 3.6893488e+19 -1.8463787
-3.6893488e+19 2.542778 -1.0842022e-19
1.761904 -1.0842022e-19 -1.8394133
-2 2.5245128 -3.6893488e+19
1.3060113 3.6893488e+19 -1.8334174
-0 2.5090539 -0
1.742269 3.6893488e+19 -1.8293194
-0 2.4971666 -2
1.2889136 -2 -1.8277301
2 2.4742162 3.6893488e+19
-1.5677007 3.6893488e+19 -1.8251156
-1.0842022e-19 3.2575984 3.6893488e+19
-1.980702 -1.0842022e-19 2.7317073
0 3.2665176 -3.6893488e+19
1.9654152 -1.0842022e-19 2.7405169
-2 3.2690423 -0
1.967456 -0 2.7293875
-3.6893488e+19 3.1938343 2
-1.9487463 -1.0842022e-19 2.638953
-2 3.2749047 1.0842022e-19
1.9721944 1.0842022e-19 2.7237604
-1.0842022e-19 3.2509925 2
-1.9747859 -2 2.6752622
-2 3.2113588 1.0842022e-19
1.9364488 -1.0842022e-19 2.6206915
-0 3.2138827 0
-1.9577239 1.0842022e-19 2.6160209
1.0842022e-19 3.2175474 -2
-1.9593648 1.0842022e-19 2.6053801
2 3.2549813 0
1.956091 -3.6893488e+19 2.630228
-0 3.2193534 1.0842022e-19
-1.9601736 -2 2.5932066
-1.0842022e-19 3.2332215 1.0842022e-19
2.1818376 -0 2.5898299
-2 3.2343857 0
2.182878 1.0842022e-19 2.5767195
3.6893488e+19 3.2563391 0
1.5432214 -2 2.5879202
0 3.2538378 -3.6893488e+19
2.203691 -0 2.5778666
-2 3.2559481 0
1.5429648 0 2.5727615
-3.6893488e+19 3.2567484 1.0842022e-19
1.5434901 1.0842022e-19 2.5591109
-2 3.2400908 3.6893488e+19
2.1879764 3.6893488e+19 2.5384855
-0 3.2127974 -0
1.5268543 -1.0842022e-19 2.5154061
-2 3.2242098 1.0842022e-19
1.530599 1.0842022e-19 2.5084708
-2 3.2388511 3.6893488e+19
2.1868684 -2 2.5099163
-1.0842022e-19 3.2406228 0
2.1884518 -2 2.4938526
-2 3.2128572 3.6893488e+19
-1.9572647 1.0842022e-19 2.4391561
-0 3.2421286 2
1.9488838 -3.6893488e+19 2.452976
2 3.1634629 -0
-1.9351461 0 2.368916
-0 3.2378833 3.6893488e+19
1.9471681 -2 2.4215155
0 3.2143543 0
-1.957935 2 2.388113
-0 3.2372751 -1.0842022e-19
1.9469223 1.0842022e-19 2.3935075
-0 3.2157691 -3.6893488e+19
-1.9585685 -1.0842022e-19 2.3630478
-0 3.2365797 -3.6893488e+19
1.9466412 -0 2.3655462
-2 3.2169139 -2
-1.9590812 -0 2.3376586
-1.0842022e-19 3.2376955 -1.0842022e-19
1.9470922 2 2.3389528
2 3.2183797 3.6893488e+19
-1.9597375 -2 2.3123927
3.6893488e+19 3.2368267 1.0842022e-19
1.9467411 -1.0842022e-19 2.3110044
1.0842022e-19 3.1538544 2
-1.9308435 1.0842022e-19 2.2433591
-1.0842022e-19 3.2330041 -0
1.9451963 2 2.2814577
0 3.1559916 1.0842022e-19
-1.9318005 -3.6893488e+19 2.2004328
-3.6893488e+19 3.170553 2
1.512993 1.0842022e-19 2.1457543
-3.6893488e+19 3.2379608 -0
2.1860728 -2 2.18256
-1.0842022e-19 3.2317269 -3.6893488e+19
1.5330654 3.6893488e+19 2.1494203
-0 3.2328703 -1.0842022e-19
2.1815236 1.0842022e-19 2.123955
0 3.2855716 -3.6893488e+19
1.5624049 3.6893488e+19 2.1597121
3.6893488e+19 3.1836717 -0
2.1375566 2 2.0373051
2 3.282172 -0
1.560174 -1.0842022e-19 2.0917749
2 3.1818528 -1.0842022e-19
2.135931 1.0842022e-19 1.9877927
-0 3.2860034 -0
1.5626884 2 2.032546
-2 3.1827254 -3.6893488e+19
2.1367109 2 1.9398819
-1.0842022e-19 3.3137374 2
1.5808887 1.0842022e-19 1.9898981
-3.6893488e+19 3.1806762 -3.6893488e+19
2.1348796 -3.6893488e+19 1.8908483
-3.6893488e+19 3.3147037 1.0842022e-19
1.5815229 2 1.9204116
-1.0842022e-19 3.3038738 -0
2.2715609 3.6893488e+19 1.8808391
0 3.3091712 -0
1.5778921 3.6893488e+19 1.8218552
-2 3.1633294 3.6893488e+19
-1.9350864 2 1.6710402
2 3.3006527 1.0842022e-19
1.9930054 2 1.6041744
2 3.1492498 -3.6893488e+19
-1.9287815 -3.6893488e+19 -1.2080132
0 3.3009641 0
1.993257 3.6893488e+19 -1.6539048
-0 3.1467085 0
-1.9276437 3.6893488e+19 -1.689965
2 3.169997 -2
1.9197332 0 -1.7724292
-1.0842022e-19 3.1445229 3.6893488e+19
-1.9266649 1.0842022e-19 -1.8075215
-0 3.1753895 1.0842022e-19
1.9219126 -3.6893488e+19 -1.869257
0 3.1437867 1.0842022e-19
-1.9263352 0 -1.8850396
-0 3.1737645 0
1.9212558 -0 -1.9189692
-0 3.1464036 -0
-1.927507 1.0842022e-19 -1.9302001
-2 3.1718695 2
1.92049 -1.0842022e-19 -1.9653164
-2 3.1529648 -0
-1.9304452 -0 -1.9781964
-3.6893488e+19 3.1702359 0
1.9198298 2 -2.0114331
2 3.1201792 0
-1.915764 -0 -2.0009935
0 3.127202 0
1.9024385 -0 -2.0268183
-0 2.9394479 1.0842022e-19
1.3941928 -3.6893488e+19 -1.9357682
-2 2.8076985 2
1.3269258 -0 -1.89729
1.0842022e-19 2.7632489 2
1.860256 2 -1.8835878
-3.6893488e+19 2.747638 1.0842022e-19
1.2882863 0 -1.8830361
-3.6893488e+19 2.7019272 -3.6893488e+19
1.8269354 3.6893488e+19 -1.8773437
3.6893488e+19 2.6730967 -0
1.2638276 3.6893488e+19 -1.8749319
0 2.6306431 2
1.7950834 -3.6893488e+19 -1.8608936
3.6893488e+19 2.6049654 -1.0842022e-19
1.2329444 2 -1.854598
0 2.5831704 -0
1.7738711 -0 -1.850203
-3.6893488e+19 2.5651593 2
1.2068219 1.0842022e-19 -1.8465538
-0 2.5440643 -0
1.7563972 -3.6893488e+19 -1.8403233
1.0842022e-19 2.5246401 3.6893488e+19
1.1802312 -3.6893488e+19 -1.8335118
3.6893488e+19 2.5085955 -0
1.7310973 -1.0842022e-19 -1.8289275
-0 2.4986639 -2
1.1636229 1.0842022e-19 -1.8283386
-3.6893488e+19 2.4741833 2
-1.5873364 3.6893488e+19 -1.8251156
1.0842022e-19 2.4378147 -3.6893488e+19
-1.5710506 1.0842022e-19 -1.8221265
3.6893488e+19 2.368659 -3.6893488e+19
-1.5400832 2 -1.8118513
-1.0842022e-19 2.3207073 -3.6893488e+19
-1.5186107 -0 -1.8057603
0 2.2844858 1.0842022e-19
-1.502391 2 -1.8015641
2 2.2539797 -2
1.6019723 2 -1.7973745
-0 2.2149754 -3.6893488e+19
1.5827657 2 -1.7961789
1.0842022e-19 2.1755428 -3.6893488e+19
1.565146 2 -1.7939802
1.0842022e-19 2.1333089 -0
1.5462745 0 -1.7883667
-1.0842022e-19 3.2575984 3.6893488e+19
-1.980702 -1.0842022e-19 2.7317073
-0 3.2130415 -1.0842022e-19
1.9371288 -0 2.6761065
-2 3.2690423 -0
1.967456 -0 2.7293875
-3.6893488e+19 3.1938343 2
-1.9487463 -1.0842022e-19 2.638953
-2 3.2749047 1.0842022e-19
1.9721944 1.0842022e-19 2.7237604
-2 3.2056251 -1.0842022e-19
-1.9540261 -0 2.6359878
-2 3.2113588 1.0842022e-19
1.9364488 -1.0842022e-19 2.6206915
-0 3.2138827 0
-1.9577239 1.0842022e-19 2.6160209
1.0842022e-19 3.2175474 -2
-1.9593648 1.0842022e-19 2.6053801
0 3.234288 -0
1.9457151 -3.6893488e+19 2.6110849
-0 3.2193534 1.0842022e-19
-1.9601736 -2 2.5932066
-1.0842022e-19 3.2332215 1.0842022e-19
2.1818376 -0 2.5898299
-2 3.2343857 0
2.182878 1.0842022e-19 2.5767195
-3.6893488e+19 3.2019658 -3.6893488e+19
1.5233002 -1.0842022e-19 2.5479031
3.6893488e+19 3.2417192 -3.6893488e+19
2.1894314 -1.0842022e-19 2.5675616
-0 3.2210262 1.0842022e-19
1.5295544 -2 2.5469918
-3.6893488e+19 3.2567484 1.0842022e-19
1.5434901 1.0842022e-19 2.5591109
-2 3.2400908 3.6893488e+19
2.1879764 3.6893488e+19 2.5384855
-0 3.2127974 -0
1.5268543 -1.0842022e-19 2.5154061
-2 3.2242098 1.0842022e-19
1.530599 1.0842022e-19 2.5084708
-2 3.2388511 3.6893488e+19
2.1868684 -2 2.5099163
-1.0842022e-19 3.2406228 0
2.1884518 -2 2.4938526
-2 3.2128572 3.6893488e+19
-1.9572647 1.0842022e-19 2.4391561
2 3.2272937 -1.0842022e-19
1.9428885 0 2.4393215
2 3.1634629 -0
-1.9351461 0 2.368916
-0 3.2378833 3.6893488e+19
1.9471681 -2 2.4215155
-1.0842022e-19 3.1606362 -1.0842022e-19
-1.9338803 -3.6893488e+19 2.3432148
-0 3.2372751 -1.0842022e-19
1.9469223 1.0842022e-19 2.3935075
1.0842022e-19 3.160521 -2
-1.9338287 -1.0842022e-19 2.3199842
3.6893488e+19 3.1835797 3.6893488e+19
1.9252224 -0 2.3257296
-3.6893488e+19 3.1585808 0
-1.93296 3.6893488e+19 2.2954738
-3.6893488e+19 3.1819232 -3.6893488e+19
1.9245529 -2 2.3001904
1.0842022e-19 3.1561823 -2
-1.9318858 2 2.2709093
-2 3.1823299 -2
1.9247173 2 2.2761898
1.0842022e-19 3.1538544 2
-1.9308435 1.0842022e-19 2.2433591
-1.0842022e-19 3.2330041 -0
1.9451963 2 2.2814577
0 3.1559916 1.0842022e-19
-1.9318005 -3.6893488e+19 2.2004328
-3.6893488e+19 3.170553 2
1.512993 1.0842022e-19 2.1457543
0 3.1930685 1.0842022e-19
2.1459541 -2 2.1427643
-1.0842022e-19 3.1735551 -1.0842022e-19
1.513978 -3.6893488e+19 2.1011875
-3.6893488e+19 3.1815727 1.0842022e-19
2.1356809 1.0842022e-19 2.084228
2 3.173136 -1.0842022e-19
1.5138404 2 2.0535386
3.6893488e+19 3.1836717 -0
2.1375566 2 2.0373051
-3.6893488e+19 3.167793 -1.0842022e-19
1.5120873 1.0842022e-19 2.0030217
2 3.1818528 -1.0842022e-19
2.135931 1.0842022e-19 1.9877927
2 3.1806059 3.6893488e+19
1.5162915 2 1.9627002
-2 3.1827254 -3.6893488e+19
2.1367109 2 1.9398819
3.6893488e+19 3.1745648 -1.0842022e-19
1.5143093 -0 1.9123209
-3.6893488e+19 3.1806762 -3.6893488e+19
2.1348796 -3.6893488e+19 1.8908483
2 3.1684387 2
1.5122992 -3.6893488e+19 1.8515837
1.0842022e-19 3.1793857 -3.6893488e+19
2.1337261 -2 1.8098807
0 3.1729465 -2
1.5137782 2 1.759649
-2 3.1633294 3.6893488e+19
-1.9350864 2 1.6710402
3.6893488e+19 3.1667089 0
1.9184045 3.6893488e+19 1.5338194
2 3.1492498 -3.6893488e+19
-1.9287815 -3.6893488e+19 -1.2080132
0 3.3009641 0
1.993257 3.6893488e+19 -1.6539048
-0 3.1467085 0
-1.9276437 3.6893488e+19 -1.689965
2 3.169997 -2
1.9197332 0 -1.7724292
-1.0842022e-19 3.1445229 3.6893488e+19
-1.9266649 1.0842022e-19 -1.8075215
-0 3.1753895 1.0842022e-19
1.9219126 -3.6893488e+19 -1.869257
0 3.1437867 1.0842022e-19
-1.9263352 0 -1.8850396
-0 3.1737645 0
1.9212558 -0 -1.9189692
-0 3.1464036 -0
-1.927507 1.0842022e-19 -1.9302001
-2 3.1718695 2
1.92049 -1.0842022e-19 -1.9653164
-2 3.1529648 -0
-1.9304452 -0 -1.9781964
2 3.1363661 2
1.906142 -3.6893488e+19 -1.9903623
2 3.1201792 0
-1.915764 -0 -2.0009935
0 3.127202 0
1.9024385 -0 -2.0268183
-0 2.9394479 1.0842022e-19
1.3941928 -3.6893488e+19 -1.9357682
-2 2.8076985 2
1.3269258 -0 -1.89729
1.0842022e-19 2.7632489 2
1.860256 2 -1.8835878
-3.6893488e+19 2.747638 1.0842022e-19
1.2882863 0 -1.8830361
-3.6893488e+19 2.7019272 -3.6893488e+19
1.8269354 3.6893488e+19 -1.8773437
3.6893488e+19 2.6730967 -0
1.2638276 3.6893488e+19 -1.8749319
0 2.6306431 2
1.7950834 -3.6893488e+19 -1.8608936
3.6893488e+19 2.6049654 -1.0842022e-19
1.2329444 2 -1.854598
0 2.5831704 -0
1.7738711 -0 -1.850203
-3.6893488e+19 2.5651593 2
1.2068219 1.0842022e-19 -1.8465538
-0 2.5440643 -0
1.7563972 -3.6893488e+19 -1.8403233
1.0842022e-19 2.5246401 3.6893488e+19
1.1802312 -3.6893488e+19 -1.8335118
3.6893488e+19 2.5085955 -0
1.7310973 -1.0842022e-19 -1.8289275
-0 2.4986639 -2
1.1636229 1.0842022e-19 -1.8283386
-3.6893488e+19 2.4741833 2
-1.5873364 3.6893488e+19 -1.8251156
1.0842022e-19 2.4378147 -3.6893488e+19
-1.5710506 1.0842022e-19 -1.8221265
3.6893488e+19 2.368659 -3.6893488e+19
-1.5400832 2 -1.8118513
-1.0842022e-19 2.3207073 -3.6893488e+19
-1.5186107 -0 -1.8057603
0 2.2844858 1.0842022e-19
-1.502391 2 -1.8015641
2 2.2539797 -2
1.6019723 2 -1.7973745
-0 2.2149754 -3.6893488e+19
1.5827657 2 -1.7961789
1.0842022e-19 2.1755428 -3.6893488e+19
1.565146 2 -1.7939802
1.0842022e-19 2.1333089 -0
1.5462745 0 -1.7883667
1.0842022e-19 3.2567728 3.6893488e+19
-2.0015035 2 2.7302001
0 3.2658188 -2
1.9425569 -1.0842022e-19 2.7392001
-1.0842022e-19 3.2690287 -2
1.9448822 -1.0842022e-19 2.7293332
1.0842022e-19 3.2114365 -3.6893488e+19
-1.9759836 0 2.6544096
-3.6893488e+19 3.2748609 2
1.9491071 -1.0842022e-19 2.723655
-2 3.2509427 -2
-1.9957932 -2 2.6752105
0 3.2620535 2
1.9398293 0 2.6863096
-2 3.2609568 -2
1.9390349 2 2.6693199
3.6893488e+19 3.256026 0
-2.0007722 3.6893488e+19 2.6540594
-0 3.252233 -0
1.9327155 1.0842022e-19 2.6261065
-0 3.2001133 -2
-1.9704382 0 2.5791631
2 3.2561526 3.6893488e+19
2.1862941 2 2.6102319
-3.6893488e+19 3.2050405 -0
-0.91669846 2 2.5629783
3.6893488e+19 3.2548904 -0
2.1841443 -1.0842022e-19 2.5937994
3.6893488e+19 3.2560008 -1.0842022e-19
-0.9297418 -0 2.5874732
2 3.2538741 1.0842022e-19
2.1824131 -0 2.5778666
-1.0842022e-19 3.2558718 0
-0.92968279 -3.6893488e+19 2.572664
-2 3.2521021 3.6893488e+19
2.1793952 -1.0842022e-19 2.5611477
3.6893488e+19 3.2562704 -0
-0.9298653 3.6893488e+19 2.5585341
2 3.243125 1.0842022e-19
2.1699595 0 2.54023
2 3.258219 3.6893488e+19
-0.9307577 -0 2.5461671
-1.0842022e-19 3.2402594 -2
2.1675191 -3.6893488e+19 2.4934163
3.6893488e+19 3.2195218 1.0842022e-19
-1.9799434 -2 2.4455132
-0 3.2441459 1.0842022e-19
1.9289776 1.0842022e-19 2.4548044
3.6893488e+19 3.2115479 3.6893488e+19
-1.9760382 1.0842022e-19 2.4118519
-0 3.2371063 -2
1.9264278 3.6893488e+19 2.4208179
-1.0842022e-19 3.1573427 2
-1.9494919 -0 2.3404882
1.0842022e-19 3.238487 3.6893488e+19
1.9269279 -2 2.3944612
-0 3.2214224 -2
-1.9808742 -0 2.3674827
1.0842022e-19 3.2364547 -2
1.9261918 3.6893488e+19 2.3654294
0 3.2206736 -1.0842022e-19
-1.9805074 1.0842022e-19 2.3404036
-0 3.2375393 2
1.9265847 -3.6893488e+19 2.3388228
-1.0842022e-19 3.2205226 1.0842022e-19
-1.9804336 -1.0842022e-19 2.3138461
3.6893488e+19 3.2315006 -2
1.9243975 -1.0842022e-19 2.3075826
2 3.2199438 -1.0842022e-19
-1.98015 2 2.2870698
-3.6893488e+19 3.2351532 -2
1.9257205 -1.0842022e-19 2.2826922
2 3.2191229 2
-1.979748 -3.6893488e+19 2.2602572
0 3.2398241 1.0842022e-19
2.1671484 3.6893488e+19 2.2390447
0 3.1868701 -0
-0.91253763 1.0842022e-19 2.1611078
-2 3.2365973 -3.6893488e+19
2.1644003 3.6893488e+19 2.1812897
-1.0842022e-19 3.2347472 1.0842022e-19
2.1628249 -1.0842022e-19 2.1253548
-2 3.1839519 -2
2.119566 -1.0842022e-19 2.0374496
3.6893488e+19 3.1666391 0
-0.90790504 2 2.002322
1.0842022e-19 3.1816027 1.0842022e-19
2.1175654 -2 1.9876209
-3.6893488e+19 3.1694562 2
-0.90855014 3.6893488e+19 1.9571922
3.6893488e+19 3.1850646 0
2.1205137 2 1.940881
-0 3.3132386 -0
-0.94672763 0 1.9895159
3.6893488e+19 3.1782107 2
2.1146767 -3.6893488e+19 1.8900219
-2 3.3138611 2
-0.94687021 0 1.9199548
3.6893488e+19 3.3139532 -0
-0.94689125 -2 1.8248993
-2 3.1553953 0
-1.9485382 -1.0842022e-19 1.6677698
1.0842022e-19 3.301687 -2
1.9685395 3.6893488e+19 1.6049483
-0 3.1480947 0
-1.9449627 0 -1.2074274
-1.0842022e-19 3.3017483 -3.6893488e+19
1.9685839 -0 -1.6542962
-3.6893488e+19 3.1472714 2
-1.9445596 -0 -1.6902492
-3.6893488e+19 3.1711166 1.0842022e-19
1.9025267 3.6893488e+19 -1.772813
-2 3.1429935 3.6893488e+19
-1.9424645 -1.0842022e-19 -1.8068278
1.0842022e-19 3.1748853 0
1.9038917 2 -1.8689522
-2 3.1428819 0
-1.9424099 -0 -1.8847396
-2 3.2877119 -3.6893488e+19
1.9584161 -0 -1.9794265
-2 3.1457174 0
-1.9437985 -1.0842022e-19 -1.929902
-2 3.1707094 -3.6893488e+19
1.9023792 -1.0842022e-19 -1.9647108
0 3.1688888 -2
1.9017197 2 -2.0105786
-2 3.1196513 3.6893488e+19
-1.9310329 2 -2.0006549
0 3.1272881 -1.0842022e-19
1.8866521 -1.0842022e-19 -2.0268641
-1.0842022e-19 2.8040116 2
1.8794526 0 -1.8653724
-3.6893488e+19 2.9404478 0
-0.85085696 0 -1.9361905
-1.0842022e-19 2.8043358 3.6893488e+19
1.8795906 -0 -1.8873566
-1.0842022e-19 2.8072004 2
-0.82034498 3.6893488e+19 -1.8970511
1.0842022e-19 2.7663386 2
1.8518217 -0 -1.8851364
-2 2.7466419 3.6893488e+19
-0.80122465 3.6893488e+19 -1.8827693
-0 2.7017429 0
1.8173587 -2 -1.8772734
2 2.6732228 -3.6893488e+19
-0.78441256 -1.0842022e-19 -1.8750027
0 2.6311953 2
1.7873185 3.6893488e+19 -1.8612021
-3.6893488e+19 2.6059632 -3.6893488e+19
-0.76901102 3.6893488e+19 -1.8552427
-2 2.5799839 3.6893488e+19
1.765512 1.0842022e-19 -1.8480175
1.0842022e-19 2.5646625 2
-0.75955367 -3.6893488e+19 -1.8462036
2 2.543982 3.6893488e+19
1.7501818 2 -1.8402324
-0 2.525512 -0
-0.75058872 -1.0842022e-19 -1.8341732
-0 2.5087566 -1.0842022e-19
1.7203647 -0 -1.8290255
3.6893488e+19 2.4986656 -1.0842022e-19
-0.73918802 1.0842022e-19 -1.8283386
2 2.4741471 -3.6893488e+19
-1.6072085 3.6893488e+19 -1.8251156
1.0842022e-19 3.2567728 3.6893488e+19
-2.0015035 2 2.7302001
-2 3.2132227 0
1.9177774 0 2.6762466
-1.0842022e-19 3.2690287 -2
1.9448822 -1.0842022e-19 2.7293332
1.0842022e-19 3.1963634 1.0842022e-19
-1.9686018 1.0842022e-19 2.6411994
-3.6893488e+19 3.2748609 2
1.9491071 -1.0842022e-19 2.723655
-3.6893488e+19 3.2109072 0
-1.9757246 1.0842022e-19 2.6404927
0 3.2620535 2
1.9398293 0 2.6863096
0 3.211633 1.0842022e-19
1.9172015 3.6893488e+19 2.6208885
3.6893488e+19 3.256026 0
-2.0007722 3.6893488e+19 2.6540594
2 3.2315848 3.6893488e+19
1.924428 0 2.6090472
-0 3.2001133 -2
-1.9704382 0 2.5791631
3.6893488e+19 3.2350426 0
2.1630764 3.6893488e+19 2.5910618
-3.6893488e+19 3.2050405 -0
-0.91669846 2 2.5629783
3.6893488e+19 3.2306392 3.6893488e+19
2.1593263 3.6893488e+19 2.574146
0 3.20243 0
-0.91610068 2 2.548208
2 3.2538741 1.0842022e-19
2.1824131 -0 2.5778666
-1.0842022e-19 3.2208116 3.6893488e+19
-0.92030984 2 2.5468557
-2 3.2521021 3.6893488e+19
2.1793952 -1.0842022e-19 2.5611477
-0 3.2288268 -1.0842022e-19
-0.92214519 -0 2.5382392
2 3.243125 1.0842022e-19
2.1699595 0 2.54023
-0 3.2126133 -0
-0.91843253 2 2.5152998
-1.0842022e-19 3.2402594 -2
2.1675191 -3.6893488e+19 2.4934163
3.6893488e+19 3.2195218 1.0842022e-19
-1.9799434 -2 2.4455132
1.0842022e-19 3.2254615 -2
1.9222101 0 2.4376075
1.0842022e-19 3.1570363 1.0842022e-19
-1.9493418 -3.6893488e+19 2.3632095
-0 3.2371063 -2
1.9264278 3.6893488e+19 2.4208179
-1.0842022e-19 3.1573427 2
-1.9494919 -0 2.3404882
-3.6893488e+19 3.1915498 -2
1.9099275 -0 2.3565588
-0 3.2214224 -2
-1.9808742 -0 2.3674827
2 3.1829226 1.0842022e-19
1.9068028 2 2.3252156
0 3.2206736 -1.0842022e-19
-1.9805074 1.0842022e-19 2.3404036
1.0842022e-19 3.1839736 1.0842022e-19
1.9071834 0 2.3015966
-0 3.1590459 -0
-1.950326 1.0842022e-19 2.2728403
3.6893488e+19 3.1845994 -3.6893488e+19
1.90741 1.0842022e-19 2.2776222
2 3.1563461 -1.0842022e-19
-1.9490037 2 2.2464411
-2 3.1855161 3.6893488e+19
1.9077421 3.6893488e+19 2.2537694
0 3.1577365 -2
-1.9496846 -2 2.2024035
0 3.2398241 1.0842022e-19
2.1671484 3.6893488e+19 2.2390447
0 3.1868701 -0
-0.91253763 1.0842022e-19 2.1611078
-1.0842022e-19 3.1851552 -3.6893488e+19
2.1205907 -0 2.1356945
-0 3.1865592 0
2.1217866 -1.0842022e-19 2.0880413
-2 3.1839519 -2
2.119566 -1.0842022e-19 2.0374496
3.6893488e+19 3.1666391 0
-0.90790504 2 2.002322
1.0842022e-19 3.1816027 1.0842022e-19
2.1175654 -2 1.9876209
-3.6893488e+19 3.1694562 2
-0.90855014 3.6893488e+19 1.9571922
3.6893488e+19 3.1850646 0
2.1205137 2 1.940881
-2 3.177659 3.6893488e+19
-0.91042846 -2 1.9135033
3.6893488e+19 3.1782107 2
2.1146767 -3.6893488e+19 1.8900219
-3.6893488e+19 3.1689398 3.6893488e+19
-0.90843189 -2 1.8518544
1.0842022e-19 3.1683543 1.0842022e-19
-0.90829778 -3.6893488e+19 1.7581866
-2 3.1553953 0
-1.9485382 -1.0842022e-19 1.6677698
1.0842022e-19 3.1668913 0
1.9009963 -2 1.5338789
-0 3.1480947 0
-1.9449627 0 -1.2074274
-3.6893488e+19 3.1668272 -1.0842022e-19
1.9009731 -0 -1.5881407
-3.6893488e+19 3.1472714 2
-1.9445596 -0 -1.6902492
-3.6893488e+19 3.1711166 1.0842022e-19
1.9025267 3.6893488e+19 -1.772813
-2 3.1429935 3.6893488e+19
-1.9424645 -1.0842022e-19 -1.8068278
1.0842022e-19 3.1748853 0
1.9038917 2 -1.8689522
-2 3.1428819 0
-1.9424099 -0 -1.8847396
0 3.1735101 -2
1.9033935 3.6893488e+19 -1.9188571
-2 3.1457174 0
-1.9437985 -1.0842022e-19 -1.929902
-2 3.1707094 -3.6893488e+19
1.9023792 -1.0842022e-19 -1.9647108
2 3.1357348 -0
1.8897115 -3.6893488e+19 -1.9899545
-2 3.1196513 3.6893488e+19
-1.9310329 2 -2.0006549
0 3.1272881 -1.0842022e-19
1.8866521 -1.0842022e-19 -2.0268641
-1.0842022e-19 2.8040116 2
1.8794526 0 -1.8653724
-3.6893488e+19 2.9404478 0
-0.85085696 0 -1.9361905
-1.0842022e-19 2.8043358 3.6893488e+19
1.8795906 -0 -1.8873566
-1.0842022e-19 2.8072004 2
-0.82034498 3.6893488e+19 -1.8970511
1.0842022e-19 2.7663386 2
1.8518217 -0 -1.8851364
-2 2.7466419 3.6893488e+19
-0.80122465 3.6893488e+19 -1.8827693
-0 2.7017429 0
1.8173587 -2 -1.8772734
2 2.6732228 -3.6893488e+19
-0.78441256 -1.0842022e-19 -1.8750027
0 2.6311953 2
1.7873185 3.6893488e+19 -1.8612021
-3.6893488e+19 2.6059632 -3.6893488e+19
-0.76901102 3.6893488e+19 -1.8552427
-2 2.5799839 3.6893488e+19
1.765512 1.0842022e-19 -1.8480175
1.0842022e-19 2.5646625 2
-0.75955367 -3.6893488e+19 -1.8462036
2 2.543982 3.6893488e+19
1.7501818 2 -1.8402324
-0 2.525512 -0
-0.75058872 -1.0842022e-19 -1.8341732
-0 2.5087566 -1.0842022e-19
1.7203647 -0 -1.8290255
3.6893488e+19 2.4986656 -1.0842022e-19
-0.73918802 1.0842022e-19 -1.8283386
2 2.4741471 -3.6893488e+19
-1.6072085 3.6893488e+19 -1.8251156
-0 3.2565231 -1.0842022e-19
-2.0227714 0 2.7297735
-1.0842022e-19 3.2141621 -3.6893488e+19
1.8986659 3.6893488e+19 2.6770871
2 3.2688913 -3.6893488e+19
1.9222457 2 2.7290616
-1.0842022e-19 3.1991634 2
-1.9888068 2 2.6436863
3.6893488e+19 3.2771518 2
1.9275373 -1.0842022e-19 2.727576
-3.6893488e+19 3.2119381 2
-1.9955988 -1.0842022e-19 2.6413987
2 3.2823637 1.0842022e-19
1.9308759 -0 2.720099
-1.0842022e-19 3.1939123 0
-1.986015 -1.0842022e-19 2.6132028
3.6893488e+19 3.2610021 -0
1.9171921 -0 2.669369
1.0842022e-19 3.2560353 -1.0842022e-19
-2.0222526 1.0842022e-19 2.6541078
2 3.2543099 3.6893488e+19
-2.0204179 -2 2.6366608
1.0842022e-19 3.2524929 -3.6893488e+19
1.9117413 -1.0842022e-19 2.6264727
1.0842022e-19 3.1999836 -0
-1.9892428 2 2.5790956
-2 3.2561719 -0
2.1648083 -1.0842022e-19 2.6102102
0 3.2509875 -0
-1.5468059 3.6893488e+19 2.5952611
-1.0842022e-19 3.2552328 -3.6893488e+19
2.1632874 -1.0842022e-19 2.5942144
2 3.2551827 -1.0842022e-19
-1.5496776 -0 2.586396
1.0842022e-19 3.2540627 -2
2.1613925 0 2.5780656
-2 3.2565191 -2
-1.5505924 -0 2.5734816
-3.6893488e+19 3.2476718 1.0842022e-19
2.1529293 0 2.5570748
0 3.2562232 -2
-1.5503898 3.6893488e+19 2.5584784
2 3.2477002 0
2.1529522 3.6893488e+19 2.5428829
3.6893488e+19 3.2582181 0
-1.5517554 -0 2.5461671
3.6893488e+19 3.2508917 1.0842022e-19
2.1562581 -0 2.5309865
0 3.2498162 2
2.1546652 -0 2.5156722
-1.0842022e-19 3.2406976 -2
2.1472826 3.6893488e+19 2.4937904
-0 3.1539776 -1.0842022e-19
-1.9647828 -0 2.3833528
-1.0842022e-19 3.2477119 -1.0842022e-19
1.9094115 0 2.458061
0 3.2131855 -1.0842022e-19
-1.9962618 0 2.4133477
1.0842022e-19 3.2379413 -3.6893488e+19
1.9062821 -2 2.4215155
-3.6893488e+19 3.2151494 3.6893488e+19
-1.9973061 -3.6893488e+19 2.38884
-2 3.2361827 3.6893488e+19
1.9057189 -1.0842022e-19 2.3925786
-1.0842022e-19 3.2160363 -2
-1.9977776 -2 2.3633144
1.0842022e-19 3.2365441 0
1.9058347 3.6893488e+19 2.3654761
-2 3.2174301 1.0842022e-19
-1.9985187 3.6893488e+19 2.3380861
2 3.1813831 -2
1.8881671 0 2.2997797
-1.0842022e-19 3.217402 -0
-1.9985037 3.6893488e+19 2.3117907
-3.6893488e+19 3.2315586 -0
1.9042379 1.0842022e-19 2.3076026
-3.6893488e+19 3.156966 -3.6893488e+19
-1.9663717 -2 2.2472401
-1.0842022e-19 3.2327809 -0
1.9046293 -3.6893488e+19 2.2812941
3.6893488e+19 3.1585748 -2
-1.967227 1.0842022e-19 2.2033718
1.0842022e-19 3.1858447 -3.6893488e+19
1.8895961 -0 2.2090318
-1.0842022e-19 3.2390494 -2
2.1459482 -3.6893488e+19 2.238205
-2 3.2338588 3.6893488e+19
2.1417458 3.6893488e+19 2.1788042
-2 3.1840622 -3.6893488e+19
2.101429 -2 2.0860622
3.6893488e+19 3.2756615 -3.6893488e+19
2.1963665 2 2.1151466
-0 3.1704161 2
-1.5188916 1.0842022e-19 2.0046103
-2 3.2742369 3.6893488e+19
2.1940601 -2 2.051924
1.0842022e-19 3.3140836 -3.6893488e+19
-1.5899963 -1.0842022e-19 2.0602868
-2 3.2747483 -2
2.1948881 1.0842022e-19 1.9910545
1.0842022e-19 3.3045838 -0
-1.5834936 0 1.9828988
-2 3.2483521 0
2.1534801 2 1.9129356
2 3.3151412 1.0842022e-19
-1.5907204 2 1.9206485
-3.6893488e+19 3.2451029 3.6893488e+19
2.1508493 0 1.8381174
-1.0842022e-19 3.3146551 1.0842022e-19
-1.5903877 0 1.8253471
1.0842022e-19 3.1508641 0
-1.9631275 2 1.6659085
-2 3.1675081 0
1.8837233 -0 1.5341052
-3.6893488e+19 3.1478114 -3.6893488e+19
-1.9615045 -2 -1.2072971
-0 3.1695688 3.6893488e+19
1.8843832 2 -1.5895306
-1.0842022e-19 3.1472383 2
-1.9611998 -0 -1.6902492
1.0842022e-19 3.1683285 -3.6893488e+19
1.8839859 -3.6893488e+19 -1.771826
-2 3.14396 -0
-1.9594568 -1.0842022e-19 -1.8072902
3.6893488e+19 3.2637796 1.0842022e-19
1.9189714 -2 -1.9014432
2 3.1427867 1.0842022e-19
-1.958833 -2 -1.8847182
-3.6893488e+19 3.1713471 -2
1.8849528 2 -1.9179854
-0 3.1454034 -1.0842022e-19
-1.9602242 0 -1.9297743
2 3.1679225 0
1.8838559 1.0842022e-19 -1.9632766
2 3.1463144 -0
-1.9607085 2 -1.9744662
1.0842022e-19 3.168319 2
1.8839829 -1.0842022e-19 -2.0102096
2 3.1193397 1.0842022e-19
-1.9463669 -0 -2.0004644
3.6893488e+19 3.1273091 -3.6893488e+19
1.8666958 -1.0842022e-19 -2.0268641
2 2.8053622 -3.6893488e+19
1.8722298 3.6893488e+19 -1.8664074
-2 2.9459386 -2
-1.4026269 -0 -1.9385122
1.0842022e-19 2.8048759 -0
1.8718361 -3.6893488e+19 -1.8875816
0 2.8075738 3.6893488e+19
-1.3355403 3.6893488e+19 -1.8972303
3.6893488e+19 2.765378 1.0842022e-19
1.8398576 -2 -1.8846307
3.6893488e+19 2.7488852 -0
-1.2957484 -3.6893488e+19 -1.8833694
2 2.7004344 -1.0842022e-19
1.8073422 -1.0842022e-19 -1.8768876
-0 2.6725979 3.6893488e+19
-1.2696383 -0 -1.8746374
-0 2.6318693 -0
1.7795861 -2 -1.8615876
-1.0842022e-19 2.6053391 -0
-1.2432367 2 -1.8548398
-2 2.5869951 -1.0842022e-19
1.7614204 -0 -1.8527249
-1.0842022e-19 2.5647857 3.6893488e+19
-1.2154771 1.0842022e-19 -1.8462912
-2 2.5442705 -1.0842022e-19
1.7382498 2 -1.8404144
3.6893488e+19 2.5256355 -2
-1.1886779 2 -1.8342677
-2 2.5085433 3.6893488e+19
1.709324 1.0842022e-19 -1.8288296
3.6893488e+19 2.4981663 -1.0842022e-19
-1.1705023 -1.0842022e-19 -1.8281357
0 2.4741075 2
-1.6260344 3.6893488e+19 -1.8251156
2 2.4332752 -2
-1.6053594 -3.6893488e+19 -1.8201138
0 2.366617 -0
-1.5699192 -1.0842022e-19 -1.810846
3.6893488e+19 2.3174396 0
-1.5437732 -0 -1.8039471
-1.0842022e-19 2.2851808 2
-1.5266222 3.6893488e+19 -1.8020239
-2 2.2533119 -2
1.5800885 -2 -1.7968733
3.6893488e+19 2.2151051 -0
1.5632811 2 -1.7961789
3.6893488e+19 2.171253 -0
1.5455291 -0 -1.7922301
0 2.1314621 2
1.5294212 0 -1.7875342
-0 3.2565231 -1.0842022e-19
-2.0227714 0 2.7297735
-1.0842022e-19 3.2141621 -3.6893488e+19
1.8986659 3.6893488e+19 2.6770871
-3.6893488e+19 3.218585 3.6893488e+19
1.9000826 -3.6893488e+19 2.6674197
-1.0842022e-19 3.1991634 2
-1.9888068 2 2.6436863
1.0842022e-19 3.2201564 0
1.9005859 3.6893488e+19 2.6550765
-3.6893488e+19 3.2119381 2
-1.9955988 -1.0842022e-19 2.6413987
-0 3.261548 -1.0842022e-19
1.9175419 -3.6893488e+19 2.6854436
-1.0842022e-19 3.1939123 0
-1.986015 -1.0842022e-19 2.6132028
-0 3.2118731 -1.0842022e-19
1.8979328 0 2.6210608
1.0842022e-19 3.2560353 -1.0842022e-19
-2.0222526 1.0842022e-19 2.6541078
2 3.2543099 3.6893488e+19
-2.0204179 -2 2.6366608
1.0842022e-19 3.2524929 -3.6893488e+19
1.9117413 -1.0842022e-19 2.6264727
1.0842022e-19 3.1999836 -0
-1.9892428 2 2.5790956
-2 3.2561719 -0
2.1648083 -1.0842022e-19 2.6102102
2 3.2049158 -1.0842022e-19
-1.5306994 -3.6893488e+19 2.5628934
0 3.2287965 0
2.1376472 -1.0842022e-19 2.5728593
-1.0842022e-19 3.2029216 -0
-1.5300169 2 2.5485332
1.0842022e-19 3.2540627 -2
2.1613925 0 2.5780656
3.6893488e+19 3.2209334 -2
-1.5361816 -2 2.5469334
-3.6893488e+19 3.2476718 1.0842022e-19
2.1529293 0 2.5570748
0 3.2562232 -2
-1.5503898 3.6893488e+19 2.5584784
2 3.2477002 0
2.1529522 3.6893488e+19 2.5428829
0 3.2158289 -3.6893488e+19
-1.5344344 -0 2.5171447
3.6893488e+19 3.2508917 1.0842022e-19
2.1562581 -0 2.5309865
0 3.2498162 2
2.1546652 -0 2.5156722
-1.0842022e-19 3.2406976 -2
2.1472826 3.6893488e+19 2.4937904
-0 3.1539776 -1.0842022e-19
-1.9647828 -0 2.3833528
1.0842022e-19 3.2176352 -3.6893488e+19
1.8997782 -1.0842022e-19 2.4303801
1.0842022e-19 3.1575921 -0
-1.9667045 -0 2.3637359
-0 3.1938624 0
1.8921642 -1.0842022e-19 2.3834374
-3.6893488e+19 3.1579609 2
-1.9669007 -2 2.3410335
-3.6893488e+19 3.1954291 -1.0842022e-19
1.892666 2 2.3596714
2 3.1609526 3.6893488e+19
-1.9684912 0 2.3203721
3.6893488e+19 3.1837866 -1.0842022e-19
1.888937 -0 2.3258464
2 3.1578 -3.6893488e+19
-1.966815 0 2.2949564
2 3.1813831 -2
1.8881671 0 2.2997797
-0 3.1596031 1.0842022e-19
-1.9677738 -2 2.2732346
-0 3.1829107 1.0842022e-19
1.8886565 -2 2.2765279
-3.6893488e+19 3.156966 -3.6893488e+19
-1.9663717 -2 2.2472401
1.0842022e-19 3.1851978 0
1.889389 -2 2.2535696
3.6893488e+19 3.1585748 -2
-1.967227 1.0842022e-19 2.2033718
1.0842022e-19 3.1858447 -3.6893488e+19
1.8895961 -0 2.2090318
-2 3.1847556 2
2.1019905 1.0842022e-19 2.184005
-2 3.2338588 3.6893488e+19
2.1417458 3.6893488e+19 2.1788042
-2 3.1840622 -3.6893488e+19
2.101429 -2 2.0860622
3.6893488e+19 3.2756615 -3.6893488e+19
2.1963665 2 2.1151466
-0 3.1704161 2
-1.5188916 1.0842022e-19 2.0046103
3.6893488e+19 3.181443 0
2.0993085 -0 1.9875008
1.0842022e-19 3.1717038 2
-1.5193323 0 1.9583031
-2 3.1848116 -0
2.1020358 1.0842022e-19 1.9407442
2 3.1658173 -0
-1.5173175 -3.6893488e+19 1.9089764
-1.0842022e-19 3.1866314 3.6893488e+19
2.1035092 3.6893488e+19 1.8927561
-1.0842022e-19 3.1689696 3.6893488e+19
-1.5183965 -1.0842022e-19 1.8518714
-3.6893488e+19 3.2451029 3.6893488e+19
2.1508493 0 1.8381174
-0 3.1695402 3.6893488e+19
-1.5185918 0 1.7585647
1.0842022e-19 3.1508641 0
-1.9631275 2 1.6659085
-2 3.1675081 0
1.8837233 -0 1.5341052
-3.6893488e+19 3.1478114 -3.6893488e+19
-1.9615045 -2 -1.2072971
-0 3.1695688 3.6893488e+19
1.8843832 2 -1.5895306
-1.0842022e-19 3.1472383 2
-1.9611998 -0 -1.6902492
1.0842022e-19 3.1683285 -3.6893488e+19
1.8839859 -3.6893488e+19 -1.771826
-2 3.14396 -0
-1.9594568 -1.0842022e-19 -1.8072902
-1.0842022e-19 3.1684113 -0
1.8840125 -2 -1.8652216
2 3.1427867 1.0842022e-19
-1.958833 -2 -1.8847182
-3.6893488e+19 3.1713471 -2
1.8849528 2 -1.9179854
-0 3.1454034 -1.0842022e-19
-1.9602242 0 -1.9297743
2 3.1679225 0
1.8838559 1.0842022e-19 -1.9632766
2 3.1463144 -0
-1.9607085 2 -1.9744662
0 3.1302929 0
1.8686072 0 -1.9865561
2 3.1193397 1.0842022e-19
-1.9463669 -0 -2.0004644
3.6893488e+19 3.1273091 -3.6893488e+19
1.8666958 -1.0842022e-19 -2.0268641
2 2.8053622 -3.6893488e+19
1.8722298 3.6893488e+19 -1.8664074
-2 2.9459386 -2
-1.4026269 -0 -1.9385122
1.0842022e-19 2.8048759 -0
1.8718361 -3.6893488e+19 -1.8875816
0 2.8075738 3.6893488e+19
-1.3355403 3.6893488e+19 -1.8972303
3.6893488e+19 2.765378 1.0842022e-19
1.8398576 -2 -1.8846307
3.6893488e+19 2.7488852 -0
-1.2957484 -3.6893488e+19 -1.8833694
2 2.7004344 -1.0842022e-19
1.8073422 -1.0842022e-19 -1.8768876
-0 2.6725979 3.6893488e+19
-1.2696383 -0 -1.8746374
-0 2.6318693 -0
1.7795861 -2 -1.8615876
-1.0842022e-19 2.6053391 -0
-1.2432367 2 -1.8548398
-2 2.5869951 -1.0842022e-19
1.7614204 -0 -1.8527249
-1.0842022e-19 2.5647857 3.6893488e+19
-1.2154771 1.0842022e-19 -1.8462912
-2 2.5442705 -1.0842022e-19
1.7382498 2 -1.8404144
3.6893488e+19 2.5256355 -2
-1.1886779 2 -1.8342677
-2 2.5085433 3.6893488e+19
1.709324 1.0842022e-19 -1.8288296
3.6893488e+19 2.4981663 -1.0842022e-19
-1.1705023 -1.0842022e-19 -1.8281357
0 2.4741075 2
-1.6260344 3.6893488e+19 -1.8251156
2 2.4332752 -2
-1.6053594 -3.6893488e+19 -1.8201138
0 2.366617 -0
-1.5699192 -1.0842022e-19 -1.810846
3.6893488e+19 2.3174396 0
-1.5437732 -0 -1.8039471
-1.0842022e-19 2.2851808 2
-1.5266222 3.6893488e+19 -1.8020239
-2 2.2533119 -2
1.5800885 -2 -1.7968733
3.6893488e+19 2.2151051 -0
1.5632811 2 -1.7961789
3.6893488e+19 2.171253 -0
1.5455291 -0 -1.7922301
0 2.1314621 2
1.5294212 0 -1.7875342
-3.6893488e+19 3.2143066 3.6893488e+19
1.8792566 -0 2.6771991
2 3.2681878 -2
1.8993195 -1.0842022e-19 2.7277846
-3.6893488e+19 3.1995499 -0
-2.0078654 -0 2.6440606
-0 3.2774556 -2
1.9044796 -3.6893488e+19 2.728076
2 3.2093301 1.0842022e-19
-2.0134754 1.0842022e-19 2.6392241
0 3.2823622 0
1.9072115 -0 2.7200735
-0 3.1939027 -3.6893488e+19
-2.004626 -1.0842022e-19 2.6132278
0 3.2611375 -3.6893488e+19
1.8953941 3.6893488e+19 2.6695659
-2 3.2569466 3.6893488e+19
-2.0447733 2 2.6555829
-1.0842022e-19 3.2534134 0
1.8910937 2 2.6424704
-1.0842022e-19 3.2543635 2
-2.04181 0 2.6367776
-3.6893488e+19 3.2530887 -1.0842022e-19
1.8909129 3.6893488e+19 2.6273429
1.0842022e-19 3.2529278 1.0842022e-19
-2.0401628 0 2.6199911
-3.6893488e+19 3.2568352 0
2.1443136 1.0842022e-19 2.6110964
-1.0842022e-19 3.2511849 -2
-1.6701448 2 2.5955365
-0 3.2562354 -1.0842022e-19
2.1433923 -0 2.5955219
-1.0842022e-19 3.2524512 -3.6893488e+19
-1.6710025 3.6893488e+19 2.5827987
-1.0842022e-19 3.2566862 0
-1.6738713 -0 2.5736957
1.0842022e-19 3.2471809 2
2.1316552 1.0842022e-19 2.5567322
-2 3.2558341 2
-1.6732941 -2 2.5580132
1.0842022e-19 3.2477336 -2
2.1320794 2 2.5428648
3.6893488e+19 3.2545497 -3.6893488e+19
-1.672424 0 2.5419629
-1.0842022e-19 3.2518823 -2
2.1367092 -0 2.5320597
0 3.2357543 3.6893488e+19
-1.6645173 -2 2.5147657
-2 3.2502341 -0
2.1341789 1.0842022e-19 2.5159848
3.6893488e+19 3.2416592 0
2.1274166 -2 2.494694
3.6893488e+19 3.1531658 -2
-1.9812591 3.6893488e+19 2.382617
-2 3.2494745 0
1.8890469 -3.6893488e+19 2.4596605
-3.6893488e+19 3.1574309 -3.6893488e+19
-1.9837056 -2 2.363625
-2 3.2153559 -2
-2.0169318 1.0842022e-19 2.3890479
-0 3.237077 2
1.8855956 -1.0842022e-19 2.3932815
0 3.2194445 1.0842022e-19
-2.0192771 2 2.3660045
-2 3.2369411 0
1.8855578 -0 2.3657565
3.6893488e+19 3.2153351 -1.0842022e-19
-2.0169199 2 2.3366013
1.0842022e-19 3.2367189 -2
1.8854958 -0 2.3382173
3.6893488e+19 3.2254515 3.6893488e+19
-2.0227227 2 2.317189
3.6893488e+19 3.2322052 1.0842022e-19
1.8842393 -3.6893488e+19 2.3080003
3.6893488e+19 3.2879457 -3.6893488e+19
-2.0803359 3.6893488e+19 2.3518503
0 3.2325554 -2
1.8843367 -1.0842022e-19 2.2811489
-0 3.2893848 -1.0842022e-19
-2.0819869 0 2.3211427
-3.6893488e+19 3.2861655 1.0842022e-19
1.9093292 0 2.3013752
2 3.2389257 -3.6893488e+19
2.1253181 3.6893488e+19 2.2380185
-2 3.2342329 -3.6893488e+19
2.1217158 -2 2.1790802
2 3.2733037 -3.6893488e+19
2.1695969 1.0842022e-19 2.1731431
1.0842022e-19 3.1956086 1.0842022e-19
-1.6509206 1.0842022e-19 2.0696628
-1.0842022e-19 3.2734671 0
2.169848 -3.6893488e+19 2.1121931
-0 3.1697559 -1.0842022e-19
-1.6421647 3.6893488e+19 2.0042131
1.0842022e-19 3.2738981 -3.6893488e+19
2.1705093 2 2.051512
2 3.173511 0
-1.6434366 -2 1.9591979
-2 3.2739725 -3.6893488e+19
2.1706238 1.0842022e-19 1.9903429
1.0842022e-19 3.164001 1.0842022e-19
-1.6402156 -1.0842022e-19 1.9082837
2 3.2461071 0
2.130831 2 1.9121807
-1.0842022e-19 3.3143411 2
-1.7129248 0 1.920217
0 3.2437 -1.0842022e-19
2.128983 -2 1.8374859
2 3.3139331 -3.6893488e+19
-1.7126484 1.0842022e-19 1.8248894
0 3.1510153 3.6893488e+19
-1.9800255 -3.6893488e+19 1.6659859
-1.0842022e-19 3.1464326 3.6893488e+19
-1.977397 0 -1.2065973
-1.0842022e-19 3.1461093 -2
-1.9772115 -3.6893488e+19 -1.6897256
1.0842022e-19 3.1719732 -3.6893488e+19
1.859943 0 -1.7730981
3.6893488e+19 3.1474843 -0
-1.9780002 -0 -1.8089375
-0 3.1666198 -2
1.8569624 -1.0842022e-19 -1.8641814
-2 3.142314 -0
-1.9750345 0 -1.8845683
0 3.1727736 -3.6893488e+19
1.8603886 -3.6893488e+19 -1.9185457
-2 3.1443374 -3.6893488e+19
-1.9761951 -1.0842022e-19 -1.9293058
-3.6893488e+19 3.1665063 0
1.8568994 -1.0842022e-19 -1.9625435
-1.0842022e-19 3.1480262 -0
-1.9783111 0 -1.9754562
0 3.1664975 -3.6893488e+19
1.8568943 -3.6893488e+19 -2.0090637
-0 3.1177773 -1.0842022e-19
-1.96096 -3.6893488e+19 -1.9994276
1.0842022e-19 3.1261728 -1.0842022e-19
1.8344426 -0 -2.0260167
0 2.9196935 1.0842022e-19
1.9110864 1.0842022e-19 -1.9158752
-2 2.9164846 0
1.9098549 0 -1.9379233
-2 2.8054492 -1.0842022e-19
-1.4569018 -3.6893488e+19 -1.8962148
-1.0842022e-19 2.768465 -3.6893488e+19
1.8310841 1.0842022e-19 -1.8861793
1.0842022e-19 2.7472587 -1.0842022e-19
-1.4184136 -3.6893488e+19 -1.882936
1.0842022e-19 2.7004926 3.6893488e+19
1.7979077 -1.0842022e-19 -1.8768876
0 2.6725936 3.6893488e+19
-1.3931258 -0 -1.8746374
1.0842022e-19 2.6326656 2
1.7718744 0 -1.8620504
0 2.6050863 2
-1.3655243 1.0842022e-19 -1.8546786
0 2.5864167 1.0842022e-19
1.7541232 -2 -1.8523046
2 2.5645335 0
-1.3380551 -0 -1.8461161
-2 2.5428164 -2
1.7247772 0 -1.8393223
1.0842022e-19 2.5257571 -0
-1.3117892 -2 -1.8343621
1.0842022e-19 2.5083282 -2
1.6983026 -2 -1.8286337
0 2.49841 -0
-1.2938036 -0 -1.8282372
-3.6893488e+19 2.4755552 2
-1.6363912 2 -1.8257449
-1.0842022e-19 2.447283 1.0842022e-19
1.499035 0 -1.8200259
-3.6893488e+19 3.2143066 3.6893488e+19
1.8792566 -0 2.6771991
2 3.2155278 -2
1.8795965 3.6893488e+19 2.664676
-3.6893488e+19 3.1995499 -0
-2.0078654 -0 2.6440606
3.6893488e+19 3.2203627 -1.0842022e-19
1.8809425 -1.0842022e-19 2.6552343
2 3.2093301 1.0842022e-19
-2.0134754 1.0842022e-19 2.6392241
-3.6893488e+19 3.2609336 -2
1.8952807 1.0842022e-19 2.6843998
-0 3.1939027 -3.6893488e+19
-2.004626 -1.0842022e-19 2.6132278
1.0842022e-19 3.2123246 -0
1.8787048 0 2.6214054
-2 3.2569466 3.6893488e+19
-2.0447733 2 2.6555829
-1.0842022e-19 3.2534134 0
1.8910937 2 2.6424704
-1.0842022e-19 3.2543635 2
-2.04181 0 2.6367776
-3.6893488e+19 3.2530887 -1.0842022e-19
1.8909129 3.6893488e+19 2.6273429
-0 3.1999428 -1.0842022e-19
-2.0080907 2 2.5790956
-3.6893488e+19 3.2568352 0
2.1443136 1.0842022e-19 2.6110964
-0 3.2049417 -2
-1.6540816 -1.0842022e-19 2.5629146
0 3.2282734 3.6893488e+19
2.117141 -2 2.5724649
-1.0842022e-19 3.2524512 -3.6893488e+19
-1.6710025 3.6893488e+19 2.5827987
2 3.2210829 0
-1.6595484 0 2.5470309
1.0842022e-19 3.2471809 2
2.1316552 1.0842022e-19 2.5567322
-2 3.2558341 2
-1.6732941 -2 2.5580132
1.0842022e-19 3.2477336 -2
2.1320794 2 2.5428648
1.0842022e-19 3.2156384 -1.0842022e-19
-1.6577044 0 2.5170383
-1.0842022e-19 3.2518823 -2
2.1367092 -0 2.5320597
0 3.2030878 1.0842022e-19
-1.6534537 -0 2.4939213
-2 3.2502341 -0
2.1341789 1.0842022e-19 2.5159848
3.6893488e+19 3.2416592 0
2.1274166 -2 2.494694
3.6893488e+19 3.1531658 -2
-1.9812591 3.6893488e+19 2.382617
-2 3.2494745 0
1.8890469 -3.6893488e+19 2.4596605
-3.6893488e+19 3.1574309 -3.6893488e+19
-1.9837056 -2 2.363625
0 3.1562159 -0
-1.9830086 -0 2.3396053
0 3.1809955 -0
1.8649664 -1.0842022e-19 2.3479993
-1.0842022e-19 3.159672 3.6893488e+19
-1.9849912 1.0842022e-19 2.3194027
1.0842022e-19 3.1844301 3.6893488e+19
1.8668787 -1.0842022e-19 2.3263137
-2 3.1581051 0
-1.9840925 0 2.2952039
1.0842022e-19 3.1812487 2
1.8651074 -0 2.2996714
3.6893488e+19 3.2254515 3.6893488e+19
-2.0227227 2 2.317189
3.6893488e+19 3.2322052 1.0842022e-19
1.8842393 -3.6893488e+19 2.3080003
3.6893488e+19 3.2295463 1.0842022e-19
-2.0250716 1.0842022e-19 2.2929866
0 3.2325554 -2
1.8843367 -1.0842022e-19 2.2811489
-0 3.151933 -1.0842022e-19
-1.980552 0 2.1960421
-3.6893488e+19 3.2861655 1.0842022e-19
1.9093292 0 2.3013752
-2 3.1860578 0
2.0847349 1.0842022e-19 2.1852489
1.0842022e-19 3.1920025 -3.6893488e+19
2.089298 3.6893488e+19 2.1416597
-0 3.1918192 -3.6893488e+19
2.0891573 -3.6893488e+19 2.0920236
1.0842022e-19 3.1956086 1.0842022e-19
-1.6509206 1.0842022e-19 2.0696628
3.6893488e+19 3.1895871 0
2.0874441 3.6893488e+19 2.0411053
-0 3.1697559 -1.0842022e-19
-1.6421647 3.6893488e+19 2.0042131
-3.6893488e+19 3.1935089 3.6893488e+19
2.0904546 2 1.9941114
2 3.173511 0
-1.6434366 -2 1.9591979
3.6893488e+19 3.1857727 -1.0842022e-19
2.0845158 -1.0842022e-19 1.941141
1.0842022e-19 3.164001 1.0842022e-19
-1.6402156 -1.0842022e-19 1.9082837
2 3.2461071 0
2.130831 2 1.9121807
-1.0842022e-19 3.169184 -2
-1.641971 1.0842022e-19 1.8519899
0 3.2437 -1.0842022e-19
2.128983 -2 1.8374859
-3.6893488e+19 3.1699107 -0
-1.6422172 3.6893488e+19 1.758684
0 3.1510153 3.6893488e+19
-1.9800255 -3.6893488e+19 1.6659859
-1.0842022e-19 3.1464326 3.6893488e+19
-1.977397 0 -1.2065973
-1.0842022e-19 3.1461093 -2
-1.9772115 -3.6893488e+19 -1.6897256
1.0842022e-19 3.1719732 -3.6893488e+19
1.859943 0 -1.7730981
3.6893488e+19 3.1474843 -0
-1.9780002 -0 -1.8089375
-0 3.1666198 -2
1.8569624 -1.0842022e-19 -1.8641814
-2 3.142314 -0
-1.9750345 0 -1.8845683
0 3.1727736 -3.6893488e+19
1.8603886 -3.6893488e+19 -1.9185457
-2 3.1443374 -3.6893488e+19
-1.9761951 -1.0842022e-19 -1.9293058
-3.6893488e+19 3.1665063 0
1.8568994 -1.0842022e-19 -1.9625435
-1.0842022e-19 3.1480262 -0
-1.9783111 0 -1.9754562
0 3.1290002 1.0842022e-19
1.8360169 -3.6893488e+19 -1.9857403
-0 3.1177773 -1.0842022e-19
-1.96096 -3.6893488e+19 -1.9994276
1.0842022e-19 3.1261728 -1.0842022e-19
1.8344426 -0 -2.0260167
0 2.8053393 -3.6893488e+19
1.8593901 0 -1.8663582
1.0842022e-19 2.8049152 -3.6893488e+19
1.8590646 -3.6893488e+19 -1.8875816
-2 2.8054492 -1.0842022e-19
-1.4569018 -3.6893488e+19 -1.8962148
-1.0842022e-19 2.768465 -3.6893488e+19
1.8310841 1.0842022e-19 -1.8861793
1.0842022e-19 2.7472587 -1.0842022e-19
-1.4184136 -3.6893488e+19 -1.882936
1.0842022e-19 2.7004926 3.6893488e+19
1.7979077 -1.0842022e-19 -1.8768876
0 2.6725936 3.6893488e+19
-1.3931258 -0 -1.8746374
1.0842022e-19 2.6326656 2
1.7718744 0 -1.8620504
0 2.6050863 2
-1.3655243 1.0842022e-19 -1.8546786
0 2.5864167 1.0842022e-19
1.7541232 -2 -1.8523046
2 2.5645335 0
-1.3380551 -0 -1.8461161
-2 2.5428164 -2
1.7247772 0 -1.8393223
1.0842022e-19 2.5257571 -0
-1.3117892 -2 -1.8343621
1.0842022e-19 2.5083282 -2
1.6983026 -2 -1.8286337
0 2.49841 -0
-1.2938036 -0 -1.8282372
-3.6893488e+19 2.4755552 2
-1.6363912 2 -1.8257449
-1.0842022e-19 2.447283 1.0842022e-19
1.499035 0 -1.8200259
0 3.2136564 1.0842022e-19
1.8442979 1.0842022e-19 2.6765828
-2 3.2685802 0
1.8770318 -0 2.7284639
-0 3.268328 -0
-2.0803406 -0 2.7204607
3.6893488e+19 3.2776811 -0
1.8813362 1.0842022e-19 2.7284446
-3.6893488e+19 3.2081549 -3.6893488e+19
-2.0320189 3.6893488e+19 2.6382661
-3.6893488e+19 3.2831693 -3.6893488e+19
1.883932 1.0842022e-19 2.7213976
2 3.1944103 -0
-2.0235584 -3.6893488e+19 2.6136785
1.0842022e-19 3.2627108 1.0842022e-19
1.8735113 -2 2.672076
-2 3.2571514 -3.6893488e+19
-2.066581 -1.0842022e-19 2.6559455
3.6893488e+19 3.2526879 0
1.8640302 -3.6893488e+19 2.64133
-0 3.2535565 0
-2.0621555 1.0842022e-19 2.6355879
1.0842022e-19 3.2534835 -3.6893488e+19
1.8647827 -0 2.6279154
1.0842022e-19 3.253026 2
-2.0615022 0 2.6201708
1.0842022e-19 3.253669 -0
2.1181545 2 2.606601
0 3.2519352 -1.0842022e-19
-1.7525405 -2 2.5965743
1.0842022e-19 3.2540195 0
2.1186633 -2 2.5924919
-1.0842022e-19 3.2519844 -3.6893488e+19
-1.7525654 1.0842022e-19 2.5821891
-3.6893488e+19 3.2222476 -3.6893488e+19
-1.7390722 1.0842022e-19 2.5477705
-2 3.2553198 -1.0842022e-19
-1.754254 1.0842022e-19 2.5573995
-1.0842022e-19 3.253741 -2
-1.7534547 -3.6893488e+19 2.5410402
0 3.1998599 3.6893488e+19
-1.7277385 -2 2.4904108
2 3.2505279 -1.0842022e-19
2.1135957 -1.0842022e-19 2.5162642
2 3.2418122 -1.0842022e-19
2.1068881 -3.6893488e+19 2.4947875
2 3.2464349 -2
-2.0555823 -1.0842022e-19 2.4711781
-3.6893488e+19 3.2552576 -2
1.866461 -0 2.4698017
1.0842022e-19 3.2508683 -2
-2.0588458 -1.0842022e-19 2.4478347
0 3.248636 2
-2.0569372 3.6893488e+19 2.4169111
-3.6893488e+19 3.2368798 1.0842022e-19
1.8552821 -1.0842022e-19 2.3931057
1.0842022e-19 3.2362752 0
-2.0493286 1.0842022e-19 2.3791635
3.6893488e+19 3.1805596 -1.0842022e-19
1.8286439 -3.6893488e+19 2.3233929
-2 3.2135482 2
-2.0353389 -2 2.3353412
3.6893488e+19 3.2391675 1.0842022e-19
1.856364 1.0842022e-19 2.3399045
2 3.2265878 -3.6893488e+19
-2.0433652 3.6893488e+19 2.3179779
2 3.2379255 -0
1.8557765 -2 2.311641
-1.0842022e-19 3.230963 1.0842022e-19
-2.0460587 -1.0842022e-19 2.2938807
-1.0842022e-19 3.2355673 -0
1.8546612 2 2.282892
-2 3.289232 -2
-2.1060758 -3.6893488e+19 2.3210042
-0 3.2872221 -1.0842022e-19
1.8858489 -2 2.302475
0 3.2448742 1.0842022e-19
2.1091101 -1.0842022e-19 2.2438955
1.0842022e-19 3.1567843 -1.0842022e-19
-1.7059318 -3.6893488e+19 2.132808
-0 3.1675828 -0
-1.7113985 3.6893488e+19 2.0962453
-2 3.1858239 0
2.0662599 -3.6893488e+19 2.0873413
-2 3.227037 -1.0842022e-19
-1.7414968 1.0842022e-19 2.0922143
-2 3.1903269 -0
2.0695274 1.0842022e-19 2.0415597
0 3.2265501 2
-1.7412503 2 2.0386138
3.6893488e+19 3.177901 3.6893488e+19
2.0605104 3.6893488e+19 1.9854919
-0 3.1838911 -3.6893488e+19
2.064857 -0 1.9402925
-2 3.18362 0
2.0646605 3.6893488e+19 1.8917359
2 3.1686456 0
-1.7119366 3.6893488e+19 1.8517022
3.6893488e+19 3.2432296 -2
2.1079166 1.0842022e-19 1.8372576
3.6893488e+19 3.1673412 -2
-1.7112762 3.6893488e+19 1.7578683
0 3.1513197 -0
-1.9970338 -0 1.6661282
1.0842022e-19 3.1461132 -1.0842022e-19
-1.9938289 3.6893488e+19 -1.2064508
1.0842022e-19 3.1479445 -3.6893488e+19
-1.9949561 2 -1.6906232
3.6893488e+19 3.1448541 -0
-1.9930539 3.6893488e+19 -1.8077382
3.6893488e+19 3.1677308 0
1.8225763 3.6893488e+19 -1.8648092
1.0842022e-19 3.1426818 -1.0842022e-19
-1.9917167 0 -1.8847076
0 3.1754153 -0
1.8262107 -0 -1.9195918
-2 3.1439245 -3.6893488e+19
-1.9924817 -2 -1.9291354
3.6893488e+19 3.1666801 1.0842022e-19
1.8220793 1.0842022e-19 -1.9626232
