# .PCD v0.7 - Point Cloud Data file format
VERSION 0.7
FIELDS x y z
SIZE 4 4 4
TYPE F F F
COUNT 1 1 1
WIDTH 1735
HEIGHT 1
VIEWPOINT 0 0 0 1 0 0 0
POINTS 1735
DATA ascii
3.0040379 2 2.4238598
1.0842022e-19 2.986047 -1.0842022e-19
2.9787796 -2 2.4106967
-3.6893488e+19 2.9981809 2
2.9907322 -3.6893488e+19 2.4010274
1.0842022e-19 2.9587884 0
3.0013812 2 2.3806491
2 2.9626489 0
3.0034964 -1.0842022e-19 2.3643599
-1.0842022e-19 2.9952865 -1.0842022e-19
2.9878809 2 2.3592052
-2 2.9670784 1.0842022e-19
3.0059235 -1.0842022e-19 2.3482022
-3.6893488e+19 3.00144 -0
2.9953613 1.0842022e-19 2.3447208
-0 2.981297 -1.0842022e-19
2.9459736 -2 2.3111558
0 3.0398855 2
3.0488091 -0 2.3830743
2 2.9841435 2
2.9486113 1.0842022e-19 2.2943461
-2 3.0383151 3.6893488e+19
3.0471904 -2 2.3576226
1.0842022e-19 3.0310128 -3.6893488e+19
3.0396631 2 2.3258102
3.6893488e+19 2.9344294 -1.0842022e-19
2.9025457 3.6893488e+19 2.2114618
0 3.0299904 -2
3.0386093 0 2.3019893
-0 2.9375446 -3.6893488e+19
2.9054322 -3.6893488e+19 2.1812077
-0 3.0532322 1.0842022e-19
3.0625668 -1.0842022e-19 2.3025699
0 2.9348857 -3.6893488e+19
2.9029684 2 2.1452768
-1.0842022e-19 2.9909022 0
3.0030069 -2 2.2002432
2 2.9368649 -3.6893488e+19
2.9048023 -0 2.1136458
0 3.0425453 -2
3.0515506 0 2.2394917
-2 2.9338851 -1.0842022e-19
2.9020414 -0 2.0780056
-1.0842022e-19 3.017869 3.6893488e+19
3.0261149 3.6893488e+19 2.1550841
1.0842022e-19 3.0620134 2
3.0919192 2 2.2114937
3.6893488e+19 3.0758777 -0
3.0710051 -2 2.1804535
1.0842022e-19 3.0605218 -0
3.0902846 0 2.1577327
0 2.9375467 0
2.9310045 -2 2.0046186
-0 2.9298885 0
2.9710925 -0 1.996568
1.0842022e-19 2.9349363 -3.6893488e+19
2.9284329 -2 1.9689759
0 2.9324644 1.0842022e-19
2.9739151 -2 1.9621898
0 2.9383543 3.6893488e+19
2.9317999 2 1.9363196
-1.0842022e-19 2.9314415 -1.0842022e-19
2.9727943 -1.0842022e-19 1.9259449
-0 2.9376581 -0
2.9311142 -3.6893488e+19 1.9017259
0 2.9325874 -1.0842022e-19
2.9740498 1.0842022e-19 1.8905843
0 2.9396558 -2
2.9330819 -2 1.8609445
-1.0842022e-19 2.9321117 0
2.9735289 0 1.834324
-1.0842022e-19 2.9375367 2
2.9309947 2 1.7912832
2 2.9339321 3.6893488e+19
2.9755235 0 1.7633752
-1.0842022e-19 2.9479072 -3.6893488e+19
2.94121 3.6893488e+19 1.700158
3.6893488e+19 2.9243731 3.6893488e+19
2.8932276 -2 1.6143166
-0 2.9294896 -2
2.9427106 -0 1.4850085
-1.0842022e-19 2.9257114 -0
2.8944676 -1.0842022e-19 -1.1511314
-3.6893488e+19 2.9275732 -1.0842022e-19
2.9407353 1.0842022e-19 -1.5319561
2 2.9279001 -0
2.8964956 0 -1.6396168
-1.0842022e-19 2.922677 2
2.9356885 -2 -1.7130129
-3.6893488e+19 2.921083 -0
2.8901789 1.0842022e-19 -1.7577403
0 2.9327295 -0
2.9460502 1.0842022e-19 -1.8033638
2 2.9182346 -2
2.8875394 0 -1.8204534
-1.0842022e-19 2.8973815 2
2.9096143 -2 -1.8524839
-1.0842022e-19 2.9177036 -1.0842022e-19
2.8870475 -3.6893488e+19 -1.8793834
1.0842022e-19 2.8981295 3.6893488e+19
2.9103851 -0 -1.8958657
3.6893488e+19 2.9166028 2
2.8860276 -2 -1.9107522
-3.6893488e+19 2.8383677 0
2.848784 0 -1.9011077
1.0842022e-19 2.8299217 -3.6893488e+19
2.8057079 2 -1.9024245
-1.0842022e-19 2.8159659 3.6893488e+19
2.8256924 0 -1.9164529
-1.0842022e-19 2.8045766 -1.0842022e-19
2.8000226 1.0842022e-19 -1.930729
-1.0842022e-19 2.6344497 1.0842022e-19
2.6712985 -2 -1.8785257
0 2.619971 -3.6893488e+19
2.614439 0 -1.8735893
3.6893488e+19 2.5641587 -3.6893488e+19
2.59427 1.0842022e-19 -1.8611411
-3.6893488e+19 2.5558331 0
2.5512605 -3.6893488e+19 -1.8545289
-2 2.5132458 -1.0842022e-19
2.5384774 -3.6893488e+19 -1.8447467
2 2.5125217 -1.0842022e-19
2.5085964 -3.6893488e+19 -1.8426778
-1.0842022e-19 2.4494383 -0
2.492516 1.0842022e-19 -1.8312817
-3.6893488e+19 2.4576564 -1.0842022e-19
2.4508135 1.0842022e-19 -1.8327584
3.6893488e+19 2.3998168 -1.0842022e-19
2.4381382 -3.6893488e+19 -1.8251524
-0 2.4084196 1.0842022e-19
2.402313 0 -1.826508
0 2.3597994 -2
2.3942852 3.6893488e+19 -1.8201197
0 2.3666699 0
2.3611875 -1.0842022e-19 -1.8203795
0 2.3268588 0
2.3581874 -2 -1.8159004
1.0842022e-19 2.3357654 2
2.330745 0 -1.8171829
1.0842022e-19 2.3340952 1.0842022e-19
2.3095753 3.6893488e+19 -1.8171445
-3.6893488e+19 2.3054137 -3.6893488e+19
2.2829988 -3.6893488e+19 -1.8123987
-3.6893488e+19 2.2646997 -0
2.240546 -0 -1.8078302
2 2.2148585 -1.0842022e-19
2.1807415 -0 -1.8035287
2 2.1617117 -1.0842022e-19
2.1314952 0 -1.7991118
2 2.0935957 -3.6893488e+19
2.1265285 -0 -1.7977085
-1.0842022e-19 2.0482001 -1.0842022e-19
2.076782 -2 -1.8003972
-2 3.0436468 0
3.051105 2 2.6000407
-0 2.9762576 -0
2.9389923 2 2.5054359
0 3.0567229 2
3.064513 2 2.5901394
0 3.0293999 3.6893488e+19
3.0075378 2 2.5387127
1.0842022e-19 3.0283616 2
3.0065808 -2 2.5267179
2 3.0459235 1.0842022e-19
3.0534394 -2 2.5537047
2 3.0199466 -0
3.0442693 2 2.5303965
-2 2.9867144 1.0842022e-19
2.976933 -0 2.4686942
3.6893488e+19 2.9916027 -2
2.9817228 -0 2.4536631
-3.6893488e+19 3.0187664 1.0842022e-19
3.0429831 -1.0842022e-19 2.5063689
-2 3.0848207 -2
3.0780919 3.6893488e+19 2.5455711
-2 3.0181224 -1.0842022e-19
3.0422809 3.6893488e+19 2.4888377
-3.6893488e+19 2.9873428 2
2.9775488 -3.6893488e+19 2.4107339
1.0842022e-19 3.0366292 0
3.0624552 1.0842022e-19 2.498399
3.6893488e+19 2.9975197 -3.6893488e+19
2.9875209 1.0842022e-19 2.3994665
2 2.962781 3.6893488e+19
3.0022392 -2 2.3828645
-0 3.0332096 0
3.0587275 1.0842022e-19 2.4448099
2 2.9976246 0
2.9876239 1.0842022e-19 2.3599739
1.0842022e-19 3.0321653 0
3.0575891 2 2.4195006
1.0842022e-19 3.0017333 -1.0842022e-19
2.9933484 0 2.3442361
-1.0842022e-19 2.9816871 -2
2.9439969 1.0842022e-19 2.3106556
-1.0842022e-19 3.0400164 2
3.0473824 1.0842022e-19 2.3822174
2 2.9834437 -3.6893488e+19
2.945616 -0 2.2932103
3.6893488e+19 3.0386584 2
3.0459898 -1.0842022e-19 2.3570859
-3.6893488e+19 2.9380093 -0
2.9037368 2 2.2476966
0 3.0318136 -2
3.0389709 -2 2.3258603
0 2.9428458 3.6893488e+19
2.9081948 -1.0842022e-19 2.219265
-3.6893488e+19 3.0308752 -2
3.0380089 0 2.3021295
3.6893488e+19 2.941488 3.6893488e+19
2.9069433 1.0842022e-19 2.1840427
-2 3.0214882 -1.0842022e-19
3.0283835 -1.0842022e-19 2.2701671
-2 3.0483255 0
3.0249829 -3.6893488e+19 2.2454517
1.0842022e-19 3.0424633 3.6893488e+19
3.0498912 -2 2.238039
2 3.0448782 -3.6893488e+19
3.021805 3.6893488e+19 2.1947627
-1.0842022e-19 3.0550141 -3.6893488e+19
3.0627608 1.0842022e-19 2.210017
-2 3.0644464 2
3.0927789 3.6893488e+19 2.2137637
-0 3.0761821 -1.0842022e-19
3.0696268 -1.0842022e-19 2.179749
1.0842022e-19 3.0591547 -2
3.0870101 -3.6893488e+19 2.1547775
3.6893488e+19 2.9242294 -3.6893488e+19
2.9157035 2 1.996235
2 3.063592 -2
3.0918472 -3.6893488e+19 2.1087012
0 2.9302144 0
2.9215684 -3.6893488e+19 1.9660422
-0 3.0599751 1.0842022e-19
3.0879047 0 2.0533113
-2 2.9397507 -3.6893488e+19
2.930913 2 1.9364331
-0 3.0574179 -2
3.0851169 -2 2.0000179
-3.6893488e+19 3.0387976 3.6893488e+19
3.0329938 -0 1.9497247
-2 2.9334044 -0
2.9724553 0 1.8904475
3.6893488e+19 2.9435103 -1.0842022e-19
2.934597 -0 1.8624017
-3.6893488e+19 2.9328008 3.6893488e+19
2.9717972 -3.6893488e+19 1.8340586
0 2.93911 1.0842022e-19
2.9302852 -1.0842022e-19 1.7914524
2 3.0564098 -0
3.084018 2 1.8198617
-2 2.9431238 -0
2.9342184 2 1.6975118
3.6893488e+19 2.9288478 -2
2.895292 -3.6893488e+19 1.6162555
-2 2.9303854 3.6893488e+19
2.9413164 1.0842022e-19 1.4848657
-2 2.9236636 -0
2.8905137 -0 -1.150041
-2 2.9292493 3.6893488e+19
2.9401515 2 -1.5321478
2 2.9298098 -3.6893488e+19
2.8961787 0 -1.639901
0 2.9298379 3.6893488e+19
2.9407549 -0 -1.7160394
0 2.9227924 -2
2.8897104 2 -1.757957
-0 2.9371243 0
2.9482265 2 -1.804691
2 2.9231071 -1.0842022e-19
2.8900006 2 -1.8222526
-1.0842022e-19 2.9415522 -2
2.9527667 2 -1.8760451
0 2.9216096 -3.6893488e+19
2.8886201 3.6893488e+19 -1.8802778
2 2.9449975 -0
2.9562995 -1.0842022e-19 -1.9125988
3.6893488e+19 2.9184847 -2
2.8857398 3.6893488e+19 -1.9110881
1.0842022e-19 2.8978395 -2
2.9079437 -3.6893488e+19 -1.9271888
3.6893488e+19 2.8288383 -2
2.803108 1.0842022e-19 -1.9015568
-2 2.8162508 0
2.8242831 -0 -1.9161551
1.0842022e-19 2.802731 0
2.7966471 0 -1.9291724
2 2.6355515 -0
2.6702905 -2 -1.8785257
3.6893488e+19 2.6231518 3.6893488e+19
2.6156526 0 -1.8750412
2 2.5650589 2
2.5934465 1.0842022e-19 -1.8611411
-2 2.5545719 -0
2.5484509 -3.6893488e+19 -1.8529952
-0 2.5116401 -0
2.5352144 1.0842022e-19 -1.8427823
-1.0842022e-19 2.5129306 -0
2.5076466 -2 -1.8424569
-3.6893488e+19 2.4534221 -0
2.4942765 3.6893488e+19 -1.8325155
-2 2.4609709 1.0842022e-19
2.4517069 -0 -1.8337255
-1.0842022e-19 2.4029832 -1.0842022e-19
2.4392929 -3.6893488e+19 -1.8261611
-3.6893488e+19 2.4108944 3.6893488e+19
2.4026368 -0 -1.8272083
-0 2.360662 -1.0842022e-19
2.3931584 0 -1.8200288
1.0842022e-19 2.3674364 -3.6893488e+19
2.3600519 1.0842022e-19 -1.8202851
0 2.3276272 -1.0842022e-19
2.357147 0 -1.8158026
2 2.3369853 -3.6893488e+19
2.3302128 -0 -1.8173857
1.0842022e-19 2.3352702 -1.0842022e-19
2.3090365 -3.6893488e+19 -1.8173542
-2 3.0436468 0
3.051105 2 2.6000407
-0 2.9762576 -0
2.9389923 2 2.5054359
-3.6893488e+19 3.0405929 -3.6893488e+19
3.0479734 -0 2.5722523
0 2.9754109 0
2.9382119 3.6893488e+19 2.4912572
-3.6893488e+19 2.9759834 -3.6893488e+19
2.9387395 -1.0842022e-19 2.4731731
2 3.0459235 1.0842022e-19
3.0534394 -2 2.5537047
2 3.0199466 -0
3.0442693 2 2.5303965
-2 2.9867144 1.0842022e-19
2.976933 -0 2.4686942
3.6893488e+19 2.9916027 -2
2.9817228 -0 2.4536631
-3.6893488e+19 3.0187664 1.0842022e-19
3.0429831 -1.0842022e-19 2.5063689
-2 3.0848207 -2
3.0780919 3.6893488e+19 2.5455711
1.0842022e-19 2.9665525 -0
3.0042949 2 2.4253063
-3.6893488e+19 2.9873428 2
2.9775488 -3.6893488e+19 2.4107339
1.0842022e-19 3.0366292 0
3.0624552 1.0842022e-19 2.498399
3.6893488e+19 2.9975197 -3.6893488e+19
2.9875209 1.0842022e-19 2.3994665
2 2.962781 3.6893488e+19
3.0022392 -2 2.3828645
-0 3.0332096 0
3.0587275 1.0842022e-19 2.4448099
2 2.9976246 0
2.9876239 1.0842022e-19 2.3599739
2 2.968962 -3.6893488e+19
3.0056081 -1.0842022e-19 2.3486073
1.0842022e-19 3.0017333 -1.0842022e-19
2.9933484 0 2.3442361
-1.0842022e-19 2.9816871 -2
2.9439969 1.0842022e-19 2.3106556
3.6893488e+19 3.0066364 0
3.0131545 -1.0842022e-19 2.3382251
2 2.9834437 -3.6893488e+19
2.945616 -0 2.2932103
2 3.0080941 2
3.0146492 1.0842022e-19 2.3192763
-3.6893488e+19 2.9380093 -0
2.9037368 2 2.2476966
-2 3.0052428 0
3.0117257 -3.6893488e+19 2.2951367
0 2.9428458 3.6893488e+19
2.9081948 -1.0842022e-19 2.219265
-3.6893488e+19 3.0308752 -2
3.0380089 0 2.3021295
3.6893488e+19 2.941488 3.6893488e+19
2.9069433 1.0842022e-19 2.1840427
-2 3.0214882 -1.0842022e-19
3.0283835 -1.0842022e-19 2.2701671
0 2.9395728 -1.0842022e-19
2.9051778 0 2.1150157
1.0842022e-19 3.0424633 3.6893488e+19
3.0498912 -2 2.238039
-0 2.942409 3.6893488e+19
2.9077923 -3.6893488e+19 2.0836411
-1.0842022e-19 3.0550141 -3.6893488e+19
3.0627608 1.0842022e-19 2.210017
-3.6893488e+19 2.9578176 -1.0842022e-19
2.999068 0 2.0876079
-0 3.0761821 -1.0842022e-19
3.0696268 -1.0842022e-19 2.179749
-2 2.95906 0
3.0002112 2 2.0505247
3.6893488e+19 2.9242294 -3.6893488e+19
2.9157035 2 1.996235
1.0842022e-19 2.9303186 -1.0842022e-19
2.9690912 -1.0842022e-19 1.9961094
0 2.9302144 0
2.9215684 -3.6893488e+19 1.9660422
-3.6893488e+19 2.9322259 2
2.9711707 0 1.961467
-2 2.9397507 -3.6893488e+19
2.930913 2 1.9364331
-2 2.9354224 1.0842022e-19
2.9746552 -3.6893488e+19 1.927061
2 2.9406593 -2
2.9318032 -2 1.9023739
-2 2.9334044 -0
2.9724553 0 1.8904475
3.6893488e+19 2.9435103 -1.0842022e-19
2.934597 -0 1.8624017
-3.6893488e+19 2.9328008 3.6893488e+19
2.9717972 -3.6893488e+19 1.8340586
0 2.93911 1.0842022e-19
2.9302852 -1.0842022e-19 1.7914524
3.6893488e+19 2.9344573 -3.6893488e+19
2.9736028 3.6893488e+19 1.7631468
-2 2.9431238 -0
2.9342184 2 1.6975118
3.6893488e+19 2.9288478 -2
2.895292 -3.6893488e+19 1.6162555
-2 2.9303854 3.6893488e+19
2.9413164 1.0842022e-19 1.4848657
-2 2.9236636 -0
2.8905137 -0 -1.150041
-2 2.9292493 3.6893488e+19
2.9401515 2 -1.5321478
2 2.9298098 -3.6893488e+19
2.8961787 0 -1.639901
0 2.9298379 3.6893488e+19
2.9407549 -0 -1.7160394
0 2.9227924 -2
2.8897104 2 -1.757957
-0 2.9371243 0
2.9482265 2 -1.804691
2 2.9231071 -1.0842022e-19
2.8900006 2 -1.8222526
-0 2.8976238 1.0842022e-19
2.9077227 2 -1.8520107
0 2.9216096 -3.6893488e+19
2.8886201 3.6893488e+19 -1.8802778
0 2.8990281 2
2.9091625 -1.0842022e-19 -1.8958019
3.6893488e+19 2.9184847 -2
2.8857398 3.6893488e+19 -1.9110881
2 2.8407624 -1.0842022e-19
2.849417 0 -1.901768
3.6893488e+19 2.8288383 -2
2.803108 1.0842022e-19 -1.9015568
-2 2.8162508 0
2.8242831 -0 -1.9161551
1.0842022e-19 2.802731 0
2.7966471 0 -1.9291724
2 2.6355515 -0
2.6702905 -2 -1.8785257
3.6893488e+19 2.6231518 3.6893488e+19
2.6156526 0 -1.8750412
2 2.5650589 2
2.5934465 1.0842022e-19 -1.8611411
-2 2.5545719 -0
2.5484509 -3.6893488e+19 -1.8529952
-0 2.5116401 -0
2.5352144 1.0842022e-19 -1.8427823
-1.0842022e-19 2.5129306 -0
2.5076466 -2 -1.8424569
-3.6893488e+19 2.4534221 -0
2.4942765 3.6893488e+19 -1.8325155
-2 2.4609709 1.0842022e-19
2.4517069 -0 -1.8337255
-1.0842022e-19 2.4029832 -1.0842022e-19
2.4392929 -3.6893488e+19 -1.8261611
-3.6893488e+19 2.4108944 3.6893488e+19
2.4026368 -0 -1.8272083
-0 2.360662 -1.0842022e-19
2.3931584 0 -1.8200288
1.0842022e-19 2.3674364 -3.6893488e+19
2.3600519 1.0842022e-19 -1.8202851
0 2.3276272 -1.0842022e-19
2.357147 0 -1.8158026
2 2.3369853 -3.6893488e+19
2.3302128 -0 -1.8173857
1.0842022e-19 2.3352702 -1.0842022e-19
2.3090365 -3.6893488e+19 -1.8173542
-2 3.0272796 2
3.0328369 -0 2.6027625
-3.6893488e+19 3.0993104 0
3.070291 -2 2.6651595
2 3.0441496 -2
3.0500448 -0 2.6119452
3.6893488e+19 3.044477 3.6893488e+19
3.0503788 -2 2.6000915
0 3.0452831 -2
3.0512009 2 2.5887978
3.6893488e+19 2.97736 -3.6893488e+19
2.9377024 -2 2.5054116
-0 3.0569007 0
3.0630517 2 2.5894268
2 3.0294394 0
3.0062246 -2 2.5380595
1.0842022e-19 3.0301652 0
3.0068901 0 2.5278416
3.6893488e+19 3.0491717 1.0842022e-19
3.0551677 -2 2.5562174
1.0842022e-19 2.9681089 -0
3.0038061 1.0842022e-19 2.4848478
2 3.0220993 2
3.015238 1.0842022e-19 2.5113554
-2 3.0255322 0
3.0487845 2 2.5237155
3.6893488e+19 2.9957325 3.6893488e+19
2.9832323 1.0842022e-19 2.4563053
-2 3.0213103 -1.0842022e-19
3.0442061 0 2.50806
-0 3.0884638 -2
3.0799291 3.6893488e+19 2.5480235
-1.0842022e-19 3.0210643 -0
3.0439394 -3.6893488e+19 2.4927964
-3.6893488e+19 2.9866884 3.6893488e+19
2.9744163 -3.6893488e+19 2.4091341
-2 2.9712238 -1.0842022e-19
3.0054951 -0 2.4085243
2 2.9988387 -2
2.9862599 -3.6893488e+19 2.3995018
-3.6893488e+19 3.0423284 2
3.066998 3.6893488e+19 2.4823194
-3.6893488e+19 2.9960434 0
2.9835355 0 2.3775716
-1.0842022e-19 3.0333028 2
3.0572107 -3.6893488e+19 2.4436915
2 3.033453 1.0842022e-19
3.0573735 3.6893488e+19 2.4202173
-1.0842022e-19 3.0001569 -2
2.9876981 3.6893488e+19 2.3412063
-0 2.9830308 0
2.9429023 0 2.3107734
-0 3.040468 -0
3.0462894 -3.6893488e+19 2.3817887
3.6893488e+19 3.052371 -1.0842022e-19
3.027251 -3.6893488e+19 2.3658965
2 3.0352128 -0
3.0409288 -1.0842022e-19 2.3518801
2 3.0517511 3.6893488e+19
3.0266826 -1.0842022e-19 2.3420463
-0 3.0343103 0
3.0400085 2 2.3278685
-0 3.0507255 1.0842022e-19
3.0257423 2 2.3179002
-1.0842022e-19 3.0513811 -2
3.0263433 2 2.2955863
1.0842022e-19 3.0503931 -0
3.0254374 -1.0842022e-19 2.271719
-0 3.0330381 0
3.0387108 -2 2.2582054
0 3.047437 -0
3.0227268 1.0842022e-19 2.2427883
0 3.0462148 1.0842022e-19
3.0521514 2 2.2429776
2 3.0376384 0
3.0137424 3.6893488e+19 2.1828001
-2 3.04531 -2
3.0512285 3.6893488e+19 2.1941905
2 3.0619175 2
3.0882401 3.6893488e+19 2.2087262
1.0842022e-19 3.07742 2
3.0691638 -3.6893488e+19 2.1802773
-2 3.0585551 -1.0842022e-19
3.084594 -1.0842022e-19 2.1528444
2 3.032248 0
3.025131 3.6893488e+19 2.0768125
2 3.0741985 1.0842022e-19
3.1015575 1.0842022e-19 2.1197796
1.0842022e-19 2.934804 1.0842022e-19
2.92384 1.0842022e-19 1.9677891
0 3.0611975 1.0842022e-19
3.0874593 0 2.0536418
1.0842022e-19 2.9336324 0
2.922698 -2 1.9333693
2 3.0579343 3.6893488e+19
3.0839207 -3.6893488e+19 1.9997261
0 3.0401864 1.0842022e-19
3.0328691 -3.6893488e+19 1.9501721
2 3.0580218 2
3.0840156 -0 1.9490653
-2 2.9489417 3.6893488e+19
2.9376214 -3.6893488e+19 1.864695
-1.0842022e-19 2.9339921 -2
2.9706166 -2 1.8340383
1.0842022e-19 2.9364314 0
2.9254265 -1.0842022e-19 1.7900143
-2 3.0571349 -3.6893488e+19
3.0830538 3.6893488e+19 1.8197676
-0 2.9453332 -3.6893488e+19
2.9341037 -3.6893488e+19 1.6979892
2 2.9273937 -0
2.8918872 1.0842022e-19 1.6148596
3.6893488e+19 2.9319768 -2
2.9406343 -0 1.4851037
-1.0842022e-19 2.9300282 -2
2.8943028 3.6893488e+19 -1.1519289
-1.0842022e-19 2.9293063 -1.0842022e-19
2.9379103 0 -1.5317484
-3.6893488e+19 2.9316745 -0
2.8958125 -0 -1.6401702
-1.0842022e-19 2.9330902 -1.0842022e-19
2.9417701 -2 -1.717092
0 2.9263446 -2
2.8909252 2 -1.7587517
2 2.9378588 1.0842022e-19
2.9466343 -3.6893488e+19 -1.8045115
-0 2.9230673 2
2.8879204 -1.0842022e-19 -1.8217599
-0 2.9461477 1.0842022e-19
2.9550893 1.0842022e-19 -1.8770164
-1.0842022e-19 2.9224873 -0
2.8873885 1.0842022e-19 -1.8802352
-3.6893488e+19 2.9498639 0
2.9588802 2 -1.9139376
-2 2.9208281 -2
2.8858671 1.0842022e-19 -1.9116008
-3.6893488e+19 2.9008734 -2
2.9089077 -1.0842022e-19 -1.9280627
-0 2.8291245 -0
2.8017819 -1.0842022e-19 -1.901324
-3.6893488e+19 2.817492 -1.0842022e-19
2.8238552 -0 -1.9163612
2 2.8097305 2
2.8358686 0 -1.9303656
-2 2.8015847 2
2.7939801 0 -1.9280379
0 2.6340277 -2
2.6664355 1.0842022e-19 -1.877654
2 2.617764 -1.0842022e-19
2.6084905 2 -1.8708417
0 2.5659571 -2
2.5926204 1.0842022e-19 -1.8611411
3.6893488e+19 2.5565133 -2
2.5487843 -3.6893488e+19 -1.853862
1.0842022e-19 2.5123014 1.0842022e-19
2.5344369 -1.0842022e-19 -1.842712
-3.6893488e+19 2.5133364 -1.0842022e-19
2.5066962 -0 -1.842236
2 2.4550526 -2
2.4934542 0 -1.8326697
3.6893488e+19 2.4642932 3.6893488e+19
2.4525857 -3.6893488e+19 -1.8346925
-2 2.4046385 -3.6893488e+19
2.4387858 -0 -1.8264134
0 2.4126606 0
2.4022551 -2 -1.8275584
2 2.3620276 0
2.3925791 -3.6893488e+19 -1.8202107
0 2.3674867 -1.0842022e-19
2.3582201 3.6893488e+19 -1.8198127
0 2.3285611 0
2.3562882 0 -1.8158026
-1.0842022e-19 2.3380268 0
2.3295033 2 -1.8174871
-2 2.3379104 2
2.3098381 1.0842022e-19 -1.8184031
-2 2.3111029 2
2.2852576 -3.6893488e+19 -1.8149704
-2 2.2676256 -2
2.2407844 3.6893488e+19 -1.8089612
1.0842022e-19 2.2218516 0
2.1826518 -0 -1.8053418
-0 2.1706228 0
2.135679 3.6893488e+19 -1.8020239
-1.0842022e-19 2.0905495 1.0842022e-19
2.1192884 3.6893488e+19 -1.7952031
-1.0842022e-19 2.052567 -3.6893488e+19
2.0781004 2 -1.8019528
-2 3.0272796 2
3.0328369 -0 2.6027625
-3.6893488e+19 3.0993104 0
3.070291 -2 2.6651595
2 3.0441496 -2
3.0500448 -0 2.6119452
3.6893488e+19 3.044477 3.6893488e+19
3.0503788 -2 2.6000915
0 3.0452831 -2
3.0512009 2 2.5887978
3.6893488e+19 2.97736 -3.6893488e+19
2.9377024 -2 2.5054116
-2 3.0406632 1.0842022e-19
3.0464888 -0 2.5714684
-3.6893488e+19 2.9798148 0
2.9399536 1.0842022e-19 2.4946163
-1.0842022e-19 2.9797587 2
2.9399021 2 2.4757798
3.6893488e+19 3.0491717 1.0842022e-19
3.0551677 -2 2.5562174
1.0842022e-19 2.9681089 -0
3.0038061 1.0842022e-19 2.4848478
0 2.9880497 -0
2.9757431 -3.6893488e+19 2.4687788
3.6893488e+19 2.965662 1.0842022e-19
3.0024796 -0 2.4625914
3.6893488e+19 2.9957325 3.6893488e+19
2.9832323 1.0842022e-19 2.4563053
-0 2.9679122 3.6893488e+19
3.0036995 -3.6893488e+19 2.4450598
-0 3.0884638 -2
3.0799291 3.6893488e+19 2.5480235
1.0842022e-19 2.9675474 -1.0842022e-19
3.0035017 1.0842022e-19 2.4250019
-3.6893488e+19 2.9866884 3.6893488e+19
2.9744163 -3.6893488e+19 2.4091341
-2 2.9712238 -1.0842022e-19
3.0054951 -0 2.4085243
2 2.9988387 -2
2.9862599 -3.6893488e+19 2.3995018
2 2.9651911 2
3.0022242 -2 2.3837645
-3.6893488e+19 2.9960434 0
2.9835355 0 2.3775716
-1.0842022e-19 3.0333028 2
3.0572107 -3.6893488e+19 2.4436915
2 2.9703407 0
3.0050163 3.6893488e+19 2.3486385
-1.0842022e-19 3.0001569 -2
2.9876981 3.6893488e+19 2.3412063
-0 2.9830308 0
2.9429023 0 2.3107734
-0 3.0090196 -3.6893488e+19
3.0142107 2 2.3404534
3.6893488e+19 3.052371 -1.0842022e-19
3.027251 -3.6893488e+19 2.3658965
-3.6893488e+19 3.0070024 -2
3.0121531 -3.6893488e+19 2.3170757
3.6893488e+19 2.9425011 -0
2.9057395 3.6893488e+19 2.2507958
1.0842022e-19 3.0073421 -0
3.0124996 1.0842022e-19 2.2967684
2 2.9438212 3.6893488e+19
2.90695 1.0842022e-19 2.2191682
-2 2.9406707 -1.0842022e-19
2.9040613 0 2.1821978
0 2.9458957 2
2.9088521 0 2.1533327
-0 3.0330381 0
3.0387108 -2 2.2582054
-0 2.9470625 1.0842022e-19
2.9099221 2 2.1203427
0 3.0462148 1.0842022e-19
3.0521514 2 2.2429776
2 3.0376384 0
3.0137424 3.6893488e+19 2.1828001
-2 3.04531 -2
3.0512285 3.6893488e+19 2.1941905
-3.6893488e+19 2.9588265 2
2.9975469 0 2.0873902
1.0842022e-19 2.9351602 3.6893488e+19
2.9241872 2 2.0359318
1.0842022e-19 2.9577034 -3.6893488e+19
2.9963286 -2 2.0487847
3.6893488e+19 2.9256291 -1.0842022e-19
2.9148965 -2 1.9964161
-1.0842022e-19 2.9298522 3.6893488e+19
2.9661274 1.0842022e-19 1.995144
1.0842022e-19 2.934804 1.0842022e-19
2.92384 1.0842022e-19 1.9677891
-3.6893488e+19 2.9323573 2
2.9688439 -0 1.96093
1.0842022e-19 2.9336324 0
2.922698 -2 1.9333693
-2 2.933403 3.6893488e+19
2.9699779 2 1.9257389
3.6893488e+19 2.9267578 2
2.9159968 -3.6893488e+19 1.8971899
-0 2.9350212 -2
2.9717324 3.6893488e+19 1.8905706
-2 2.9489417 3.6893488e+19
2.9376214 -3.6893488e+19 1.864695
-1.0842022e-19 2.9339921 -2
2.9706166 -2 1.8340383
1.0842022e-19 2.9364314 0
2.9254265 -1.0842022e-19 1.7900143
-0 2.9359922 3.6893488e+19
2.9727855 1.0842022e-19 1.7632408
-0 2.9453332 -3.6893488e+19
2.9341037 -3.6893488e+19 1.6979892
3.6893488e+19 2.8804531 -3.6893488e+19
2.8488462 1.0842022e-19 1.5885159
3.6893488e+19 2.9319768 -2
2.9406343 -0 1.4851037
-3.6893488e+19 2.8818429 2
2.8501208 0 -1.1349051
-1.0842022e-19 2.9293063 -1.0842022e-19
2.9379103 0 -1.5317484
-2 2.885195 0
2.8531945 -0 -1.6250777
-1.0842022e-19 2.9330902 -1.0842022e-19
2.9417701 -2 -1.717092
0 2.9263446 -2
2.8909252 2 -1.7587517
2 2.9378588 1.0842022e-19
2.9466343 -3.6893488e+19 -1.8045115
-0 2.9230673 2
2.8879204 -1.0842022e-19 -1.8217599
-0 2.9461477 1.0842022e-19
2.9550893 1.0842022e-19 -1.8770164
-1.0842022e-19 2.9224873 -0
2.8873885 1.0842022e-19 -1.8802352
-0 2.8998353 1.0842022e-19
2.9078488 -1.0842022e-19 -1.8957063
-2 2.9208281 -2
2.8858671 1.0842022e-19 -1.9116008
-1.0842022e-19 2.832582 -2
2.8392475 1.0842022e-19 -1.8977286
-0 2.8291245 -0
2.8017819 -1.0842022e-19 -1.901324
-3.6893488e+19 2.817492 -1.0842022e-19
2.8238552 -0 -1.9163612
2 2.8097305 2
2.8358686 0 -1.9303656
-2 2.8015847 2
2.7939801 0 -1.9280379
0 2.6340277 -2
2.6664355 1.0842022e-19 -1.877654
2 2.617764 -1.0842022e-19
2.6084905 2 -1.8708417
0 2.5659571 -2
2.5926204 1.0842022e-19 -1.8611411
3.6893488e+19 2.5565133 -2
2.5487843 -3.6893488e+19 -1.853862
1.0842022e-19 2.5123014 1.0842022e-19
2.5344369 -1.0842022e-19 -1.842712
-3.6893488e+19 2.5133364 -1.0842022e-19
2.5066962 -0 -1.842236
2 2.4550526 -2
2.4934542 0 -1.8326697
3.6893488e+19 2.4642932 3.6893488e+19
2.4525857 -3.6893488e+19 -1.8346925
-2 2.4046385 -3.6893488e+19
2.4387858 -0 -1.8264134
0 2.4126606 0
2.4022551 -2 -1.8275584
2 2.3620276 0
2.3925791 -3.6893488e+19 -1.8202107
0 2.3674867 -1.0842022e-19
2.3582201 3.6893488e+19 -1.8198127
0 2.3285611 0
2.3562882 0 -1.8158026
-1.0842022e-19 2.3380268 0
2.3295033 2 -1.8174871
-2 2.3379104 2
2.3098381 1.0842022e-19 -1.8184031
-2 2.3111029 2
2.2852576 -3.6893488e+19 -1.8149704
-2 2.2676256 -2
2.2407844 3.6893488e+19 -1.8089612
1.0842022e-19 2.2218516 0
2.1826518 -0 -1.8053418
-0 2.1706228 0
2.135679 3.6893488e+19 -1.8020239
-1.0842022e-19 2.0905495 1.0842022e-19
2.1192884 3.6893488e+19 -1.7952031
-1.0842022e-19 2.052567 -3.6893488e+19
2.0781004 2 -1.8019528
-1.0842022e-19 3.0979149 -1.0842022e-19
3.0673387 -2 2.6625121
-2 3.044934 -0
3.0492737 -0 2.6119452
2 3.0457349 3.6893488e+19
3.0500863 3.6893488e+19 2.6006517
-1.0842022e-19 3.0484576 -2
3.0528491 -1.0842022e-19 2.5915294
0 3.0557597 -3.6893488e+19
3.0602584 -1.0842022e-19 2.587265
1.0842022e-19 3.0294969 -3.6893488e+19
3.0049334 1.0842022e-19 2.5374298
1.0842022e-19 3.0304279 -2
3.0057826 -1.0842022e-19 2.527437
1.0842022e-19 2.9660463 0
3.0013642 1.0842022e-19 2.4813466
-1.0842022e-19 3.0230579 -2
3.014782 3.6893488e+19 2.5116096
-0 3.0265021 2
3.0482655 -1.0842022e-19 2.5239022
-1.0842022e-19 2.9953578 -0
2.9803443 0 2.4548013
3.6893488e+19 3.0205066 -2
3.0417979 0 2.506568
2 3.0894372 1.0842022e-19
3.0791495 -0 2.5481207
-2 3.0225468 -2
3.0439987 2 2.4940908
0 2.9838912 -0
2.9692252 -1.0842022e-19 2.4057486
0 2.9721398 -3.6893488e+19
3.0046506 2 2.4081609
-3.6893488e+19 2.9996657 1.0842022e-19
2.9845219 -2 2.399147
0 3.0468185 -2
3.0701807 2 2.4883428
-2 2.9969964 3.6893488e+19
2.9819334 0 2.3773353
-0 3.0485115 2
3.0720072 2 2.4661887
-2 2.9722223 -3.6893488e+19
3.0046952 -0 2.3490436
-3.6893488e+19 3.0013065 3.6893488e+19
2.98738 2 2.3419032
1.0842022e-19 2.984097 -1.0842022e-19
2.9415524 0 2.3107145
2 3.0089042 3.6893488e+19
3.0127137 1.0842022e-19 2.3393965
1.0842022e-19 3.0519257 3.6893488e+19
3.0253911 -0 2.3644838
0 3.0357554 2
3.0399599 1.0842022e-19 2.3516119
-3.6893488e+19 3.0518773 -3.6893488e+19
3.025347 -2 2.3413711
1.0842022e-19 3.0362909 -0
3.0405033 0 2.3292742
-1.0842022e-19 3.0520208 -2
3.0254779 3.6893488e+19 2.318506
-2 3.0354369 3.6893488e+19
3.0396369 -3.6893488e+19 2.3054006
-2 3.0514827 2
3.0249872 3.6893488e+19 2.2949789
-2 3.050998 -3.6893488e+19
3.024545 1.0842022e-19 2.2716153
2 3.0342741 1.0842022e-19
3.0384569 -0 2.2586432
-3.6893488e+19 3.0455713 3.6893488e+19
3.0195954 -1.0842022e-19 2.2385266
2 3.0472236 2
3.0515969 3.6893488e+19 2.2433407
1.0842022e-19 2.9444094 -1.0842022e-19
2.9509482 0 2.0833399
0 3.0617843 3.6893488e+19
3.0863245 0 2.2072337
3.6893488e+19 2.9370306 -3.6893488e+19
2.9237847 -0 2.0364308
-2 3.0583694 -3.6893488e+19
3.0826409 0 2.1514637
3.6893488e+19 3.0320711 -2
3.0235219 0 2.0757775
-2 2.9308589 3.6893488e+19
2.9647715 -2 1.9950233
-0 3.0361106 3.6893488e+19
3.0274391 0 2.0358915
-1.0842022e-19 3.0618038 -0
3.0863457 -3.6893488e+19 2.0533731
2 3.0360138 3.6893488e+19
3.0273452 2 1.9912775
0 3.0582554 -0
3.0825179 0 1.9992797
0 2.9261861 1.0842022e-19
2.913269 0 1.8966191
-2 3.0570261 -0
3.081192 3.6893488e+19 1.947861
-0 2.9341183 1.0842022e-19
2.9682875 -1.0842022e-19 1.8335078
3.6893488e+19 2.9259691 1.0842022e-19
2.9130588 -2 1.7856491
3.6893488e+19 3.0577722 2
3.0819967 -3.6893488e+19 1.8196198
-2 2.9293416 -2
2.8916092 3.6893488e+19 1.6153766
-1.0842022e-19 2.9415958 -1.0842022e-19
2.9480934 -1.0842022e-19 1.4896996
0 2.9289351 -3.6893488e+19
2.8912382 2 -1.1511803
2 2.9304075 -1.0842022e-19
2.9367404 0 -1.5317324
-0 2.9326632 0
2.894639 1.0842022e-19 -1.6401553
-0 2.9340699 -3.6893488e+19
2.9404566 0 -1.7170044
-0 2.9222414 -2
2.885133 1.0842022e-19 -1.7571478
3.6893488e+19 2.9408689 3.6893488e+19
2.9473557 -2 -1.8052648
1.0842022e-19 2.9200189 -1.0842022e-19
2.8831058 -2 -1.819875
-1.0842022e-19 2.9479954 -0
2.9545872 0 -1.8772032
3.6893488e+19 2.9185612 1.0842022e-19
2.8817763 3.6893488e+19 -1.8787163
-3.6893488e+19 2.9493098 -3.6893488e+19
2.9559209 -3.6893488e+19 -1.9133
-3.6893488e+19 2.8975151 3.6893488e+19
2.9033642 0 -1.9261013
-2 2.8315742 1.0842022e-19
2.8024342 0 -1.9020859
0 2.8170681 -2
2.8217332 1.0842022e-19 -1.9156971
-3.6893488e+19 2.8111179 3.6893488e+19
2.8356059 -2 -1.9306612
0 2.7979624 3.6893488e+19
2.7889316 3.6893488e+19 -1.9254522
-2 2.6367285 -1.0842022e-19
2.6671677 -1.0842022e-19 -1.8781883
-0 2.6243446 -3.6893488e+19
2.6129987 -2 -1.8746046
1.0842022e-19 2.5670226 -3.6893488e+19
2.591975 -1.0842022e-19 -1.8612674
-3.6893488e+19 2.5574734 1.0842022e-19
2.5481546 -2 -1.8539954
1.0842022e-19 2.5131299 2
2.5338407 1.0842022e-19 -1.8427823
-3.6893488e+19 2.5135601 -0
2.5055721 -3.6893488e+19 -1.8418678
-3.6893488e+19 2.4531231 -0
2.4887881 1.0842022e-19 -1.8312045
-3.6893488e+19 2.4652975 0
2.4511952 -2 -1.8346119
2 2.401552 -2
2.4331577 2 -1.8243119
-0 2.4131758 -0
2.4006531 -3.6893488e+19 -1.8272958
3.6893488e+19 2.3639004 -3.6893488e+19
2.3925426 0 -1.8206658
1.0842022e-19 2.3684232 2
2.3572569 3.6893488e+19 -1.8198127
-0 2.3310149 -1.0842022e-19
2.3570688 -3.6893488e+19 -1.816684
0 2.3383527 -2
2.3280976 0 -1.8171829
-0 2.3392715 -0
2.3094549 -1.0842022e-19 -1.8187177
-1.0842022e-19 3.0979149 -1.0842022e-19
3.0673387 -2 2.6625121
-2 3.044934 -0
3.0492737 -0 2.6119452
2 3.0457349 3.6893488e+19
3.0500863 3.6893488e+19 2.6006517
-1.0842022e-19 3.0484576 -2
3.0528491 -1.0842022e-19 2.5915294
0 3.0557597 -3.6893488e+19
3.0602584 -1.0842022e-19 2.587265
-1.0842022e-19 2.9813733 0
2.9390683 1.0842022e-19 2.4950361
-2 2.9791372 3.6893488e+19
2.9370286 0 2.4740272
1.0842022e-19 2.9660463 0
3.0013642 1.0842022e-19 2.4813466
-1.0842022e-19 2.9934943 3.6893488e+19
2.9785373 0 2.4728038
-0 2.967988 -2
3.0024114 -2 2.4635875
-1.0842022e-19 2.9953578 -0
2.9803443 0 2.4548013
-3.6893488e+19 2.9702876 1.0842022e-19
3.0036519 -2 2.4460545
2 3.0894372 1.0842022e-19
3.0791495 -0 2.5481207
-2 2.968327 -3.6893488e+19
3.0025942 -0 2.4245069
0 2.9838912 -0
2.9692252 -1.0842022e-19 2.4057486
0 2.9721398 -3.6893488e+19
3.0046506 2 2.4081609
-3.6893488e+19 2.9996657 1.0842022e-19
2.9845219 -2 2.399147
-2 2.9676883 -3.6893488e+19
3.0022497 2 2.3847339
-2 2.9969964 3.6893488e+19
2.9819334 0 2.3773353
-0 3.0485115 2
3.0720072 2 2.4661887
-2 2.9722223 -3.6893488e+19
3.0046952 -0 2.3490436
-3.6893488e+19 3.0013065 3.6893488e+19
2.98738 2 2.3419032
1.0842022e-19 2.984097 -1.0842022e-19
2.9415524 0 2.3107145
2 3.0089042 3.6893488e+19
3.0127137 1.0842022e-19 2.3393965
0 2.9859998 0
2.9432881 -0 2.2933488
3.6893488e+19 3.0079932 3.6893488e+19
3.0117893 -1.0842022e-19 2.3174515
3.6893488e+19 2.9455826 -2
2.9064229 -2 2.2519383
0 3.0098617 2
3.0136852 -2 2.2988768
-0 2.9444714 -0
2.9054093 -0 2.2187319
-2 3.0354369 3.6893488e+19
3.0396369 -3.6893488e+19 2.3054006
-3.6893488e+19 2.9483495 2
2.9089468 3.6893488e+19 2.1886773
-3.6893488e+19 2.9455378 -2
2.9063821 -2 2.1520452
2 3.0342741 1.0842022e-19
3.0384569 -0 2.2586432
-3.6893488e+19 2.9463844 -1.0842022e-19
2.9071543 -1.0842022e-19 2.1188967
-1.0842022e-19 2.9455509 -1.0842022e-19
2.9521067 0 2.1197696
1.0842022e-19 2.9444094 -1.0842022e-19
2.9509482 0 2.0833399
-0 2.9621632 -1.0842022e-19
2.9985397 -0 2.0888827
3.6893488e+19 2.9370306 -3.6893488e+19
2.9237847 -0 2.0364308
3.6893488e+19 2.9592133 -0
2.9953575 -3.6893488e+19 2.0489228
3.6893488e+19 3.0320711 -2
3.0235219 0 2.0757775
-2 2.9308589 3.6893488e+19
2.9647715 -2 1.9950233
-3.6893488e+19 2.9269023 0
2.9139638 0 1.9632877
0 2.9323947 -1.0842022e-19
2.966428 -0 1.9603517
1.0842022e-19 2.9292674 -1.0842022e-19
2.9162569 2 1.9310621
-2 2.9348867 1.0842022e-19
2.9691164 3.6893488e+19 1.9258419
0 2.9261861 1.0842022e-19
2.913269 0 1.8966191
1.0842022e-19 2.936552 2
2.9709127 0 1.8906665
-0 2.9341183 1.0842022e-19
2.9682875 -1.0842022e-19 1.8335078
3.6893488e+19 2.9259691 1.0842022e-19
2.9130588 -2 1.7856491
-1.0842022e-19 2.9352741 -2
2.9695342 -1.0842022e-19 1.7626228
-2 2.8794718 3.6893488e+19
2.8461223 -0 1.5874559
-1.0842022e-19 2.9415958 -1.0842022e-19
2.9480934 -1.0842022e-19 1.4896996
2 2.8824351 -1.0842022e-19
2.848825 3.6893488e+19 -1.1347911
2 2.9304075 -1.0842022e-19
2.9367404 0 -1.5317324
-1.0842022e-19 2.8846869 -3.6893488e+19
2.850879 3.6893488e+19 -1.6242281
-0 2.9340699 -3.6893488e+19
2.9404566 0 -1.7170044
2 2.8843806 -0
2.8505995 2 -1.7405971
3.6893488e+19 2.9408689 3.6893488e+19
2.9473557 -2 -1.8052648
1.0842022e-19 2.9200189 -1.0842022e-19
2.8831058 -2 -1.819875
-1.0842022e-19 2.9479954 -0
2.9545872 0 -1.8772032
3.6893488e+19 2.9185612 1.0842022e-19
2.8817763 3.6893488e+19 -1.8787163
-0 2.9012964 3.6893488e+19
2.9072011 -2 -1.8958497
1.0842022e-19 2.8298306 -0
2.8346837 -3.6893488e+19 -1.8961166
-2 2.8315742 1.0842022e-19
2.8024342 0 -1.9020859
0 2.8170681 -2
2.8217332 1.0842022e-19 -1.9156971
-3.6893488e+19 2.8111179 3.6893488e+19
2.8356059 -2 -1.9306612
0 2.7979624 3.6893488e+19
2.7889316 3.6893488e+19 -1.9254522
-2 2.6367285 -1.0842022e-19
2.6671677 -1.0842022e-19 -1.8781883
-0 2.6243446 -3.6893488e+19
2.6129987 -2 -1.8746046
1.0842022e-19 2.5670226 -3.6893488e+19
2.591975 -1.0842022e-19 -1.8612674
-3.6893488e+19 2.5574734 1.0842022e-19
2.5481546 -2 -1.8539954
1.0842022e-19 2.5131299 2
2.5338407 1.0842022e-19 -1.8427823
-3.6893488e+19 2.5135601 -0
2.5055721 -3.6893488e+19 -1.8418678
-3.6893488e+19 2.4531231 -0
2.4887881 1.0842022e-19 -1.8312045
-3.6893488e+19 2.4652975 0
2.4511952 -2 -1.8346119
2 2.401552 -2
2.4331577 2 -1.8243119
-0 2.4131758 -0
2.4006531 -3.6893488e+19 -1.8272958
3.6893488e+19 2.3639004 -3.6893488e+19
2.3925426 0 -1.8206658
1.0842022e-19 2.3684232 2
2.3572569 3.6893488e+19 -1.8198127
-0 2.3310149 -1.0842022e-19
2.3570688 -3.6893488e+19 -1.816684
0 2.3383527 -2
2.3280976 0 -1.8171829
-0 2.3392715 -0
2.3094549 -1.0842022e-19 -1.8187177
-3.6893488e+19 3.0998297 -0
3.0674114 -1.0842022e-19 2.6637957
-1.0842022e-19 3.0455875 -0
3.0483704 2 2.6117873
0 3.0472085 0
3.0500066 0 2.6014667
-2 3.0492494 2
3.0520668 -1.0842022e-19 2.5915294
-3.6893488e+19 3.0568945 2
3.0597839 1.0842022e-19 2.5876215
0 3.0324371 0
3.006264 0 2.5397625
-0 3.0308917 0
3.0048618 3.6893488e+19 2.5272348
-3.6893488e+19 2.9675705 -3.6893488e+19
3.0008657 -1.0842022e-19 2.4815626
-2 3.022531 1.0842022e-19
3.0128903 -2 2.5104444
-1.0842022e-19 3.027261 2
3.047518 -1.0842022e-19 2.5238814
-0 3.0865424 2
3.0746372 0 2.5582073
-2 3.0211854 -1.0842022e-19
3.0409985 2 2.5064883
2 3.0861654 -3.6893488e+19
3.0742733 3.6893488e+19 2.5445006
1.0842022e-19 2.9716275 1.0842022e-19
3.0030425 3.6893488e+19 2.426296
-0 2.9730077 2
3.003783 -0 2.4077611
3.6893488e+19 2.9939418 1.0842022e-19
2.9764686 1.0842022e-19 2.3935769
-2 2.9706111 2
3.0024972 -1.0842022e-19 2.3860493
3.6893488e+19 2.9944234 -2
2.976933 -0 2.3744323
3.6893488e+19 2.9763384 -0
3.0055699 1.0842022e-19 2.3709052
-0 2.9881892 -2
2.9709194 -3.6893488e+19 2.350462
-0 2.9754992 0
3.0051198 -3.6893488e+19 2.350477
3.6893488e+19 2.9884229 -0
2.9431612 -3.6893488e+19 2.3127451
0 3.009176 1.0842022e-19
3.011616 -1.0842022e-19 2.3388536
-2 2.9863305 1.0842022e-19
2.941263 1.0842022e-19 2.2928503
1.0842022e-19 3.0381753 2
3.0408883 0 2.3536513
2 2.9819551 2
2.9372928 -1.0842022e-19 2.2718556
0 3.0370286 0
3.0397308 -2 2.3292489
3.6893488e+19 2.9466369 -3.6893488e+19
2.9052474 -0 2.2198951
2 3.0344863 -2
3.0371644 3.6893488e+19 2.3035781
3.6893488e+19 2.9466066 -1.0842022e-19
2.90522 -2 2.1859324
-2 3.0480947 -2
3.0204706 -3.6893488e+19 2.2683554
3.6893488e+19 3.0346775 -0
3.0373576 3.6893488e+19 2.2583249
0 3.0450764 2
3.0177319 -2 2.2365479
-1.0842022e-19 3.0478146 -0
3.0506184 -1.0842022e-19 2.2430139
2 2.9473879 2
2.9515998 -1.0842022e-19 2.084686
-2 3.0633652 1.0842022e-19
3.0862601 0 2.2082598
-3.6893488e+19 2.9361176 1.0842022e-19
2.9206901 -1.0842022e-19 2.0351098
-3.6893488e+19 3.0591328 2
3.0817184 -3.6893488e+19 2.1513255
-3.6893488e+19 3.0323594 0
3.0223711 0 2.0752859
-3.6893488e+19 3.0585423 3.6893488e+19
3.0810847 -2 2.0999401
-2 2.9295125 1.0842022e-19
2.9143186 3.6893488e+19 1.9640491
-3.6893488e+19 3.0640669 2
3.087013 -0 2.0547156
-1.0842022e-19 3.0354128 -2
3.0253162 2 1.9901617
2 3.0580389 3.6893488e+19
3.0805445 2 1.998404
3.6893488e+19 2.9229951 -3.6893488e+19
2.9080315 -1.0842022e-19 1.8951533
-1.0842022e-19 3.0574024 -2
3.0798614 -2 1.9475461
3.6893488e+19 2.9284723 1.0842022e-19
2.9133151 -3.6893488e+19 1.8526075
-3.6893488e+19 2.9341924 3.6893488e+19
2.965915 1.0842022e-19 1.8329569
-1.0842022e-19 2.921247 3.6893488e+19
2.9063454 -2 1.7834665
-3.6893488e+19 2.9399955 -1.0842022e-19
2.972142 -3.6893488e+19 1.7637243
3.6893488e+19 2.917958 1.0842022e-19
2.9031727 -2 1.6848775
-3.6893488e+19 2.9331424 3.6893488e+19
2.8930037 -0 1.6169277
-0 2.940788 0
2.9449379 -0 1.488628
-0 2.9387059 -1.0842022e-19
2.8980515 -2 -1.1542562
2 2.9307137 -3.6893488e+19
2.9347684 -3.6893488e+19 -1.5314288
2 2.8847249 -3.6893488e+19
2.8490727 3.6893488e+19 -1.6236597
2 2.9433146 -0
2.9474881 1.0842022e-19 -1.7210397
-1.0842022e-19 2.8860838 -3.6893488e+19
2.8503058 3.6893488e+19 -1.7410884
-0 2.9486353 -3.6893488e+19
2.9528589 2 -1.8079551
2 2.9186604 -1.0842022e-19
2.8798635 1.0842022e-19 -1.8187827
3.6893488e+19 2.9466336 -1.0842022e-19
2.9508383 3.6893488e+19 -1.8764809
-3.6893488e+19 2.9184949 -0
2.8797135 -1.0842022e-19 -1.8783898
2 2.900075 0
2.9038415 1.0842022e-19 -1.8950211
1.0842022e-19 2.8885195 -2
2.8525157 -2 -1.8984832
-0 2.8993609 0
2.9031208 3.6893488e+19 -1.9264508
-1.0842022e-19 2.8342609 -0
2.8032854 0 -1.9029535
-1.0842022e-19 2.8125484 2
2.815491 -3.6893488e+19 -1.912903
0 2.809655 2
2.8322785 -3.6893488e+19 -1.9293058
3.6893488e+19 2.7987177 3.6893488e+19
2.7881505 3.6893488e+19 -1.9254522
2 2.6396062 -3.6893488e+19
2.668071 0 -1.8787789
3.6893488e+19 2.6217015 -0
2.6085525 2 -1.8722155
3.6893488e+19 2.5680017 -1.0842022e-19
2.5912352 -3.6893488e+19 -1.8613306
3.6893488e+19 2.5580735 2
2.5471754 -3.6893488e+19 -1.853862
0 2.5158274 -3.6893488e+19
2.5352488 0 -1.844396
-3.6893488e+19 2.5135105 -1.0842022e-19
2.5041888 0 -1.8412788
-0 2.4545712 -3.6893488e+19
2.4877825 1.0842022e-19 -1.8312817
2 2.4662979 -1.0842022e-19
2.4498024 -2 -1.8345313
-2 2.4055717 -2
2.4352031 0 -1.8257409
-2 2.4144025 0
2.3997431 1.0842022e-19 -1.8273834
2 2.3656058 1.0842022e-19
2.3923173 -1.0842022e-19 -1.8210298
-0 2.3686407 -2
2.3555999 2 -1.8194348
2 2.331779 2
2.356019 2 -1.8165861
-1.0842022e-19 2.3384943 -2
2.32652 0 -1.8167772
-0 2.339344 -1.0842022e-19
2.3078973 2 -1.8182982
-0 2.3125923 -1.0842022e-19
2.2836246 -3.6893488e+19 -1.8149704
-1.0842022e-19 2.2685394 -0
2.2373085 1.0842022e-19 -1.8087099
0 2.2211771 2
2.1775136 -0 -1.804226
2 2.1741002 3.6893488e+19
2.1347992 1.0842022e-19 -1.802637
0 2.0884454 -3.6893488e+19
2.1131723 -1.0842022e-19 -1.7931987
-0 2.0654855 -1.0842022e-19
2.0885351 3.6893488e+19 -1.7950944
0 2.0516059 -3.6893488e+19
2.0736413 -2 -1.8003972
-3.6893488e+19 3.0998297 -0
3.0674114 -1.0842022e-19 2.6637957
-1.0842022e-19 3.0455875 -0
3.0483704 2 2.6117873
0 3.0472085 0
3.0500066 0 2.6014667
-2 3.0492494 2
3.0520668 -1.0842022e-19 2.5915294
-3.6893488e+19 3.0568945 2
3.0597839 1.0842022e-19 2.5876215
0 3.0324371 0
3.006264 0 2.5397625
-0 2.9803708 2
2.9358554 0 2.474117
-3.6893488e+19 2.9675705 -3.6893488e+19
3.0008657 -1.0842022e-19 2.4815626
-2 2.9934597 1.0842022e-19
2.9760036 -2 2.471575
1.0842022e-19 2.9693501 1.0842022e-19
3.0018206 -2 2.463629
-3.6893488e+19 2.9910655 3.6893488e+19
2.9736941 2 2.4497204
-0 2.9729183 1.0842022e-19
3.0037351 1.0842022e-19 2.447288
2 3.0861654 -3.6893488e+19
3.0742733 3.6893488e+19 2.5445006
1.0842022e-19 2.9716275 1.0842022e-19
3.0030425 3.6893488e+19 2.426296
-0 2.9730077 2
3.003783 -0 2.4077611
3.6893488e+19 2.9939418 1.0842022e-19
2.9764686 1.0842022e-19 2.3935769
-2 2.9706111 2
3.0024972 -1.0842022e-19 2.3860493
3.6893488e+19 2.9944234 -2
2.976933 -0 2.3744323
3.6893488e+19 2.9763384 -0
3.0055699 1.0842022e-19 2.3709052
-0 2.9881892 -2
2.9709194 -3.6893488e+19 2.350462
-0 2.9754992 0
3.0051198 -3.6893488e+19 2.350477
3.6893488e+19 2.9884229 -0
2.9431612 -3.6893488e+19 2.3127451
0 3.009176 1.0842022e-19
3.011616 -1.0842022e-19 2.3388536
-2 2.9863305 1.0842022e-19
2.941263 1.0842022e-19 2.2928503
0 2.9860868 1.0842022e-19
2.9906631 0 2.298265
-2 2.946599 -3.6893488e+19
2.9052131 -2 2.2519124
-3.6893488e+19 2.9838586 1.0842022e-19
2.988414 -1.0842022e-19 2.2775159
3.6893488e+19 2.9466369 -3.6893488e+19
2.9052474 -0 2.2198951
2 3.0344863 -2
3.0371644 3.6893488e+19 2.3035781
3.6893488e+19 2.9466066 -1.0842022e-19
2.90522 -2 2.1859324
-2 3.0480947 -2
3.0204706 -3.6893488e+19 2.2683554
3.6893488e+19 3.0346775 -0
3.0373576 3.6893488e+19 2.2583249
0 3.0450764 2
3.0177319 -2 2.2365479
1.0842022e-19 2.9509008 0
2.9551458 1.0842022e-19 2.1232193
2 2.9473879 2
2.9515998 -1.0842022e-19 2.084686
3.6893488e+19 2.9630415 3.6893488e+19
2.9968717 1.0842022e-19 2.0885718
-3.6893488e+19 2.9361176 1.0842022e-19
2.9206901 -1.0842022e-19 2.0351098
2 2.9595726 1.0842022e-19
2.9931493 -0 2.0483153
3.6893488e+19 2.9348934 -0
2.9195089 3.6893488e+19 2.0005045
-3.6893488e+19 3.0585423 3.6893488e+19
3.0810847 -2 2.0999401
-2 2.9295125 1.0842022e-19
2.9143186 3.6893488e+19 1.9640491
-2 2.9385953 -0
2.9706395 -2 1.9627681
3.6893488e+19 2.9293218 1.0842022e-19
2.9141345 3.6893488e+19 1.9306271
2 3.0580389 3.6893488e+19
3.0805445 2 1.998404
3.6893488e+19 2.9229951 -3.6893488e+19
2.9080315 -1.0842022e-19 1.8951533
3.6893488e+19 2.9350147 -3.6893488e+19
2.9667971 3.6893488e+19 1.8897768
3.6893488e+19 2.9284723 1.0842022e-19
2.9133151 -3.6893488e+19 1.8526075
-3.6893488e+19 2.9341924 3.6893488e+19
2.965915 1.0842022e-19 1.8329569
-1.0842022e-19 2.921247 3.6893488e+19
2.9063454 -2 1.7834665
-3.6893488e+19 2.9399955 -1.0842022e-19
2.972142 -3.6893488e+19 1.7637243
3.6893488e+19 2.917958 1.0842022e-19
2.9031727 -2 1.6848775
2 2.8801453 -2
2.8449175 1.0842022e-19 1.5873266
-0 2.940788 0
2.9449379 -0 1.488628
1.0842022e-19 2.8794589 -0
2.8442948 1.0842022e-19 -1.133424
2 2.9307137 -3.6893488e+19
2.9347684 -3.6893488e+19 -1.5314288
2 2.8847249 -3.6893488e+19
2.8490727 3.6893488e+19 -1.6236597
2 2.9433146 -0
2.9474881 1.0842022e-19 -1.7210397
-1.0842022e-19 2.8860838 -3.6893488e+19
2.8503058 3.6893488e+19 -1.7410884
-0 2.9486353 -3.6893488e+19
2.9528589 2 -1.8079551
-0 2.8857117 3.6893488e+19
2.8499682 -1.0842022e-19 -1.8035319
3.6893488e+19 2.9466336 -1.0842022e-19
2.9508383 3.6893488e+19 -1.8764809
3.6893488e+19 2.8861537 -0
2.8503692 -3.6893488e+19 -1.8619357
2 2.900075 0
2.9038415 1.0842022e-19 -1.8950211
1.0842022e-19 2.8885195 -2
2.8525157 -2 -1.8984832
-3.6893488e+19 2.8297825 0
2.8328874 -2 -1.8957088
-1.0842022e-19 2.8342609 -0
2.8032854 0 -1.9029535
-1.0842022e-19 2.8125484 2
2.815491 -3.6893488e+19 -1.912903
0 2.809655 2
2.8322785 -3.6893488e+19 -1.9293058
3.6893488e+19 2.7987177 3.6893488e+19
2.7881505 3.6893488e+19 -1.9254522
2 2.6396062 -3.6893488e+19
2.668071 0 -1.8787789
3.6893488e+19 2.6217015 -0
2.6085525 2 -1.8722155
3.6893488e+19 2.5680017 -1.0842022e-19
2.5912352 -3.6893488e+19 -1.8613306
3.6893488e+19 2.5580735 2
2.5471754 -3.6893488e+19 -1.853862
0 2.5158274 -3.6893488e+19
2.5352488 0 -1.844396
-3.6893488e+19 2.5135105 -1.0842022e-19
2.5041888 0 -1.8412788
-0 2.4545712 -3.6893488e+19
2.4877825 1.0842022e-19 -1.8312817
2 2.4662979 -1.0842022e-19
2.4498024 -2 -1.8345313
-2 2.4055717 -2
2.4352031 0 -1.8257409
-2 2.4144025 0
2.3997431 1.0842022e-19 -1.8273834
2 2.3656058 1.0842022e-19
2.3923173 -1.0842022e-19 -1.8210298
-0 2.3686407 -2
2.3555999 2 -1.8194348
2 2.331779 2
2.356019 2 -1.8165861
-1.0842022e-19 2.3384943 -2
2.32652 0 -1.8167772
-0 2.339344 -1.0842022e-19
2.3078973 2 -1.8182982
-0 2.3125923 -1.0842022e-19
2.2836246 -3.6893488e+19 -1.8149704
-1.0842022e-19 2.2685394 -0
2.2373085 1.0842022e-19 -1.8087099
0 2.2211771 2
2.1775136 -0 -1.804226
2 2.1741002 3.6893488e+19
2.1347992 1.0842022e-19 -1.802637
0 2.0884454 -3.6893488e+19
2.1131723 -1.0842022e-19 -1.7931987
-0 2.0654855 -1.0842022e-19
2.0885351 3.6893488e+19 -1.7950944
0 2.0516059 -3.6893488e+19
2.0736413 -2 -1.8003972
1.0842022e-19 3.0425265 1.0842022e-19
3.0437384 -3.6893488e+19 2.6313636
-1.0842022e-19 3.0417829 -2
3.0429916 -3.6893488e+19 2.6182747
1.0842022e-19 3.0507779 -0
3.0520239 2 2.6047513
3.6893488e+19 2.9802618 -1.0842022e-19
2.9822514 -2 2.5233366
-3.6893488e+19 3.0556262 -0
3.0568924 3.6893488e+19 2.585341
3.6893488e+19 3.0331297 1.0842022e-19
3.0055442 -2 2.5397856
3.6893488e+19 2.9797387 -0
2.9817262 0 2.503371
2 3.0320144 -3.6893488e+19
3.0045373 3.6893488e+19 2.5276842
3.6893488e+19 3.0233073 -0
3.0122612 1.0842022e-19 2.5105293
2 3.0279126 -0
3.0466561 3.6893488e+19 2.523757
1.0842022e-19 3.0905504 2
3.0767865 -1.0842022e-19 2.5610931
0 3.0223894 -3.6893488e+19
3.0407603 -0 2.506906
3.6893488e+19 3.0876591 -1.0842022e-19
3.074012 -3.6893488e+19 2.5450649
-3.6893488e+19 2.9733729 -1.0842022e-19
3.0026495 0 2.4266768
3.6893488e+19 3.0219393 -3.6893488e+19
3.0402799 3.6893488e+19 2.4675443
3.6893488e+19 2.9942501 -0
2.9742742 0 2.3928318
1.0842022e-19 2.9727781 -0
3.002332 -0 2.3867416
1.0842022e-19 2.9945533 -2
2.974565 2 2.3735886
-0 2.9776325 -3.6893488e+19
3.0049229 2 2.3708723
3.6893488e+19 2.9882576 2
2.968524 3.6893488e+19 2.3496294
-1.0842022e-19 2.9762821 -3.6893488e+19
3.0042021 -1.0842022e-19 2.3500719
0 3.2402265 -2
3.1924632 1.0842022e-19 2.5631573
-2 3.0404201 1.0842022e-19
3.0416234 -2 2.3787036
0 3.0389798 3.6893488e+19
3.0401769 1.0842022e-19 2.3537049
3.6893488e+19 2.99002 -0
2.942277 0 2.2757509
-3.6893488e+19 3.036272 1.0842022e-19
3.0374582 3.6893488e+19 2.327517
2 2.9921658 -0
2.9442136 2 2.2582848
3.6893488e+19 3.0344248 -1.0842022e-19
3.035603 1.0842022e-19 2.3027136
2 2.9938743 3.6893488e+19
2.9457557 -1.0842022e-19 2.2309296
1.0842022e-19 3.0378335 -1.0842022e-19
3.0390258 -1.0842022e-19 2.2834051
0 2.9938035 0
2.9456918 1.0842022e-19 2.1934874
-2 3.0360003 3.6893488e+19
3.0371852 -3.6893488e+19 2.258842
1.0842022e-19 3.0452211 -2
3.0164573 -0 2.2356348
2 2.9974303 2
2.9489653 1.0842022e-19 2.1215692
3.6893488e+19 3.0634556 1.0842022e-19
3.0845964 2 2.2071092
-1.0842022e-19 3.0384321 -2
3.0267746 -0 2.1261735
-1.0842022e-19 3.0622401 -0
3.0832989 2 2.1542253
1.0842022e-19 3.0347605 -2
3.0232513 -3.6893488e+19 2.0772264
-0 3.058085 0
3.0788636 3.6893488e+19 2.0984437
-1.0842022e-19 2.9341547 0
2.9166079 2 1.9658183
-0 3.0652897 0
3.0865543 -0 2.0550461
-3.6893488e+19 2.9312155 -0
2.9137874 0 1.9309676
1.0842022e-19 3.0580919 -0
3.0788708 -3.6893488e+19 1.9977515
-2 2.9238815 -1.0842022e-19
2.9067497 -3.6893488e+19 1.8950915
-2 3.0603578 2
3.0812898 -3.6893488e+19 1.9488873
-0 2.9250445 2
2.9078658 -3.6893488e+19 1.8502187
-0 2.9325485 2
2.9617214 -0 1.8315898
-2 2.924654 -2
2.907491 1.0842022e-19 1.7843463
-0 2.9326422 -3.6893488e+19
2.9618213 0 1.7610244
0 2.9185612 -2
2.9016442 -1.0842022e-19 1.6846786
-1.0842022e-19 2.9331956 2
2.8909891 2 1.6163849
3.6893488e+19 2.9450386 -0
2.9468822 3.6893488e+19 1.4902949
-2 2.9327869 3.6893488e+19
2.8906202 -2 -1.1518149
1.0842022e-19 2.9318504 1.0842022e-19
2.9336395 -3.6893488e+19 -1.5314288
-3.6893488e+19 2.8815081 -3.6893488e+19
2.8443375 -2 -1.6209972
2 2.9465573 -2
2.9484072 -1.0842022e-19 -1.7220703
-2 2.8831027 1.0842022e-19
2.8457768 -3.6893488e+19 -1.7386607
0 2.9462037 3.6893488e+19
2.9480522 3.6893488e+19 -1.8064845
0 2.8835652 3.6893488e+19
2.846194 -2 -1.8021182
-2 2.9568505 1.0842022e-19
2.9587433 -1.0842022e-19 -1.8790337
1.0842022e-19 2.8854001 -1.0842022e-19
2.8478501 -0 -1.8609138
-0 2.8982215 1.0842022e-19
2.8998713 0 -1.8939693
-2 2.8856852 -2
2.8481076 -1.0842022e-19 -1.8970512
-1.0842022e-19 2.8997538 -3.6893488e+19
2.9014099 -1.0842022e-19 -1.9261595
-3.6893488e+19 2.8868322 1.0842022e-19
2.849143 -0 -1.9265906
-2 2.8124921 -2
2.8137867 -0 -1.9124449
1.0842022e-19 2.8094141 -0
2.8302822 0 -1.9286652
-3.6893488e+19 2.7996511 2
2.7875404 -2 -1.9255577
0 2.6457336 -0
2.6724234 2 -1.8804382
-2 2.5688939 -3.6893488e+19
2.5904014 -3.6893488e+19 -1.8613306
0 2.516829 -3.6893488e+19
2.5348248 -1.0842022e-19 -1.8446064
-3.6893488e+19 2.5180428 3.6893488e+19
2.5072095 -1.0842022e-19 -1.8444452
-0 2.4590845 -3.6893488e+19
2.490047 0 -1.8327469
-2 2.4674737 -3.6893488e+19
2.44858 -2 -1.8345313
0 2.4082427 1.0842022e-19
2.4357762 -0 -1.8264974
-1.0842022e-19 2.4152679 -1.0842022e-19
2.3984842 -3.6893488e+19 -1.8272958
-3.6893488e+19 2.3664613 -3.6893488e+19
2.3911769 2 -1.8209388
-3.6893488e+19 2.3738801 0
2.3587694 0 -1.8217022
-3.6893488e+19 2.3311789 1.0842022e-19
2.3535151 -0 -1.8157046
0 2.3389893 -2
2.3252883 -1.0842022e-19 -1.8165743
1.0842022e-19 2.3397799 -1.0842022e-19
2.3066747 -1.0842022e-19 -1.8180884
1.0842022e-19 3.0425265 1.0842022e-19
3.0437384 -3.6893488e+19 2.6313636
-1.0842022e-19 3.0417829 -2
3.0429916 -3.6893488e+19 2.6182747
1.0842022e-19 3.0507779 -0
3.0520239 2 2.6047513
3.6893488e+19 2.9802618 -1.0842022e-19
2.9822514 -2 2.5233366
2 2.9794071 -1.0842022e-19
2.9813931 1.0842022e-19 2.5130088
3.6893488e+19 3.0331297 1.0842022e-19
3.0055442 -2 2.5397856
3.6893488e+19 2.9797387 -0
2.9817262 0 2.503371
2 2.9811451 1.0842022e-19
2.9342668 1.0842022e-19 2.4737575
3.6893488e+19 3.0233073 -0
3.0122612 1.0842022e-19 2.5105293
-2 2.9687707 1.0842022e-19
3.0001934 -2 2.4617612
1.0842022e-19 3.0905504 2
3.0767865 -1.0842022e-19 2.5610931
-3.6893488e+19 2.9735701 0
3.0027549 0 2.4466515
