# .PCD v0.7 - Point Cloud Data file format
VERSION 0.7
FIELDS x y z
SIZE 4 4 4
TYPE F F F
COUNT 1 1 1
WIDTH 1719
HEIGHT 1
VIEWPOINT 0 0 0 1 0 0 0
POINTS 1719
DATA ascii
1.0842022e-19 3.1434522 -1.0842022e-19
2.4603887 1.0842022e-19 2.5143664
3.6893488e+19 3.1711545 3.6893488e+19
2.3108587 -1.0842022e-19 2.5251343
-1.0842022e-19 3.1456389 -2
2.4629476 3.6893488e+19 2.5043924
-0 3.0690451 -0
2.2209814 1.0842022e-19 2.3985369
-0 3.1489723 1.0842022e-19
2.4668481 -3.6893488e+19 2.4900384
3.6893488e+19 3.0693216 -2
2.2213895 -3.6893488e+19 2.3805838
1.0842022e-19 3.1463861 3.6893488e+19
2.4638219 -2 2.4640312
-3.6893488e+19 3.0917001 2
2.3998325 0 2.380368
1.0842022e-19 3.1254969 3.6893488e+19
2.2771583 1.0842022e-19 2.4046369
2 3.1508577 1.0842022e-19
2.4690542 0 2.4232223
2 3.0673716 -0
2.2185109 -2 2.3239212
-0 3.0656984 -2
2.2160408 2 2.3042648
-3.6893488e+19 3.0653627 -2
2.0605068 3.6893488e+19 2.2942958
0 3.0666621 1.0842022e-19
2.2918313 3.6893488e+19 2.2878931
2 3.0687737 -3.6893488e+19
2.0638652 -0 2.2794387
-3.6893488e+19 3.0605745 2
2.2862213 -3.6893488e+19 2.2647169
3.6893488e+19 3.0602589 -3.6893488e+19
2.0554814 1.0842022e-19 2.2544432
-3.6893488e+19 3.0628352 -1.0842022e-19
2.2883046 -1.0842022e-19 2.2477927
1.0842022e-19 3.0614352 -1.0842022e-19
2.0566397 -2 2.2256768
-0 3.0804482 -0
2.3045363 2 2.2383845
-3.6893488e+19 3.1577346 0
2.1514566 2 2.2884049
1.0842022e-19 3.0826623 -3.6893488e+19
2.3065767 1.0842022e-19 2.2040124
0 3.0601399 2
2.0553644 -3.6893488e+19 2.153842
-3.6893488e+19 3.0829124 3.6893488e+19
2.3068075 -0 2.166733
-0 3.0631385 0
2.0583169 3.6893488e+19 2.122539
-3.6893488e+19 3.0759003 -1.0842022e-19
2.3003452 -0 2.1211596
2 3.066654 -2
2.0617781 1.0842022e-19 2.0911622
-2 3.0783458 1.0842022e-19
2.302599 1.0842022e-19 2.0869093
3.6893488e+19 3.0689907 0
2.3732595 -1.0842022e-19 2.0605731
-2 3.0655255 -3.6893488e+19
2.2157857 -1.0842022e-19 2.0375264
0 3.0683141 -3.6893488e+19
2.3724675 -1.0842022e-19 2.0239205
-2 3.0636225 -1.0842022e-19
2.2129765 -2 2.0005598
-2 3.0705247 1.0842022e-19
2.3750546 -2 1.9895991
-1.0842022e-19 3.0701902 0
2.222672 0 1.9698689
1.0842022e-19 3.1547534 -3.6893488e+19
2.4736125 1.0842022e-19 2.0068483
-0 3.0717394 3.6893488e+19
2.2249589 2 1.9348351
3.6893488e+19 3.2369995 3.6893488e+19
2.5349255 1.0842022e-19 2.0040784
1.0842022e-19 3.0588722 -0
2.2059639 1.0842022e-19 1.8928131
-1.0842022e-19 3.0754321 -2
2.3807967 -0 1.8830669
-1.0842022e-19 3.0552244 0
2.2005792 1.0842022e-19 1.8388252
-1.0842022e-19 3.1366639 3.6893488e+19
2.4524457 0 1.8540024
-3.6893488e+19 3.0543299 -2
2.1992586 3.6893488e+19 1.7700053
0 3.0774941 3.6893488e+19
2.3832095 -2 1.7402041
-2 3.0529537 -1.0842022e-19
2.197227 -1.0842022e-19 1.6529311
3.6893488e+19 3.0498049 0
2.0451887 3.6893488e+19 1.5429702
-3.6893488e+19 3.0606949 -0
2.2863321 -0 1.2662663
-2 3.0505865 -3.6893488e+19
2.045958 2 -1.4506803
1.0842022e-19 3.0588889 -3.6893488e+19
2.2846675 0 -1.6173089
3.6893488e+19 3.052258 -0
2.0476038 -2 -1.6855488
3.6893488e+19 3.0838571 2
2.307678 3.6893488e+19 -1.765456
2 3.0515444 -0
2.0469012 -3.6893488e+19 -1.7849679
-1.0842022e-19 3.0731723 -1.0842022e-19
2.2978311 2 -1.8335423
-2 3.021723 0
2.0175393 -2 -1.8298959
0 3.0333657 1.0842022e-19
2.2611458 0 -1.8715267
-0 3.0200508 -2
2.0158925 -0 -1.8820202
-1.0842022e-19 3.0237801 3.6893488e+19
2.2523119 0 -1.8998581
2 2.8430116 3.6893488e+19
1.918865 0 -1.8694597
-1.0842022e-19 2.8063073 3.6893488e+19
2.0322886 2 -1.8615603
-0 2.7816887 -3.6893488e+19
2.0796113 0 -1.8593382
-2 2.7529175 -0
1.9366813 -1.0842022e-19 -1.8482759
2 2.7026532 -1.0842022e-19
2.0148306 1.0842022e-19 -1.8388692
-2 2.6545033 0
1.8992842 1.0842022e-19 -1.8262821
0 2.6327255 3.6893488e+19
1.9739186 -2 -1.8274859
2 2.609988 1.0842022e-19
1.8828555 -1.0842022e-19 -1.8243768
-2 2.5867746 -0
1.9470345 3.6893488e+19 -1.8222449
2 2.567111 0
1.8590631 1.0842022e-19 -1.8184848
-2 2.5471418 0
1.9238468 -1.0842022e-19 -1.8158783
3.6893488e+19 2.5334432 -0
1.8342125 -1.0842022e-19 -1.8139155
1.0842022e-19 2.511112 -2
1.9027669 1.0842022e-19 -1.8075501
1.0842022e-19 2.4829888 -1.0842022e-19
1.8032496 -2 -1.799584
1.0842022e-19 2.4642637 1.0842022e-19
1.8858118 -0 -1.80048
-2 2.4529405 -1.0842022e-19
1.7921602 -1.0842022e-19 -1.8015159
1.0842022e-19 3.1268883 2
2.3393307 -2 2.5844538
1.0842022e-19 3.1089001 2
2.0882699 0 2.5617881
-2 3.1639953 3.6893488e+19
2.37274 -1.0842022e-19 2.6052189
3.6893488e+19 3.1102886 -2
2.0895786 -3.6893488e+19 2.552474
0 3.1230524 -0
2.3358769 -1.0842022e-19 2.55916
3.6893488e+19 3.1173801 -3.6893488e+19
2.0962625 3.6893488e+19 2.5477297
3.6893488e+19 3.1650636 3.6893488e+19
2.3737018 0 2.5818541
-3.6893488e+19 3.1245334 -2
2.1030047 -3.6893488e+19 2.5426533
0 3.1638594 -0
2.3726175 1.0842022e-19 2.5688353
2 3.1127083 1.0842022e-19
2.0918593 1.0842022e-19 2.5229099
0 3.1597288 -3.6893488e+19
2.3688984 -1.0842022e-19 2.5537515
-2 3.1154459 -2
2.0944395 -2 2.5144165
-3.6893488e+19 3.1541595 3.6893488e+19
2.3638844 1.0842022e-19 2.5379112
-2 3.147738 2
2.4568899 -3.6893488e+19 2.5286732
-3.6893488e+19 3.2035396 -3.6893488e+19
2.325175 0 2.5592701
-1.0842022e-19 3.144578 -3.6893488e+19
2.4532597 0 2.5150223
-3.6893488e+19 3.1682134 -3.6893488e+19
2.2998471 -2 2.5231478
3.6893488e+19 3.1454227 -1.0842022e-19
2.4542301 1.0842022e-19 2.5041568
-1.0842022e-19 3.0665991 2
2.2039855 -3.6893488e+19 2.3953872
-1.0842022e-19 3.1489403 0
2.458271 0 2.4898133
-1.0842022e-19 3.0693977 -2
2.2079983 -3.6893488e+19 2.3805838
2 3.146353 -2
2.4552987 1.0842022e-19 2.4638164
-0 3.147295 -1.0842022e-19
2.4563808 -1.0842022e-19 2.442086
3.6893488e+19 3.062531 -0
2.1981518 -2 2.3367043
-0 3.1483414 2
2.457583 -1.0842022e-19 2.4204059
0 3.1516182 -0
2.2879488 1.0842022e-19 2.4098089
-2 3.0922379 -0
2.3931358 -1.0842022e-19 2.3415997
1.0842022e-19 3.1476994 -1.0842022e-19
2.2851391 3.6893488e+19 2.3832045
0 3.066869 -1.0842022e-19
2.0486548 -2 2.2956545
1.0842022e-19 3.139859 0
2.3510089 0 2.3543344
1.0842022e-19 3.1262255 2
2.1045995 -1.0842022e-19 2.3297491
2 3.1406813 3.6893488e+19
2.3517492 -3.6893488e+19 2.332896
-3.6893488e+19 3.125572 -0
2.1039836 2 2.3079579
1.0842022e-19 3.1626234 1.0842022e-19
2.3715048 0 2.3281913
-0 3.1268246 0
2.1051643 1.0842022e-19 2.28773
1.0842022e-19 3.1418383 -1.0842022e-19
2.3527908 2 2.2894714
-1.0842022e-19 3.1262267 3.6893488e+19
2.1046007 -3.6893488e+19 2.2660761
0 3.1319611 0
2.3438981 -3.6893488e+19 2.2605693
-3.6893488e+19 3.1265111 0
2.1048689 3.6893488e+19 2.2401888
-1.0842022e-19 3.1344993 -1.0842022e-19
2.3461833 -1.0842022e-19 2.2311647
-0 3.1262486 -3.6893488e+19
2.1046212 -3.6893488e+19 2.1975501
3.6893488e+19 3.0786927 -3.6893488e+19
2.2959378 -3.6893488e+19 2.1242278
0 3.1260607 -2
2.104444 -2 2.1551027
1.0842022e-19 3.0774832 2
2.2948489 -1.0842022e-19 2.0859237
-0 3.2413428 2
2.5322077 1.0842022e-19 2.2281957
-0 3.2308283 0
2.3447404 -0 2.188056
-3.6893488e+19 3.2416296 3.6893488e+19
2.5323725 -2 2.1729043
-2 3.2286751 2
2.3431966 0 2.132333
3.6893488e+19 3.2470531 -2
2.5354874 1.0842022e-19 2.1214168
2 3.0667527 0
2.2042055 3.6893488e+19 1.9674565
1.0842022e-19 3.1552472 -1.0842022e-19
2.4655156 -2 2.0070639
0 3.2545042 -3.6893488e+19
2.3649445 0 2.0423489
0 3.2384522 -0
2.5305474 0 2.0047395
2 3.2554481 2
2.3662982 -2 1.9861665
1.0842022e-19 3.0764835 3.6893488e+19
2.3750381 2 1.8834461
3.6893488e+19 3.0546749 -0
2.1868865 -0 1.8383893
-2 3.1376767 2
2.4453323 -1.0842022e-19 1.854515
-1.0842022e-19 3.0543091 2
2.1863623 3.6893488e+19 1.7699609
1.0842022e-19 3.0789485 1.0842022e-19
2.3778698 -2 1.7411792
-0 3.0525591 0
2.1838529 1.0842022e-19 1.6526955
-2 3.0500705 3.6893488e+19
2.0328221 -0 1.5430925
0 3.0605705 0
2.2796216 -2 1.2661675
-0 3.0506964 1.0842022e-19
2.033412 -2 -1.4507219
-2 3.1855545 2
2.3921509 -0 -1.6707851
1.0842022e-19 3.0510268 1.0842022e-19
2.0337234 -2 -1.6847638
-2 3.1883821 3.6893488e+19
2.3946967 3.6893488e+19 -1.8093754
1.0842022e-19 3.0544305 -0
2.0369313 2 -1.7864735
-2 3.0723994 -1.0842022e-19
2.2902718 -3.6893488e+19 -1.8329815
3.6893488e+19 3.0626214 0
2.0446515 3.6893488e+19 -1.8606985
0 3.074023 3.6893488e+19
2.2917335 -1.0842022e-19 -1.890907
3.6893488e+19 3.0197816 -0
2.0042741 0 -1.8818679
-2 3.0239239 -2
2.2432539 -3.6893488e+19 -1.899892
-0 2.8410711 0
1.910733 3.6893488e+19 -1.8680384
2 2.8054683 -2
2.0250278 -1.0842022e-19 -1.8608419
-2 2.7789536 0
2.0704398 2 -1.8569747
-0 2.7521698 -3.6893488e+19
1.9307986 1.0842022e-19 -1.8475628
2 2.7025781 3.6893488e+19
2.0099428 3.6893488e+19 -1.8387525
3.6893488e+19 2.6514933 0
1.8939297 -3.6893488e+19 -1.8247366
3.6893488e+19 2.6332412 -3.6893488e+19
1.9701184 0 -1.8276819
0 2.6103222 1.0842022e-19
1.8791704 3.6893488e+19 -1.8245144
3.6893488e+19 2.5869026 0
1.9435035 3.6893488e+19 -1.8222449
0 2.5664418 0
1.8518798 -1.0842022e-19 -1.8180304
0 2.5475016 0
1.920873 -0 -1.8160367
3.6893488e+19 2.5333867 1.0842022e-19
1.8281803 1.0842022e-19 -1.8138329
-2 2.5101016 -1.0842022e-19
1.899392 1.0842022e-19 -1.8067747
-3.6893488e+19 2.4828558 -0
1.798097 0 -1.7994945
-0 2.4641936 -2
1.8833071 -0 -1.8003869
1.0842022e-19 2.4523051 -3.6893488e+19
1.7871449 -0 -1.8012263
3.6893488e+19 2.4303937 -1.0842022e-19
1.872201 -0 -1.7998559
2 2.3657165 -3.6893488e+19
1.6723472 3.6893488e+19 -1.7929938
1.0842022e-19 2.3195522 -2
1.6505919 -2 -1.7899046
0 2.2863362 -3.6893488e+19
1.6349385 2 -1.7890555
3.6893488e+19 2.2551668 0
1.6154995 3.6893488e+19 -1.7857735
2 2.2095046 -1.0842022e-19
1.7569605 -3.6893488e+19 -1.7842866
-2 2.1704073 -2
1.7414652 -1.0842022e-19 -1.7829553
-1.0842022e-19 2.1425865 -2
1.725486 -1.0842022e-19 -1.7839746
2 2.1187096 2
1.7117721 2 -1.7851408
1.0842022e-19 3.1268883 2
2.3393307 -2 2.5844538
1.0842022e-19 3.1089001 2
2.0882699 0 2.5617881
-2 3.1639953 3.6893488e+19
2.37274 -1.0842022e-19 2.6052189
3.6893488e+19 3.1102886 -2
2.0895786 -3.6893488e+19 2.552474
0 3.1230524 -0
2.3358769 -1.0842022e-19 2.55916
3.6893488e+19 3.1173801 -3.6893488e+19
2.0962625 3.6893488e+19 2.5477297
3.6893488e+19 3.1650636 3.6893488e+19
2.3737018 0 2.5818541
-3.6893488e+19 3.1245334 -2
2.1030047 -3.6893488e+19 2.5426533
0 3.1638594 -0
2.3726175 1.0842022e-19 2.5688353
2 3.1127083 1.0842022e-19
2.0918593 1.0842022e-19 2.5229099
0 3.1597288 -3.6893488e+19
2.3688984 -1.0842022e-19 2.5537515
-2 3.1154459 -2
2.0944395 -2 2.5144165
0 3.1327546 2
2.3446124 -1.0842022e-19 2.5226626
-2 3.147738 2
2.4568899 -3.6893488e+19 2.5286732
-3.6893488e+19 3.2035396 -3.6893488e+19
2.325175 0 2.5592701
-1.0842022e-19 3.144578 -3.6893488e+19
2.4532597 0 2.5150223
-1.0842022e-19 3.065511 -1.0842022e-19
2.202425 -3.6893488e+19 2.4121397
3.6893488e+19 3.1454227 -1.0842022e-19
2.4542301 1.0842022e-19 2.5041568
-1.0842022e-19 3.0665991 2
2.2039855 -3.6893488e+19 2.3953872
-1.0842022e-19 3.1489403 0
2.458271 0 2.4898133
-1.0842022e-19 3.0693977 -2
2.2079983 -3.6893488e+19 2.3805838
2 3.146353 -2
2.4552987 1.0842022e-19 2.4638164
0 3.0914011 -1.0842022e-19
2.3921742 -2 2.3798904
3.6893488e+19 3.062531 -0
2.1981518 -2 2.3367043
-3.6893488e+19 3.0879169 2
2.3881721 -2 2.3566344
0 3.0651007 -3.6893488e+19
2.2018363 -0 2.3215268
-2 3.0922379 -0
2.3931358 -1.0842022e-19 2.3415997
3.6893488e+19 3.0601492 2
2.1947365 2 2.2988453
0 3.066869 -1.0842022e-19
2.0486548 -2 2.2956545
2 3.0663862 -0
2.2848577 -2 2.2875564
1.0842022e-19 3.0691652 0
2.0508192 -0 2.2797377
0 3.0627365 -2
2.2815716 -1.0842022e-19 2.26648
-2 3.0607111 -3.6893488e+19
2.042851 -1.0842022e-19 2.2547739
1.0842022e-19 3.0635159 1.0842022e-19
2.2822735 2 2.2487268
1.0842022e-19 3.0615776 3.6893488e+19
2.0436676 -0 2.2258191
1.0842022e-19 3.1418383 -1.0842022e-19
2.3527908 2 2.2894714
-3.6893488e+19 3.0609066 -3.6893488e+19
2.0430353 3.6893488e+19 2.1897609
2 3.0845253 -3.6893488e+19
2.3011892 -0 2.2064188
-0 3.0640132 -1.0842022e-19
2.0459633 2 2.1588213
2 3.0817735 1.0842022e-19
2.2987118 3.6893488e+19 2.1651833
-3.6893488e+19 3.0639033 3.6893488e+19
2.0458598 2 2.1233902
3.6893488e+19 3.0786927 -3.6893488e+19
2.2959378 -3.6893488e+19 2.1242278
0 3.0600431 2
2.0422213 -2 2.0839868
1.0842022e-19 3.0774832 2
2.2948489 -1.0842022e-19 2.0859237
-1.0842022e-19 3.0694206 3.6893488e+19
2.366925 1.0842022e-19 2.0608737
-3.6893488e+19 3.0654764 1.0842022e-19
2.2023757 -1.0842022e-19 2.0374131
3.6893488e+19 3.0689909 1.0842022e-19
2.3664315 -2 2.0243988
2 3.0649097 -2
2.2015626 3.6893488e+19 2.0015283
3.6893488e+19 3.0716662 -2
2.3695045 -0 1.9903611
2 3.0667527 0
2.2042055 3.6893488e+19 1.9674565
1.0842022e-19 3.1552472 -1.0842022e-19
2.4655156 -2 2.0070639
-3.6893488e+19 3.0716605 -1.0842022e-19
2.2112432 -3.6893488e+19 1.9347457
3.6893488e+19 3.0792623 1.0842022e-19
2.3782303 -1.0842022e-19 1.9217181
-1.0842022e-19 3.0575457 0
2.1910033 1.0842022e-19 1.8921659
1.0842022e-19 3.0764835 3.6893488e+19
2.3750381 2 1.8834461
3.6893488e+19 3.0546749 -0
2.1868865 -0 1.8383893
-2 3.1376767 2
2.4453323 -1.0842022e-19 1.854515
-1.0842022e-19 3.0543091 2
2.1863623 3.6893488e+19 1.7699609
1.0842022e-19 3.0789485 1.0842022e-19
2.3778698 -2 1.7411792
-0 3.0525591 0
2.1838529 1.0842022e-19 1.6526955
-2 3.0500705 3.6893488e+19
2.0328221 -0 1.5430925
0 3.0605705 0
2.2796216 -2 1.2661675
-0 3.0506964 1.0842022e-19
2.033412 -2 -1.4507219
-3.6893488e+19 3.059633 -2
2.2787776 0 -1.6178203
1.0842022e-19 3.0510268 1.0842022e-19
2.0337234 -2 -1.6847638
-1.0842022e-19 3.0830872 3.6893488e+19
2.2998946 -3.6893488e+19 -1.7650902
1.0842022e-19 3.0544305 -0
2.0369313 2 -1.7864735
-2 3.0723994 -1.0842022e-19
2.2902718 -3.6893488e+19 -1.8329815
3.6893488e+19 3.0222962 1.0842022e-19
2.0066442 -2 -1.8302956
-0 3.0331087 -2
2.2548964 -2 -1.8712296
3.6893488e+19 3.0197816 -0
2.0042741 0 -1.8818679
-2 3.0239239 -2
2.2432539 -3.6893488e+19 -1.899892
-0 2.8410711 0
1.910733 3.6893488e+19 -1.8680384
2 2.8054683 -2
2.0250278 -1.0842022e-19 -1.8608419
-2 2.7789536 0
2.0704398 2 -1.8569747
-0 2.7521698 -3.6893488e+19
1.9307986 1.0842022e-19 -1.8475628
2 2.7025781 3.6893488e+19
2.0099428 3.6893488e+19 -1.8387525
3.6893488e+19 2.6514933 0
1.8939297 -3.6893488e+19 -1.8247366
3.6893488e+19 2.6332412 -3.6893488e+19
1.9701184 0 -1.8276819
0 2.6103222 1.0842022e-19
1.8791704 3.6893488e+19 -1.8245144
3.6893488e+19 2.5869026 0
1.9435035 3.6893488e+19 -1.8222449
0 2.5664418 0
1.8518798 -1.0842022e-19 -1.8180304
0 2.5475016 0
1.920873 -0 -1.8160367
3.6893488e+19 2.5333867 1.0842022e-19
1.8281803 1.0842022e-19 -1.8138329
-2 2.5101016 -1.0842022e-19
1.899392 1.0842022e-19 -1.8067747
-3.6893488e+19 2.4828558 -0
1.798097 0 -1.7994945
-0 2.4641936 -2
1.8833071 -0 -1.8003869
1.0842022e-19 2.4523051 -3.6893488e+19
1.7871449 -0 -1.8012263
3.6893488e+19 2.4303937 -1.0842022e-19
1.872201 -0 -1.7998559
2 2.3657165 -3.6893488e+19
1.6723472 3.6893488e+19 -1.7929938
1.0842022e-19 2.3195522 -2
1.6505919 -2 -1.7899046
0 2.2863362 -3.6893488e+19
1.6349385 2 -1.7890555
3.6893488e+19 2.2551668 0
1.6154995 3.6893488e+19 -1.7857735
2 2.2095046 -1.0842022e-19
1.7569605 -3.6893488e+19 -1.7842866
-2 2.1704073 -2
1.7414652 -1.0842022e-19 -1.7829553
-1.0842022e-19 2.1425865 -2
1.725486 -1.0842022e-19 -1.7839746
2 2.1187096 2
1.7117721 2 -1.7851408
-2 3.1471562 -3.6893488e+19
2.3491492 0 2.614037
2 3.129319 -3.6893488e+19
2.0915568 1.0842022e-19 2.5905867
-2 3.1284237 1.0842022e-19
2.3326812 -2 2.5857186
0 3.108192 3.6893488e+19
2.0725331 -2 2.5611258
-0 3.1627185 -1.0842022e-19
2.3628304 -3.6893488e+19 2.6040201
1.0842022e-19 3.1280854 0
2.0904462 -2 2.5673671
-3.6893488e+19 3.1225524 0
2.3275197 1.0842022e-19 2.558656
3.6893488e+19 3.1116557 3.6893488e+19
2.0756521 -3.6893488e+19 2.5430462
-3.6893488e+19 3.1624119 3.6893488e+19
2.362561 0 2.579638
-1.0842022e-19 3.127928 0
2.0903046 0 2.5452614
-0 3.1636748 -2
2.3636711 -1.0842022e-19 2.5686002
2 3.113683 -2
2.0774775 -3.6893488e+19 2.5236018
2 3.1601536 -2
2.3605754 3.6893488e+19 2.553978
2 3.1542163 0
2.355356 2 2.5378675
-2 3.1476729 -1.0842022e-19
2.4483087 0 2.5285239
-1.0842022e-19 3.068871 0
2.1937683 1.0842022e-19 2.4347777
0 3.145 3.6893488e+19
2.4452953 -1.0842022e-19 2.5152066
-2 3.1682794 3.6893488e+19
2.2910566 -1.0842022e-19 2.5231278
1.0842022e-19 3.145937 -3.6893488e+19
2.4463515 3.6893488e+19 2.5043924
3.6893488e+19 3.0671954 -3.6893488e+19
2.1914361 -1.0842022e-19 2.3960402
-1.0842022e-19 3.1488137 -2
2.4495947 -0 2.4894753
-3.6893488e+19 3.1688569 3.6893488e+19
2.4721901 3.6893488e+19 2.4899681
-2 3.1473818 1.0842022e-19
2.4479806 -1.0842022e-19 2.4420178
-0 3.0653803 1.0842022e-19
2.1889102 -1.0842022e-19 2.3396955
-3.6893488e+19 3.1484592 -2
2.4491951 -3.6893488e+19 2.4203734
2 3.1500742 0
2.2783887 2 2.408139
1.0842022e-19 3.0918744 1.0842022e-19
2.3854053 2 2.3411095
2 3.1467404 -3.6893488e+19
2.2760687 0 2.3821921
-3.6893488e+19 3.1250873 -0
2.0877466 0 2.3499227
-3.6893488e+19 3.141701 -2
2.3443534 -0 2.3559048
1.0842022e-19 3.1251967 0
2.0878451 -0 2.3287978
-0 3.0602636 -1.0842022e-19
2.2727599 0 2.2642961
3.6893488e+19 3.1253805 -0
2.0880105 -0 2.3077543
-1.0842022e-19 3.1638255 -0
2.3638036 -0 2.3290515
3.6893488e+19 3.1268194 -3.6893488e+19
2.0893061 2 2.2876825
0 3.0660429 1.0842022e-19
2.2778406 -1.0842022e-19 2.2168186
-1.0842022e-19 3.1263456 -2
2.0888796 2 2.2661202
-1.0842022e-19 3.1218581 -2
2.3269091 -0 2.2536035
-0 3.1269412 0
2.089416 -3.6893488e+19 2.2406745
-1.0842022e-19 3.1346734 3.6893488e+19
2.3381753 -1.0842022e-19 2.2312422
2 3.1265233 3.6893488e+19
2.0890396 3.6893488e+19 2.1978092
-2 3.07758 -1.0842022e-19
2.2879832 -3.6893488e+19 2.1228523
-3.6893488e+19 3.126055 3.6893488e+19
2.088618 -0 2.1550357
3.6893488e+19 3.0786016 2
2.2888813 -2 2.0869727
3.6893488e+19 3.2405994 -3.6893488e+19
2.5265336 -3.6893488e+19 2.227294
-3.6893488e+19 3.2192214 3.6893488e+19
2.3265042 -1.0842022e-19 2.1773827
-2 3.2391555 -0
2.5257199 3.6893488e+19 2.1706192
3.6893488e+19 3.2200797 1.0842022e-19
2.3271015 -0 2.1253805
1.0842022e-19 3.2387071 -3.6893488e+19
2.5254669 1.0842022e-19 2.1150441
2 3.0667326 3.6893488e+19
2.1907921 1.0842022e-19 1.9673924
-1.0842022e-19 3.0711439 -3.6893488e+19
2.1969311 3.6893488e+19 1.9344063
2 3.2397168 1.0842022e-19
2.5260363 -3.6893488e+19 2.0053036
-2 3.0564032 2
2.1764169 0 1.891605
-2 3.242599 -0
2.5276608 2 1.9512688
1.0842022e-19 3.0543408 3.6893488e+19
2.1735466 -3.6893488e+19 1.8381059
1.0842022e-19 3.1379452 -2
2.4373422 0 1.8545883
2 3.0545664 1.0842022e-19
2.1738605 -0 1.7700498
3.6893488e+19 3.0786998 3.6893488e+19
2.3705533 -3.6893488e+19 1.7409071
3.6893488e+19 3.0510104 2
2.1689117 2 1.6518787
-1.0842022e-19 3.0512702 -1.0842022e-19
2.0212781 3.6893488e+19 1.5437391
1.0842022e-19 3.1031551 -1.0842022e-19
2.3104668 0 1.2854774
1.0842022e-19 3.0511162 -0
2.0211394 -2 -1.4509717
-0 3.0599408 3.6893488e+19
2.2724762 0 -1.6179907
1.0842022e-19 3.0502923 -0
2.0203974 3.6893488e+19 -1.6842852
-2 3.0536964 -2
2.0234628 -2 -1.7860599
3.6893488e+19 3.0606608 1.0842022e-19
2.2731092 -2 -1.8253504
0 3.0579898 3.6893488e+19
2.0273287 -2 -1.8571714
-0 3.0737758 0
2.2846389 -3.6893488e+19 -1.8907585
1.0842022e-19 3.0195105 1.0842022e-19
1.9926802 3.6893488e+19 -1.8817154
0 3.0222964 -2
2.2287641 -0 -1.898958
-3.6893488e+19 2.8402498 -3.6893488e+19
1.9031886 2 -1.8674166
3.6893488e+19 2.8028269 -3.6893488e+19
2.016222 0 -1.8587345
-1.0842022e-19 2.7823334 1.0842022e-19
2.0682831 0 -1.8596978
-0 2.7516687 -1.0842022e-19
1.9251218 -0 -1.847069
-3.6893488e+19 2.7012639 -3.6893488e+19
2.0043616 -2 -1.8380524
1.0842022e-19 2.6712244 0
1.8965529 -1.0842022e-19 -1.834504
-2 2.633384 -0
1.9661002 0 -1.8276819
0 2.6106541 1.0842022e-19
1.8754792 2 -1.824652
-3.6893488e+19 2.5873985 -0
1.9401798 -1.0842022e-19 -1.8224616
2 2.5658941 -3.6893488e+19
1.8448125 3.6893488e+19 -1.8176517
1.0842022e-19 2.544281 2
1.9158759 -2 -1.8138982
0 2.5343211 -3.6893488e+19
1.8228426 0 -1.8144116
2 2.5078557 1.0842022e-19
1.8953443 2 -1.8051379
-1.0842022e-19 2.4864404 3.6893488e+19
1.794243 2 -1.8007492
2 2.4596837 3.6893488e+19
1.8795538 1.0842022e-19 -1.7986182
1.0842022e-19 2.4524097 -3.6893488e+19
1.7824029 -0 -1.8012263
-2 3.1471562 -3.6893488e+19
2.3491492 0 2.614037
2 3.129319 -3.6893488e+19
2.0915568 1.0842022e-19 2.5905867
-2 3.1284237 1.0842022e-19
2.3326812 -2 2.5857186
0 3.108192 3.6893488e+19
2.0725331 -2 2.5611258
-0 3.1627185 -1.0842022e-19
2.3628304 -3.6893488e+19 2.6040201
-3.6893488e+19 3.1104956 2
2.0746076 -0 2.5526023
-3.6893488e+19 3.1225524 0
2.3275197 1.0842022e-19 2.558656
3.6893488e+19 3.1116557 3.6893488e+19
2.0756521 -3.6893488e+19 2.5430462
-3.6893488e+19 3.1624119 3.6893488e+19
2.362561 0 2.579638
-1.0842022e-19 3.127928 0
2.0903046 0 2.5452614
-0 3.1636748 -2
2.3636711 -1.0842022e-19 2.5686002
2 3.113683 -2
2.0774775 -3.6893488e+19 2.5236018
2 3.1601536 -2
2.3605754 3.6893488e+19 2.553978
2 3.1329885 3.6893488e+19
2.336694 2 2.5227499
-2 3.1476729 -1.0842022e-19
2.4483087 0 2.5285239
-1.0842022e-19 3.068871 0
2.1937683 1.0842022e-19 2.4347777
0 3.145 3.6893488e+19
2.4452953 -1.0842022e-19 2.5152066
-3.6893488e+19 3.0652766 2
2.188766 -1.0842022e-19 2.4117384
1.0842022e-19 3.145937 -3.6893488e+19
2.4463515 3.6893488e+19 2.5043924
3.6893488e+19 3.0671954 -3.6893488e+19
2.1914361 -1.0842022e-19 2.3960402
-1.0842022e-19 3.1488137 -2
2.4495947 -0 2.4894753
-3.6893488e+19 3.1688569 3.6893488e+19
2.4721901 3.6893488e+19 2.4899681
0 3.0915897 0
2.3850844 -2 2.3799586
-0 3.0653803 1.0842022e-19
2.1889102 -1.0842022e-19 2.3396955
2 3.0882578 -2
2.3813281 1.0842022e-19 2.3568611
2 3.0611277 2
2.1829917 -3.6893488e+19 2.3173993
1.0842022e-19 3.0918744 1.0842022e-19
2.3854053 2 2.3411095
-0 3.0629411 -3.6893488e+19
2.1855154 1.0842022e-19 2.3014657
-1.0842022e-19 3.0669787 -0
2.0354228 3.6893488e+19 2.2957125
-3.6893488e+19 3.141701 -2
2.3443534 -0 2.3559048
1.0842022e-19 3.0691824 -3.6893488e+19
2.0374069 -0 2.2797105
-0 3.0602636 -1.0842022e-19
2.2727599 0 2.2642961
-3.6893488e+19 3.0597959 0
2.0289552 0 2.2539852
0 3.0659876 1.0842022e-19
2.277792 -0 2.251256
1.0842022e-19 3.0605996 -2
2.0296786 1.0842022e-19 2.2242541
0 3.0660429 1.0842022e-19
2.2778406 -1.0842022e-19 2.2168186
0 3.0621037 -0
2.031033 -1.0842022e-19 2.1913872
3.6893488e+19 3.0849323 -1.0842022e-19
2.2944467 1.0842022e-19 2.206841
-0 3.0625057 1.0842022e-19
2.0313952 -1.0842022e-19 2.1567972
-0 3.0816844 -0
2.2915914 2 2.1649508
2 3.0618973 0
2.0308473 1.0842022e-19 2.1209478
-2 3.07758 -1.0842022e-19
2.2879832 -3.6893488e+19 2.1228523
0 3.0612729 -0
2.0302849 -2 2.0852609
3.6893488e+19 3.0786016 2
2.2888813 -2 2.0869727
-2 3.070281 -1.0842022e-19
2.3610625 1.0842022e-19 2.061595
1.0842022e-19 3.0655496 -1.0842022e-19
2.1891456 -1.0842022e-19 2.0374131
3.6893488e+19 3.0680902 1.0842022e-19
2.3585927 0 2.0235221
1.0842022e-19 3.0664752 1.0842022e-19
2.1904337 3.6893488e+19 2.0027201
0 3.0713844 0
2.3623064 -0 1.9900609
2 3.0667326 3.6893488e+19
2.1907921 1.0842022e-19 1.9673924
-1.0842022e-19 3.0711439 -3.6893488e+19
2.1969311 3.6893488e+19 1.9344063
-2 3.0745602 0
2.3658867 -1.0842022e-19 1.9192028
-2 3.0564032 2
2.1764169 0 1.891605
-2 3.0763576 -3.6893488e+19
2.3679128 0 1.883345
1.0842022e-19 3.0543408 3.6893488e+19
2.1735466 -3.6893488e+19 1.8381059
1.0842022e-19 3.1379452 -2
2.4373422 0 1.8545883
2 3.0545664 1.0842022e-19
2.1738605 -0 1.7700498
3.6893488e+19 3.0786998 3.6893488e+19
2.3705533 -3.6893488e+19 1.7409071
3.6893488e+19 3.0510104 2
2.1689117 2 1.6518787
-1.0842022e-19 3.0512702 -1.0842022e-19
2.0212781 3.6893488e+19 1.5437391
-1.0842022e-19 3.0605366 3.6893488e+19
2.273 1.0842022e-19 1.2661111
1.0842022e-19 3.0511162 -0
2.0211394 -2 -1.4509717
-0 3.0599408 3.6893488e+19
2.2724762 0 -1.6179907
1.0842022e-19 3.0502923 -0
2.0203974 3.6893488e+19 -1.6842852
-2 3.0536964 -2
2.0234628 -2 -1.7860599
3.6893488e+19 3.0606608 1.0842022e-19
2.2731092 -2 -1.8253504
-2 3.0214326 0
1.9944111 -2 -1.8296137
1.0842022e-19 3.033005 -0
2.2475924 -2 -1.8710676
1.0842022e-19 3.0195105 1.0842022e-19
1.9926802 3.6893488e+19 -1.8817154
0 3.0222964 -2
2.2287641 -0 -1.898958
-3.6893488e+19 2.8402498 -3.6893488e+19
1.9031886 2 -1.8674166
3.6893488e+19 2.8028269 -3.6893488e+19
2.016222 0 -1.8587345
-1.0842022e-19 2.7823334 1.0842022e-19
2.0682831 0 -1.8596978
-0 2.7516687 -1.0842022e-19
1.9251218 -0 -1.847069
-3.6893488e+19 2.7012639 -3.6893488e+19
2.0043616 -2 -1.8380524
1.0842022e-19 2.6712244 0
1.8965529 -1.0842022e-19 -1.834504
-2 2.633384 -0
1.9661002 0 -1.8276819
0 2.6106541 1.0842022e-19
1.8754792 2 -1.824652
-3.6893488e+19 2.5873985 -0
1.9401798 -1.0842022e-19 -1.8224616
2 2.5658941 -3.6893488e+19
1.8448125 3.6893488e+19 -1.8176517
1.0842022e-19 2.544281 2
1.9158759 -2 -1.8138982
0 2.5343211 -3.6893488e+19
1.8228426 0 -1.8144116
2 2.5078557 1.0842022e-19
1.8953443 2 -1.8051379
-1.0842022e-19 2.4864404 3.6893488e+19
1.794243 2 -1.8007492
2 2.4596837 3.6893488e+19
1.8795538 1.0842022e-19 -1.7986182
1.0842022e-19 2.4524097 -3.6893488e+19
1.7824029 -0 -1.8012263
0 3.1042371 1.0842022e-19
2.0542827 -2 2.5784247
2 3.1289465 2
2.0755076 -3.6893488e+19 2.5902038
2 3.1946173 -0
2.3815742 0 2.6443317
3.6893488e+19 3.1933539 -3.6893488e+19
2.3804898 2 2.6172111
-0 3.190505 2
2.3780451 -3.6893488e+19 2.6019936
-0 3.197269 -1.0842022e-19
2.3838499 3.6893488e+19 2.5943768
2 3.113704 0
2.0624146 0 2.5235789
-2 3.154299 -3.6893488e+19
2.3469727 0 2.5378458
-1.0842022e-19 3.152849 -2
2.4456542 3.6893488e+19 2.5320473
1.0842022e-19 3.0686347 1.0842022e-19
2.1801693 -2 2.4343591
1.0842022e-19 3.0637484 2
2.1735725 0 2.4096518
-2 3.1462936 3.6893488e+19
2.4384024 -3.6893488e+19 2.5045297
0 3.2081907 3.6893488e+19
2.3092875 3.6893488e+19 2.5359778
1.0842022e-19 3.1479478 -3.6893488e+19
2.440232 3.6893488e+19 2.4882362
0 3.1579561 -0
2.2753782 0 2.462574
0 3.1470346 -3.6893488e+19
2.4392219 2 2.4414723
-0 3.1536565 -0
2.272476 -3.6893488e+19 2.4346812
0 3.1476209 1.0842022e-19
2.4398706 0 2.4193377
-3.6893488e+19 3.1501627 0
2.2701178 2 2.408139
-0 3.0913217 -2
2.3775892 -2 2.3404353
-3.6893488e+19 3.1458387 -3.6893488e+19
2.2671988 3.6893488e+19 2.3812392
-1.0842022e-19 3.1261635 -2
2.073117 -2 2.3508766
-0 3.1441884 -0
2.3382957 2 2.3580644
-2 3.1252189 -0
2.0723057 -1.0842022e-19 2.3287706
-2 3.1410592 -3.6893488e+19
2.3356102 -1.0842022e-19 2.3330276
-1.0842022e-19 3.1252475 -0
2.0723302 0 2.3076017
1.0842022e-19 3.165024 -3.6893488e+19
2.3561769 -3.6893488e+19 2.3299117
3.6893488e+19 3.0589662 3.6893488e+19
2.0153959 -1.0842022e-19 2.221693
3.6893488e+19 3.0667503 3.6893488e+19
2.2718377 3.6893488e+19 2.2177324
-0 3.0612776 2
2.0173814 -2 2.1901565
2 3.1215291 2
2.3188493 -3.6893488e+19 2.2533078
0 3.0613995 -2
2.0174859 2 2.1552994
0 3.1345336 0
2.3300099 -1.0842022e-19 2.2309322
0 3.063062 -0
2.018914 -3.6893488e+19 2.1222799
2 3.1648281 -1.0842022e-19
2.3560088 3.6893488e+19 2.2220259
0 3.0632474 -2
2.0190732 0 2.0873399
0 3.1651466 0
2.3562822 -3.6893488e+19 2.1756029
0 3.0690989 1.0842022e-19
2.3530052 3.6893488e+19 2.0603328
1.0842022e-19 3.2200716 1.0842022e-19
2.3173075 -0 2.1780622
-0 3.0728416 -1.0842022e-19
2.3571455 0 2.0275078
-1.0842022e-19 3.2189708 -3.6893488e+19
2.3165643 -3.6893488e+19 2.1244121
1.0842022e-19 3.2254012 -3.6893488e+19
2.5129576 1.0842022e-19 2.1049771
-1.0842022e-19 3.0689805 3.6893488e+19
2.1806362 0 1.9688869
-3.6893488e+19 3.0723073 0
2.3565547 -2 1.9543022
3.6893488e+19 3.0616302 -2
2.1707129 -3.6893488e+19 1.9289037
-1.0842022e-19 3.1529229 -2
2.4457359 2 1.9599799
1.0842022e-19 3.0555062 3.6893488e+19
2.1624453 0 1.8911592
-2 3.152849 -3.6893488e+19
2.4456542 3.6893488e+19 1.9145389
1.0842022e-19 3.0544393 -3.6893488e+19
2.1610048 -1.0842022e-19 1.8381277
-1.0842022e-19 3.1406848 -0
2.4321976 -3.6893488e+19 1.8561262
1.0842022e-19 3.0539489 -2
2.1603427 -0 1.7697237
0 3.1493924 -0
2.4418302 -3.6893488e+19 1.7713063
2 3.0545022 3.6893488e+19
2.1610899 -0 1.6536065
1.0842022e-19 3.0513132 -2
2.008822 3.6893488e+19 1.5437391
-0 3.0618045 -1.0842022e-19
2.2675931 -1.0842022e-19 1.2666475
1.0842022e-19 3.049942 -2
2.0076442 1.0842022e-19 -1.4501597
3.6893488e+19 3.0594685 -3.6893488e+19
2.2655883 -2 -1.6175523
-1.0842022e-19 3.0507092 3.6893488e+19
2.0083034 -2 -1.6845149
-2 3.0570555 2
2.2635176 1.0842022e-19 -1.754068
-2 3.0528035 -2
2.0101023 2 -1.7855636
3.6893488e+19 3.0601578 0
2.26618 -0 -1.8249699
0 3.0620267 -2
2.0180247 1.0842022e-19 -1.8601812
1.0842022e-19 3.0704501 -2
2.2750127 3.6893488e+19 -1.8892736
0 3.0173967 -3.6893488e+19
1.9796884 -0 -1.8806638
-0 3.0217516 -2
2.216439 1.0842022e-19 -1.8986183
2 2.8414829 2
1.8966635 3.6893488e+19 -1.8682605
-3.6893488e+19 2.8029118 -2
2.0099614 0 -1.8587345
-0 2.7808895 -2
2.0607357 1.0842022e-19 -1.8584133
-0 2.752284 -1.0842022e-19
1.9202967 1.0842022e-19 -1.8475628
-1.0842022e-19 2.7011795 2
1.9995601 0 -1.8379358
-1.0842022e-19 2.6756687 -0
1.8936673 -2 -1.8366677
3.6893488e+19 2.6337695 2
1.9622737 -0 -1.8278124
-1.0842022e-19 2.609864 3.6893488e+19
1.8679153 -3.6893488e+19 -1.8241705
2 2.5871499 1.0842022e-19
1.9364871 3.6893488e+19 -1.8222449
-0 2.5660882 0
1.8383658 -1.0842022e-19 -1.8177274
-3.6893488e+19 2.5450041 -2
1.9131751 -1.0842022e-19 -1.8142942
3.6893488e+19 2.5332668 2
1.8162106 0 -1.8136675
-0 2.5070851 -3.6893488e+19
1.8922009 -1.0842022e-19 -1.8045348
1.0842022e-19 2.4895256 0
1.7902197 -3.6893488e+19 -1.8018246
-2 2.453192 1.0842022e-19
1.8753366 2 -1.7961047
3.6893488e+19 2.4530058 0
1.7778939 -1.0842022e-19 -1.8014194
3.6893488e+19 2.4329271 -0
1.8644642 -2 -1.8007562
-1.0842022e-19 2.3685517 -3.6893488e+19
1.6582893 0 -1.7942467
0 2.3201411 2
1.6374974 -3.6893488e+19 -1.7901601
-1.0842022e-19 2.2866671 -3.6893488e+19
1.6212415 -1.0842022e-19 -1.789197
-3.6893488e+19 2.2564745 -3.6893488e+19
1.5953066 -2 -1.7865502
3.6893488e+19 2.2098417 2
1.7521757 -3.6893488e+19 -1.7842866
0 2.1736376 0
1.7343259 2 -1.7840523
-1.0842022e-19 2.1409321 -2
1.7162355 0 -1.7831887
2 2.1097798 -1.0842022e-19
1.6990043 3.6893488e+19 -1.7811477
0 3.1042371 1.0842022e-19
2.0542827 -2 2.5784247
2 3.1289465 2
2.0755076 -3.6893488e+19 2.5902038
-1.0842022e-19 3.1271038 2
2.3236337 -2 2.5844538
0 3.1223528 1.0842022e-19
2.3195562 -3.6893488e+19 2.5584037
-0 3.190505 2
2.3780451 -3.6893488e+19 2.6019936
-0 3.197269 -1.0842022e-19
2.3838499 3.6893488e+19 2.5943768
2 3.113704 0
2.0624146 0 2.5235789
-1.0842022e-19 3.130281 -2
2.3263602 -0 2.5207458
-1.0842022e-19 3.152849 -2
2.4456542 3.6893488e+19 2.5320473
1.0842022e-19 3.0686347 1.0842022e-19
2.1801693 -2 2.4343591
1.0842022e-19 3.0637484 2
2.1735725 0 2.4096518
-2 3.1462936 3.6893488e+19
2.4384024 -3.6893488e+19 2.5045297
-0 3.0664656 1.0842022e-19
2.1772411 0 2.3950417
1.0842022e-19 3.1479478 -3.6893488e+19
2.440232 3.6893488e+19 2.4882362
0 3.1579561 -0
2.2753782 0 2.462574
-3.6893488e+19 3.0914674 0
2.3777506 -0 2.3796859
1.0842022e-19 3.0701723 -0
2.182245 -0 2.3447804
0 3.0886254 -0
2.3746064 3.6893488e+19 2.35712
-3.6893488e+19 3.1501627 0
2.2701178 2 2.408139
-0 3.0913217 -2
2.3775892 -2 2.3404353
3.6893488e+19 3.065793 3.6893488e+19
2.176333 -2 2.3041456
-0 3.0676126 2
2.0228231 3.6893488e+19 2.2962618
-0 3.1441884 -0
2.3382957 2 2.3580644
-2 3.0661876 3.6893488e+19
2.0215991 3.6893488e+19 2.2770469
0 3.0590839 3.6893488e+19
2.2652583 -3.6893488e+19 2.263217
-0 3.0594053 -1.0842022e-19
2.0157731 -1.0842022e-19 2.2536287
-0 3.0655196 3.6893488e+19
2.2707815 -2 2.2508135
3.6893488e+19 3.0589662 3.6893488e+19
2.0153959 -1.0842022e-19 2.221693
3.6893488e+19 3.0667503 3.6893488e+19
2.2718377 3.6893488e+19 2.2177324
-0 3.0612776 2
2.0173814 -2 2.1901565
-1.0842022e-19 3.1034479 -2
2.3033319 -3.6893488e+19 2.2319605
0 3.0613995 -2
2.0174859 2 2.1552994
2 3.1064053 -1.0842022e-19
2.3058698 -3.6893488e+19 2.1957524
0 3.063062 -0
2.018914 -3.6893488e+19 2.1222799
3.6893488e+19 3.0784779 -1.0842022e-19
2.2819023 -3.6893488e+19 2.1237693
0 3.0632474 -2
2.0190732 0 2.0873399
-0 3.079376 -1.0842022e-19
2.2826731 2 2.0876722
0 3.0690989 1.0842022e-19
2.3530052 3.6893488e+19 2.0603328
-0 3.0682309 -2
2.1796241 1.0842022e-19 2.0397913
-0 3.0728416 -1.0842022e-19
2.3571455 0 2.0275078
-1.0842022e-19 3.2189708 -3.6893488e+19
2.3165643 -3.6893488e+19 2.1244121
1.0842022e-19 3.0706964 1.0842022e-19
2.3547723 -0 1.9894606
-1.0842022e-19 3.0689805 3.6893488e+19
2.1806362 0 1.9688869
-3.6893488e+19 3.0723073 0
2.3565547 -2 1.9543022
3.6893488e+19 3.0616302 -2
2.1707129 -3.6893488e+19 1.9289037
-0 3.0716453 -0
2.3558221 -1.0842022e-19 1.9176227
1.0842022e-19 3.0555062 3.6893488e+19
2.1624453 0 1.8911592
-2 3.152849 -3.6893488e+19
2.4456542 3.6893488e+19 1.9145389
1.0842022e-19 3.0544393 -3.6893488e+19
2.1610048 -1.0842022e-19 1.8381277
-1.0842022e-19 3.1406848 -0
2.4321976 -3.6893488e+19 1.8561262
1.0842022e-19 3.0539489 -2
2.1603427 -0 1.7697237
3.6893488e+19 3.0799637 -1.0842022e-19
2.3650243 -2 1.7417462
2 3.0545022 3.6893488e+19
2.1610899 -0 1.6536065
1.0842022e-19 3.0513132 -2
2.008822 3.6893488e+19 1.5437391
-0 3.0618045 -1.0842022e-19
2.2675931 -1.0842022e-19 1.2666475
1.0842022e-19 3.049942 -2
2.0076442 1.0842022e-19 -1.4501597
3.6893488e+19 3.0594685 -3.6893488e+19
2.2655883 -2 -1.6175523
-1.0842022e-19 3.0507092 3.6893488e+19
2.0083034 -2 -1.6845149
-2 3.0570555 2
2.2635176 1.0842022e-19 -1.754068
-2 3.0528035 -2
2.0101023 2 -1.7855636
3.6893488e+19 3.0601578 0
2.26618 -0 -1.8249699
2 3.022532 -0
1.9840996 0 -1.8304132
3.6893488e+19 3.0315313 2
2.2332251 -0 -1.8697177
0 3.0173967 -3.6893488e+19
1.9796884 -0 -1.8806638
-0 3.0217516 -2
2.216439 1.0842022e-19 -1.8986183
2 2.8414829 2
1.8966635 3.6893488e+19 -1.8682605
-3.6893488e+19 2.8029118 -2
2.0099614 0 -1.8587345
-0 2.7808895 -2
2.0607357 1.0842022e-19 -1.8584133
-0 2.752284 -1.0842022e-19
1.9202967 1.0842022e-19 -1.8475628
-1.0842022e-19 2.7011795 2
1.9995601 0 -1.8379358
-1.0842022e-19 2.6756687 -0
1.8936673 -2 -1.8366677
3.6893488e+19 2.6337695 2
1.9622737 -0 -1.8278124
-1.0842022e-19 2.609864 3.6893488e+19
1.8679153 -3.6893488e+19 -1.8241705
2 2.5871499 1.0842022e-19
1.9364871 3.6893488e+19 -1.8222449
-0 2.5660882 0
1.8383658 -1.0842022e-19 -1.8177274
-3.6893488e+19 2.5450041 -2
1.9131751 -1.0842022e-19 -1.8142942
3.6893488e+19 2.5332668 2
1.8162106 0 -1.8136675
-0 2.5070851 -3.6893488e+19
1.8922009 -1.0842022e-19 -1.8045348
1.0842022e-19 2.4895256 0
1.7902197 -3.6893488e+19 -1.8018246
-2 2.453192 1.0842022e-19
1.8753366 2 -1.7961047
3.6893488e+19 2.4530058 0
1.7778939 -1.0842022e-19 -1.8014194
3.6893488e+19 2.4329271 -0
1.8644642 -2 -1.8007562
-1.0842022e-19 2.3685517 -3.6893488e+19
1.6582893 0 -1.7942467
0 2.3201411 2
1.6374974 -3.6893488e+19 -1.7901601
-1.0842022e-19 2.2866671 -3.6893488e+19
1.6212415 -1.0842022e-19 -1.789197
-3.6893488e+19 2.2564745 -3.6893488e+19
1.5953066 -2 -1.7865502
3.6893488e+19 2.2098417 2
1.7521757 -3.6893488e+19 -1.7842866
0 2.1736376 0
1.7343259 2 -1.7840523
-1.0842022e-19 2.1409321 -2
1.7162355 0 -1.7831887
2 2.1097798 -1.0842022e-19
1.6990043 3.6893488e+19 -1.7811477
-1.0842022e-19 3.1032214 2
2.0385509 0 2.5774384
-2 3.110801 2
2.3019891 -0 2.5805287
3.6893488e+19 3.1285722 -0
2.0592601 -1.0842022e-19 2.5898211
-0 3.1254482 -3.6893488e+19
2.3142486 0 2.5828931
2 3.1906765 -3.6893488e+19
2.3688443 -1.0842022e-19 2.614892
-2 3.1917858 -3.6893488e+19
2.3697729 2 2.6029191
-2 3.196691 2
2.3738787 -0 2.5938363
-2 3.1137538 2
2.0471549 0 2.5235789
-0 3.1529632 -2
2.4371691 -3.6893488e+19 2.5320258
3.6893488e+19 3.0655413 -1.0842022e-19
2.1626637 0 2.4300487
0 3.0632942 0
2.159725 -2 2.4089694
0 3.1463444 -2
2.4299884 -3.6893488e+19 2.5044708
3.6893488e+19 3.2117989 -3.6893488e+19
2.3019693 1.0842022e-19 2.5381672
-0 3.1469579 -1.0842022e-19
2.430654 3.6893488e+19 2.4868469
-3.6893488e+19 3.1564102 -1.0842022e-19
2.2657509 1.0842022e-19 2.460721
1.0842022e-19 3.1471772 3.6893488e+19
2.430892 2 2.4414723
0 3.1496389 -1.0842022e-19
2.261323 0 2.4302611
-2 3.1469345 -1.0842022e-19
2.4306288 1.0842022e-19 2.4184637
2 3.1488905 2
2.2608337 -2 2.4067526
3.6893488e+19 3.0908911 -2
2.369828 3.6893488e+19 2.3398838
3.6893488e+19 3.0658927 2
2.1631234 -0 2.3041754
-3.6893488e+19 3.0653622 -0
2.0076232 -1.0842022e-19 2.2941222
-1.0842022e-19 3.1448538 -1.0842022e-19
2.3304911 -1.0842022e-19 2.3585691
-3.6893488e+19 3.0689611 -3.6893488e+19
2.0105631 -0 2.2794387
2 3.1397462 2
2.326216 -2 2.3318172
2 3.068048 -1.0842022e-19
2.0098171 -0 2.2606776
-0 3.0668135 -2
2.2651715 -0 2.2517722
1.0842022e-19 3.1667547 -3.6893488e+19
2.0904517 -2 2.3180821
-0 3.0666835 -1.0842022e-19
2.2650628 1.0842022e-19 2.217504
-3.6893488e+19 3.1653736 1.0842022e-19
2.0893238 -2 2.2936354
-0 3.0953393 0
2.2890477 1.0842022e-19 2.220773
3.6893488e+19 3.1627884 0
2.0872118 -0 2.2685938
-1.0842022e-19 3.1339896 3.6893488e+19
2.3213978 -3.6893488e+19 2.2301185
-2 3.163759 -3.6893488e+19
2.0880046 0 2.2419574
-3.6893488e+19 3.1659663 -0
2.3481622 -3.6893488e+19 2.2231896
-3.6893488e+19 3.1649206 3.6893488e+19
2.3472869 2 2.1752534
2 3.0729537 0
2.350368 -0 2.0639689
1.0842022e-19 3.2203605 2
2.3075678 0 2.1782322
-1.0842022e-19 3.0749366 -0
2.3525193 -1.0842022e-19 2.0292082
-3.6893488e+19 3.0669873 0
2.1645551 1.0842022e-19 2.0030181
-3.6893488e+19 3.2258811 3.6893488e+19
2.5081384 -1.0842022e-19 2.1052079
1.0842022e-19 3.0702636 -2
2.1688395 3.6893488e+19 1.9697194
-1.0842022e-19 3.1515129 -0
2.4355958 -3.6893488e+19 2.0044169
3.6893488e+19 3.0578384 2
2.15259 -0 1.9266884
0 3.0700896 1.0842022e-19
2.3472607 -3.6893488e+19 1.916752
-3.6893488e+19 3.0554481 -3.6893488e+19
2.1494639 3.6893488e+19 1.8911016
0 3.1529319 1.0842022e-19
2.4371352 2 1.9145136
3.6893488e+19 3.0533223 -3.6893488e+19
2.1466837 2 1.8372996
-2 3.1500516 -0
2.4340105 2 1.8615826
-0 3.0540462 -0
2.1476305 -3.6893488e+19 1.7697384
-3.6893488e+19 3.0742607 1.0842022e-19
2.3517861 2 1.7374828
1.0842022e-19 3.056375 -1.0842022e-19
2.150676 1.0842022e-19 1.6545177
-1.0842022e-19 3.0533206 -2
1.9977863 -2 1.54484
0 3.0613008 3.6893488e+19
2.2605574 -3.6893488e+19 1.2663792
0 3.0502954 2
1.9953148 1.0842022e-19 -1.4503679
-1.0842022e-19 3.1904936 2
2.3686914 3.6893488e+19 -1.672575
2 3.0539651 3.6893488e+19
1.9983127 -3.6893488e+19 -1.686487
1.0842022e-19 3.191956 -3.6893488e+19
2.3699152 1.0842022e-19 -1.8107206
2 3.0528452 2
1.9973979 2 -1.7855636
-2 3.0602438 -1.0842022e-19
2.2596729 -0 -1.8249699
-2 3.0678415 -0
2.0096486 2 -1.8645312
-1.0842022e-19 3.0315163 2
2.2212563 2 -1.8696368
-0 3.0177453 1.0842022e-19
1.9687244 1.0842022e-19 -1.8808162
-0 3.0216408 -2
2.2047246 3.6893488e+19 -1.8985164
0 2.8437123 1.0842022e-19
1.8903913 -0 -1.869815
-0 2.8069077 2
2.0068805 -0 -1.8617519
2 2.7777123 3.6893488e+19
2.0512862 3.6893488e+19 -1.8556902
-1.0842022e-19 2.7515304 3.6893488e+19
1.9144753 -2 -1.8468496
-2 2.7012179 -0
1.99476 -1.0842022e-19 -1.8378774
3.6893488e+19 2.6730258 0
1.8883079 0 -1.8353077
-3.6893488e+19 2.6342781 -1.0842022e-19
1.958449 -2 -1.8280083
1.0842022e-19 2.6098182 2
1.8602844 0 -1.8241018
3.6893488e+19 2.5873945 -2
1.9330173 -0 -1.8223171
2 2.5659087 -2
1.8315721 1.0842022e-19 -1.8175761
3.6893488e+19 2.5362198 -0
1.9052579 -3.6893488e+19 -1.8085916
2 2.5327077 -1.0842022e-19
1.809862 3.6893488e+19 -1.8132541
-3.6893488e+19 2.5102625 3.6893488e+19
1.8911777 -0 -1.8066885
3.6893488e+19 2.4918656 3.6893488e+19
1.785815 2 -1.8026313
3.6893488e+19 2.4533548 0
1.8709192 2 -1.7961047
3.6893488e+19 2.4461603 -2
1.7708716 0 -1.7987157
-1.0842022e-19 3.1032214 2
2.0385509 0 2.5774384
-2 3.110801 2
2.3019891 -0 2.5805287
3.6893488e+19 3.1285722 -0
2.0592601 -1.0842022e-19 2.5898211
-0 3.1254482 -3.6893488e+19
2.3142486 0 2.5828931
2 3.1906765 -3.6893488e+19
2.3688443 -1.0842022e-19 2.614892
-2 3.1917858 -3.6893488e+19
2.3697729 2 2.6029191
-2 3.196691 2
2.3738787 -0 2.5938363
-2 3.1137538 2
2.0471549 0 2.5235789
-0 3.1529632 -2
2.4371691 -3.6893488e+19 2.5320258
3.6893488e+19 3.0655413 -1.0842022e-19
2.1626637 0 2.4300487
0 3.0632942 0
2.159725 -2 2.4089694
0 3.1463444 -2
2.4299884 -3.6893488e+19 2.5044708
-1.0842022e-19 3.065088 -2
2.162071 2 2.3932364
-0 3.1469579 -1.0842022e-19
2.430654 3.6893488e+19 2.4868469
-3.6893488e+19 3.1564102 -1.0842022e-19
2.2657509 1.0842022e-19 2.460721
0 3.0916209 1.0842022e-19
2.3706198 -1.0842022e-19 2.37972
0 3.0656734 -0
2.1628363 -1.0842022e-19 2.3398616
1.0842022e-19 3.088747 0
2.367502 3.6893488e+19 2.35712
2 3.1488905 2
2.2608337 -2 2.4067526
3.6893488e+19 3.0908911 -2
2.369828 3.6893488e+19 2.3398838
3.6893488e+19 3.0658927 2
2.1631234 -0 2.3041754
-3.6893488e+19 3.0653622 -0
2.0076232 -1.0842022e-19 2.2941222
-1.0842022e-19 3.0798118 0
2.2760513 -3.6893488e+19 2.299504
-3.6893488e+19 3.0689611 -3.6893488e+19
2.0105631 -0 2.2794387
-3.6893488e+19 3.0586133 -0
2.2583082 2 2.2627435
2 3.068048 -1.0842022e-19
2.0098171 -0 2.2606776
-0 3.0668135 -2
2.2651715 -0 2.2517722
-3.6893488e+19 3.0602512 3.6893488e+19
2.003448 2 2.2235901
-0 3.0666835 -1.0842022e-19
2.2650628 1.0842022e-19 2.217504
-3.6893488e+19 3.0634654 2
2.0060737 2 2.1931894
-0 3.0953393 0
2.2890477 1.0842022e-19 2.220773
-1.0842022e-19 3.0639617 -2
2.006479 3.6893488e+19 2.1585784
-2 3.097487 -3.6893488e+19
2.2908452 -3.6893488e+19 2.1844778
1.0842022e-19 3.0615487 -0
2.0045078 1.0842022e-19 2.1204298
-3.6893488e+19 3.1659663 -0
2.3481622 -3.6893488e+19 2.2231896
-0 3.0836549 -0
2.2792678 -1.0842022e-19 2.0919638
2 3.0729537 0
2.350368 -0 2.0639689
0 3.0671809 -2
2.1648078 -0 2.0387721
-1.0842022e-19 3.0749366 -0
2.3525193 -1.0842022e-19 2.0292082
-3.6893488e+19 3.0669873 0
2.1645551 1.0842022e-19 2.0030181
3.6893488e+19 3.0700691 1.0842022e-19
2.3472385 0 1.9889065
1.0842022e-19 3.0702636 -2
2.1688395 3.6893488e+19 1.9697194
-1.0842022e-19 3.0705667 -1.0842022e-19
2.3477783 -0 1.9531258
3.6893488e+19 3.0578384 2
2.15259 -0 1.9266884
0 3.0700896 1.0842022e-19
2.3472607 -3.6893488e+19 1.916752
-3.6893488e+19 3.0554481 -3.6893488e+19
2.1494639 3.6893488e+19 1.8911016
2 3.0733113 3.6893488e+19
2.3507559 2 1.8820052
3.6893488e+19 3.0533223 -3.6893488e+19
2.1466837 2 1.8372996
-3.6893488e+19 3.071193 -3.6893488e+19
2.3484578 1.0842022e-19 1.8149472
-0 3.0540462 -0
2.1476305 -3.6893488e+19 1.7697384
-3.6893488e+19 3.0742607 1.0842022e-19
2.3517861 2 1.7374828
1.0842022e-19 3.056375 -1.0842022e-19
2.150676 1.0842022e-19 1.6545177
-1.0842022e-19 3.0533206 -2
1.9977863 -2 1.54484
0 3.0613008 3.6893488e+19
2.2605574 -3.6893488e+19 1.2663792
0 3.0502954 2
1.9953148 1.0842022e-19 -1.4503679
3.6893488e+19 3.0614815 1.0842022e-19
2.2607088 -0 -1.6190622
2 3.0539651 3.6893488e+19
1.9983127 -3.6893488e+19 -1.686487
0 3.0573585 -1.0842022e-19
2.2572577 0 -1.7541595
2 3.0528452 2
1.9973979 2 -1.7855636
-2 3.0602438 -1.0842022e-19
2.2596729 -0 -1.8249699
-1.0842022e-19 3.0217893 3.6893488e+19
1.972028 -3.6893488e+19 -1.8298253
-1.0842022e-19 3.0315163 2
2.2212563 2 -1.8696368
-0 3.0177453 1.0842022e-19
1.9687244 1.0842022e-19 -1.8808162
-0 3.0216408 -2
2.2047246 3.6893488e+19 -1.8985164
0 2.8437123 1.0842022e-19
1.8903913 -0 -1.869815
-0 2.8069077 2
2.0068805 -0 -1.8617519
2 2.7777123 3.6893488e+19
2.0512862 3.6893488e+19 -1.8556902
-1.0842022e-19 2.7515304 3.6893488e+19
1.9144753 -2 -1.8468496
-2 2.7012179 -0
1.99476 -1.0842022e-19 -1.8378774
3.6893488e+19 2.6730258 0
1.8883079 0 -1.8353077
-3.6893488e+19 2.6342781 -1.0842022e-19
1.958449 -2 -1.8280083
1.0842022e-19 2.6098182 2
1.8602844 0 -1.8241018
3.6893488e+19 2.5873945 -2
1.9330173 -0 -1.8223171
2 2.5659087 -2
1.8315721 1.0842022e-19 -1.8175761
3.6893488e+19 2.5362198 -0
1.9052579 -3.6893488e+19 -1.8085916
2 2.5327077 -1.0842022e-19
1.809862 3.6893488e+19 -1.8132541
-3.6893488e+19 2.5102625 3.6893488e+19
1.8911777 -0 -1.8066885
3.6893488e+19 2.4918656 3.6893488e+19
1.785815 2 -1.8026313
3.6893488e+19 2.4533548 0
1.8709192 2 -1.7961047
3.6893488e+19 2.4461603 -2
1.7708716 0 -1.7987157
-1.0842022e-19 3.1036019 -3.6893488e+19
2.0239978 -0 2.5777483
-0 3.1253374 -0
2.3062027 -3.6893488e+19 2.5827045
-2 3.1233206 -3.6893488e+19
2.3045573 0 2.5699604
-3.6893488e+19 3.1045225 -3.6893488e+19
2.0247111 -0 2.5371487
-1.0842022e-19 3.1978807 2
2.3653841 0 2.5946589
-1.0842022e-19 3.1519945 -3.6893488e+19
2.061496 0 2.5523002
-1.0842022e-19 3.0628436 1.0842022e-19
2.1459329 3.6893488e+19 2.4262822
0 3.062284 0
2.1452246 3.6893488e+19 2.4075649
-3.6893488e+19 3.1472485 0
2.4224908 -2 2.5049617
3.6893488e+19 3.2181144 1.0842022e-19
2.2962213 3.6893488e+19 2.5420465
-0 3.146975 -2
2.4221997 -0 2.4866967
0 3.1579349 1.0842022e-19
2.2581398 0 2.4856536
2 3.0909142 2
2.3625767 2 2.3983655
3.6893488e+19 3.1559408 -1.0842022e-19
2.2568779 -1.0842022e-19 2.4600916
2 3.1476545 -0
2.4229224 -0 2.4418473
-1.0842022e-19 3.1493833 3.6893488e+19
2.2527285 -1.0842022e-19 2.4298954
-2 3.1472278 2
2.4224687 -3.6893488e+19 2.4186254
-3.6893488e+19 3.0662994 2
2.1503067 -0 2.304503
-1.0842022e-19 3.0639772 -2
1.9932936 -0 2.2927923
-3.6893488e+19 3.1455476 1.0842022e-19
2.3226905 -2 2.359102
-1.0842022e-19 3.0681961 -1.0842022e-19
1.9965627 3.6893488e+19 2.2787321
-0 3.1418612 -2
2.3196828 -1.0842022e-19 2.3335276
-1.0842022e-19 3.0694556 1.0842022e-19
1.9975388 -1.0842022e-19 2.2617972
2 3.065074 -1.0842022e-19
2.2570393 -2 2.2503219
-2 3.1646028 -3.6893488e+19
2.0712659 2 2.3163986
2 3.0676053 0
2.2591045 -0 2.2187376
-1.0842022e-19 3.1641841 0
2.0709417 -1.0842022e-19 2.2927563
1.0842022e-19 3.0859227 -0
2.2740479 0 2.2078121
3.6893488e+19 3.0636916 -2
1.9930723 3.6893488e+19 2.1581736
-1.0842022e-19 3.1336596 1.0842022e-19
2.3129921 -3.6893488e+19 2.2295761
-0 3.0652001 3.6893488e+19
1.9942412 0 2.1247225
2 3.0795884 2
2.2688804 -1.0842022e-19 2.1248274
-2 3.140753 -1.0842022e-19
2.0527854 0 2.1706941
1.0842022e-19 3.0780675 1.0842022e-19
2.2676396 0 2.0861464
1.0842022e-19 3.0719233 -3.6893488e+19
2.3423789 -3.6893488e+19 2.0628569
-1.0842022e-19 3.2224813 -1.0842022e-19
2.2989845 -0 2.1800723
1.0842022e-19 3.0708132 0
2.3411984 3.6893488e+19 2.025568
-3.6893488e+19 3.2616396 3.6893488e+19
2.3311296 -1.0842022e-19 2.1675916
2 3.0792794 3.6893488e+19
2.3502026 -0 1.9956948
-3.6893488e+19 3.0711713 3.6893488e+19
2.1564724 -1.0842022e-19 1.9702958
2 3.0569694 -3.6893488e+19
2.1384983 -0 1.9261525
0 3.0707285 2
2.3411083 1.0842022e-19 1.9170262
-0 3.0555437 1.0842022e-19
2.1366942 0 1.891116
-0 3.2528036 -1.0842022e-19
2.5188673 0 1.9563625
-0 3.0541649 0
2.1349492 -3.6893488e+19 1.8378444
0 3.0703461 3.6893488e+19
2.3407016 -2 1.8143796
1.0842022e-19 3.0543907 1.0842022e-19
2.1352348 1.0842022e-19 1.769872
1.0842022e-19 3.0733528 -3.6893488e+19
2.3438993 -0 1.7367344
1.0842022e-19 3.0526702 -1.0842022e-19
2.1330574 2 1.652617
-2 3.0547023 -1.0842022e-19
1.9861068 0 1.5455915
0 3.0607944 -1.0842022e-19
2.2535479 1.0842022e-19 1.2661111
-2 3.0523632 0
1.9842943 -0 -1.4517214
-3.6893488e+19 3.0638351 1.0842022e-19
2.2560289 2 -1.62084
3.6893488e+19 3.0536301 -2
1.9852759 -1.0842022e-19 -1.6862572
-3.6893488e+19 3.057255 -2
2.2506607 -2 -1.754081
0 3.0534778 -3.6893488e+19
1.9851577 1.0842022e-19 -1.7858779
3.6893488e+19 3.0579967 2
2.2512658 2 -1.8234677
-0 3.0605187 -3.6893488e+19
1.9906137 -0 -1.858982
2 3.0315926 2
2.2094502 2 -1.8696368
-0 3.0165322 3.6893488e+19
1.9565296 0 -1.8802066
-2 3.0214036 3.6893488e+19
2.1928258 -2 -1.8983465
-3.6893488e+19 2.8412623 -1.0842022e-19
1.8822181 3.6893488e+19 -1.8680384
-3.6893488e+19 2.804817 -1.0842022e-19
1.9986718 1.0842022e-19 -1.8600756
-1.0842022e-19 2.7814605 2
2.0493453 1.0842022e-19 -1.8587216
3.6893488e+19 2.7512102 -0
1.908965 -0 -1.8465204
0 2.707067 -1.0842022e-19
1.993055 1.0842022e-19 -1.840561
0 2.6736126 -3.6893488e+19
1.8840302 3.6893488e+19 -1.835555
2 2.6365154 -3.6893488e+19
1.9555377 -0 -1.8291184
0 2.6095212 2
1.8525038 2 -1.8238955
1.0842022e-19 2.5925803 2
1.9321743 -3.6893488e+19 -1.8252794
-1.0842022e-19 2.5652297 2
1.8244764 -1.0842022e-19 -1.8171216
2 2.5337267 -3.6893488e+19
1.9008776 -0 -1.8069284
1.0842022e-19 2.5320222 2
1.8034627 1.0842022e-19 -1.8127581
0 2.5018363 3.6893488e+19
1.8839192 1.0842022e-19 -1.8007443
-2 2.4932103 -1.0842022e-19
1.7810509 2 -1.8030794
-3.6893488e+19 2.4562285 0
1.8676093 3.6893488e+19 -1.7971287
-1.0842022e-19 2.453696 0
1.7685487 -1.0842022e-19 -1.8016125
2 2.4268241 -1.0842022e-19
1.8519727 3.6893488e+19 -1.7981554
-1.0842022e-19 2.3659215 2
1.641772 3.6893488e+19 -1.7929938
3.6893488e+19 2.321465 0
1.6240958 3.6893488e+19 -1.7907988
-0 2.2855079 1.0842022e-19
1.5962335 -1.0842022e-19 -1.7884892
1.0842022e-19 2.2562966 2
