# .PCD v0.7 - Point Cloud Data file format
VERSION 0.7
FIELDS x y z
SIZE 4 4 4
TYPE F F F
COUNT 1 1 1
WIDTH 1710
HEIGHT 1
VIEWPOINT 0 0 0 1 0 0 0
POINTS 1710
DATA ascii
2.798485 -1.0842022e-19 1.9075192
1.0842022e-19 3.2091346 0
2.877492 -1.0842022e-19 1.895454
0 3.1777973 0
2.7995765 0 1.8400545
1.0842022e-19 3.1510906 -1.0842022e-19
2.8297691 -3.6893488e+19 1.7823617
-3.6893488e+19 3.1390471 -1.0842022e-19
2.7724407 2 1.7072016
0 3.1346021 2
2.7364492 -1.0842022e-19 1.6005679
-1.0842022e-19 3.1416018 3.6893488e+19
2.7943418 -2 1.3139621
1.0842022e-19 3.2467856 3.6893488e+19
2.8141701 -3.6893488e+19 -1.5485986
2 3.1441104 -2
2.7962272 -2 -1.6640515
-2 3.1378355 -0
2.7405391 3.6893488e+19 -1.7492301
0 3.1709356 3.6893488e+19
2.81639 0 -1.8129407
0 3.1389623 1.0842022e-19
2.7419641 -1.0842022e-19 -1.8410039
-0 3.1692784 1.0842022e-19
2.8151445 0 -1.8935682
-0 3.1417377 2
2.7454746 -1.0842022e-19 -1.9046124
-3.6893488e+19 3.165993 -3.6893488e+19
2.812675 3.6893488e+19 -1.9420429
2 3.1500626 2
2.7530019 2 -1.9547366
3.6893488e+19 3.0827296 3.6893488e+19
2.7500913 1.0842022e-19 -1.9432837
-3.6893488e+19 3.0812767 -0
2.6690028 -0 -1.9583364
3.6893488e+19 2.8111806 -1.0842022e-19
2.4677887 -0 -1.8775241
2 2.7686164 -2
2.4417028 -1.0842022e-19 -1.8640649
-0 2.7401638 -0
2.3432503 0 -1.8532681
0 2.6967726 -2
2.3673279 0 -1.8508286
2 2.6706085 -0
2.2945423 -2 -1.8458169
-1.0842022e-19 2.6279371 -1.0842022e-19
2.3107328 2 -1.838913
2 2.6088607 -0
2.2513018 -3.6893488e+19 -1.834693
3.6893488e+19 2.5759814 1.0842022e-19
2.2680159 -1.0842022e-19 -1.8292532
2 2.5683296 -2
2.1958375 1.0842022e-19 -1.8299197
-3.6893488e+19 2.542156 -3.6893488e+19
2.2304106 -1.0842022e-19 -1.8257786
-1.0842022e-19 2.5364084 3.6893488e+19
2.1511304 2 -1.8263997
-0 2.5114639 0
2.1799417 -1.0842022e-19 -1.8205585
-1.0842022e-19 2.5074477 2
2.1105695 -2 -1.8213623
3.6893488e+19 2.4754047 -0
2.1408689 0 -1.8172368
2 2.4678247 -1.0842022e-19
2.0776067 -0 -1.8173522
0 2.434592 3.6893488e+19
2.1073134 -2 -1.8139604
3.6893488e+19 2.4285388 1.0842022e-19
2.0500958 -0 -1.8139894
-1.0842022e-19 2.3928781 1.0842022e-19
1.9984585 3.6893488e+19 -1.8139503
0 2.3418558 -1.0842022e-19
1.9661915 0 -1.8097035
0 2.3027461 -0
1.9414583 0 -1.8066076
-3.6893488e+19 2.273385 3.6893488e+19
1.9228904 -2 -1.8053459
1.0842022e-19 2.230402 2
1.9474888 -3.6893488e+19 -1.8032252
1.0842022e-19 2.1905606 0
1.9311104 0 -1.8021513
-0 2.1476598 -2
1.9134742 -1.0842022e-19 -1.7973372
1.0842022e-19 2.1058192 2
1.896274 -2 -1.7903947
1.0842022e-19 3.2868357 2
2.9311917 -2 2.7702165
-1.0842022e-19 3.2501502 -1.0842022e-19
2.8760436 1.0842022e-19 2.6746378
-0 3.28704 -0
2.8630517 2 2.7196524
-0 3.2482805 2
2.8745253 -0 2.6575141
-1.0842022e-19 3.262356 1.0842022e-19
2.8318312 0 2.6633558
-2 3.2625904 -1.0842022e-19
2.8321276 -2 2.6478465
2 3.2870975 0
2.9315853 -2 2.6842301
-1.0842022e-19 3.2754834 2
2.9529948 2 2.6631413
-3.6893488e+19 3.2587368 3.6893488e+19
2.862375 -1.0842022e-19 2.6223795
-3.6893488e+19 3.2292848 1.0842022e-19
2.8940592 3.6893488e+19 2.5945227
1.0842022e-19 3.257334 3.6893488e+19
2.86041 0 2.6047332
3.6893488e+19 3.2554336 0
2.8577485 -2 2.5866399
1.0842022e-19 3.2221479 2
2.8881912 0 2.5602026
-1.0842022e-19 3.2230368 -2
2.888922 2 2.5462127
-1.0842022e-19 3.2561231 -2
2.8587141 0 2.5566113
1.0842022e-19 3.2129374 -2
2.8806183 1.0842022e-19 2.5256517
2 3.2553751 -2
2.8576665 -0 2.5403414
-2 3.2558856 0
2.8583817 -3.6893488e+19 2.5255425
0 3.2540855 -2
2.8558602 2 2.508363
1.0842022e-19 3.158987 3.6893488e+19
2.7586458 3.6893488e+19 2.3995357
3.6893488e+19 3.1557858 -0
2.8050029 -0 2.3915234
-0 3.1596348 -3.6893488e+19
2.7590554 -0 2.375901
-3.6893488e+19 3.155077 2
2.8044703 -3.6893488e+19 2.3664198
3.6893488e+19 3.1601744 -3.6893488e+19
2.7593966 -3.6893488e+19 2.3521335
-2 3.1549003 2
2.8043375 3.6893488e+19 2.3418822
-1.0842022e-19 3.161762 2
2.7604008 2 2.3291798
0 3.1528683 3.6893488e+19
2.80281 3.6893488e+19 2.315949
3.6893488e+19 3.2830486 1.0842022e-19
2.8580034 1.0842022e-19 2.4191685
-3.6893488e+19 3.1556227 -2
2.8048804 -3.6893488e+19 2.2937527
-1.0842022e-19 3.1638429 -3.6893488e+19
2.7617166 0 2.2820539
2 3.1567276 3.6893488e+19
2.8057108 -0 2.2701635
-2 3.1600261 -2
2.7593029 1.0842022e-19 2.2553227
1.0842022e-19 3.1573174 -3.6893488e+19
2.806154 -3.6893488e+19 2.2423048
-1.0842022e-19 3.1637065 1.0842022e-19
2.7616305 1.0842022e-19 2.2165959
-0 3.1537423 2
2.803467 -2 2.1896541
3.6893488e+19 3.1447077 -0
2.8245213 -0 2.1611226
-0 3.1427932 1.0842022e-19
2.775064 -2 2.1276402
-2 3.1468263 -1.0842022e-19
2.8262632 2 2.115325
2 3.1420553 -1.0842022e-19
2.7745471 -1.0842022e-19 2.0804629
2 3.1482344 0
2.8274209 -0 2.0684726
0 3.1438024 0
2.7757707 3.6893488e+19 2.0353022
-1.0842022e-19 3.1495659 2
2.8285158 1.0842022e-19 2.0212593
-0 3.2565544 1.0842022e-19
2.8593183 -3.6893488e+19 2.0610001
-2 3.1525543 -0
2.8309727 -1.0842022e-19 1.9746847
-1.0842022e-19 3.1458855 -2
2.7772293 -2 1.9431212
1.0842022e-19 3.1362541 3.6893488e+19
2.7704847 3.6893488e+19 1.8927426
-3.6893488e+19 3.1518292 3.6893488e+19
2.8303766 3.6893488e+19 1.8772998
-3.6893488e+19 3.1356249 -3.6893488e+19
2.7700441 1.0842022e-19 1.8188545
1.0842022e-19 3.1510906 -1.0842022e-19
2.8297691 -3.6893488e+19 1.7823617
-3.6893488e+19 3.1390471 -1.0842022e-19
2.7724407 2 1.7072016
0 3.1346021 2
2.7364492 -1.0842022e-19 1.6005679
-1.0842022e-19 3.1416018 3.6893488e+19
2.7943418 -2 1.3139621
1.0842022e-19 3.1364517 -2
2.7387886 -2 -1.5100431
2 3.1441104 -2
2.7962272 -2 -1.6640515
-2 3.1378355 -0
2.7405391 3.6893488e+19 -1.7492301
-1.0842022e-19 3.1452248 2
2.797065 0 -1.8014613
0 3.1389623 1.0842022e-19
2.7419641 -1.0842022e-19 -1.8410039
-3.6893488e+19 3.1441555 3.6893488e+19
2.7962613 2 -1.8849657
-0 3.1417377 2
2.7454746 -1.0842022e-19 -1.9046124
-0 3.145787 -0
2.7974875 -0 -1.9327148
-3.6893488e+19 3.0814445 0
2.6692152 0 -1.9196206
3.6893488e+19 3.0827296 3.6893488e+19
2.7500913 1.0842022e-19 -1.9432837
-3.6893488e+19 3.0812767 -0
2.6690028 -0 -1.9583364
3.6893488e+19 2.8111806 -1.0842022e-19
2.4677887 -0 -1.8775241
2 2.7686164 -2
2.4417028 -1.0842022e-19 -1.8640649
-0 2.7401638 -0
2.3432503 0 -1.8532681
0 2.6967726 -2
2.3673279 0 -1.8508286
2 2.6706085 -0
2.2945423 -2 -1.8458169
-1.0842022e-19 2.6279371 -1.0842022e-19
2.3107328 2 -1.838913
2 2.6088607 -0
2.2513018 -3.6893488e+19 -1.834693
3.6893488e+19 2.5759814 1.0842022e-19
2.2680159 -1.0842022e-19 -1.8292532
2 2.5683296 -2
2.1958375 1.0842022e-19 -1.8299197
-3.6893488e+19 2.542156 -3.6893488e+19
2.2304106 -1.0842022e-19 -1.8257786
-1.0842022e-19 2.5364084 3.6893488e+19
2.1511304 2 -1.8263997
-0 2.5114639 0
2.1799417 -1.0842022e-19 -1.8205585
-1.0842022e-19 2.5074477 2
2.1105695 -2 -1.8213623
3.6893488e+19 2.4754047 -0
2.1408689 0 -1.8172368
2 2.4678247 -1.0842022e-19
2.0776067 -0 -1.8173522
0 2.434592 3.6893488e+19
2.1073134 -2 -1.8139604
3.6893488e+19 2.4285388 1.0842022e-19
2.0500958 -0 -1.8139894
-1.0842022e-19 2.3928781 1.0842022e-19
1.9984585 3.6893488e+19 -1.8139503
0 2.3418558 -1.0842022e-19
1.9661915 0 -1.8097035
0 2.3027461 -0
1.9414583 0 -1.8066076
-3.6893488e+19 2.273385 3.6893488e+19
1.9228904 -2 -1.8053459
1.0842022e-19 2.230402 2
1.9474888 -3.6893488e+19 -1.8032252
1.0842022e-19 2.1905606 0
1.9311104 0 -1.8021513
-0 2.1476598 -2
1.9134742 -1.0842022e-19 -1.7973372
1.0842022e-19 2.1058192 2
1.896274 -2 -1.7903947
2 3.2871025 -3.6893488e+19
2.9281666 3.6893488e+19 2.7702031
-1.0842022e-19 3.2482347 -0
2.8715181 -1.0842022e-19 2.6724703
-0 3.2487688 -2
2.8719163 -0 2.6575141
1.0842022e-19 3.2870328 2
2.9280629 1.0842022e-19 2.6837075
-3.6893488e+19 3.2738829 -3.6893488e+19
2.9470155 0 2.6603012
2 3.2593079 2
2.8601305 1.0842022e-19 2.6228609
1.0842022e-19 3.2733512 -3.6893488e+19
2.9461474 0 2.6425633
-0 3.2558641 -1.0842022e-19
2.8553479 3.6893488e+19 2.6023855
-2 3.2320859 1.0842022e-19
2.8934162 -1.0842022e-19 2.5812638
-1.0842022e-19 3.2556958 2
2.8551142 -2 2.5866783
-3.6893488e+19 3.2498009 -3.6893488e+19
2.9078727 -2 2.5780189
1.0842022e-19 3.2564487 3.6893488e+19
2.8561597 1.0842022e-19 2.5721793
0 3.247426 2
2.9059346 -2 2.5611513
-1.0842022e-19 3.2577307 -2
2.8579402 0 2.5582545
-2 3.2452788 3.6893488e+19
2.9041824 2 2.5445933
3.6893488e+19 3.2556667 -0
2.8550737 3.6893488e+19 2.5404079
3.6893488e+19 3.2196052 1.0842022e-19
2.8832309 0 2.5149267
2 3.2561486 0
2.8557429 -3.6893488e+19 2.525574
-1.0842022e-19 3.2548742 3.6893488e+19
2.8539732 2 2.5089288
-0 3.2635176 -0
2.8302689 -2 2.507216
-1.0842022e-19 3.237391 1.0842022e-19
2.8634324 -0 2.4698
-3.6893488e+19 3.2621391 3.6893488e+19
2.8285413 1.0842022e-19 2.4807076
-3.6893488e+19 3.2511899 -1.0842022e-19
2.8746092 1.0842022e-19 2.4539924
2 3.2633562 -1.0842022e-19
2.8300664 -2 2.4518089
2 3.2510343 -2
2.8743768 3.6893488e+19 2.4235122
2 3.2822101 1.0842022e-19
2.8536963 -2 2.4508495
-2 3.2575138 -1.0842022e-19
2.8840401 1.0842022e-19 2.4035146
1.0842022e-19 3.2826581 -3.6893488e+19
2.8542576 -1.0842022e-19 2.4182453
2 3.2505825 -2
2.873703 -3.6893488e+19 2.3625891
3.6893488e+19 3.2640553 -1.0842022e-19
2.8309426 -3.6893488e+19 2.3596363
0 3.2502282 2
2.8731747 1.0842022e-19 2.3320963
-0 3.263217 1.0842022e-19
2.8298922 -3.6893488e+19 2.3275397
-3.6893488e+19 3.2503428 -3.6893488e+19
2.8733459 1.0842022e-19 2.3022814
-0 3.2637484 -1.0842022e-19
2.8305581 -3.6893488e+19 2.2972217
-3.6893488e+19 3.2515852 2
2.8751988 -1.0842022e-19 2.273695
3.6893488e+19 3.1471815 -3.6893488e+19
2.8241279 -0 2.1632562
3.6893488e+19 3.2557151 -0
2.8551409 2 2.2412524
-0 3.2232409 -0
2.8861978 -3.6893488e+19 2.1852067
-0 3.2534955 -2
2.8520582 2 2.1769526
2 3.2237518 1.0842022e-19
2.8866148 -1.0842022e-19 2.128459
2 3.2532527 -0
2.851721 2 2.1166189
-2 3.224818 0
2.887485 -0 2.0720015
-2 3.2566557 -2
2.8564472 -0 2.0608394
2 3.2262089 -1.0842022e-19
2.8886199 -0 2.0155101
-3.6893488e+19 3.1378367 3.6893488e+19
2.7693167 0 1.9390224
3.6893488e+19 3.2108586 -3.6893488e+19
2.8760929 3.6893488e+19 1.9513825
-1.0842022e-19 3.1646745 -3.6893488e+19
2.7879529 -0 1.9031059
3.6893488e+19 3.21035 1.0842022e-19
2.8756781 -1.0842022e-19 1.8956829
-1.0842022e-19 3.1791322 -2
2.7979925 -2 1.8405288
-3.6893488e+19 3.1615021 -1.0842022e-19
2.8358147 -1.0842022e-19 1.7862737
-3.6893488e+19 3.140583 2
2.7712238 -3.6893488e+19 1.7078298
3.6893488e+19 3.1342628 -0
2.7315998 -0 1.6001835
3.6893488e+19 3.1395845 1.0842022e-19
2.7905011 1.0842022e-19 1.3128047
2 3.2506402 -0
2.8141294 -3.6893488e+19 -1.5500251
1.0842022e-19 3.1444967 -3.6893488e+19
2.7941637 -2 -1.6640515
2 3.1394672 -2
2.7381225 -2 -1.7500362
-3.6893488e+19 3.1438553 -1.0842022e-19
2.7936857 -2 -1.8006777
-2 3.1395211 -1.0842022e-19
2.7381902 -3.6893488e+19 -1.8411362
-1.0842022e-19 3.1459763 0
2.7952673 -2 -1.8854563
-1.0842022e-19 3.1416728 -1.0842022e-19
2.7408869 3.6893488e+19 -1.9044596
-1.0842022e-19 3.1482823 1.0842022e-19
2.7969868 -2 -1.9336867
3.6893488e+19 3.1431193 1.0842022e-19
2.7426999 1.0842022e-19 -1.9510177
1.0842022e-19 3.076998 2
2.7376645 1.0842022e-19 -1.9397682
-1.0842022e-19 3.0816391 -0
2.6656461 -2 -1.9583925
1.0842022e-19 2.8097308 -0
2.4619131 -2 -1.8768057
0 2.767113 -3.6893488e+19
2.4359658 -2 -1.8624722
2 2.7413187 0
2.3411753 1.0842022e-19 -1.8535973
-2 2.6929765 3.6893488e+19
2.3615 -3.6893488e+19 -1.84867
1.0842022e-19 2.6708746 -1.0842022e-19
2.2922583 0 -1.8457551
3.6893488e+19 2.6283424 -0
2.308754 2 -1.838913
-2 2.6109552 -1.0842022e-19
2.2506499 -1.0842022e-19 -1.8357246
-0 2.5764463 1.0842022e-19
2.2664032 -1.0842022e-19 -1.8293254
-3.6893488e+19 2.56862 -2
2.1925042 1.0842022e-19 -1.8299197
2 2.5417771 -0
2.2262213 1.0842022e-19 -1.8253034
-3.6893488e+19 2.5364344 2
2.1478045 1.0842022e-19 -1.8262343
-3.6893488e+19 2.510591 0
2.1753216 -2 -1.819697
-0 2.5069771 -0
2.1068935 -3.6893488e+19 -1.8208245
0 2.4775279 -3.6893488e+19
2.1396961 3.6893488e+19 -1.8178884
1.0842022e-19 2.4684868 -2
2.0753205 -1.0842022e-19 -1.8174487
-0 2.4357488 0
2.1056018 2 -1.8142606
-0 2.4293997 -2
2.0481782 -3.6893488e+19 -1.8141963
2 3.2871025 -3.6893488e+19
2.9281666 3.6893488e+19 2.7702031
-1.0842022e-19 3.2482347 -0
2.8715181 -1.0842022e-19 2.6724703
-0 3.2487688 -2
2.8719163 -0 2.6575141
1.0842022e-19 3.2870328 2
2.9280629 1.0842022e-19 2.6837075
2 3.2587306 2
2.9222848 -3.6893488e+19 2.6376014
2 3.2593079 2
2.8601305 1.0842022e-19 2.6228609
0 3.230541 3.6893488e+19
2.8921552 3.6893488e+19 2.5950556
-0 3.2558641 -1.0842022e-19
2.8553479 3.6893488e+19 2.6023855
-2 3.2320859 1.0842022e-19
2.8934162 -1.0842022e-19 2.5812638
-1.0842022e-19 3.2556958 2
2.8551142 -2 2.5866783
-3.6893488e+19 3.2498009 -3.6893488e+19
2.9078727 -2 2.5780189
1.0842022e-19 3.2564487 3.6893488e+19
2.8561597 1.0842022e-19 2.5721793
1.0842022e-19 3.2233722 -3.6893488e+19
2.8863049 -0 2.5461051
-1.0842022e-19 3.2577307 -2
2.8579402 0 2.5582545
2 3.213491 0
2.8782413 0 2.5256858
3.6893488e+19 3.2556667 -0
2.8550737 3.6893488e+19 2.5404079
3.6893488e+19 3.2196052 1.0842022e-19
2.8832309 0 2.5149267
2 3.2561486 0
2.8557429 -3.6893488e+19 2.525574
-1.0842022e-19 3.2548742 3.6893488e+19
2.8539732 2 2.5089288
-3.6893488e+19 3.1603606 3.6893488e+19
2.7571542 -2 2.4005475
-1.0842022e-19 3.237391 1.0842022e-19
2.8634324 -0 2.4698
-2 3.1599426 -2
2.7568922 -0 2.3758738
-3.6893488e+19 3.2511899 -1.0842022e-19
2.8746092 1.0842022e-19 2.4539924
-2 3.1600969 2
2.756989 -1.0842022e-19 2.3517773
2 3.2510343 -2
2.8743768 3.6893488e+19 2.4235122
0 3.2631814 -2
2.8298473 2 2.42045
-0 3.2501075 3.6893488e+19
2.8729949 -2 2.3919091
-1.0842022e-19 3.2656221 -2
2.8329065 0 2.3930378
-2 3.1570122 -0
2.8034964 1.0842022e-19 2.2944705
-0 3.1624303 1.0842022e-19
2.7584512 1.0842022e-19 2.2808597
-2 3.1577098 3.6893488e+19
2.8040166 -0 2.270551
0 3.1594422 -3.6893488e+19
2.7565784 2 2.2547491
-0 3.1565189 -0
2.8031285 -3.6893488e+19 2.2408588
-0 3.1637201 3.6893488e+19
2.7592595 2 2.2162271
-3.6893488e+19 3.1534657 -2
2.8008518 0 2.1889231
3.6893488e+19 3.1471815 -3.6893488e+19
2.8241279 -0 2.1632562
-1.0842022e-19 3.1570928 -2
2.7826881 1.0842022e-19 2.1410315
-1.0842022e-19 3.1468184 2
2.8238318 -0 2.1149263
-1.0842022e-19 3.1442411 3.6893488e+19
2.7737639 -1.0842022e-19 2.0820024
-1.0842022e-19 3.146956 1.0842022e-19
2.8239441 -1.0842022e-19 2.0671103
-0 3.1431589 3.6893488e+19
2.7730124 -3.6893488e+19 2.0345762
-0 3.149127 2
2.8257158 0 2.0206711
0 3.1358025 1.0842022e-19
2.767904 0 1.9836254
-2 3.1532462 -1.0842022e-19
2.8290772 -3.6893488e+19 1.9748298
-3.6893488e+19 3.1378367 3.6893488e+19
2.7693167 0 1.9390224
0 3.1510422 2
2.8272786 -2 1.9252443
-3.6893488e+19 3.1385839 -1.0842022e-19
2.7698355 -3.6893488e+19 1.8934727
1.0842022e-19 3.1419904 3.6893488e+19
2.8198917 3.6893488e+19 1.8730996
2 3.1370397 -1.0842022e-19
2.7687631 1.0842022e-19 1.8193882
-3.6893488e+19 3.1615021 -1.0842022e-19
2.8358147 -1.0842022e-19 1.7862737
-3.6893488e+19 3.140583 2
2.7712238 -3.6893488e+19 1.7078298
3.6893488e+19 3.1342628 -0
2.7315998 -0 1.6001835
3.6893488e+19 3.1395845 1.0842022e-19
2.7905011 1.0842022e-19 1.3128047
3.6893488e+19 3.1358457 1.0842022e-19
2.7335837 2 -1.5097204
1.0842022e-19 3.1444967 -3.6893488e+19
2.7941637 -2 -1.6640515
2 3.1394672 -2
2.7381225 -2 -1.7500362
-3.6893488e+19 3.1438553 -1.0842022e-19
2.7936857 -2 -1.8006777
-2 3.1395211 -1.0842022e-19
2.7381902 -3.6893488e+19 -1.8411362
-1.0842022e-19 3.1459763 0
2.7952673 -2 -1.8854563
1.0842022e-19 3.1004426 -3.6893488e+19
2.6892126 -1.0842022e-19 -1.8882
-1.0842022e-19 3.1482823 1.0842022e-19
2.7969868 -2 -1.9336867
2 3.0815687 2
2.6655579 -2 -1.9195443
1.0842022e-19 3.076998 2
2.7376645 1.0842022e-19 -1.9397682
-1.0842022e-19 3.0816391 -0
2.6656461 -2 -1.9583925
1.0842022e-19 2.8097308 -0
2.4619131 -2 -1.8768057
0 2.767113 -3.6893488e+19
2.4359658 -2 -1.8624722
2 2.7413187 0
2.3411753 1.0842022e-19 -1.8535973
-2 2.6929765 3.6893488e+19
2.3615 -3.6893488e+19 -1.84867
1.0842022e-19 2.6708746 -1.0842022e-19
2.2922583 0 -1.8457551
3.6893488e+19 2.6283424 -0
2.308754 2 -1.838913
-2 2.6109552 -1.0842022e-19
2.2506499 -1.0842022e-19 -1.8357246
-0 2.5764463 1.0842022e-19
2.2664032 -1.0842022e-19 -1.8293254
-3.6893488e+19 2.56862 -2
2.1925042 1.0842022e-19 -1.8299197
2 2.5417771 -0
2.2262213 1.0842022e-19 -1.8253034
-3.6893488e+19 2.5364344 2
2.1478045 1.0842022e-19 -1.8262343
-3.6893488e+19 2.510591 0
2.1753216 -2 -1.819697
-0 2.5069771 -0
2.1068935 -3.6893488e+19 -1.8208245
0 2.4775279 -3.6893488e+19
2.1396961 3.6893488e+19 -1.8178884
1.0842022e-19 2.4684868 -2
2.0753205 -1.0842022e-19 -1.8174487
-0 2.4357488 0
2.1056018 2 -1.8142606
-0 2.4293997 -2
2.0481782 -3.6893488e+19 -1.8141963
-1.0842022e-19 3.2867661 2
2.9242499 -0 2.7696245
-2 3.2854226 -2
2.9222622 -3.6893488e+19 2.7594757
-3.6893488e+19 3.2885239 3.6893488e+19
2.9268506 -1.0842022e-19 2.7533398
-3.6893488e+19 3.2833471 -1.0842022e-19
2.9191918 2 2.695122
0 3.2740319 -0
2.9439163 2 2.6600876
1.0842022e-19 3.2600961 -0
2.8581774 1.0842022e-19 2.623656
1.0842022e-19 3.2736707 -0
2.9433312 -3.6893488e+19 2.6426041
2 3.2560375 2
2.8525884 -2 2.6023052
2 3.2560441 -3.6893488e+19
2.8525975 2 2.586832
3.6893488e+19 3.2501521 2
2.9052327 1.0842022e-19 2.5780003
0 3.2568562 0
2.8537159 2 2.5723994
-1.0842022e-19 3.2473533 0
2.9028425 0 2.5607753
0 3.2579641 2
2.8552415 0 2.5582545
-2 3.2454042 -1.0842022e-19
2.9012637 1.0842022e-19 2.5443547
-2 3.257333 2
2.8543727 -3.6893488e+19 2.5420363
-3.6893488e+19 3.244288 3.6893488e+19
2.9003596 3.6893488e+19 2.5285549
-1.0842022e-19 3.2563803 1.0842022e-19
2.8530607 -3.6893488e+19 2.525574
-1.0842022e-19 3.255985 -3.6893488e+19
2.8525162 1.0842022e-19 2.5098221
-0 3.2630954 -1.0842022e-19
2.8267181 3.6893488e+19 2.5065944
0 3.2390008 -2
2.8617206 2 2.4708939
-3.6893488e+19 3.2631245 -0
2.8267543 1.0842022e-19 2.482121
3.6893488e+19 3.2525272 2
2.873596 -2 2.4559658
-3.6893488e+19 3.2641797 -3.6893488e+19
2.8280647 -2 2.4528522
-0 3.2512491 1.0842022e-19
2.8717051 1.0842022e-19 2.4234631
1.0842022e-19 3.2822177 -1.0842022e-19
2.8504646 0 2.4504941
-3.6893488e+19 3.2506716 -0
2.8708508 -2 2.3924117
-3.6893488e+19 3.2831414 3.6893488e+19
2.8516119 -1.0842022e-19 2.4186189
1.0842022e-19 3.250242 -0
2.8702149 3.6893488e+19 2.3617449
3.6893488e+19 3.2653863 1.0842022e-19
2.8295631 0 2.3611546
-2 3.250968 2
2.8712893 -0 2.3327549
2 3.2638783 -0
2.8276904 0 2.328095
-1.0842022e-19 3.2560389 0
2.8787913 1.0842022e-19 2.3088589
-3.6893488e+19 3.1621819 0
2.7559288 -0 2.2141147
2 3.2513034 1.0842022e-19
2.8717854 -0 2.2731228
-0 3.2411361 2
2.8978066 3.6893488e+19 2.255235
-2 3.2564332 -3.6893488e+19
2.8531334 -2 2.2421865
-0 3.2393923 1.0842022e-19
2.8963943 -0 2.1995816
-1.0842022e-19 3.2542708 -1.0842022e-19
2.8501556 -0 2.1778712
1.0842022e-19 3.2363214 3.6893488e+19
2.8939068 -1.0842022e-19 2.1380873
1.0842022e-19 3.2537329 1.0842022e-19
2.8494148 -0 2.1169817
2 3.2317777 0
2.8902266 2 2.0763738
-3.6893488e+19 3.2591469 3.6893488e+19
2.8568707 1.0842022e-19 2.0635729
-0 3.1539938 -1.0842022e-19
2.8272238 -3.6893488e+19 1.9750072
-0 3.1375971 -1.0842022e-19
2.7668793 1.0842022e-19 1.9387348
-0 3.2090037 -3.6893488e+19
2.8717802 3.6893488e+19 1.9503587
-2 3.1623025 -0
2.7838902 2 1.9020925
0 3.2102609 3.6893488e+19
2.8727984 -1.0842022e-19 1.8954998
0 3.165103 -1.0842022e-19
2.7858183 -0 1.8332942
1.0842022e-19 3.1684859 -1.0842022e-19
2.8389618 2 1.7888364
-2 3.1488552 0
2.7746313 3.6893488e+19 1.7120396
1.0842022e-19 3.1345468 1.0842022e-19
2.7275393 -3.6893488e+19 1.600166
2 3.1823742 1.0842022e-19
2.8198333 -2 1.3332295
-1.0842022e-19 3.2500389 -2
2.8105042 2 -1.5494629
0 3.1422131 -1.0842022e-19
2.7901254 -2 -1.6629435
-3.6893488e+19 3.1394269 0
2.7335999 0 -1.7498429
-2 3.1411903 -2
2.7893689 3.6893488e+19 -1.7993195
0 3.1402869 1.0842022e-19
2.7346675 -1.0842022e-19 -1.8413844
1.0842022e-19 3.1467423 0
2.7934759 -2 -1.8855865
-2 3.1432159 0
2.7383051 0 -1.9049417
2 3.1490505 2
2.7951832 0 -1.9338623
-3.6893488e+19 3.1412923 1.0842022e-19
2.7359164 -1.0842022e-19 -1.9499203
-1.0842022e-19 3.0738592 -1.0842022e-19
2.7291265 3.6893488e+19 -1.9377642
1.0842022e-19 3.0811942 -1.0842022e-19
2.6612847 -3.6893488e+19 -1.9579431
3.6893488e+19 2.8092706 -0
2.4575436 1.0842022e-19 -1.8764944
-0 2.7667029 2
2.432044 -2 -1.8618556
2 2.7428255 1.0842022e-19
2.3393342 -2 -1.8540909
1.0842022e-19 2.6954143 -2
2.3607731 2 -1.8496618
1.0842022e-19 2.6744406 -2
2.2922478 -1.0842022e-19 -1.8474241
0 2.6289763 -3.6893488e+19
2.3069601 -1.0842022e-19 -1.8390435
1.0842022e-19 2.6083343 -2
2.2434609 -0 -1.8340052
1.0842022e-19 2.5777183 -0
2.2654426 3.6893488e+19 -1.8299035
-0 2.5689085 1.0842022e-19
2.189168 1.0842022e-19 -1.8299197
0 2.5448596 -1.0842022e-19
2.2276561 -3.6893488e+19 -1.8272042
-2 2.5349269 1.0842022e-19
2.1423721 0 -1.8249942
1.0842022e-19 2.5100605 1.0842022e-19
2.1712837 0 -1.8190941
-0 2.5074451 0
2.104527 3.6893488e+19 -1.8210038
2 2.479651 0
2.138504 -2 -1.81854
-1.0842022e-19 2.4689107 -3.6893488e+19
2.0728676 -1.0842022e-19 -1.8174487
-1.0842022e-19 2.4362125 2
2.1033201 2 -1.8142606
1.0842022e-19 2.4307289 2
2.0465777 -3.6893488e+19 -1.8146104
-0 2.3944716 2
1.9949322 1.0842022e-19 -1.8144059
-2 2.3421798 -2
1.9624635 -0 -1.8095757
3.6893488e+19 2.3022974 3.6893488e+19
1.9377 2 -1.8060414
3.6893488e+19 2.2719469 3.6893488e+19
1.9188551 2 -1.8041033
2 2.2296019 2
1.9442321 1.0842022e-19 -1.8025489
3.6893488e+19 2.1933248 3.6893488e+19
1.9295404 3.6893488e+19 -1.8028826
3.6893488e+19 2.1462379 3.6893488e+19
1.9104708 -0 -1.7963547
-1.0842022e-19 2.1092982 -1.0842022e-19
1.8955108 3.6893488e+19 -1.7916557
-1.0842022e-19 3.2867661 2
2.9242499 -0 2.7696245
-2 3.2854226 -2
2.9222622 -3.6893488e+19 2.7594757
-3.6893488e+19 3.2885239 3.6893488e+19
2.9268506 -1.0842022e-19 2.7533398
-3.6893488e+19 3.2833471 -1.0842022e-19
2.9191918 2 2.695122
0 3.2740319 -0
2.9439163 2 2.6600876
1.0842022e-19 3.2600961 -0
2.8581774 1.0842022e-19 2.623656
1.0842022e-19 3.2736707 -0
2.9433312 -3.6893488e+19 2.6426041
2 3.2560375 2
2.8525884 -2 2.6023052
2 3.2560441 -3.6893488e+19
2.8525975 2 2.586832
3.6893488e+19 3.2501521 2
2.9052327 1.0842022e-19 2.5780003
0 3.2568562 0
2.8537159 2 2.5723994
1.0842022e-19 3.2238474 -1.0842022e-19
2.8838031 3.6893488e+19 2.5460873
0 3.2579641 2
2.8552415 0 2.5582545
1.0842022e-19 3.2147877 -0
2.8764651 2 2.5261631
-2 3.257333 2
2.8543727 -3.6893488e+19 2.5420363
-0 3.2260215 0
2.8855643 -3.6893488e+19 2.5182607
-1.0842022e-19 3.2563803 1.0842022e-19
2.8530607 -3.6893488e+19 2.525574
-1.0842022e-19 3.255985 -3.6893488e+19
2.8525162 1.0842022e-19 2.5098221
-0 3.2630954 -1.0842022e-19
2.8267181 3.6893488e+19 2.5065944
0 3.2390008 -2
2.8617206 2 2.4708939
-3.6893488e+19 3.2631245 -0
2.8267543 1.0842022e-19 2.482121
-2 3.2305713 -3.6893488e+19
2.8554852 -0 2.4338622
-3.6893488e+19 3.2641797 -3.6893488e+19
2.8280647 -2 2.4528522
1.0842022e-19 3.2352312 1.0842022e-19
2.8589323 -0 2.4089117
-0 3.263411 -3.6893488e+19
2.8271101 -2 2.4204736
3.6893488e+19 3.1553478 -0
2.7998414 -3.6893488e+19 2.3172739
0 3.2666864 3.6893488e+19
2.8311775 0 2.3942904
3.6893488e+19 3.157408 2
2.8013654 1.0842022e-19 2.2944705
3.6893488e+19 3.2653863 1.0842022e-19
2.8295631 0 2.3611546
-1.0842022e-19 3.1546581 -2
2.7993312 -2 2.268265
1.0842022e-19 3.1606693 3.6893488e+19
2.7549894 -0 2.2553041
-2 3.1563878 3.6893488e+19
2.8006108 3.6893488e+19 2.2402241
-3.6893488e+19 3.1621819 0
2.7559288 -0 2.2141147
1.0842022e-19 3.1546772 -0
2.7993453 3.6893488e+19 2.1898131
1.0842022e-19 3.1497438 -1.0842022e-19
2.8237813 -0 2.1654799
-3.6893488e+19 3.1582577 3.6893488e+19
2.7811053 2 2.1417959
0 3.1470673 -3.6893488e+19
2.8216133 -3.6893488e+19 2.1147668
0 3.140614 1.0842022e-19
2.7689567 1.0842022e-19 2.0786505
0 3.1501563 -3.6893488e+19
2.8241153 -2 2.0693269
-2 3.1419206 -3.6893488e+19
2.7698562 -1.0842022e-19 2.0334234
3.6893488e+19 3.1500728 -2
2.8240478 2 2.021024
-3.6893488e+19 3.1365058 3.6893488e+19
2.7661281 -0 1.9838398
-0 3.1539938 -1.0842022e-19
2.8272238 -3.6893488e+19 1.9750072
-0 3.1375971 -1.0842022e-19
2.7668793 1.0842022e-19 1.9387348
3.6893488e+19 3.1532931 0
2.8266563 3.6893488e+19 1.9260406
1.0842022e-19 3.1364248 -2
2.766072 -3.6893488e+19 1.8925464
0 3.2102609 3.6893488e+19
2.8727984 -1.0842022e-19 1.8954998
-0 3.1388671 -0
2.7677538 3.6893488e+19 1.8201294
1.0842022e-19 3.1684859 -1.0842022e-19
2.8389618 2 1.7888364
-2 3.1488552 0
2.7746313 3.6893488e+19 1.7120396
1.0842022e-19 3.1345468 1.0842022e-19
2.7275393 -3.6893488e+19 1.600166
3.6893488e+19 3.1384392 -3.6893488e+19
2.7873337 -3.6893488e+19 1.3120706
-0 3.1346385 -2
2.7276533 -2 -1.5091894
0 3.1422131 -1.0842022e-19
2.7901254 -2 -1.6629435
-3.6893488e+19 3.1394269 0
2.7335999 0 -1.7498429
-2 3.1411903 -2
2.7893689 3.6893488e+19 -1.7993195
0 3.1402869 1.0842022e-19
2.7346675 -1.0842022e-19 -1.8413844
1.0842022e-19 3.1467423 0
2.7934759 -2 -1.8855865
-3.6893488e+19 3.0979836 -2
2.6821344 3.6893488e+19 -1.8871185
2 3.1490505 2
2.7951832 0 -1.9338623
1.0842022e-19 3.0911765 -0
2.673681 -2 -1.9243149
-1.0842022e-19 3.0738592 -1.0842022e-19
2.7291265 3.6893488e+19 -1.9377642
1.0842022e-19 3.0811942 -1.0842022e-19
2.6612847 -3.6893488e+19 -1.9579431
3.6893488e+19 2.8092706 -0
2.4575436 1.0842022e-19 -1.8764944
-0 2.7667029 2
2.432044 -2 -1.8618556
2 2.7428255 1.0842022e-19
2.3393342 -2 -1.8540909
1.0842022e-19 2.6954143 -2
2.3607731 2 -1.8496618
1.0842022e-19 2.6744406 -2
2.2922478 -1.0842022e-19 -1.8474241
0 2.6289763 -3.6893488e+19
2.3069601 -1.0842022e-19 -1.8390435
1.0842022e-19 2.6083343 -2
2.2434609 -0 -1.8340052
1.0842022e-19 2.5777183 -0
2.2654426 3.6893488e+19 -1.8299035
-0 2.5689085 1.0842022e-19
2.189168 1.0842022e-19 -1.8299197
0 2.5448596 -1.0842022e-19
2.2276561 -3.6893488e+19 -1.8272042
-2 2.5349269 1.0842022e-19
2.1423721 0 -1.8249942
1.0842022e-19 2.5100605 1.0842022e-19
2.1712837 0 -1.8190941
-0 2.5074451 0
2.104527 3.6893488e+19 -1.8210038
2 2.479651 0
2.138504 -2 -1.81854
-1.0842022e-19 2.4689107 -3.6893488e+19
2.0728676 -1.0842022e-19 -1.8174487
-1.0842022e-19 2.4362125 2
2.1033201 2 -1.8142606
1.0842022e-19 2.4307289 2
2.0465777 -3.6893488e+19 -1.8146104
-0 2.3944716 2
1.9949322 1.0842022e-19 -1.8144059
-2 2.3421798 -2
1.9624635 -0 -1.8095757
3.6893488e+19 2.3022974 3.6893488e+19
1.9377 2 -1.8060414
3.6893488e+19 2.2719469 3.6893488e+19
1.9188551 2 -1.8041033
2 2.2296019 2
1.9442321 1.0842022e-19 -1.8025489
3.6893488e+19 2.1933248 3.6893488e+19
1.9295404 3.6893488e+19 -1.8028826
3.6893488e+19 2.1462379 3.6893488e+19
1.9104708 -0 -1.7963547
-1.0842022e-19 2.1092982 -1.0842022e-19
1.8955108 3.6893488e+19 -1.7916557
1.0842022e-19 3.2871287 1.0842022e-19
2.9213731 1.0842022e-19 2.7697053
-3.6893488e+19 3.2847509 3.6893488e+19
2.9178839 -3.6893488e+19 2.7586157
0 3.2896357 2
2.9250522 -1.0842022e-19 2.7540708
-3.6893488e+19 3.2835338 -2
2.9160976 3.6893488e+19 2.6949861
-3.6893488e+19 3.2738497 3.6893488e+19
2.9402888 -1.0842022e-19 2.6593828
-0 3.2605481 -2
2.8557525 -2 2.6239698
-3.6893488e+19 3.2735591 -1.0842022e-19
2.9398215 -3.6893488e+19 2.6420302
-3.6893488e+19 3.2575953 -3.6893488e+19
2.8517208 2 2.6041312
0 3.2563763 -0
2.8500562 1.0842022e-19 2.5869665
-0 3.250531 -3.6893488e+19
2.9027972 0 2.5781505
3.6893488e+19 3.2585201 -0
2.8529835 2 2.5741971
-3.6893488e+19 3.2480221 2
2.9003537 -2 2.5608647
-3.6893488e+19 3.2591472 2
2.8538399 -2 2.5593905
1.0842022e-19 3.2458415 2
2.8986006 -0 2.5443034
2 3.2454715 -2
2.898303 -2 2.5289271
2 3.2560678 -3.6893488e+19
2.8496349 2 2.5249913
3.6893488e+19 3.2445292 -3.6893488e+19
2.8975456 2 2.5132935
-2 3.2823999 -2
2.8474529 1.0842022e-19 2.5251994
-1.0842022e-19 3.2509456 3.6893488e+19
2.868273 2 2.4828415
-0 3.2649853 -1.0842022e-19
2.8260267 3.6893488e+19 2.4851379
-0 3.2526541 -2
2.8707802 -3.6893488e+19 2.4557552
0 3.2648096 3.6893488e+19
2.8258104 2 2.4535649
-3.6893488e+19 3.2389104 0
2.8587482 -3.6893488e+19 2.4116154
-0 3.2811079 2
2.8458633 -2 2.4483597
2 3.2518046 -0
2.8695335 -3.6893488e+19 2.3938053
-0 3.2910023 0
2.858037 2 2.4298933
-3.6893488e+19 3.2507463 -3.6893488e+19
2.8679805 1.0842022e-19 2.3621249
-1.0842022e-19 3.2918589 -3.6893488e+19
2.8590908 -2 2.3968589
2 3.2555976 -1.0842022e-19
2.8750999 3.6893488e+19 2.3385665
2 3.1569803 -2
2.7503655 -0 2.2528062
-3.6893488e+19 3.2553639 2
2.8747573 -0 2.3077478
-0 3.5475552 -0
3.1160994 -1.0842022e-19 2.5847747
-0 3.250843 2
2.8681226 3.6893488e+19 2.2723598
2 3.2399762 0
2.8938856 1.0842022e-19 2.2543635
3.6893488e+19 3.2630856 -1.0842022e-19
2.8592172 -0 2.2522509
-2 3.2391274 -0
2.8932033 -0 2.1988642
3.6893488e+19 3.2597716 -0
2.8546922 2 2.1867356
-2 3.2356474 0
2.8904059 0 2.1371408
-1.0842022e-19 3.2550833 -2
2.8482909 -2 2.1186042
-2 3.2237973 3.6893488e+19
2.8808796 0 2.0706291
1.0842022e-19 3.1390696 1.0842022e-19
2.7656178 3.6893488e+19 1.9851797
2 3.1532614 -2
2.8241765 -1.0842022e-19 1.9743623
3.6893488e+19 3.2710412 3.6893488e+19
2.8700798 1.0842022e-19 2.0137224
-0 3.2084739 -1.0842022e-19
2.8685613 3.6893488e+19 1.9499164
0 3.1773677 0
2.791764 2 1.9075084
1.0842022e-19 3.2103121 2
2.870039 -1.0842022e-19 1.8953625
2 3.1768012 0
2.7913773 -0 1.8389722
2 3.1665504 -3.6893488e+19
2.8348594 -1.0842022e-19 1.7879065
-1.0842022e-19 3.1453094 1.0842022e-19
2.7698779 1.0842022e-19 1.7099662
-1.0842022e-19 3.1384718 3.6893488e+19
2.7279594 -0 1.6022805
-2 3.1718187 -2
2.8095181 0 1.3279505
-0 3.137399 -1.0842022e-19
2.7266393 -2 -1.5100431
-2 3.1439114 3.6893488e+19
2.7890406 2 -1.6634915
1.0842022e-19 3.1389656 -2
2.7285666 1.0842022e-19 -1.7493451
2 3.1430345 2
2.7883971 0 -1.7999725
2 3.141618 -1.0842022e-19
2.7318301 3.6893488e+19 -1.841947
-1.0842022e-19 3.141175 1.0842022e-19
2.7312853 -2 -1.9040128
2 3.1486728 1.0842022e-19
2.7925344 -2 -1.9335113
-1.0842022e-19 3.097513 3.6893488e+19
2.6775653 0 -1.9274089
-1.0842022e-19 3.0758429 -2
2.7281878 -3.6893488e+19 -1.9387321
-0 3.0807755 -0
2.6569722 1.0842022e-19 -1.9575125
-0 2.8098619 -2
2.454735 -1.0842022e-19 -1.8766141
1.0842022e-19 2.7669268 3.6893488e+19
2.429158 -2 -1.8618042
0 2.7445672 3.6893488e+19
2.337641 0 -1.8546945
0 2.6938007 -2
2.3567655 -0 -1.8486117
2 2.6745853 0
2.2898645 3.6893488e+19 -1.8473005
2 2.6294923 2
2.305069 3.6893488e+19 -1.8391088
-3.6893488e+19 2.6088917 -3.6893488e+19
2.240031 3.6893488e+19 -1.8341428
0 2.5786428 -1.0842022e-19
2.2641916 -2 -1.8302647
3.6893488e+19 2.5694306 0
2.1861508 -1.0842022e-19 -1.8300711
-2 2.5460958 -3.6893488e+19
2.2260554 0 -1.8278379
-2 2.5348289 -3.6893488e+19
2.1389055 3.6893488e+19 -1.8247461
-2 2.5102196 3.6893488e+19
2.1683745 3.6893488e+19 -1.8190079
-3.6893488e+19 2.5073225 -3.6893488e+19
2.1013484 -3.6893488e+19 -1.8207349
1.0842022e-19 2.4801576 2
2.1359925 -2 -1.81854
-2 2.4683895 -0
2.0697696 3.6893488e+19 -1.8170625
2 2.4369042 -1.0842022e-19
2.1012216 3.6893488e+19 -1.8143606
-1.0842022e-19 2.4327626 -0
2.0454471 2 -1.8153349
1.0842022e-19 3.2871287 1.0842022e-19
2.9213731 1.0842022e-19 2.7697053
-3.6893488e+19 3.2847509 3.6893488e+19
2.9178839 -3.6893488e+19 2.7586157
0 3.2896357 2
2.9250522 -1.0842022e-19 2.7540708
-3.6893488e+19 3.2835338 -2
2.9160976 3.6893488e+19 2.6949861
-3.6893488e+19 3.2738497 3.6893488e+19
2.9402888 -1.0842022e-19 2.6593828
-0 3.2605481 -2
2.8557525 -2 2.6239698
-3.6893488e+19 3.2735591 -1.0842022e-19
2.9398215 -3.6893488e+19 2.6420302
-3.6893488e+19 3.2575953 -3.6893488e+19
2.8517208 2 2.6041312
0 3.2563763 -0
2.8500562 1.0842022e-19 2.5869665
-0 3.250531 -3.6893488e+19
2.9027972 0 2.5781505
3.6893488e+19 3.2585201 -0
2.8529835 2 2.5741971
-2 3.2220807 3.6893488e+19
2.8794997 1.0842022e-19 2.5446723
-3.6893488e+19 3.2591472 2
2.8538399 -2 2.5593905
-2 3.2209947 -1.0842022e-19
2.8786266 -2 2.5295558
-1.0842022e-19 3.2266393 -1.0842022e-19
2.8831642 3.6893488e+19 2.5183256
2 3.2560678 -3.6893488e+19
2.8496349 2 2.5249913
3.6893488e+19 3.2445292 -3.6893488e+19
2.8975456 2 2.5132935
-2 3.2823999 -2
2.8474529 1.0842022e-19 2.5251994
0 3.2265286 -0
2.8496625 -2 2.4584413
-0 3.2649853 -1.0842022e-19
2.8260267 3.6893488e+19 2.4851379
-0 3.2526541 -2
2.8707802 -3.6893488e+19 2.4557552
0 3.2648096 3.6893488e+19
2.8258104 2 2.4535649
-3.6893488e+19 3.2389104 0
2.8587482 -3.6893488e+19 2.4116154
-0 3.2811079 2
2.8458633 -2 2.4483597
3.6893488e+19 3.1568489 -0
2.7985337 0 2.3181422
-0 3.2669616 2
2.8284583 -3.6893488e+19 2.3943782
-2 3.1567192 -1.0842022e-19
2.7984385 2 2.2936895
3.6893488e+19 3.2667174 2
2.8281579 2 2.3626726
-1.0842022e-19 3.1538491 3.6893488e+19
2.7963326 3.6893488e+19 2.2674708
2 3.1569803 -2
2.7503655 -0 2.2528062
2 3.1554337 -2
2.7974951 -3.6893488e+19 2.2386017
1.0842022e-19 3.1530683 -2
2.745918 -3.6893488e+19 2.2034857
1.0842022e-19 3.1565313 -3.6893488e+19
2.7983005 1.0842022e-19 2.1914027
0 3.1503108 -1.0842022e-19
2.8218045 -2 2.1656301
-1.0842022e-19 3.1521282 3.6893488e+19
2.774533 3.6893488e+19 2.1355674
-0 3.1506426 1.0842022e-19
2.8220716 -1.0842022e-19 2.1176631
1.0842022e-19 3.1404624 -0
2.7665687 -1.0842022e-19 2.0782282
-3.6893488e+19 3.1491015 0
2.8208327 -1.0842022e-19 2.0681493
0 3.1405292 -1.0842022e-19
2.7666142 -1.0842022e-19 2.0321639
-2 3.2237973 3.6893488e+19
2.8808796 0 2.0706291
1.0842022e-19 3.1390696 1.0842022e-19
2.7656178 3.6893488e+19 1.9851797
2 3.1532614 -2
2.8241765 -1.0842022e-19 1.9743623
-1.0842022e-19 3.1374424 1.0842022e-19
2.7645071 1.0842022e-19 1.9384903
-1.0842022e-19 3.1556032 -3.6893488e+19
2.8260591 1.0842022e-19 1.9268622
-2 3.1369193 3.6893488e+19
2.7641499 -3.6893488e+19 1.8926009
1.0842022e-19 3.2103121 2
2.870039 -1.0842022e-19 1.8953625
-3.6893488e+19 3.1397779 0
2.7661016 2 1.8204111
2 3.1665504 -3.6893488e+19
2.8348594 -1.0842022e-19 1.7879065
-1.0842022e-19 3.1453094 1.0842022e-19
2.7698779 1.0842022e-19 1.7099662
-1.0842022e-19 3.1384718 3.6893488e+19
2.7279594 -0 1.6022805
-0 3.1404567 0
2.7865057 -3.6893488e+19 1.3128611
-0 3.137399 -1.0842022e-19
2.7266393 -2 -1.5100431
-2 3.1439114 3.6893488e+19
2.7890406 2 -1.6634915
1.0842022e-19 3.1389656 -2
2.7285666 1.0842022e-19 -1.7493451
2 3.1430345 2
2.7883971 0 -1.7999725
2 3.141618 -1.0842022e-19
2.7318301 3.6893488e+19 -1.841947
-0 3.1010423 1.0842022e-19
2.6819077 2 -1.8882118
2 3.1486728 1.0842022e-19
2.7925344 -2 -1.9335113
-1.0842022e-19 3.097513 3.6893488e+19
2.6775653 0 -1.9274089
-1.0842022e-19 3.0758429 -2
2.7281878 -3.6893488e+19 -1.9387321
-0 3.0807755 -0
2.6569722 1.0842022e-19 -1.9575125
-0 2.8098619 -2
2.454735 -1.0842022e-19 -1.8766141
1.0842022e-19 2.7669268 3.6893488e+19
2.429158 -2 -1.8618042
0 2.7445672 3.6893488e+19
2.337641 0 -1.8546945
0 2.6938007 -2
2.3567655 -0 -1.8486117
2 2.6745853 0
2.2898645 3.6893488e+19 -1.8473005
2 2.6294923 2
2.305069 3.6893488e+19 -1.8391088
-3.6893488e+19 2.6088917 -3.6893488e+19
2.240031 3.6893488e+19 -1.8341428
0 2.5786428 -1.0842022e-19
2.2641916 -2 -1.8302647
3.6893488e+19 2.5694306 0
2.1861508 -1.0842022e-19 -1.8300711
-2 2.5460958 -3.6893488e+19
2.2260554 0 -1.8278379
-2 2.5348289 -3.6893488e+19
2.1389055 3.6893488e+19 -1.8247461
-2 2.5102196 3.6893488e+19
2.1683745 3.6893488e+19 -1.8190079
-3.6893488e+19 2.5073225 -3.6893488e+19
2.1013484 -3.6893488e+19 -1.8207349
1.0842022e-19 2.4801576 2
2.1359925 -2 -1.81854
-2 2.4683895 -0
2.0697696 3.6893488e+19 -1.8170625
2 2.4369042 -1.0842022e-19
2.1012216 3.6893488e+19 -1.8143606
-1.0842022e-19 2.4327626 -0
2.0454471 2 -1.8153349
2 3.2867579 -0
2.9174287 -0 2.7690997
-0 3.2846498 -2
2.91436 -3.6893488e+19 2.7582769
0 3.2865186 -1.0842022e-19
2.9170802 1.0842022e-19 2.7510965
2 3.2849891 -2
2.9148538 2 2.6968427
2 3.2735791 -3.6893488e+19
2.9365325 3.6893488e+19 2.65855
0 3.2613344 -3.6893488e+19
2.8537762 -3.6893488e+19 2.6247649
-1.0842022e-19 3.2452934 1.0842022e-19
2.895154 1.0842022e-19 2.6045244
-2 3.2583649 2
2.8497567 1.0842022e-19 2.6048737
3.6893488e+19 3.2573793 3.6893488e+19
2.8484223 2 2.5879843
-3.6893488e+19 3.2653139 1.0842022e-19
2.9233446 -2 2.5971496
1.0842022e-19 3.2583694 1.0842022e-19
2.8497627 -2 2.57372
-0 3.2488313 -3.6893488e+19
2.8979764 0 2.561044
0 3.2588649 1.0842022e-19
2.8504333 -1.0842022e-19 2.5587788
3.6893488e+19 3.2239037 -2
2.8780887 -0 2.530988
-3.6893488e+19 3.2528496 -1.0842022e-19
2.8422904 3.6893488e+19 2.5364363
1.0842022e-19 3.243314 2
2.8935747 2 2.527422
-3.6893488e+19 3.2551501 -2
2.8454046 3.6893488e+19 2.5237625
-2 3.2468333 3.6893488e+19
2.8963826 -0 2.5142434
2 3.2832201 1.0842022e-19
2.8452215 -0 2.5257776
1.0842022e-19 3.2578387 -3.6893488e+19
2.8753314 2 2.4956305
-2 3.2981522 3.6893488e+19
2.8634226 1.0842022e-19 2.5227118
0 3.2531002 -3.6893488e+19
2.8684335 0 2.4561238
1.0842022e-19 3.2976885 0
2.8628573 -1.0842022e-19 2.5047357
-0 3.1657345 2
2.8025889 -2 2.349674
-1.0842022e-19 3.281467 -3.6893488e+19
2.8430846 -3.6893488e+19 2.4485731
-3.6893488e+19 3.2531564 -1.0842022e-19
2.8685157 1.0842022e-19 2.3955417
0 3.2923968 0
2.8564072 2 2.4316075
2 3.2537074 -2
2.8693175 1.0842022e-19 2.3660512
0 3.5494149 0
3.1149616 0 2.6568074
-2 3.2564859 0
2.8733625 3.6893488e+19 2.3394189
-2 3.5498378 1.0842022e-19
3.1154773 -0 2.622206
-3.6893488e+19 3.2562232 1.0842022e-19
2.8729801 -3.6893488e+19 2.3084884
0 3.5460787 -1.0842022e-19
3.1108949 1.0842022e-19 2.5828469
-3.6893488e+19 3.2510974 -0
2.8655186 1.0842022e-19 2.2723758
0 3.2403448 1.0842022e-19
2.8912058 1.0842022e-19 2.2542884
-1.0842022e-19 3.2626545 -0
2.8555636 -2 2.2516139
0 3.2392633 2
2.890343 -2 2.1985188
-0 3.2609043 -0
2.8531942 1.0842022e-19 2.1882503
-0 3.2323871 -2
2.8848569 3.6893488e+19 2.1341391
3.6893488e+19 3.2584155 -3.6893488e+19
2.8498249 -2 2.1230874
-0 3.2250769 -3.6893488e+19
2.8790247 3.6893488e+19 2.0711584
-2 3.1376109 -3.6893488e+19
2.7623603 -0 1.9840899
0 3.1456771 -0
2.8156781 -3.6893488e+19 1.9699121
0 3.271445 -1.0842022e-19
2.8674634 -1.0842022e-19 2.0138805
0 3.2085192 -1.0842022e-19
2.8658147 0 1.9497268
-3.6893488e+19 3.2706196 2
2.8663464 2 1.9492992
-2 3.2108233 3.6893488e+19
2.8676531 3.6893488e+19 1.8953717
-0 3.2622042 1.0842022e-19
2.854954 -2 1.8813365
-2 3.1379628 0
2.8095238 -1.0842022e-19 1.7765676
-0 3.2629945 -1.0842022e-19
2.8560238 2 1.7645638
1.0842022e-19 3.1377966 2
2.7226915 0 1.6017039
2 3.1408594 -0
2.7844837 2 1.3128753
-3.6893488e+19 3.1362743 3.6893488e+19
2.7208362 3.6893488e+19 -1.5095434
-3.6893488e+19 3.1422362 -1.0842022e-19
2.7281032 3.6893488e+19 -1.7506202
0 3.1409731 3.6893488e+19
2.7845664 1.0842022e-19 -1.7988886
-3.6893488e+19 3.1419315 -3.6893488e+19
2.7277317 3.6893488e+19 -1.841947
1.0842022e-19 3.146477 -2
2.7885723 -0 -1.885236
2 3.1418769 0
2.7276652 -3.6893488e+19 -1.9041656
2 3.148232 -0
2.7898498 0 -1.9331334
-0 3.0971639 -2
2.6731637 1.0842022e-19 -1.9270889
-0 3.0780327 2
2.7275119 -0 -1.9398191
1.0842022e-19 3.0791287 3.6893488e+19
2.6511803 1.0842022e-19 -1.9563141
3.6893488e+19 2.8126221 1.0842022e-19
2.4550788 1.0842022e-19 -1.87762
-1.0842022e-19 2.7673802 1.0842022e-19
2.4266417 -1.0842022e-19 -1.8619584
3.6893488e+19 2.74347 2
2.3340127 -0 -1.8539813
-0 2.6950769 2
2.3550904 1.0842022e-19 -1.8490201
0 2.6746085 -1.0842022e-19
2.2874026 -2 -1.847115
1.0842022e-19 2.6300058 1.0842022e-19
2.3031754 2 -1.8391742
-3.6893488e+19 2.6127546 -1.0842022e-19
2.2410722 0 -1.8362061
-2 2.5792186 -3.6893488e+19
2.2626565 0 -1.8304093
-0 2.5671172 0
2.1792915 1.0842022e-19 -1.8284051
3.6893488e+19 2.5467534 -3.6893488e+19
2.2235103 2 -1.8280755
1.0842022e-19 2.5350823 -3.6893488e+19
2.1359246 3.6893488e+19 -1.8247461
2 2.5125744 2
2.1689732 -1.0842022e-19 -1.8205585
2 2.5064902 2
2.0972188 -2 -1.8199283
3.6893488e+19 2.4808919 -0
2.1336641 -3.6893488e+19 -1.8186331
-3.6893488e+19 2.4723415 3.6893488e+19
2.0697117 -3.6893488e+19 -1.8185109
1.0842022e-19 2.4368999 1.0842022e-19
2.0985665 0 -1.8141606
-1.0842022e-19 2.433383 -2
2.0433419 -0 -1.8154384
2 2.3955822 1.0842022e-19
1.9910908 -3.6893488e+19 -1.8146336
0 2.3443913 2
1.959892 0 -1.8104699
0 2.304915 1.0842022e-19
1.9358329 0 -1.8073153
-1.0842022e-19 2.2738023 2
1.9168711 -2 -1.8050352
-0 2.234731 1.0842022e-19
1.9433635 2 -1.8040707
-2 2.1933448 3.6893488e+19
1.9268543 2 -1.8025169
2 2.1511703 -0
1.9100304 3.6893488e+19 -1.7981232
0 2.1145952 -0
1.8954402 -1.0842022e-19 -1.7937572
2 3.2867579 -0
2.9174287 -0 2.7690997
-0 3.2846498 -2
2.91436 -3.6893488e+19 2.7582769
0 3.2692323 -2
2.8919168 3.6893488e+19 2.7218945
2 3.2849891 -2
2.9148538 2 2.6968427
2 3.2425339 0
2.8929524 -2 2.6177633
0 3.2613344 -3.6893488e+19
2.8537762 -3.6893488e+19 2.6247649
-1.0842022e-19 3.2452934 1.0842022e-19
2.895154 1.0842022e-19 2.6045244
-2 3.2583649 2
2.8497567 1.0842022e-19 2.6048737
3.6893488e+19 3.2573793 3.6893488e+19
2.8484223 2 2.5879843
-3.6893488e+19 3.2653139 1.0842022e-19
2.9233446 -2 2.5971496
1.0842022e-19 3.2583694 1.0842022e-19
2.8497627 -2 2.57372
-1.0842022e-19 3.2227478 1.0842022e-19
2.8771667 0 2.5447798
0 3.2588649 1.0842022e-19
2.8504333 -1.0842022e-19 2.5587788
3.6893488e+19 3.2239037 -2
2.8780887 -0 2.530988
-3.6893488e+19 3.2528496 -1.0842022e-19
2.8422904 3.6893488e+19 2.5364363
1.0842022e-19 3.2271676 -1.0842022e-19
2.8806927 2 2.5183418
-3.6893488e+19 3.2551501 -2
2.8454046 3.6893488e+19 2.5237625
1.0842022e-19 3.2146561 -0
2.8707108 -3.6893488e+19 2.4942594
2 3.2832201 1.0842022e-19
2.8452215 -0 2.5257776
0 3.1657052 3.6893488e+19
2.8025675 -1.0842022e-19 2.3995445
-0 3.2647221 -2
2.822674 3.6893488e+19 2.4842682
-3.6893488e+19 3.1656132 1.0842022e-19
2.8025007 -3.6893488e+19 2.3744981
-1.0842022e-19 3.2643673 0
2.8222418 0 2.4524453
-0 3.1657345 2
2.8025889 -2 2.349674
-1.0842022e-19 3.281467 -3.6893488e+19
2.8430846 -3.6893488e+19 2.4485731
-3.6893488e+19 3.1656013 -1.0842022e-19
2.8024919 -0 2.3246758
-3.6893488e+19 3.2667584 -3.6893488e+19
2.8251562 -3.6893488e+19 2.3937628
-3.6893488e+19 3.1552353 -1.0842022e-19
2.7949471 -3.6893488e+19 2.2923384
0 3.2677803 0
2.8264017 2 2.3638263
2 3.1543524 -3.6893488e+19
2.7943044 3.6893488e+19 2.2675483
2 3.1571572 3.6893488e+19
2.7462904 -0 2.2527137
0 3.1566708 2
2.7959919 -1.0842022e-19 2.2396245
1.0842022e-19 3.1549122 -3.6893488e+19
2.7435539 0 2.2051959
1.0842022e-19 3.1551616 1.0842022e-19
2.7948935 0 2.1894953
-2 3.1525264 -3.6893488e+19
2.8211427 2 2.1674933
1.0842022e-19 3.1508605 -3.6893488e+19
2.7713284 -0 2.1340103
2 3.152077 -1.0842022e-19
2.8207841 2 2.1185932
3.6893488e+19 3.138947 -2
2.7632647 -0 2.076664
-1.0842022e-19 3.1504476 -1.0842022e-19
2.8194842 -2 2.0688882
-0 3.1408172 1.0842022e-19
2.7645307 -0 2.0321212
-1.0842022e-19 3.1480436 2
2.8175664 -3.6893488e+19 2.0190828
-2 3.1376109 -3.6893488e+19
2.7623603 -0 1.9840899
0 3.1456771 -0
2.8156781 -3.6893488e+19 1.9699121
-2 3.1352422 2
2.7607572 -1.0842022e-19 1.9372534
-3.6893488e+19 3.1392856 3.6893488e+19
2.8105791 -3.6893488e+19 1.9195693
-3.6893488e+19 3.2706196 2
2.8663464 2 1.9492992
-1.0842022e-19 3.1413763 2
2.812247 3.6893488e+19 1.8719277
-3.6893488e+19 3.1370168 1.0842022e-19
2.7619584 1.0842022e-19 1.8188545
-2 3.1379628 0
2.8095238 -1.0842022e-19 1.7765676
0 3.1371956 2
2.7620792 -3.6893488e+19 1.7054737
1.0842022e-19 3.1377966 2
2.7226915 0 1.6017039
2 3.1408594 -0
2.7844837 2 1.3128753
-3.6893488e+19 3.1362743 3.6893488e+19
2.7208362 3.6893488e+19 -1.5095434
-3.6893488e+19 3.1422362 -1.0842022e-19
2.7281032 3.6893488e+19 -1.7506202
0 3.1409731 3.6893488e+19
2.7845664 1.0842022e-19 -1.7988886
1.0842022e-19 3.1021497 2
2.6792409 -3.6893488e+19 -1.8199263
1.0842022e-19 3.146477 -2
2.7885723 -0 -1.885236
2 3.1418769 0
2.7276652 -3.6893488e+19 -1.9041656
2 3.148232 -0
2.7898498 0 -1.9331334
-0 3.0971639 -2
2.6731637 1.0842022e-19 -1.9270889
-0 3.0780327 2
2.7275119 -0 -1.9398191
1.0842022e-19 3.0791287 3.6893488e+19
2.6511803 1.0842022e-19 -1.9563141
3.6893488e+19 2.8126221 1.0842022e-19
2.4550788 1.0842022e-19 -1.87762
-1.0842022e-19 2.7673802 1.0842022e-19
2.4266417 -1.0842022e-19 -1.8619584
3.6893488e+19 2.74347 2
2.3340127 -0 -1.8539813
-0 2.6950769 2
2.3550904 1.0842022e-19 -1.8490201
0 2.6746085 -1.0842022e-19
2.2874026 -2 -1.847115
1.0842022e-19 2.6300058 1.0842022e-19
2.3031754 2 -1.8391742
-3.6893488e+19 2.6127546 -1.0842022e-19
2.2410722 0 -1.8362061
-2 2.5792186 -3.6893488e+19
2.2626565 0 -1.8304093
-0 2.5671172 0
2.1792915 1.0842022e-19 -1.8284051
3.6893488e+19 2.5467534 -3.6893488e+19
2.2235103 2 -1.8280755
1.0842022e-19 2.5350823 -3.6893488e+19
2.1359246 3.6893488e+19 -1.8247461
2 2.5125744 2
2.1689732 -1.0842022e-19 -1.8205585
2 2.5064902 2
2.0972188 -2 -1.8199283
3.6893488e+19 2.4808919 -0
2.1336641 -3.6893488e+19 -1.8186331
-3.6893488e+19 2.4723415 3.6893488e+19
2.0697117 -3.6893488e+19 -1.8185109
1.0842022e-19 2.4368999 1.0842022e-19
2.0985665 0 -1.8141606
-1.0842022e-19 2.433383 -2
2.0433419 -0 -1.8154384
2 2.3955822 1.0842022e-19
1.9910908 -3.6893488e+19 -1.8146336
0 2.3443913 2
1.959892 0 -1.8104699
0 2.304915 1.0842022e-19
1.9358329 0 -1.8073153
-1.0842022e-19 2.2738023 2
1.9168711 -2 -1.8050352
-0 2.234731 1.0842022e-19
1.9433635 2 -1.8040707
-2 2.1933448 3.6893488e+19
1.9268543 2 -1.8025169
2 2.1511703 -0
1.9100304 3.6893488e+19 -1.7981232
0 2.1145952 -0
1.8954402 -1.0842022e-19 -1.7937572
-3.6893488e+19 3.2899923 2
2.9187033 -0 2.780905
-0 3.2870443 -1.0842022e-19
2.9144466 -3.6893488e+19 2.7691131
0 3.2856963 3.6893488e+19
2.9125001 1.0842022e-19 2.7589808
2 3.2866321 -2
2.9138513 -1.0842022e-19 2.7509577
1.0842022e-19 3.284658 -1.0842022e-19
2.911001 -1.0842022e-19 2.7308924
-1.0842022e-19 3.2748084 -1.0842022e-19
2.9351637 0 2.6599596
1.0842022e-19 3.2454362 -2
2.8922656 -2 2.6042578
3.6893488e+19 3.2206888 -3.6893488e+19
2.8726716 1.0842022e-19 2.5720747
-3.6893488e+19 3.2604752 0
2.8495777 1.0842022e-19 2.5917485
2 3.2232389 -0
2.8746908 -0 2.5592825
2 3.2581871 1.0842022e-19
2.8465066 -1.0842022e-19 2.5732064
-1.0842022e-19 3.2494652 0
2.8954558 -0 2.5611155
1.0842022e-19 3.2589319 -2
2.847506 1.0842022e-19 2.5585866
-3.6893488e+19 3.2244253 -3.6893488e+19
2.8756301 0 2.5310051
3.6893488e+19 3.2531021 -1.0842022e-19
2.8396821 -1.0842022e-19 2.5364695
1.0842022e-19 3.2312078 1.0842022e-19
2.8810003 -0 2.5203326
-1.0842022e-19 3.2474079 -3.6893488e+19
2.8938267 0 2.5142741
3.6893488e+19 3.2880657 2
2.8478355 2 2.5302734
-3.6893488e+19 3.2543738 -0
2.8672757 2 2.4885068
1.0842022e-19 3.2986567 -3.6893488e+19
2.8606238 1.0842022e-19 2.5229564
-3.6893488e+19 3.2548308 3.6893488e+19
2.8679357 -0 2.4588077
-1.0842022e-19 3.2981479 -2
2.8600097 1.0842022e-19 2.5049267
1.0842022e-19 3.252234 0
2.864186 -2 2.4239054
1.0842022e-19 3.2541871 -3.6893488e+19
2.8670058 3.6893488e+19 2.3967752
-1.0842022e-19 3.2931056 -0
2.8539212 0 2.4323108
1.0842022e-19 3.1539798 0
2.7916415 -2 2.2911563
-3.6893488e+19 3.5497866 1.0842022e-19
3.1119885 0 2.6569896
-3.6893488e+19 3.2549856 -0
2.8681591 3.6893488e+19 2.3371136
-1.0842022e-19 3.5492182 0
3.1113021 0 2.6211421
-0 3.2565837 0
2.8704665 -0 2.3086295
2 3.5483136 3.6893488e+19
3.1102097 -1.0842022e-19 2.5850933
0 3.2459543 -1.0842022e-19
2.8580396 1.0842022e-19 2.2687359
-1.0842022e-19 3.2408547 -1.0842022e-19
2.8886383 1.0842022e-19 2.2542884
-0 3.2628863 -3.6893488e+19
2.8528132 -2 2.2516139
1.0842022e-19 3.2399464 -1.0842022e-19
2.8879189 3.6893488e+19 2.1986783
1.0842022e-19 3.261534 1.0842022e-19
2.8509984 -3.6893488e+19 2.1889205
-2 3.2305088 1.0842022e-19
2.8804469 0 2.1322458
-3.6893488e+19 3.2622397 -2
2.8519456 -0 2.1282752
-3.6893488e+19 3.2373006 1.0842022e-19
2.8858244 0 2.0790796
-2 3.2781665 -3.6893488e+19
2.8733206 0 2.0856903
-3.6893488e+19 3.2085555 0
2.8630652 2 2.0045943
-1.0842022e-19 3.1339829 3.6893488e+19
2.7576671 -2 1.9364767
-3.6893488e+19 3.2098384 3.6893488e+19
2.8640809 -2 1.9500933
-3.6893488e+19 3.2106636 -2
2.8647342 -3.6893488e+19 1.8951702
3.6893488e+19 3.2641685 3.6893488e+19
2.8545341 1.0842022e-19 1.8822038
-0 3.1377854 2
2.8070323 3.6893488e+19 1.7763408
-3.6893488e+19 3.2650928 3.6893488e+19
2.8557749 -0 1.7655534
0 3.136878 3.6893488e+19
2.71715 -1.0842022e-19 1.6009873
-2 3.1404953 1.0842022e-19
2.7819068 0 1.3125224
-0 3.1403506 0
2.7213433 3.6893488e+19 -1.5108553
3.6893488e+19 3.1375196 -1.0842022e-19
2.7797585 -1.0842022e-19 -1.6605326
-3.6893488e+19 3.1422186 2
2.723599 0 -1.750515
2 3.1427548 3.6893488e+19
2.7835379 -2 -1.7995154
-2 3.1037154 1.0842022e-19
2.6771069 -1.0842022e-19 -1.8206377
2 3.1473234 -3.6893488e+19
2.7868359 -1.0842022e-19 -1.8853962
-3.6893488e+19 3.0864089 0
2.6562095 0 -1.8822395
0 3.14908 -2
