# .PCD v0.7 - Point Cloud Data file format
VERSION 0.7
FIELDS x y z
SIZE 4 4 4
TYPE F F F
COUNT 1 1 1
WIDTH 1724
HEIGHT 1
VIEWPOINT 0 0 0 1 0 0 0
POINTS 1724
DATA ascii
2.3502023 0 2.4360282
-0 3.1571977 -3.6893488e+19
2.3492222 -3.6893488e+19 2.4115853
-3.6893488e+19 3.1391411 2
2.0838134 -1.0842022e-19 2.3806229
1.0842022e-19 3.1682718 -1.0842022e-19
1.90408 -2 2.3968031
-1.0842022e-19 3.1441822 2
2.231848 0 2.3637636
-1.0842022e-19 3.16662 -3.6893488e+19
1.9034716 3.6893488e+19 2.371686
3.6893488e+19 3.1448295 -2
2.2326391 -0 2.342005
1.0842022e-19 3.1694508 -3.6893488e+19
1.9045143 2 2.3505378
0 3.1504495 -1.0842022e-19
2.2395089 -0 2.3242288
-1.0842022e-19 3.1533582 -1.0842022e-19
2.2430646 -0 2.3038118
-2 3.1732254 -0
1.9059049 0 2.3060257
0 3.1564374 1.0842022e-19
2.2468286 1.0842022e-19 2.2832105
-2 3.1394525 -0
1.8934639 -3.6893488e+19 2.2597182
0 3.1843174 -3.6893488e+19
2.2654543 -0 2.2781792
1.0842022e-19 3.1772065 2
1.9073714 2 2.2609103
-0 3.1787059 1.0842022e-19
2.2620249 -1.0842022e-19 2.2504649
0 3.1106327 -2
1.8828473 2 2.1500583
1.0842022e-19 3.1479456 2
2.2364483 -2 2.1702538
3.6893488e+19 3.2426536 0
2.4225113 0 2.243989
-1.0842022e-19 3.1409805 1.0842022e-19
2.0853913 3.6893488e+19 2.1184528
-2 3.2438483 -3.6893488e+19
2.4235358 1.0842022e-19 2.1896024
3.6893488e+19 3.1411002 -1.0842022e-19
2.0854938 -2 2.0747423
-1.0842022e-19 3.1424165 -3.6893488e+19
2.086623 3.6893488e+19 2.0319052
-2 3.1427479 2
2.0869074 2 1.9881948
-0 3.1667397 -2
2.3574057 -3.6893488e+19 1.9804265
-0 3.1470215 -0
2.0905733 -1.0842022e-19 1.9463921
1.0842022e-19 3.1947527 -3.6893488e+19
2.3814301 -2 1.9459722
0 3.1522448 2
2.0950539 -3.6893488e+19 1.9040077
-2 3.177927 1.0842022e-19
2.3670003 -3.6893488e+19 1.890532
1.0842022e-19 3.1485579 0
2.0918913 2 1.8411276
3.6893488e+19 3.2303913 -2
2.4119947 -2 1.8327037
-1.0842022e-19 3.1484079 -3.6893488e+19
2.0917625 -2 1.7520187
-0 3.1375141 -0
1.8927498 -0 1.6603372
2 3.1480258 0
2.2365463 1.0842022e-19 1.5270923
-3.6893488e+19 3.141396 -0
1.8941798 -2 -1.2038956
0 3.1508598 -0
2.2400105 -3.6893488e+19 -1.5805205
1.0842022e-19 3.1376364 2
1.8927948 -0 -1.6855973
-1.0842022e-19 3.1531756 2
2.2428415 0 -1.7668917
3.6893488e+19 3.1332021 -2
1.8911613 -2 -1.8022615
-3.6893488e+19 3.1526053 -1.0842022e-19
2.2421443 -2 -1.8567742
2 3.1495211 -1.0842022e-19
1.8971728 -3.6893488e+19 -1.8869886
3.6893488e+19 3.153729 1.0842022e-19
2.2435179 -3.6893488e+19 -1.9113979
3.6893488e+19 3.1413946 -2
1.8941792 3.6893488e+19 -1.9279006
0 3.1236269 3.6893488e+19
2.2067211 0 -1.9411888
3.6893488e+19 3.1084306 3.6893488e+19
1.8820362 -2 -1.9529512
-0 3.1122324 0
2.1927927 -1.0842022e-19 -1.9759332
-1.0842022e-19 3.0742793 -2
1.8639116 1.0842022e-19 -1.9698442
-2 2.9068582 -3.6893488e+19
2.0989311 -0 -1.9115379
-1.0842022e-19 2.8568637 -0
1.9030626 -1.0842022e-19 -1.9010736
1.0842022e-19 2.8205893 -1.0842022e-19
2.0249448 -2 -1.8953156
-0 2.7882571 -1.0842022e-19
1.872273 2 -1.8881814
3.6893488e+19 2.7595522 -1.0842022e-19
1.9725981 -1.0842022e-19 -1.8822604
-0 2.722142 0
1.8275067 3.6893488e+19 -1.8764009
-2 2.6870348 2
1.9374057 -3.6893488e+19 -1.8723203
-0 2.6541924 1.0842022e-19
1.7983624 -3.6893488e+19 -1.8641069
3.6893488e+19 2.6246033 2
1.9106343 0 -1.8581176
-1.0842022e-19 2.6017203 -2
1.7758565 -0 -1.852825
1.0842022e-19 2.579807 0
1.8914251 -2 -1.848858
2 2.5616 -2
1.7586484 3.6893488e+19 -1.8443654
2 2.5430923 1.0842022e-19
1.8756814 -1.0842022e-19 -1.8405054
3.6893488e+19 2.5290933 2
1.7394121 -2 -1.8371965
-3.6893488e+19 2.5123467 -3.6893488e+19
1.8499948 -3.6893488e+19 -1.8327475
2 2.500962 -1.0842022e-19
1.7152804 0 -1.8299613
0 2.4764805 -0
1.5505226 -2 -1.8260595
-3.6893488e+19 2.447042 -2
1.7616159 -1.0842022e-19 -1.8204592
0 2.4319093 -0
1.5341038 1.0842022e-19 -1.819443
-3.6893488e+19 2.3711851 -3.6893488e+19
1.5117346 1.0842022e-19 -1.8131078
-2 2.3244603 2
1.489045 -1.0842022e-19 -1.8078524
1.0842022e-19 2.2867446 1.0842022e-19
1.4612581 -0 -1.8029435
-2 2.2553771 -3.6893488e+19
1.7190174 -2 -1.7990447
-1.0842022e-19 2.2145138 -0
1.6991889 2 -1.7967212
-1.0842022e-19 2.1713395 -3.6893488e+19
1.6806753 2 -1.793008
2 2.1360955 2
1.6655623 -2 -1.7902396
-0 3.1022797 -0
1.8549682 -2 2.5793197
3.6893488e+19 3.1874237 -3.6893488e+19
2.2581255 2 2.653497
1.0842022e-19 3.1057398 2
1.857227 1.0842022e-19 2.572109
-1.0842022e-19 3.1922514 0
2.2609746 2 2.6449528
-0 3.1073606 2
1.8582851 -3.6893488e+19 2.5631144
1.0842022e-19 3.1868994 0
2.2578163 -1.0842022e-19 2.6146054
-0 3.1195898 2
1.8662683 -2 2.5522892
-0 3.1153562 -3.6893488e+19
1.8635045 -1.0842022e-19 2.5382268
-3.6893488e+19 3.1703939 -2
1.8872166 -0 2.5694804
1.0842022e-19 3.1741676 -2
1.8884482 3.6893488e+19 2.5601084
0 3.1824231 -2
2.2551746 -1.0842022e-19 2.5606918
0 3.1883712 1.0842022e-19
2.3666587 -0 2.5594864
3.6893488e+19 3.1418197 2
2.3277225 -2 2.5153103
-3.6893488e+19 3.1998105 -3.6893488e+19
2.1169341 2 2.5468667
3.6893488e+19 3.1393549 -0
2.3256609 -0 2.50243
-1.0842022e-19 3.1532845 -0
2.0789804 2 2.4631526
-2 3.1533685 -2
2.0790489 0 2.4402864
-2 3.1983564 -0
2.3750105 -0 2.4530618
1.0842022e-19 3.1380174 3.6893488e+19
2.0665262 -2 2.3794715
-0 3.2253838 0
1.9051653 3.6893488e+19 2.4509583
3.6893488e+19 3.1440432 3.6893488e+19
2.2150533 2 2.3635635
-0 3.2241194 1.0842022e-19
1.9047526 1.0842022e-19 2.4229598
-3.6893488e+19 3.1429551 -0
2.2137692 -2 2.3403144
3.6893488e+19 3.2198153 0
1.9033477 -2 2.3926053
-2 3.1445436 1.0842022e-19
2.2156441 3.6893488e+19 2.3193843
2 3.2158856 -0
1.902065 2 2.3630722
0 3.161195 2
2.235296 1.0842022e-19 2.3096535
3.6893488e+19 3.216284 3.6893488e+19
1.9021951 0 2.3371413
2 3.2020655 2
2.2667658 -2 2.3149426
1.0842022e-19 3.2196488 2
1.9032934 0 2.3131819
-3.6893488e+19 3.1997495 3.6893488e+19
2.2653992 -2 2.2880068
-3.6893488e+19 3.1765141 1.0842022e-19
1.8892143 0 2.2604728
-1.0842022e-19 3.1999578 0
2.2655222 -1.0842022e-19 2.2628293
1.0842022e-19 3.1760452 -1.0842022e-19
1.8890611 3.6893488e+19 2.222595
2 3.1989937 3.6893488e+19
2.2649531 1.0842022e-19 2.2240703
-2 3.1485503 -0
2.3333521 2 2.1495197
-3.6893488e+19 3.195276 1.0842022e-19
2.1132352 -0 2.1695623
-3.6893488e+19 3.1482792 -1.0842022e-19
2.3331254 -2 2.1044323
-0 3.1967881 2
2.1144686 3.6893488e+19 2.1209309
2 3.1474919 2
2.3324668 3.6893488e+19 2.0590305
2 3.1945691 -3.6893488e+19
2.1126583 1.0842022e-19 2.0693269
2 3.1469641 3.6893488e+19
2.3320253 0 2.0140085
-2 3.1924205 -2
2.1109056 1.0842022e-19 2.0182836
-1.0842022e-19 3.2401934 3.6893488e+19
2.4100034 -0 2.0209658
3.6893488e+19 3.1463897 -0
2.0733559 2 1.9460527
-3.6893488e+19 3.2408581 -1.0842022e-19
2.4105594 -1.0842022e-19 1.9662278
-0 3.192143 0
2.1106794 -0 1.9192604
-3.6893488e+19 3.2435501 -0
2.412811 1.0842022e-19 1.9120378
2 3.1829069 3.6893488e+19
2.1031449 1.0842022e-19 1.859722
3.6893488e+19 3.231457 -0
2.4026961 2 1.8331068
-1.0842022e-19 3.1810749 3.6893488e+19
2.1016505 -2 1.7624146
2 3.1369114 -2
1.8762878 -3.6893488e+19 1.6600786
0 3.1864374 3.6893488e+19
2.2575436 3.6893488e+19 1.5417372
-0 3.182035 1.0842022e-19
1.8910162 -3.6893488e+19 -1.2250533
1.0842022e-19 3.1528087 -0
2.2253983 3.6893488e+19 -1.5814791
2 3.182148 3.6893488e+19
1.8910531 0 -1.7068974
-2 3.1867557 -1.0842022e-19
2.2577314 -3.6893488e+19 -1.7786794
-3.6893488e+19 3.1834269 3.6893488e+19
1.8914706 -2 -1.8254831
3.6893488e+19 3.1551464 -3.6893488e+19
2.2281573 3.6893488e+19 -1.8581911
0 3.1841226 -2
1.8916975 -3.6893488e+19 -1.8988444
3.6893488e+19 3.1572356 0
2.2306232 -0 -1.9127678
1.0842022e-19 3.1435719 2
1.8784618 3.6893488e+19 -1.92888
-3.6893488e+19 3.1236691 2
2.1910079 2 -1.9411728
-3.6893488e+19 3.1085134 2
1.8590376 2 -1.9529866
3.6893488e+19 3.1124907 3.6893488e+19
2.1778147 0 -1.9760498
0 3.0738921 2
1.8364367 3.6893488e+19 -1.9695691
-1.0842022e-19 2.9019423 0
2.0861893 -3.6893488e+19 -1.9095417
1.0842022e-19 2.8546689 -2
1.8946609 -3.6893488e+19 -1.9001237
-1.0842022e-19 2.819499 -0
2.0172327 2 -1.8947814
-0 2.7885458 -0
1.8603821 2 -1.8883009
2 2.7604308 -1.0842022e-19
1.9678273 1.0842022e-19 -1.8826714
-2 2.721833 1.0842022e-19
1.8174496 2 -1.8763009
-2 2.6879003 -3.6893488e+19
1.9331324 2 -1.8727413
1.0842022e-19 2.6543725 3.6893488e+19
1.7899339 -1.0842022e-19 -1.8641806
-2 2.6245832 2
1.9066529 0 -1.8580405
-1.0842022e-19 2.6022663 -3.6893488e+19
1.768681 -1.0842022e-19 -1.8531474
3.6893488e+19 2.5795269 -2
1.88781 2 -1.8486059
-0 2.5603991 2
1.7516044 3.6893488e+19 -1.84349
-1.0842022e-19 2.5445354 2
1.8713529 3.6893488e+19 -1.8415065
0 2.5296288 -2
1.7281078 -3.6893488e+19 -1.8375744
-0 2.5121722 3.6893488e+19
1.8442839 -2 -1.8325516
-1.0842022e-19 2.5008721 3.6893488e+19
1.7046497 1.0842022e-19 -1.8298599
1.0842022e-19 2.4775019 2
1.5308566 0 -1.8264791
-3.6893488e+19 2.4466343 1.0842022e-19
1.7567805 -2 -1.8202425
-0 3.1022797 -0
1.8549682 -2 2.5793197
3.6893488e+19 3.1874237 -3.6893488e+19
2.2581255 2 2.653497
1.0842022e-19 3.1057398 2
1.857227 1.0842022e-19 2.572109
-1.0842022e-19 3.1922514 0
2.2609746 2 2.6449528
-0 3.1073606 2
1.8582851 -3.6893488e+19 2.5631144
1.0842022e-19 3.1868994 0
2.2578163 -1.0842022e-19 2.6146054
-0 3.1195898 2
1.8662683 -2 2.5522892
-0 3.1153562 -3.6893488e+19
1.8635045 -1.0842022e-19 2.5382268
-0 3.1142228 0
1.8627647 -1.0842022e-19 2.5267928
1.0842022e-19 3.1741676 -2
1.8884482 3.6893488e+19 2.5601084
1.0842022e-19 3.1436167 -2
2.2145498 -2 2.5328097
1.0842022e-19 3.1464014 3.6893488e+19
2.3315547 0 2.5298562
3.6893488e+19 3.1418197 2
2.3277225 -2 2.5153103
-3.6893488e+19 3.1998105 -3.6893488e+19
2.1169341 2 2.5468667
3.6893488e+19 3.1393549 -0
2.3256609 -0 2.50243
0 3.1352119 3.6893488e+19
2.0642376 -1.0842022e-19 2.4423969
-2 3.1533685 -2
2.0790489 0 2.4402864
-2 3.1983564 -0
2.3750105 -0 2.4530618
1.0842022e-19 3.1380174 3.6893488e+19
2.0665262 -2 2.3794715
-0 3.2253838 0
1.9051653 3.6893488e+19 2.4509583
3.6893488e+19 3.1440432 3.6893488e+19
2.2150533 2 2.3635635
-0 3.2241194 1.0842022e-19
1.9047526 1.0842022e-19 2.4229598
-3.6893488e+19 3.1429551 -0
2.2137692 -2 2.3403144
-0 3.168014 2
1.8864398 1.0842022e-19 2.3493173
-2 3.1445436 1.0842022e-19
2.2156441 3.6893488e+19 2.3193843
-2 3.1003625 -0
1.8537167 -1.0842022e-19 2.2730432
0 3.161195 2
2.235296 1.0842022e-19 2.3096535
3.6893488e+19 3.216284 3.6893488e+19
1.9021951 0 2.3371413
0 3.1562691 0
2.2294824 3.6893488e+19 2.2830374
1.0842022e-19 3.2196488 2
1.9032934 0 2.3131819
3.6893488e+19 3.1389525 -1.0842022e-19
2.2090452 -2 2.2481482
0 3.1428692 3.6893488e+19
1.8782325 2 2.2298512
-1.0842022e-19 3.1999578 0
2.2655222 -1.0842022e-19 2.2628293
1.0842022e-19 3.1760452 -1.0842022e-19
1.8890611 3.6893488e+19 2.222595
-2 3.1480861 -2
2.2198248 2 2.1703196
-2 3.1485503 -0
2.3333521 2 2.1495197
-3.6893488e+19 3.1410029 -3.6893488e+19
2.0689616 1.0842022e-19 2.1184235
-3.6893488e+19 3.1482792 -1.0842022e-19
2.3331254 -2 2.1044323
-0 3.1351073 -1.0842022e-19
2.0641522 -2 2.0697224
2 3.1474919 2
2.3324668 3.6893488e+19 2.0590305
2 3.1945691 -3.6893488e+19
2.1126583 1.0842022e-19 2.0693269
2 3.1469641 3.6893488e+19
2.3320253 0 2.0140085
3.6893488e+19 3.1386228 -2
2.0670199 -3.6893488e+19 1.9856606
-1.0842022e-19 3.2401934 3.6893488e+19
2.4100034 -0 2.0209658
3.6893488e+19 3.1463897 -0
2.0733559 2 1.9460527
-3.6893488e+19 3.2408581 -1.0842022e-19
2.4105594 -1.0842022e-19 1.9662278
2 3.1503031 1.0842022e-19
2.0765483 3.6893488e+19 1.9032433
-0 3.1774244 -0
2.3575027 2 1.890328
-3.6893488e+19 3.1504223 -0
2.0766456 2 1.842109
-1.0842022e-19 3.1685555 0
2.3500848 -0 1.805918
-3.6893488e+19 3.1493676 -1.0842022e-19
2.0757852 -3.6893488e+19 1.7523072
2 3.1369114 -2
1.8762878 -3.6893488e+19 1.6600786
3.6893488e+19 3.1487274 0
2.2205818 -2 1.5273304
-0 3.182035 1.0842022e-19
1.8910162 -3.6893488e+19 -1.2250533
1.0842022e-19 3.1528087 -0
2.2253983 3.6893488e+19 -1.5814791
-1.0842022e-19 3.1352839 0
1.8757567 3.6893488e+19 -1.6844605
2 3.1522267 -2
2.2247114 -0 -1.7665298
-3.6893488e+19 3.1321616 1.0842022e-19
1.8744752 -0 -1.8017702
3.6893488e+19 3.1551464 -3.6893488e+19
2.2281573 3.6893488e+19 -1.8581911
1.0842022e-19 3.1461079 1.0842022e-19
1.8792896 -0 -1.8858106
3.6893488e+19 3.1572356 0
2.2306232 -0 -1.9127678
3.6893488e+19 3.1079373 2
1.8586615 3.6893488e+19 -1.912684
-3.6893488e+19 3.1236691 2
2.1910079 2 -1.9411728
-3.6893488e+19 3.1085134 2
1.8590376 2 -1.9529866
3.6893488e+19 3.1124907 3.6893488e+19
2.1778147 0 -1.9760498
0 3.0738921 2
1.8364367 3.6893488e+19 -1.9695691
-1.0842022e-19 2.9019423 0
2.0861893 -3.6893488e+19 -1.9095417
1.0842022e-19 2.8546689 -2
1.8946609 -3.6893488e+19 -1.9001237
-1.0842022e-19 2.819499 -0
2.0172327 2 -1.8947814
-0 2.7885458 -0
1.8603821 2 -1.8883009
2 2.7604308 -1.0842022e-19
1.9678273 1.0842022e-19 -1.8826714
-2 2.721833 1.0842022e-19
1.8174496 2 -1.8763009
-2 2.6879003 -3.6893488e+19
1.9331324 2 -1.8727413
1.0842022e-19 2.6543725 3.6893488e+19
1.7899339 -1.0842022e-19 -1.8641806
-2 2.6245832 2
1.9066529 0 -1.8580405
-1.0842022e-19 2.6022663 -3.6893488e+19
1.768681 -1.0842022e-19 -1.8531474
3.6893488e+19 2.5795269 -2
1.88781 2 -1.8486059
-0 2.5603991 2
1.7516044 3.6893488e+19 -1.84349
-1.0842022e-19 2.5445354 2
1.8713529 3.6893488e+19 -1.8415065
0 2.5296288 -2
1.7281078 -3.6893488e+19 -1.8375744
-0 2.5121722 3.6893488e+19
1.8442839 -2 -1.8325516
-1.0842022e-19 2.5008721 3.6893488e+19
1.7046497 1.0842022e-19 -1.8298599
1.0842022e-19 2.4775019 2
1.5308566 0 -1.8264791
-3.6893488e+19 2.4466343 1.0842022e-19
1.7567805 -2 -1.8202425
3.6893488e+19 3.1061842 -1.0842022e-19
1.8276199 3.6893488e+19 2.5724952
2 3.1864026 0
2.2466416 -0 2.6141217
-3.6893488e+19 3.1219041 -3.6893488e+19
1.8365624 -0 2.554167
-1.0842022e-19 3.1678979 -0
1.8627266 -1.0842022e-19 2.5675676
-2 3.1833334 -2
2.2431488 0 2.5738065
-0 3.1718528 0
1.8649764 -1.0842022e-19 2.5584006
1.0842022e-19 3.1807563 -3.6893488e+19
2.2402158 1.0842022e-19 2.5594356
3.6893488e+19 3.1466005 2
2.3233132 0 2.5299211
-3.6893488e+19 3.1432133 -3.6893488e+19
2.3205519 -1.0842022e-19 2.5161819
-1.0842022e-19 3.1998692 -2
2.0980618 2 2.5468667
2 3.1406574 3.6893488e+19
2.3184683 -1.0842022e-19 2.5032058
-2 3.1735504 3.6893488e+19
2.0776992 -1.0842022e-19 2.5173686
0 3.2208223 -1.0842022e-19
2.3838196 -0 2.5416391
2 3.2149186 -0
2.3790069 3.6893488e+19 2.5246572
-1.0842022e-19 3.1354783 0
2.048243 3.6893488e+19 2.4426453
1.0842022e-19 3.2181854 3.6893488e+19
2.38167 -0 2.5131934
-3.6893488e+19 3.1546581 -3.6893488e+19
2.0630822 0 2.4416366
-1.0842022e-19 3.1295247 0
2.0436368 0 2.3926406
-0 3.2521937 3.6893488e+19
1.8934636 0 2.4784479
2 3.1441491 -3.6893488e+19
2.1985555 1.0842022e-19 2.3635921
3.6893488e+19 3.2529395 0
1.8938879 -1.0842022e-19 2.4512696
-0 3.1440525 2
2.1984458 -3.6893488e+19 2.3411999
0 3.1797197 -3.6893488e+19
1.8694514 -2 2.359081
2 3.1439054 -2
2.1982782 -2 2.3188069
-3.6893488e+19 3.2132344 0
1.8817585 -3.6893488e+19 2.3609879
0 3.1609628 0
2.2176902 0 2.3094199
3.6893488e+19 3.2173343 -3.6893488e+19
1.8829244 1.0842022e-19 2.3378837
-1.0842022e-19 3.2048841 -2
2.258837 -1.0842022e-19 2.3168461
2 3.2215717 2
1.8841298 1.0842022e-19 2.3144484
2 3.2021966 -1.0842022e-19
2.2573078 3.6893488e+19 2.2895188
-2 3.1695881 0
1.8636881 1.0842022e-19 2.2562301
-0 3.1766586 2
1.8677102 -1.0842022e-19 2.2232518
-1.0842022e-19 3.1485341 -3.6893488e+19
2.3248894 -0 2.1493952
-3.6893488e+19 3.1396828 2
2.051496 -0 2.1171317
-1.0842022e-19 3.2434673 -2
2.4022801 -0 2.1890223
-2 3.1917028 2
2.0917437 -2 2.1166613
0 3.2453537 2
2.4038179 2 2.1350091
3.6893488e+19 3.1932549 -2
2.0929444 2 2.0683415
1.0842022e-19 3.1468852 3.6893488e+19
2.3235452 1.0842022e-19 2.0138845
-3.6893488e+19 3.2565629 1.0842022e-19
2.1470037 -0 2.0611188
-3.6893488e+19 3.2418485 -2
2.4009604 3.6893488e+19 2.0218072
-2 3.1445069 1.0842022e-19
2.0552285 -3.6893488e+19 1.945096
2 3.2416127 0
2.4007683 -2 1.9665015
-2 3.1487637 -2
2.0585217 -0 1.9026341
2 3.2428446 1.0842022e-19
2.4017725 -0 1.9117624
3.6893488e+19 3.1508179 -0
2.060111 3.6893488e+19 1.8422951
-0 3.2294424 -3.6893488e+19
2.3908467 -3.6893488e+19 1.8321798
-3.6893488e+19 3.1458302 2
2.0562522 -3.6893488e+19 1.7511631
-1.0842022e-19 3.1820164 2
1.8707581 0 1.6787313
-1.0842022e-19 3.1781039 -2
2.2371974 2 1.5385225
2 3.1821504 2
1.8708342 3.6893488e+19 -1.2251022
2 3.1760764 -0
2.23489 -0 -1.5933646
-3.6893488e+19 3.1834192 -3.6893488e+19
1.871556 0 -1.7074957
-2 3.1881478 0
2.2486279 2 -1.77914
-3.6893488e+19 3.181824 3.6893488e+19
1.8706486 3.6893488e+19 -1.8247317
3.6893488e+19 3.1529794 2
2.2086048 -3.6893488e+19 -1.8568997
-0 3.1829884 -1.0842022e-19
1.8713109 -3.6893488e+19 -1.8984481
1.0842022e-19 3.1570637 -2
2.2132528 -3.6893488e+19 -1.9126681
0 3.1420612 -3.6893488e+19
1.8480289 -2 -1.9281844
-2 3.1229613 -0
2.1744432 2 -1.9407744
-0 3.1083128 3.6893488e+19
1.8288308 1.0842022e-19 -1.9528629
0 3.1115317 3.6893488e+19
2.1614358 0 -1.9754089
-1.0842022e-19 3.0726595 -3.6893488e+19
1.8085489 -2 -1.9687226
1.0842022e-19 2.9096277 1.0842022e-19
2.0839331 2 -1.9125483
-3.6893488e+19 2.8558993 1.0842022e-19
1.887679 1.0842022e-19 -1.9006251
-1.0842022e-19 2.8215721 -3.6893488e+19
2.0121491 -2 -1.8956813
-2 2.7883341 2
1.848083 2 -1.8881814
0 2.7596326 -0
1.9616554 -0 -1.8822289
-1.0842022e-19 2.7233894 -2
1.8081297 -1.0842022e-19 -1.876701
0 2.6913683 2
1.9299042 2 -1.8746357
-2 2.6552966 -2
1.7817881 -2 -1.864696
0 2.6245608 0
1.9026731 1.0842022e-19 -1.8579633
1.0842022e-19 2.6021879 3.6893488e+19
1.7612431 -1.0842022e-19 -1.8530668
1.0842022e-19 2.5793684 -3.6893488e+19
1.8842523 0 -1.8484378
-2 2.5605638 0
1.7402821 -2 -1.8435775
-3.6893488e+19 2.5451105 -3.6893488e+19
1.8655775 0 -1.8418705
1.0842022e-19 2.5301623 -0
1.7167604 1.0842022e-19 -1.8379524
1.0842022e-19 2.5119958 3.6893488e+19
1.8385819 3.6893488e+19 -1.8323557
-1.0842022e-19 2.5017743 -0
1.6947968 -0 -1.8305697
-0 2.4775257 -0
1.5108232 0 -1.8264791
-2 2.4469671 0
1.7521662 -1.0842022e-19 -1.8203509
-1.0842022e-19 2.4324522 0
1.496006 0 -1.8196666
-1.0842022e-19 2.368993 1.0842022e-19
1.4599065 2 -1.8119769
1.0842022e-19 2.3242476 -2
1.4344523 -1.0842022e-19 -1.8077129
1.0842022e-19 2.2877634 1.0842022e-19
1.4136978 3.6893488e+19 -1.8035566
1.0842022e-19 2.2550268 1.0842022e-19
1.7079008 3.6893488e+19 -1.7987107
1.0842022e-19 2.2152579 -0
1.6896417 -1.0842022e-19 -1.7969019
3.6893488e+19 2.1730344 3.6893488e+19
1.6724312 -3.6893488e+19 -1.7935913
0 2.1367939 -2
1.6576593 -0 -1.7904477
3.6893488e+19 3.1061842 -1.0842022e-19
1.8276199 3.6893488e+19 2.5724952
2 3.1864026 0
2.2466416 -0 2.6141217
-3.6893488e+19 3.1219041 -3.6893488e+19
1.8365624 -0 2.554167
-1.0842022e-19 3.1678979 -0
1.8627266 -1.0842022e-19 2.5675676
-2 3.1833334 -2
2.2431488 0 2.5738065
-0 3.1718528 0
1.8649764 -1.0842022e-19 2.5584006
-2 3.1435072 -2
2.1978252 1.0842022e-19 2.5326777
3.6893488e+19 3.1466005 2
2.3233132 0 2.5299211
-3.6893488e+19 3.1432133 -3.6893488e+19
2.3205519 -1.0842022e-19 2.5161819
-1.0842022e-19 3.1998692 -2
2.0980618 2 2.5468667
2 3.1406574 3.6893488e+19
2.3184683 -1.0842022e-19 2.5032058
-2 3.1735504 3.6893488e+19
2.0776992 -1.0842022e-19 2.5173686
0 3.2208223 -1.0842022e-19
2.3838196 -0 2.5416391
2 3.2149186 -0
2.3790069 3.6893488e+19 2.5246572
-1.0842022e-19 3.1354783 0
2.048243 3.6893488e+19 2.4426453
1.0842022e-19 3.2181854 3.6893488e+19
2.38167 -0 2.5131934
-3.6893488e+19 3.1546581 -3.6893488e+19
2.0630822 0 2.4416366
-1.0842022e-19 3.1295247 0
2.0436368 0 2.3926406
-3.6893488e+19 3.127732 -0
1.8398777 0 2.3583062
2 3.1441491 -3.6893488e+19
2.1985555 1.0842022e-19 2.3635921
-1.0842022e-19 3.1230667 2
1.8372238 3.6893488e+19 2.3327944
-0 3.1440525 2
2.1984458 -3.6893488e+19 2.3411999
0 3.1797197 -3.6893488e+19
1.8694514 -2 2.359081
2 3.1439054 -2
2.1982782 -2 2.3188069
-3.6893488e+19 3.1001935 -0
1.8242121 -2 2.2728977
0 3.1609628 0
2.2176902 0 2.3094199
1.0842022e-19 3.0989604 3.6893488e+19
1.8235105 2 2.2522991
0 3.1558805 -0
2.2119062 -0 2.2827129
2 3.2215717 2
1.8841298 1.0842022e-19 2.3144484
2 3.1393061 -3.6893488e+19
2.1930439 -2 2.2485063
3.6893488e+19 3.1427019 -0
1.8483934 -1.0842022e-19 2.2296228
-2 3.1465793 -2
1.8505992 3.6893488e+19 2.1898878
-1.0842022e-19 3.1485341 -3.6893488e+19
2.3248894 -0 2.1493952
-3.6893488e+19 3.1396828 2
2.051496 -0 2.1171317
-1.0842022e-19 3.1470523 2
2.3236816 0 2.103245
-2 3.1917028 2
2.0917437 -2 2.1166613
3.6893488e+19 3.1470716 0
2.3236973 -0 2.0586202
0 3.1389668 2
2.0509419 3.6893488e+19 2.0293522
1.0842022e-19 3.1468852 3.6893488e+19
2.3235452 1.0842022e-19 2.0138845
1.0842022e-19 3.1398587 -1.0842022e-19
2.0516319 3.6893488e+19 1.9863793
0 3.1480153 3.6893488e+19
2.3244665 0 1.9699527
-2 3.1445069 1.0842022e-19
2.0552285 -3.6893488e+19 1.945096
0 3.1515505 3.6893488e+19
2.3273485 3.6893488e+19 1.926839
-2 3.1487637 -2
2.0585217 -0 1.9026341
2 3.2428446 1.0842022e-19
2.4017725 -0 1.9117624
3.6893488e+19 3.1508179 -0
2.060111 3.6893488e+19 1.8422951
1.0842022e-19 3.1723371 -1.0842022e-19
2.3442938 3.6893488e+19 1.8075031
-3.6893488e+19 3.1458302 2
2.0562522 -3.6893488e+19 1.7511631
3.6893488e+19 3.1361809 -0
1.8446839 3.6893488e+19 1.6597685
-1.0842022e-19 3.1524501 2
2.2080026 -0 1.5287235
2 3.1821504 2
1.8708342 3.6893488e+19 -1.2251022
-2 3.1493316 -3.6893488e+19
2.2044535 3.6893488e+19 -1.5796579
-3.6893488e+19 3.1296167 2
1.8409499 -2 -1.6817381
-2 3.1512432 -1.0842022e-19
2.206629 0 -1.766157
3.6893488e+19 3.13568 1.0842022e-19
1.844399 -2 -1.8033886
3.6893488e+19 3.1529794 2
2.2086048 -3.6893488e+19 -1.8568997
2 3.1404111 1.0842022e-19
1.8470904 -2 -1.8838507
1.0842022e-19 3.1570637 -2
2.2132528 -3.6893488e+19 -1.9126681
-2 3.1075492 -0
1.8283964 -0 -1.9124994
-2 3.1229613 -0
2.1744432 2 -1.9407744
-0 3.1083128 3.6893488e+19
1.8288308 1.0842022e-19 -1.9528629
0 3.1115317 3.6893488e+19
2.1614358 0 -1.9754089
-1.0842022e-19 3.0726595 -3.6893488e+19
1.8085489 -2 -1.9687226
1.0842022e-19 2.9096277 1.0842022e-19
2.0839331 2 -1.9125483
-3.6893488e+19 2.8558993 1.0842022e-19
1.887679 1.0842022e-19 -1.9006251
-1.0842022e-19 2.8215721 -3.6893488e+19
2.0121491 -2 -1.8956813
-2 2.7883341 2
1.848083 2 -1.8881814
0 2.7596326 -0
1.9616554 -0 -1.8822289
-1.0842022e-19 2.7233894 -2
1.8081297 -1.0842022e-19 -1.876701
0 2.6913683 2
1.9299042 2 -1.8746357
-2 2.6552966 -2
1.7817881 -2 -1.864696
0 2.6245608 0
1.9026731 1.0842022e-19 -1.8579633
1.0842022e-19 2.6021879 3.6893488e+19
1.7612431 -1.0842022e-19 -1.8530668
1.0842022e-19 2.5793684 -3.6893488e+19
1.8842523 0 -1.8484378
-2 2.5605638 0
1.7402821 -2 -1.8435775
-3.6893488e+19 2.5451105 -3.6893488e+19
1.8655775 0 -1.8418705
1.0842022e-19 2.5301623 -0
1.7167604 1.0842022e-19 -1.8379524
1.0842022e-19 2.5119958 3.6893488e+19
1.8385819 3.6893488e+19 -1.8323557
-1.0842022e-19 2.5017743 -0
1.6947968 -0 -1.8305697
-0 2.4775257 -0
1.5108232 0 -1.8264791
-2 2.4469671 0
1.7521662 -1.0842022e-19 -1.8203509
-1.0842022e-19 2.4324522 0
1.496006 0 -1.8196666
-1.0842022e-19 2.368993 1.0842022e-19
1.4599065 2 -1.8119769
1.0842022e-19 2.3242476 -2
1.4344523 -1.0842022e-19 -1.8077129
1.0842022e-19 2.2877634 1.0842022e-19
1.4136978 3.6893488e+19 -1.8035566
1.0842022e-19 2.2550268 1.0842022e-19
1.7079008 3.6893488e+19 -1.7987107
1.0842022e-19 2.2152579 -0
1.6896417 -1.0842022e-19 -1.7969019
3.6893488e+19 2.1730344 3.6893488e+19
1.6724312 -3.6893488e+19 -1.7935913
0 2.1367939 -2
1.6576593 -0 -1.7904477
1.0842022e-19 3.1030302 0
1.7962115 -0 2.5696256
-1.0842022e-19 3.0971076 -3.6893488e+19
1.7933391 -0 2.5541027
-3.6893488e+19 3.1013584 -0
1.7954007 -2 2.5475748
3.6893488e+19 3.1841016 -2
2.2257316 1.0842022e-19 2.6121356
0 3.0991747 -2
1.7943416 -3.6893488e+19 2.5355649
3.6893488e+19 3.166903 -2
1.8271883 -3.6893488e+19 2.5667977
0 3.1901557 -1.0842022e-19
2.2323663 -0 2.5788441
1.0842022e-19 3.1779811 -2
2.2190242 -0 2.5573857
3.6893488e+19 3.1445611 -0
2.3132946 -1.0842022e-19 2.5284081
-2 3.2397923 0
2.1083672 0 2.5872328
1.0842022e-19 3.1438384 -1.0842022e-19
2.3127208 3.6893488e+19 2.5165348
1.0842022e-19 3.2008796 0
2.0798957 -2 2.5474966
-2 3.1445365 0
2.3132753 -2 2.5056527
-1.0842022e-19 3.1721225 1.0842022e-19
2.0588551 1.0842022e-19 2.5164344
-2 3.2205467 -3.6893488e+19
2.3736298 -2 2.5413916
2 3.1221967 -3.6893488e+19
2.0223255 1.0842022e-19 2.4485707
0 3.2201486 1.0842022e-19
2.3733137 1.0842022e-19 2.5276737
-2 3.133239 -1.0842022e-19
2.030405 1.0842022e-19 2.4400198
-2 3.2186475 -1.0842022e-19
2.3721218 1.0842022e-19 2.5133839
0 3.1552031 -1.0842022e-19
2.0464754 1.0842022e-19 2.4421766
3.6893488e+19 3.1749179 -1.0842022e-19
2.337399 -2 2.4533613
-3.6893488e+19 3.1552374 -0
2.0465007 -0 2.4191902
3.6893488e+19 3.2507463 -3.6893488e+19
1.8682122 0 2.4756813
2 3.1429822 2
2.1806691 -0 2.3624494
1.0842022e-19 3.2508233 0
1.868287 -0 2.4474747
0 3.1503241 1.0842022e-19
2.188715 3.6893488e+19 2.3465669
-2 3.178122 2
1.8326293 1.0842022e-19 2.3577309
1.0842022e-19 3.1515152 2
2.1900203 1.0842022e-19 2.3249066
0 3.213068 -1.0842022e-19
1.8495772 0 2.3608427
0 3.1527812 3.6893488e+19
2.1914077 2 2.3032043
2 3.0995045 3.6893488e+19
1.7945015 -0 2.2526815
-0 3.1557372 -3.6893488e+19
2.1946471 3.6893488e+19 2.2825615
-3.6893488e+19 3.0927098 3.6893488e+19
1.7912064 1.0842022e-19 2.2070246
1.0842022e-19 3.1931424 1.0842022e-19
2.2356396 3.6893488e+19 2.2836699
-3.6893488e+19 3.1492548 -3.6893488e+19
2.1875432 -0 2.2162516
2 3.1809788 -2
1.8340147 -1.0842022e-19 2.2280231
-3.6893488e+19 3.1822522 0
2.3432229 3.6893488e+19 2.1830721
1.0842022e-19 3.1396687 -3.6893488e+19
2.0351093 2 2.1170731
-1.0842022e-19 3.1492994 2
2.3170571 3.6893488e+19 2.1051505
-0 3.1342385 -1.0842022e-19
2.0311363 2 2.0689204
2 3.1483877 -1.0842022e-19
2.3163331 -0 2.0595615
2 3.1339314 0
2.0309117 -2 2.0257018
3.6893488e+19 3.2576067 -3.6893488e+19
2.4090967 -1.0842022e-19 2.0924695
-1.0842022e-19 3.1410921 2
2.0361509 -3.6893488e+19 1.9870979
-2 3.1481822 -1.0842022e-19
2.31617 1.0842022e-19 1.969987
-3.6893488e+19 3.2436547 2
2.1111932 1.0842022e-19 1.9940977
3.6893488e+19 3.1523402 2
2.3194716 1.0842022e-19 1.9271401
-1.0842022e-19 3.228332 -3.6893488e+19
2.0999818 -1.0842022e-19 1.9330678
-2 3.2429433 -2
2.3914135 -3.6893488e+19 1.9117521
-2 3.225903 -2
2.0982046 2 1.8789846
-3.6893488e+19 3.2269256 3.6893488e+19
2.378695 -1.0842022e-19 1.831038
-2 3.1471589 -0
2.0405898 -0 1.7515711
-1.0842022e-19 3.1830661 1.0842022e-19
1.8350271 3.6893488e+19 1.6791579
0 3.1828589 -1.0842022e-19
2.2243698 0 1.5403085
1.0842022e-19 3.1819503 2
1.8344859 -2 -1.2249882
2 3.1865985 1.0842022e-19
2.2284682 -2 -1.5987163
3.6893488e+19 3.1828756 -3.6893488e+19
1.8349346 -0 -1.7072264
-2 3.1874797 1.0842022e-19
2.229434 -1.0842022e-19 -1.7788768
3.6893488e+19 3.181999 3.6893488e+19
1.8345095 -0 -1.8248039
-3.6893488e+19 3.1515567 -3.6893488e+19
2.1900659 3.6893488e+19 -1.8560389
3.6893488e+19 3.1836631 -1.0842022e-19
1.8353165 -0 -1.8986731
-0 3.1576991 1.0842022e-19
2.1967974 1.0842022e-19 -1.9128923
-3.6893488e+19 3.1412971 1.0842022e-19
1.8147701 0 -1.9278296
2 3.1219702 -0
2.1576419 -3.6893488e+19 -1.9402325
2 3.1083596 -1.0842022e-19
1.7987961 -0 -1.9528805
1.0842022e-19 3.1112552 3.6893488e+19
2.1458993 1.0842022e-19 -1.9751953
-2 3.0717993 -0
1.7810652 -0 -1.9681301
1.0842022e-19 2.9083691 -2
2.0742586 3.6893488e+19 -1.9120061
-3.6893488e+19 2.8506436 2
1.878278 -1.0842022e-19 -1.8983824
-1.0842022e-19 2.820477 -3.6893488e+19
2.0044694 2 -1.895147
2 2.7896786 0
1.8369496 1.0842022e-19 -1.8888086
0 2.7607563 -1.0842022e-19
1.9570491 3.6893488e+19 -1.8827661
3.6893488e+19 2.7231987 1.0842022e-19
1.798113 2 -1.8766344
-1.0842022e-19 2.6913605 3.6893488e+19
1.9252275 -2 -1.8745655
-3.6893488e+19 2.6550975 0
1.7731992 3.6893488e+19 -1.8645488
1.0842022e-19 2.6246595 0
1.8987461 1.0842022e-19 -1.8579633
0 2.6014845 1.0842022e-19
1.7535856 3.6893488e+19 -1.8525833
1.0842022e-19 2.5795791 2
1.8808484 1.0842022e-19 -1.8485218
1.0842022e-19 2.5602291 -2
1.7269857 -3.6893488e+19 -1.8433149
-0 2.5441973 0
1.8586026 -0 -1.8411424
3.6893488e+19 2.5303211 0
1.705103 -1.0842022e-19 -1.8380468
0 2.5121887 -2
1.8331865 0 -1.8324537
-0 2.50106 1.0842022e-19
1.6836935 0 -1.8299613
-0 2.4777949 1.0842022e-19
1.4817195 -2 -1.8265839
-1.0842022e-19 2.4468009 2
1.7448245 -2 -1.8202425
1.0842022e-19 3.1030302 0
1.7962115 -0 2.5696256
-1.0842022e-19 3.0971076 -3.6893488e+19
1.7933391 -0 2.5541027
-3.6893488e+19 3.1013584 -0
1.7954007 -2 2.5475748
3.6893488e+19 3.1841016 -2
2.2257316 1.0842022e-19 2.6121356
0 3.0991747 -2
1.7943416 -3.6893488e+19 2.5355649
3.6893488e+19 3.166903 -2
1.8271883 -3.6893488e+19 2.5667977
0 3.1901557 -1.0842022e-19
2.2323663 -0 2.5788441
2 3.1433032 2
2.1810207 1.0842022e-19 2.5324793
3.6893488e+19 3.1445611 -0
2.3132946 -1.0842022e-19 2.5284081
-2 3.2397923 0
2.1083672 0 2.5872328
1.0842022e-19 3.1438384 -1.0842022e-19
2.3127208 3.6893488e+19 2.5165348
1.0842022e-19 3.2008796 0
2.0798957 -2 2.5474966
-2 3.1445365 0
2.3132753 -2 2.5056527
-1.0842022e-19 3.1721225 1.0842022e-19
2.0588551 1.0842022e-19 2.5164344
-1.0842022e-19 3.1425116 1.0842022e-19
2.3116674 -1.0842022e-19 2.486135
2 3.1221967 -3.6893488e+19
2.0223255 1.0842022e-19 2.4485707
-1.0842022e-19 3.1518767 -3.6893488e+19
2.3191035 1.0842022e-19 2.4747038
-2 3.133239 -1.0842022e-19
2.030405 1.0842022e-19 2.4400198
-2 3.2186475 -1.0842022e-19
2.3721218 1.0842022e-19 2.5133839
0 3.1552031 -1.0842022e-19
2.0464754 1.0842022e-19 2.4421766
3.6893488e+19 3.1749179 -1.0842022e-19
2.337399 -2 2.4533613
-2 3.1296024 3.6893488e+19
2.0277443 3.6893488e+19 2.3926725
-3.6893488e+19 3.1206427 2
1.8047532 -1.0842022e-19 2.3515661
2 3.1429822 2
2.1806691 -0 2.3624494
-0 3.1217475 -0
1.8052889 3.6893488e+19 2.3316033
0 3.1503241 1.0842022e-19
2.188715 3.6893488e+19 2.3465669
-2 3.178122 2
1.8326293 1.0842022e-19 2.3577309
1.0842022e-19 3.1515152 2
2.1900203 1.0842022e-19 2.3249066
2 3.1002088 -2
1.7948431 -2 2.2728977
0 3.1527812 3.6893488e+19
2.1914077 2 2.3032043
2 3.0995045 3.6893488e+19
1.7945015 -0 2.2526815
-0 3.1557372 -3.6893488e+19
2.1946471 3.6893488e+19 2.2825615
-3.6893488e+19 3.0927098 3.6893488e+19
1.7912064 1.0842022e-19 2.2070246
-2 3.1405892 1.0842022e-19
2.1780467 1.0842022e-19 2.2500291
-3.6893488e+19 3.1492548 -3.6893488e+19
2.1875432 -0 2.2162516
-0 3.1455054 -0
1.816811 -3.6893488e+19 2.1886775
2 3.1470563 -2
2.3152759 -2 2.1478093
1.0842022e-19 3.1396687 -3.6893488e+19
2.0351093 2 2.1170731
-1.0842022e-19 3.1492994 2
2.3170571 3.6893488e+19 2.1051505
-0 3.1342385 -1.0842022e-19
2.0311363 2 2.0689204
2 3.1483877 -1.0842022e-19
2.3163331 -0 2.0595615
2 3.1339314 0
2.0309117 -2 2.0257018
3.6893488e+19 3.1492579 -3.6893488e+19
2.317024 -2 2.0153921
-1.0842022e-19 3.1410921 2
2.0361509 -3.6893488e+19 1.9870979
-2 3.1481822 -1.0842022e-19
2.31617 1.0842022e-19 1.969987
-3.6893488e+19 3.1452732 -3.6893488e+19
2.0392101 -1.0842022e-19 1.9454509
3.6893488e+19 3.1523402 2
2.3194716 1.0842022e-19 1.9271401
-3.6893488e+19 3.1470027 3.6893488e+19
2.0404756 1.0842022e-19 1.9019414
-2 3.2429433 -2
2.3914135 -3.6893488e+19 1.9117521
-3.6893488e+19 3.1503677 2
2.0429378 -1.0842022e-19 1.8420243
3.6893488e+19 3.1739409 -1.0842022e-19
2.3366232 3.6893488e+19 1.8081479
-2 3.1471589 -0
2.0405898 -0 1.7515711
0 3.1331356 -3.6893488e+19
1.8108118 0 1.6585017
3.6893488e+19 3.152555 -2
2.1911597 3.6893488e+19 1.5287354
3.6893488e+19 3.1437047 3.6893488e+19
1.8159376 -1.0842022e-19 -1.2050674
3.6893488e+19 3.1484382 0
2.1866484 1.0842022e-19 -1.5791627
1.0842022e-19 3.1312268 -1.0842022e-19
1.8098861 0 -1.6825011
-3.6893488e+19 3.1489785 -2
2.1872404 2 -1.7653346
1.0842022e-19 3.1371651 2
1.8127661 0 -1.8040679
-3.6893488e+19 3.1515567 -3.6893488e+19
2.1900659 3.6893488e+19 -1.8560389
-1.0842022e-19 3.1340864 -2
1.811273 2 -1.8816767
-0 3.1576991 1.0842022e-19
2.1967974 1.0842022e-19 -1.9128923
-0 3.1085641 0
1.7988954 -2 -1.9129536
2 3.1219702 -0
2.1576419 -3.6893488e+19 -1.9402325
2 3.1083596 -1.0842022e-19
1.7987961 -0 -1.9528805
1.0842022e-19 3.1112552 3.6893488e+19
2.1458993 1.0842022e-19 -1.9751953
-2 3.0717993 -0
1.7810652 -0 -1.9681301
1.0842022e-19 2.9083691 -2
2.0742586 3.6893488e+19 -1.9120061
-3.6893488e+19 2.8506436 2
1.878278 -1.0842022e-19 -1.8983824
-1.0842022e-19 2.820477 -3.6893488e+19
2.0044694 2 -1.895147
2 2.7896786 0
1.8369496 1.0842022e-19 -1.8888086
0 2.7607563 -1.0842022e-19
1.9570491 3.6893488e+19 -1.8827661
3.6893488e+19 2.7231987 1.0842022e-19
1.798113 2 -1.8766344
-1.0842022e-19 2.6913605 3.6893488e+19
1.9252275 -2 -1.8745655
-3.6893488e+19 2.6550975 0
1.7731992 3.6893488e+19 -1.8645488
1.0842022e-19 2.6246595 0
1.8987461 1.0842022e-19 -1.8579633
0 2.6014845 1.0842022e-19
1.7535856 3.6893488e+19 -1.8525833
1.0842022e-19 2.5795791 2
1.8808484 1.0842022e-19 -1.8485218
1.0842022e-19 2.5602291 -2
1.7269857 -3.6893488e+19 -1.8433149
-0 2.5441973 0
1.8586026 -0 -1.8411424
3.6893488e+19 2.5303211 0
1.705103 -1.0842022e-19 -1.8380468
0 2.5121887 -2
1.8331865 0 -1.8324537
-0 2.50106 1.0842022e-19
1.6836935 0 -1.8299613
-0 2.4777949 1.0842022e-19
1.4817195 -2 -1.8265839
-1.0842022e-19 2.4468009 2
1.7448245 -2 -1.8202425
-0 3.1184521 1.0842022e-19
1.7727692 -2 2.5943935
-3.6893488e+19 3.1030428 3.6893488e+19
1.7665893 -0 2.5696256
-2 3.1395793 2
1.7812424 0 2.5913
-1.0842022e-19 3.1023495 -1.0842022e-19
1.7663112 -1.0842022e-19 2.5484033
-0 3.0992179 -3.6893488e+19
1.7650552 -3.6893488e+19 2.5355899
-3.6893488e+19 3.1666725 -1.0842022e-19
1.7921082 2 2.5666113
2 3.1772277 3.6893488e+19
2.2001941 -0 2.5567906
0 3.1396687 -1.0842022e-19
2.3011575 0 2.5248854
-3.6893488e+19 3.1420376 -0
2.3029885 -0 2.5152481
0 3.2011478 1.0842022e-19
2.0611274 -0 2.5476389
-2 3.1465111 3.6893488e+19
2.3064458 -1.0842022e-19 2.5068662
3.6893488e+19 3.1723258 -2
2.0412507 2 2.5165317
3.6893488e+19 3.2208214 -3.6893488e+19
2.3638768 -3.6893488e+19 2.5414867
3.6893488e+19 3.1214373 -1.0842022e-19
2.0061562 -3.6893488e+19 2.4476032
-3.6893488e+19 3.2193151 3.6893488e+19
2.3627129 -0 2.5271103
0 3.1271029 2
2.0100634 -1.0842022e-19 2.4329238
-2 3.1863296 -3.6893488e+19
2.3372197 2 2.4903159
-3.6893488e+19 3.1598594 3.6893488e+19
2.0326536 -2 2.4472058
1.0842022e-19 3.1863127 -0
2.3372066 3.6893488e+19 2.4653993
3.6893488e+19 3.1572974 2
2.0308867 -2 2.4212718
3.6893488e+19 3.2513449 3.6893488e+19
1.8266058 0 2.4767997
1.0842022e-19 3.1514776 2
2.1730597 -0 2.3702195
-2 3.2505372 -3.6893488e+19
1.8259579 -3.6893488e+19 2.4469483
0 3.1525648 2
2.1742053 0 2.3484454
0 3.1777959 2
1.7965692 0 2.3574452
0 3.2084856 -3.6893488e+19
2.2331321 -0 2.3709416
0 3.0996928 2
1.7652457 -2 2.2724857
2 3.2055371 2
2.2300253 1.0842022e-19 2.3428574
-1.0842022e-19 3.1602025 -1.0842022e-19
1.7895133 0 2.2965539
3.6893488e+19 3.1544728 -2
2.1762159 2 2.2816315
-2 3.0933139 3.6893488e+19
1.7626874 3.6893488e+19 2.2078135
0 3.1823723 1.0842022e-19
2.2056153 2 2.276727
3.6893488e+19 3.1813989 -3.6893488e+19
1.7980142 -0 2.2634215
1.0842022e-19 3.1514401 -3.6893488e+19
2.1730201 3.6893488e+19 2.2187209
-1.0842022e-19 3.182023 1.0842022e-19
1.7982646 1.0842022e-19 2.2291641
1.0842022e-19 3.1406505 1.0842022e-19
2.1616507 1.0842022e-19 2.1622422
1.0842022e-19 3.1739812 -3.6893488e+19
2.3276761 -0 2.1746762
-0 3.1426437 0
2.020781 3.6893488e+19 2.1198325
-3.6893488e+19 3.1490602 0
2.3084161 3.6893488e+19 2.1048467
1.0842022e-19 3.1503541 -1.0842022e-19
2.3094158 3.6893488e+19 2.0610096
-3.6893488e+19 3.1370637 0
2.016933 -2 2.0279188
2 3.1485524 2
2.3080235 -0 2.0148551
-2 3.1471653 2
2.3069515 -3.6893488e+19 1.9693688
-0 3.237752 -0
2.0863709 -3.6893488e+19 1.9911507
2 3.1511998 1.0842022e-19
2.3100696 -2 1.9265926
-0 3.2340372 2
2.0838091 -3.6893488e+19 1.9352297
-3.6893488e+19 3.2388093 -3.6893488e+19
2.377779 3.6893488e+19 1.9103545
0 3.2242105 0
2.0770323 2 1.8785108
-0 3.2242179 0
2.366502 2 1.8298156
0 3.2155759 1.0842022e-19
2.0710776 -1.0842022e-19 1.7733576
0 3.2098293 -3.6893488e+19
1.8094163 2 1.6902227
-3.6893488e+19 3.1835275 3.6893488e+19
2.2068326 -1.0842022e-19 1.5405346
3.6893488e+19 3.2064641 3.6893488e+19
1.8080667 3.6893488e+19 -1.237748
2 3.18574 -1.0842022e-19
2.2091639 -0 -1.598237
-2 3.1858284 -1.0842022e-19
1.7997907 2 -1.7086325
0 3.1871204 -1.0842022e-19
2.2106185 -3.6893488e+19 -1.7787232
-2 3.1876385 2
1.8005167 -2 -1.827405
-3.6893488e+19 3.1506298 -3.6893488e+19
2.1721663 0 -1.8554651
2 3.1864905 -2
1.8000562 1.0842022e-19 -1.899637
1.0842022e-19 3.1567423 2
2.1786075 -3.6893488e+19 -1.9124813
0 3.1398122 3.6893488e+19
1.7813357 -0 -1.9271482
-1.0842022e-19 3.1221914 -1.0842022e-19
2.1421993 3.6893488e+19 -1.9403123
-3.6893488e+19 3.1067486 -1.0842022e-19
1.7680755 0 -1.9519613
-0 3.1093557 3.6893488e+19
2.1286736 0 -1.9739718
-2 3.0713115 -3.6893488e+19
1.7538632 2 -1.9677916
0 2.9014528 -3.6893488e+19
2.0602648 -0 -1.9092214
-0 2.8538647 3.6893488e+19
1.8690376 1.0842022e-19 -1.8997281
2 2.8163979 -2
1.9945298 -1.0842022e-19 -1.8932626
2 2.7879047 -0
1.8235493 1.0842022e-19 -1.8879426
-2 2.7624993 3.6893488e+19
1.9528742 2 -1.8836194
1.0842022e-19 2.7274904 3.6893488e+19
1.7896471 0 -1.877768
-2 2.6863852 -3.6893488e+19
1.9186313 -3.6893488e+19 -1.8716888
0 2.6552694 0
1.764744 0 -1.8646225
0 2.6272368 -1.0842022e-19
1.8957747 -3.6893488e+19 -1.8595055
3.6893488e+19 2.6011519 -2
1.7421668 2 -1.8523415
1.0842022e-19 2.5799117 0
1.8774871 3.6893488e+19 -1.8486899
-3.6893488e+19 2.5601406 -0
1.713884 3.6893488e+19 -1.8432274
3.6893488e+19 2.5431578 2
1.8515687 -3.6893488e+19 -1.8403233
0 2.5299809 0
1.6930847 0 -1.8377634
-3.6893488e+19 2.5110176 -3.6893488e+19
1.8267289 -0 -1.8314742
1.0842022e-19 2.5010893 2
1.6731601 0 -1.8299613
2 2.4778123 -3.6893488e+19
1.4416285 -2 -1.8265839
0 2.4471278 0
1.735582 -1.0842022e-19 -1.8203509
-2 2.4324865 -0
1.4234505 0 -1.8196666
1.0842022e-19 2.3670385 1.0842022e-19
1.3972023 -1.0842022e-19 -1.8109716
-0 2.3245208 -3.6893488e+19
1.3801503 -1.0842022e-19 -1.8078524
-0 2.2823515 -0
1.3514764 -3.6893488e+19 -1.8001846
3.6893488e+19 2.2573676 -3.6893488e+19
1.698908 -1.0842022e-19 -1.8002139
-3.6893488e+19 2.2145209 -2
1.6795038 0 -1.7965405
-1.0842022e-19 2.1737428 3.6893488e+19
1.663746 1.0842022e-19 -1.7937858
-2 2.1365082 3.6893488e+19
1.6493576 -2 -1.7902396
-0 3.1184521 1.0842022e-19
1.7727692 -2 2.5943935
-3.6893488e+19 3.1030428 3.6893488e+19
1.7665893 -0 2.5696256
3.6893488e+19 3.0980666 3.6893488e+19
1.7645935 -0 2.5549316
-1.0842022e-19 3.1023495 -1.0842022e-19
1.7663112 -1.0842022e-19 2.5484033
-0 3.0992179 -3.6893488e+19
1.7650552 -3.6893488e+19 2.5355899
-3.6893488e+19 3.1666725 -1.0842022e-19
1.7921082 2 2.5666113
-3.6893488e+19 3.1430039 -0
2.1641307 -2 2.5322146
0 3.1396687 -1.0842022e-19
2.3011575 0 2.5248854
-3.6893488e+19 3.1420376 -0
2.3029885 -0 2.5152481
-3.6893488e+19 3.1698799 1.0842022e-19
2.0395641 -0 2.5270104
-2 3.1465111 3.6893488e+19
2.3064458 -1.0842022e-19 2.5068662
3.6893488e+19 3.1723258 -2
2.0412507 2 2.5165317
-0 3.1435962 3.6893488e+19
2.304193 -1.0842022e-19 2.4873531
3.6893488e+19 3.1214373 -1.0842022e-19
2.0061562 -3.6893488e+19 2.4476032
2 3.1498873 -0
2.3090551 -3.6893488e+19 2.4722323
0 3.1271029 2
2.0100634 -1.0842022e-19 2.4329238
-2 3.1863296 -3.6893488e+19
2.3372197 2 2.4903159
-3.6893488e+19 3.1598594 3.6893488e+19
2.0326536 -2 2.4472058
1.0842022e-19 3.1863127 -0
2.3372066 3.6893488e+19 2.4653993
-1.0842022e-19 3.1297705 0
2.0119033 -1.0842022e-19 2.3928006
3.6893488e+19 3.2513449 3.6893488e+19
1.8266058 0 2.4767997
1.0842022e-19 3.1514776 2
2.1730597 -0 2.3702195
-2 3.2505372 -3.6893488e+19
1.8259579 -3.6893488e+19 2.4469483
0 3.1525648 2
2.1742053 0 2.3484454
0 3.1777959 2
1.7965692 0 2.3574452
-1.0842022e-19 3.1535094 -3.6893488e+19
2.1752007 -0 2.3264627
0 3.0996928 2
1.7652457 -2 2.2724857
-2 3.1518896 -3.6893488e+19
2.1734939 1.0842022e-19 2.30248
-1.0842022e-19 3.1003573 2
1.7655122 3.6893488e+19 2.253289
3.6893488e+19 3.1544728 -2
2.1762159 2 2.2816315
-2 3.0933139 3.6893488e+19
1.7626874 3.6893488e+19 2.2078135
2 3.1386688 3.6893488e+19
2.1595623 -2 2.2475116
3.6893488e+19 3.1813989 -3.6893488e+19
1.7980142 -0 2.2634215
1.0842022e-19 3.1514401 -3.6893488e+19
2.1730201 3.6893488e+19 2.2187209
3.6893488e+19 3.1445847 3.6893488e+19
1.7832497 3.6893488e+19 2.1876404
1.0842022e-19 3.1406505 1.0842022e-19
2.1616507 1.0842022e-19 2.1622422
1.0842022e-19 3.1449852 -2
2.3052664 0 2.1456327
-0 3.1426437 0
2.020781 3.6893488e+19 2.1198325
-3.6893488e+19 3.1490602 0
2.3084161 3.6893488e+19 2.1048467
1.0842022e-19 3.1503541 -1.0842022e-19
2.3094158 3.6893488e+19 2.0610096
-3.6893488e+19 3.1370637 0
2.016933 -2 2.0279188
2 3.1485524 2
2.3080235 -0 2.0148551
-2 3.1471653 2
2.3069515 -3.6893488e+19 1.9693688
-0 3.237752 -0
2.0863709 -3.6893488e+19 1.9911507
2 3.1511998 1.0842022e-19
2.3100696 -2 1.9265926
2 3.1440215 2
2.0217311 2 1.9007828
-1.0842022e-19 3.147939 0
2.3075495 -2 1.8805443
-0 3.1454198 1.0842022e-19
2.0226955 -3.6893488e+19 1.8393172
-0 3.2242179 0
2.366502 2 1.8298156
-1.0842022e-19 3.1456442 1.0842022e-19
2.0228503 -3.6893488e+19 1.7510736
3.6893488e+19 3.1331494 0
1.7786636 0 1.6585017
1.0842022e-19 3.1502249 -3.6893488e+19
2.1717396 -3.6893488e+19 1.5278186
-0 3.1361883 -2
1.7798823 -2 -1.2011451
-1.0842022e-19 3.1535287 2
2.1752212 -1.0842022e-19 -1.5817347
-1.0842022e-19 3.1394584 -1.0842022e-19
1.7811939 1.0842022e-19 -1.686435
0 3.1491425 -1.0842022e-19
2.170599 2 -1.7653675
2 3.1338985 1.0842022e-19
1.778964 2 -1.8025506
-3.6893488e+19 3.1506298 -3.6893488e+19
2.1721663 0 -1.8554651
0 3.13585 1.0842022e-19
1.7797467 2 -1.8822764
1.0842022e-19 3.1567423 2
2.1786075 -3.6893488e+19 -1.9124813
0 3.1398122 3.6893488e+19
1.7813357 -0 -1.9271482
-1.0842022e-19 3.1221914 -1.0842022e-19
2.1421993 3.6893488e+19 -1.9403123
-3.6893488e+19 3.1067486 -1.0842022e-19
1.7680755 0 -1.9519613
-0 3.1093557 3.6893488e+19
2.1286736 0 -1.9739718
-2 3.0713115 -3.6893488e+19
1.7538632 2 -1.9677916
0 2.9014528 -3.6893488e+19
2.0602648 -0 -1.9092214
-0 2.8538647 3.6893488e+19
1.8690376 1.0842022e-19 -1.8997281
2 2.8163979 -2
1.9945298 -1.0842022e-19 -1.8932626
2 2.7879047 -0
1.8235493 1.0842022e-19 -1.8879426
-2 2.7624993 3.6893488e+19
1.9528742 2 -1.8836194
1.0842022e-19 2.7274904 3.6893488e+19
1.7896471 0 -1.877768
-2 2.6863852 -3.6893488e+19
1.9186313 -3.6893488e+19 -1.8716888
0 2.6552694 0
1.764744 0 -1.8646225
0 2.6272368 -1.0842022e-19
1.8957747 -3.6893488e+19 -1.8595055
3.6893488e+19 2.6011519 -2
1.7421668 2 -1.8523415
1.0842022e-19 2.5799117 0
1.8774871 3.6893488e+19 -1.8486899
-3.6893488e+19 2.5601406 -0
1.713884 3.6893488e+19 -1.8432274
3.6893488e+19 2.5431578 2
1.8515687 -3.6893488e+19 -1.8403233
0 2.5299809 0
1.6930847 0 -1.8377634
-3.6893488e+19 2.5110176 -3.6893488e+19
1.8267289 -0 -1.8314742
1.0842022e-19 2.5010893 2
1.6731601 0 -1.8299613
2 2.4778123 -3.6893488e+19
1.4416285 -2 -1.8265839
0 2.4471278 0
1.735582 -1.0842022e-19 -1.8203509
-2 2.4324865 -0
1.4234505 0 -1.8196666
1.0842022e-19 2.3670385 1.0842022e-19
1.3972023 -1.0842022e-19 -1.8109716
-0 2.3245208 -3.6893488e+19
1.3801503 -1.0842022e-19 -1.8078524
-0 2.2823515 -0
1.3514764 -3.6893488e+19 -1.8001846
3.6893488e+19 2.2573676 -3.6893488e+19
1.698908 -1.0842022e-19 -1.8002139
-3.6893488e+19 2.2145209 -2
1.6795038 0 -1.7965405
-1.0842022e-19 2.1737428 3.6893488e+19
1.663746 1.0842022e-19 -1.7937858
-2 2.1365082 3.6893488e+19
1.6493576 -2 -1.7902396
1.0842022e-19 3.1170931 2
1.7369382 -2 2.5931137
-3.6893488e+19 3.1045156 -2
1.7288202 -0 2.57095
1.0842022e-19 3.0985341 0
1.7249595 -3.6893488e+19 2.5553327
0 3.1262271 3.6893488e+19
2.1316569 0 2.5747349
-2 3.1026955 -3.6893488e+19
1.7276454 1.0842022e-19 2.5486882
2 3.1251645 2
2.130579 -0 2.5628645
3.6893488e+19 3.0993195 3.6893488e+19
1.7254664 0 2.5356653
-3.6893488e+19 3.1189113 3.6893488e+19
2.1242356 -3.6893488e+19 2.5469124
-1.0842022e-19 3.1044993 -1.0842022e-19
1.7288097 -0 2.529618
3.6893488e+19 3.0932052 -1.0842022e-19
1.7215199 -3.6893488e+19 2.5008774
0 3.1772647 -3.6893488e+19
2.1834309 0 2.5567687
-3.6893488e+19 3.1397901 -2
2.2935498 -1.0842022e-19 2.5249069
-2 3.2023878 2
2.0442357 -1.0842022e-19 2.5614107
0 3.1418226 1.0842022e-19
2.2950804 1.0842022e-19 2.5150406
-2 3.2025495 2
2.0443408 2 2.5485332
-0 3.1459279 2
2.2981722 -3.6893488e+19 2.5064285
-3.6893488e+19 3.1741271 2
2.0258548 -0 2.5176411
3.6893488e+19 3.220962 -2
2.3546801 -2 2.5415058
-3.6893488e+19 3.1206725 -3.6893488e+19
1.9910876 -2 2.446636
-2 3.220933 1.0842022e-19
2.3546584 0 2.5280008
2 3.1280687 -2
1.995898 0 2.4339883
1.0842022e-19 3.1864624 0
2.3286986 -0 2.4903505
2 3.1629026 3.6893488e+19
2.0185542 -0 2.45048
-3.6893488e+19 3.1617982 0
2.0178361 -3.6893488e+19 2.4258835
-1.0842022e-19 3.1769879 1.0842022e-19
1.7627985 0 2.4049854
1.0842022e-19 3.1517889 -3.6893488e+19
2.1575875 -3.6893488e+19 2.3704479
2 3.1756535 2
1.7623678 -0 2.3796637
1.0842022e-19 3.1531556 -1.0842022e-19
2.1589739 3.6893488e+19 2.3489015
0 3.1702554 -1.0842022e-19
1.7606257 2 2.351135
0 3.193881 -2
2.2002871 -0 2.3590689
0 3.1653261 1.0842022e-19
1.759035 3.6893488e+19 2.3236194
-0 3.1924746 1.0842022e-19
2.1988606 -0 2.3329732
0 3.1678388 3.6893488e+19
1.7598459 -1.0842022e-19 2.3020658
3.6893488e+19 3.1563389 -0
2.1622033 3.6893488e+19 2.282886
0 3.1806414 -0
1.7639775 1.0842022e-19 2.2871249
3.6893488e+19 3.1842749 -0
2.1905425 2 2.2779007
-2 3.1805694 1.0842022e-19
1.7639544 0 2.262908
-3.6893488e+19 3.189887 -3.6893488e+19
2.1962357 -0 2.2567651
-0 3.1821909 -0
1.7644776 2 2.229337
-3.6893488e+19 3.1891038 3.6893488e+19
2.1954412 1.0842022e-19 2.2133005
-2 3.1832404 1.0842022e-19
2.3262722 0 2.1838496
3.6893488e+19 3.1425593 -3.6893488e+19
2.0053227 0 2.1197152
-3.6893488e+19 3.1658664 3.6893488e+19
2.3131878 3.6893488e+19 2.1197045
0 3.1371915 3.6893488e+19
2.0018315 1.0842022e-19 2.071301
0 3.1486142 -3.6893488e+19
2.300195 -2 2.0595856
-3.6893488e+19 3.1386631 2
2.0027888 3.6893488e+19 2.0290387
-2 3.1497955 0
2.301085 -2 2.0156193
1.0842022e-19 3.1446724 2
2.0066972 0 1.9892161
3.6893488e+19 3.1435268 -1.0842022e-19
2.2963638 -0 1.9673084
-3.6893488e+19 3.1454222 2
2.007185 -0 1.9454818
-1.0842022e-19 3.2454355 -1.0842022e-19
2.373111 3.6893488e+19 1.9680207
-0 3.2337434 2
2.0646296 -2 1.9350983
0 3.2311783 -1.0842022e-19
2.3623738 -3.6893488e+19 1.9078141
-0 3.1454604 1.0842022e-19
2.0072098 -3.6893488e+19 1.8393172
-3.6893488e+19 3.2242041 -2
2.3571217 -1.0842022e-19 1.8297619
-0 3.1457784 -2
2.0074165 2 1.7511035
-0 3.2104356 -0
1.7735928 -0 1.6904683
1.0842022e-19 3.149914 2
2.1556857 2 1.5276757
0 3.2068205 2
1.7724261 1.0842022e-19 -1.2379271
1.0842022e-19 3.1850293 0
2.1913078 1.0842022e-19 -1.5978377
-3.6893488e+19 3.2023392 1.0842022e-19
1.77098 3.6893488e+19 -1.7165302
0 3.1939569 3.6893488e+19
2.2003641 3.6893488e+19 -1.7811028
3.6893488e+19 3.1892755 -3.6893488e+19
1.7667639 0 -1.8281565
-3.6893488e+19 3.1503813 3.6893488e+19
2.1561599 3.6893488e+19 -1.8552856
-0 3.1880021 -1.0842022e-19
1.766353 3.6893488e+19 -1.900151
-3.6893488e+19 3.1548111 -0
2.1606536 -0 -1.9116844
0 3.1391671 -0
1.7505928 0 -1.9268502
-3.6893488e+19 3.1211281 -1.0842022e-19
2.1264844 -1.0842022e-19 -1.9397385
-2 3.1039479 -3.6893488e+19
1.7284538 0 -1.9503702
-3.6893488e+19 3.1079166 -3.6893488e+19
2.1130822 3.6893488e+19 -1.9730396
2 3.0705087 -3.6893488e+19
1.7068706 -3.6893488e+19 -1.9672413
1.0842022e-19 2.9032245 -1.0842022e-19
2.0536671 0 -1.9098868
1.0842022e-19 2.8542752 -1.0842022e-19
1.8554226 0 -1.8998864
-1.0842022e-19 2.8213797 -1.0842022e-19
1.9920301 2 -1.8954844
2 2.7899914 0
1.8136121 2 -1.8889281
-0 2.7623744 -0
1.9475935 0 -1.8835247
1.0842022e-19 2.72243 -3.6893488e+19
1.7786355 3.6893488e+19 -1.8764009
0 2.6859906 -0
1.9141716 -0 -1.8714082
-0 2.6556845 -0
1.7569298 2 -1.8648434
3.6893488e+19 2.6270766 1.0842022e-19
1.8919877 0 -1.8593514
0 2.6000676 -1.0842022e-19
1.7276859 0 -1.8516163
-2 2.5776324 2
1.8717391 3.6893488e+19 -1.8470927
1.0842022e-19 2.560297 -0
1.7018189 -3.6893488e+19 -1.8433149
1.0842022e-19 2.5447135 0
1.8469479 -3.6893488e+19 -1.8414154
-3.6893488e+19 2.5301337 -0
1.6822007 -0 -1.8378578
-0 2.5103354 -1.0842022e-19
1.8210579 -1.0842022e-19 -1.8308865
2 2.5003695 3.6893488e+19
1.6628418 -0 -1.8293527
-0 2.4780741 1.0842022e-19
1.4042852 -1.0842022e-19 -1.8266888
3.6893488e+19 2.4469504 -3.6893488e+19
1.7267004 -2 -1.8202425
1.0842022e-19 3.1170931 2
1.7369382 -2 2.5931137
-3.6893488e+19 3.1045156 -2
1.7288202 -0 2.57095
1.0842022e-19 3.0985341 0
