# .PCD v0.7 - Point Cloud Data file format
VERSION 0.7
FIELDS x y z
SIZE 4 4 4
TYPE F F F
COUNT 1 1 1
WIDTH 1741
HEIGHT 1
VIEWPOINT 0 0 0 1 0 0 0
POINTS 1741
DATA ascii
3.6893488e+19 2.7059727 1.0842022e-19
2.2521484 3.6893488e+19 -1.8263103
0 2.6530879 1.0842022e-19
2.2698343 0 -1.8177664
-1.0842022e-19 2.6231725 -3.6893488e+19
2.1627214 2 -1.8114182
-3.6893488e+19 2.5967276 3.6893488e+19
2.2142117 -3.6893488e+19 -1.8112805
-2 2.5655472 -2
2.098989 -0 -1.8009617
0 2.5334322 3.6893488e+19
2.0634704 -3.6893488e+19 -1.7995363
-1.0842022e-19 2.4523938 -3.6893488e+19
2.0528405 -2 -1.7732635
-2 2.505419 0
2.0324886 -1.0842022e-19 -1.7971528
1.0842022e-19 2.4507205 -1.0842022e-19
2.0517204 3.6893488e+19 -1.7860546
-3.6893488e+19 2.4620512 -3.6893488e+19
2.0055096 -2 -1.7941762
-2 2.4336815 -1.0842022e-19
2.0403142 -1.0842022e-19 -1.792819
-1.0842022e-19 3.1322029 -1.0842022e-19
2.6228497 -3.6893488e+19 2.6171091
-3.6893488e+19 3.1317012 -1.0842022e-19
2.7096865 -3.6893488e+19 2.6161263
-2 3.0535986 -2
2.546169 2 2.5324368
-3.6893488e+19 3.05054 -3.6893488e+19
2.5431852 -3.6893488e+19 2.5205381
2 3.0533671 1.0842022e-19
2.5459433 -3.6893488e+19 2.5139742
-0 3.054857 -0
2.5473967 2 2.4940839
3.6893488e+19 3.0569682 -1.0842022e-19
2.5494561 -3.6893488e+19 2.4792247
-3.6893488e+19 3.0534835 1.0842022e-19
2.6154883 -2 2.471555
0 3.0559926 3.6893488e+19
2.5485044 0 2.4595308
-2 3.0694799 1.0842022e-19
2.6777315 -2 2.4721498
-2 3.1219656 -0
2.6613867 0 2.5148838
3.6893488e+19 3.0434434 1.0842022e-19
2.6428728 1.0842022e-19 2.415904
3.6893488e+19 3.1190729 2
2.6581874 1.0842022e-19 2.5018437
-2 3.045038 -1.0842022e-19
2.6450076 3.6893488e+19 2.4003456
-2 3.0582528 2
2.5909216 -2 2.4023883
-3.6893488e+19 3.0446293 1.0842022e-19
2.6444607 -2 2.3820336
-1.0842022e-19 3.0604599 2
2.5933626 0 2.3868797
0 3.0462575 -2
2.6466401 -0 2.3663306
3.6893488e+19 3.0534425 -1.0842022e-19
2.5856013 2 2.3601983
-0 3.0422385 -2
2.6412594 -3.6893488e+19 2.3438213
2 3.0558865 -3.6893488e+19
2.5883043 -3.6893488e+19 2.3450577
-2 3.1186628 1.0842022e-19
2.7435794 3.6893488e+19 2.4116561
0 3.063458 2
2.5966783 3.6893488e+19 2.3351421
-1.0842022e-19 3.1163771 -0
2.740519 -0 2.3871975
2 3.0561972 0
2.5886481 -1.0842022e-19 2.3093858
2 3.1174715 2
2.6084788 1.0842022e-19 2.357662
-0 3.0449352 2
2.6051934 -0 2.2825463
-1.0842022e-19 3.114959 -1.0842022e-19
2.6060278 3.6893488e+19 2.3339891
1.0842022e-19 3.0461457 1.0842022e-19
2.6066511 -3.6893488e+19 2.2662463
0 3.0175457 -1.0842022e-19
2.5109982 2 2.2086093
2 3.0477004 -0
2.6085234 2 2.2501161
1.0842022e-19 3.0162828 3.6893488e+19
2.5097663 0 2.1755674
3.6893488e+19 3.046144 0
2.6066492 -3.6893488e+19 2.2127995
-3.6893488e+19 3.0151863 -1.0842022e-19
2.5086968 -3.6893488e+19 2.1431005
-2 3.1718676 -2
2.7540295 -2 2.3048654
-3.6893488e+19 3.0174642 -3.6893488e+19
2.5109189 -3.6893488e+19 2.1155436
3.6893488e+19 3.1669812 3.6893488e+19
2.7510872 2 2.2768836
0 3.0195804 -2
2.5129831 1.0842022e-19 2.0872874
-1.0842022e-19 3.0258565 1.0842022e-19
2.5822167 -0 2.0840268
1.0842022e-19 3.029227 -3.6893488e+19
2.5223937 -3.6893488e+19 2.0671344
1.0842022e-19 3.0263774 -3.6893488e+19
2.5828438 1.0842022e-19 2.0523078
-0 3.0355103 -3.6893488e+19
2.6322515 -3.6893488e+19 2.0484867
-2 3.0251269 3.6893488e+19
2.554285 -3.6893488e+19 2.0170171
3.6893488e+19 3.0338809 1.0842022e-19
2.6300702 0 2.0132825
0 3.0237887 -2
2.5528047 -2 1.9839358
-3.6893488e+19 3.0349891 -0
2.6315539 2 1.9806979
-3.6893488e+19 3.0242712 2
2.5533388 0 1.952539
1.0842022e-19 3.034071 -2
2.6303244 -3.6893488e+19 1.9464726
-2 3.0253429 3.6893488e+19
2.5545239 -3.6893488e+19 1.9214101
0 3.0353892 0
2.6320894 1.0842022e-19 1.9137731
0 3.0274556 -2
2.5568602 2 1.8905833
3.6893488e+19 3.0486026 1.0842022e-19
2.64978 -0 1.8861979
1.0842022e-19 3.0231116 -3.6893488e+19
2.5520558 -0 1.8385016
1.0842022e-19 3.0501034 -2
2.6517892 -1.0842022e-19 1.8281364
-1.0842022e-19 3.0194454 -2
2.5480013 -0 1.7732546
3.6893488e+19 3.0210991 -1.0842022e-19
2.6129572 0 1.7394136
1.0842022e-19 3.0107358 -2
2.5383685 0 1.6661999
1.0842022e-19 3.0289135 -3.6893488e+19
2.5220878 -2 1.5996797
-3.6893488e+19 3.0090439 1.0842022e-19
2.5619693 0 1.4319726
-3.6893488e+19 3.0256395 -2
2.5188942 -3.6893488e+19 -1.2491758
3.6893488e+19 3.0095811 -3.6893488e+19
2.5626159 0 -1.5256971
-3.6893488e+19 3.0364695 1.0842022e-19
2.5294592 3.6893488e+19 -1.6477299
3.6893488e+19 3.0094173 -1.0842022e-19
2.5624187 3.6893488e+19 -1.6961917
-3.6893488e+19 3.0374486 -1.0842022e-19
2.5304143 -1.0842022e-19 -1.7651346
-3.6893488e+19 3.010288 2
2.5634675 0 -1.7840711
-2 3.0016866 2
2.491055 3.6893488e+19 -1.8055047
-0 3.0063 3.6893488e+19
2.5586646 -2 -1.8413774
2 2.9101176 1.0842022e-19
2.4000814 3.6893488e+19 -1.8191831
-1.0842022e-19 2.9130244 3.6893488e+19
2.4974093 -2 -1.8474904
3.6893488e+19 2.8963721 0
2.3866723 -3.6893488e+19 -1.8582329
-2 2.8863702 -0
2.4653094 -0 -1.8765999
1.0842022e-19 2.8479137 -1.0842022e-19
2.3393996 -3.6893488e+19 -1.8697195
2 2.7863586 3.6893488e+19
2.3448644 3.6893488e+19 -1.8460729
-2 2.751224 0
2.3363481 -3.6893488e+19 -1.8356533
3.6893488e+19 2.7059727 1.0842022e-19
2.2521484 3.6893488e+19 -1.8263103
0 2.6530879 1.0842022e-19
2.2698343 0 -1.8177664
-1.0842022e-19 2.6231725 -3.6893488e+19
2.1627214 2 -1.8114182
-3.6893488e+19 2.5967276 3.6893488e+19
2.2142117 -3.6893488e+19 -1.8112805
-2 2.5655472 -2
2.098989 -0 -1.8009617
0 2.5334322 3.6893488e+19
2.0634704 -3.6893488e+19 -1.7995363
-1.0842022e-19 2.4523938 -3.6893488e+19
2.0528405 -2 -1.7732635
-2 2.505419 0
2.0324886 -1.0842022e-19 -1.7971528
1.0842022e-19 2.4507205 -1.0842022e-19
2.0517204 3.6893488e+19 -1.7860546
-3.6893488e+19 2.4620512 -3.6893488e+19
2.0055096 -2 -1.7941762
-2 2.4336815 -1.0842022e-19
2.0403142 -1.0842022e-19 -1.792819
-2 3.1344576 3.6893488e+19
2.6207821 -0 2.6190403
3.6893488e+19 3.133373 -2
2.70732 -0 2.6174412
3.6893488e+19 3.0531991 3.6893488e+19
2.5424139 1.0842022e-19 2.5318859
-3.6893488e+19 3.1443367 -0
2.6303098 1.0842022e-19 2.6047461
-1.0842022e-19 3.0537086 -0
2.5429053 0 2.5141037
2 3.1807435 1.0842022e-19
2.6654215 -0 2.6116829
-3.6893488e+19 3.0529344 3.6893488e+19
2.5421588 0 2.4906561
0 3.0531042 1.0842022e-19
2.5423224 -2 2.4728916
0 3.0537221 1.0842022e-19
2.6123056 -2 2.471555
-0 3.050658 -1.0842022e-19
2.5399632 -0 2.4512327
-3.6893488e+19 3.0539315 -1.0842022e-19
2.6125555 -3.6893488e+19 2.4536026
-2 3.1170583 2
2.7371559 -2 2.5209954
1.0842022e-19 3.1223528 3.6893488e+19
2.6576161 -1.0842022e-19 2.5149682
0 3.1249604 1.0842022e-19
2.6604707 0 2.5056767
0 3.0446224 2
2.6410196 -0 2.3994324
-2 3.128686 -2
2.6645491 -2 2.4939744
2 3.0445352 -3.6893488e+19
2.6409037 2 2.381578
-3.6893488e+19 3.1277804 2
2.663558 0 2.470432
-0 3.1149814 -2
2.7343993 -3.6893488e+19 2.4509158
-3.6893488e+19 3.0567942 2
2.585849 -1.0842022e-19 2.3639145
-1.0842022e-19 3.1224251 0
2.7442787 -1.0842022e-19 2.4377792
2 3.1315811 1.0842022e-19
2.6677184 -1.0842022e-19 2.4301355
3.6893488e+19 3.118397 -2
2.7389324 -0 2.411
-2 3.1035035 -2
2.6369817 0 2.3776858
2 3.1165502 2
2.7364814 -2 2.387042
-1.0842022e-19 3.1019871 3.6893488e+19
2.6353219 1.0842022e-19 2.3553965
2 3.1159854 -2
2.6029668 3.6893488e+19 2.3559892
2 3.0432332 -2
2.5997934 1.0842022e-19 2.2806952
3.6893488e+19 3.1138022 -1.0842022e-19
2.6008613 -1.0842022e-19 2.3327188
-2 3.1691992 1.0842022e-19
2.7500284 1.0842022e-19 2.3765807
1.0842022e-19 3.1185775 0
2.6054668 2 2.315695
-1.0842022e-19 3.0499306 -1.0842022e-19
2.6077828 -1.0842022e-19 2.251792
-0 3.0182662 3.6893488e+19
2.5087237 -2 2.1784649
-0 3.0464959 -1.0842022e-19
2.6036856 0 2.212986
-3.6893488e+19 3.0150826 -1.0842022e-19
2.5056534 0 2.1426973
3.6893488e+19 3.1701405 -2
2.7505896 -2 2.3033788
3.6893488e+19 3.1126385 2
2.5997391 0 2.2453036
-3.6893488e+19 3.1669505 2
2.7473743 2 2.2766459
1.0842022e-19 3.1132636 -2
2.6003418 0 2.2042112
0 3.1754451 -2
2.7537534 2 2.2573774
0 3.2382836 1.0842022e-19
2.7209148 -2 2.2771099
-2 3.0262358 1.0842022e-19
2.5795178 2 2.0519159
-3.6893488e+19 3.0366774 1.0842022e-19
2.6304753 3.6893488e+19 2.0494454
2 3.0375721 1.0842022e-19
2.5648065 2 2.0288944
-2 3.0366166 -1.0842022e-19
2.6303945 -0 2.0155876
-0 3.160949 -3.6893488e+19
2.6998675 -2 2.100878
-1.0842022e-19 3.1997509 -2
2.7984521 3.6893488e+19 2.113754
3.6893488e+19 3.1576838 -2
2.6962931 -3.6893488e+19 2.0508418
-0 3.1935189 0
2.7943168 -1.0842022e-19 2.0564842
1.0842022e-19 3.1582522 3.6893488e+19
2.6969154 -0 2.0039673
3.6893488e+19 3.2285838 -2
2.8175855 0 2.0243998
2 3.1579573 3.6893488e+19
2.6965926 1.0842022e-19 1.956558
3.6893488e+19 3.050257 2
2.6484978 -1.0842022e-19 1.886833
-0 3.0283105 -0
2.5546677 0 1.8424091
-2 3.0505137 1.0842022e-19
2.6488388 -3.6893488e+19 1.8282367
-1.0842022e-19 3.0202425 -3.6893488e+19
2.5458355 -0 1.773586
-3.6893488e+19 3.0206537 -0
2.6092088 2 1.7388117
3.6893488e+19 3.0191219 -0
2.5446088 -3.6893488e+19 1.6714218
-1.0842022e-19 3.2054098 3.6893488e+19
2.6892104 -1.0842022e-19 1.6833119
0 3.0099664 0
2.5601101 0 1.4324771
-3.6893488e+19 3.2073927 -3.6893488e+19
2.6911228 3.6893488e+19 -1.3316082
1.0842022e-19 3.0104439 3.6893488e+19
2.5606797 0 -1.5260793
1.0842022e-19 3.1436145 -0
2.6296132 2 -1.7028546
3.6893488e+19 3.0110285 -1.0842022e-19
2.561377 0 -1.6972553
2 3.141366 1.0842022e-19
2.6274447 -2 -1.8156742
-3.6893488e+19 3.0104625 3.6893488e+19
2.5607021 -1.0842022e-19 -1.7840527
1.0842022e-19 3.0626216 2
2.5515013 2 -1.8490635
3.6893488e+19 3.005723 3.6893488e+19
2.5550482 -2 -1.8407208
-2 2.9950411 -2
2.477432 2 -1.859244
-2 2.9141271 -3.6893488e+19
2.4940062 -1.0842022e-19 -1.8479093
-0 2.8948631 -1.0842022e-19
2.3808174 -1.0842022e-19 -1.8571974
-2 2.8859556 -1.0842022e-19
2.4604008 0 -1.8763648
0 2.8551159 2
2.342484 -0 -1.8746268
0 2.7886178 -0
2.3442879 -2 -1.8476421
-2 2.7510288 3.6893488e+19
2.3331628 1.0842022e-19 -1.8353059
0 2.7093115 3.6893488e+19
2.251405 -1.0842022e-19 -1.8276381
1.0842022e-19 2.6554537 2
2.2690568 0 -1.8187286
-1.0842022e-19 2.6233213 -1.0842022e-19
2.1586764 2 -1.8113581
3.6893488e+19 2.5874403 0
2.1978471 -0 -1.8061326
2 2.5673387 -3.6893488e+19
2.0973918 -0 -1.8018332
-0 2.5425479 1.0842022e-19
2.1382666 -2 -1.7993007
3.6893488e+19 2.5341175 1.0842022e-19
2.0610247 -0 -1.7998323
-0 2.5058436 2
2.0300732 -0 -1.7973146
-2 2.4693196 -2
2.0614378 -3.6893488e+19 -1.7925541
-1.0842022e-19 2.4614236 -2
2.0025611 -3.6893488e+19 -1.7938247
0 2.4340606 2
2.0380402 -1.0842022e-19 -1.792819
0 2.4037838 3.6893488e+19
2.0179486 1.0842022e-19 -1.793085
-3.6893488e+19 2.3480043 1.0842022e-19
1.9178128 1.0842022e-19 -1.7866225
-1.0842022e-19 2.3078828 -2
1.8984655 2 -1.7859056
-2 2.2760234 1.0842022e-19
1.8831025 3.6893488e+19 -1.7853749
-0 2.2475929 -2
1.8649465 -0 -1.7841424
0 2.18839 3.6893488e+19
1.8954566 -0 -1.7818291
2 2.1541731 2
1.8841035 -0 -1.7818347
-2 2.1493723 3.6893488e+19
1.8825107 -0 -1.792135
-2 3.1344576 3.6893488e+19
2.6207821 -0 2.6190403
3.6893488e+19 3.133373 -2
2.70732 -0 2.6174412
3.6893488e+19 3.0531991 3.6893488e+19
2.5424139 1.0842022e-19 2.5318859
-0 3.0516214 -3.6893488e+19
2.5408924 3.6893488e+19 2.5213392
-1.0842022e-19 3.0537086 -0
2.5429053 0 2.5141037
2 3.1807435 1.0842022e-19
2.6654215 -0 2.6116829
-3.6893488e+19 3.0529344 3.6893488e+19
2.5421588 0 2.4906561
0 3.0531042 1.0842022e-19
2.5423224 -2 2.4728916
0 3.0537221 1.0842022e-19
2.6123056 -2 2.471555
-0 3.050658 -1.0842022e-19
2.5399632 -0 2.4512327
-3.6893488e+19 3.0539315 -1.0842022e-19
2.6125555 -3.6893488e+19 2.4536026
2 3.0691457 -1.0842022e-19
2.6735666 1.0842022e-19 2.4712441
1.0842022e-19 3.1223528 3.6893488e+19
2.6576161 -1.0842022e-19 2.5149682
0 3.1249604 1.0842022e-19
2.6604707 0 2.5056767
0 3.0446224 2
2.6410196 -0 2.3994324
1.0842022e-19 3.0584455 2
2.5876565 -2 2.4023495
2 3.0445352 -3.6893488e+19
2.6409037 2 2.381578
-1.0842022e-19 3.0620251 -2
2.5915751 -2 2.3885498
-1.0842022e-19 3.0454597 1.0842022e-19
2.6421311 1.0842022e-19 2.3650255
-3.6893488e+19 3.0567942 2
2.585849 -1.0842022e-19 2.3639145
3.6893488e+19 3.0433457 -2
2.6393251 -3.6893488e+19 2.3448226
-0 3.0552409 -2
2.5841484 -1.0842022e-19 2.3440814
-0 3.0460348 2
2.6428943 -1.0842022e-19 2.3302696
0 3.0634449 0
2.5931294 -2 2.3348866
-0 3.0458593 3.6893488e+19
2.6426613 3.6893488e+19 2.3123994
-1.0842022e-19 3.1019871 3.6893488e+19
2.6353219 1.0842022e-19 2.3553965
0 3.0737181 -1.0842022e-19
2.5622029 2 2.3148763
2 3.0432332 -2
2.5997934 1.0842022e-19 2.2806952
3.6893488e+19 3.1138022 -1.0842022e-19
2.6008613 -1.0842022e-19 2.3327188
2 3.0470631 2
2.6043622 1.0842022e-19 2.2668617
-0 3.0176854 0
2.5081637 0 2.2085576
-1.0842022e-19 3.0499306 -1.0842022e-19
2.6077828 -1.0842022e-19 2.251792
-0 3.0182662 3.6893488e+19
2.5087237 -2 2.1784649
-0 3.0464959 -1.0842022e-19
2.6036856 0 2.212986
-3.6893488e+19 3.0150826 -1.0842022e-19
2.5056534 0 2.1426973
-0 3.0473981 -0
2.6047618 1.0842022e-19 2.179496
-2 3.0178461 2
2.5083187 0 2.1158333
-3.6893488e+19 3.1669505 2
2.7473743 2 2.2766459
-2 3.018661 -1.0842022e-19
2.5091045 0 2.0859239
-1.0842022e-19 3.0251174 2
2.5781837 1.0842022e-19 2.0828705
1.0842022e-19 3.0205851 0
2.5109601 1.0842022e-19 2.0571241
-2 3.0262358 1.0842022e-19
2.5795178 2 2.0519159
-3.6893488e+19 3.0366774 1.0842022e-19
2.6304753 3.6893488e+19 2.0494454
2 3.0375721 1.0842022e-19
2.5648065 2 2.0288944
-2 3.0366166 -1.0842022e-19
2.6303945 -0 2.0155876
-0 3.160949 -3.6893488e+19
2.6998675 -2 2.100878
1.0842022e-19 3.0359197 3.6893488e+19
2.6294694 1.0842022e-19 1.981249
2 3.0238369 2
2.5497704 -2 1.9520723
-3.6893488e+19 3.0342004 1.0842022e-19
2.627188 -1.0842022e-19 1.9463907
1.0842022e-19 3.026144 -0
2.5522959 -0 1.9217849
-1.0842022e-19 3.0350752 1.0842022e-19
2.6283488 2 1.9134501
-0 3.0278363 1.0842022e-19
2.5541487 0 1.8906748
3.6893488e+19 3.050257 2
2.6484978 -1.0842022e-19 1.886833
-0 3.0283105 -0
2.5546677 0 1.8424091
-2 3.0505137 1.0842022e-19
2.6488388 -3.6893488e+19 1.8282367
-1.0842022e-19 3.0202425 -3.6893488e+19
2.5458355 -0 1.773586
-3.6893488e+19 3.0206537 -0
2.6092088 2 1.7388117
3.6893488e+19 3.0191219 -0
2.5446088 -3.6893488e+19 1.6714218
-2 3.0261743 -1.0842022e-19
2.5163505 0 1.597332
0 3.0099664 0
2.5601101 0 1.4324771
-0 3.026149 2
2.5163262 2 -1.2494777
1.0842022e-19 3.0104439 3.6893488e+19
2.5606797 0 -1.5260793
0 3.0363176 -1.0842022e-19
2.5261328 -1.0842022e-19 -1.6475576
3.6893488e+19 3.0110285 -1.0842022e-19
2.561377 0 -1.6972553
-3.6893488e+19 3.0388768 -1.0842022e-19
2.5286012 -0 -1.7657413
-3.6893488e+19 3.0104625 3.6893488e+19
2.5607021 -1.0842022e-19 -1.7840527
1.0842022e-19 3.0007837 3.6893488e+19
2.483726 -3.6893488e+19 -1.8047427
3.6893488e+19 3.005723 3.6893488e+19
2.5550482 -2 -1.8407208
1.0842022e-19 2.9086778 1.0842022e-19
2.3941407 2 -1.8183784
-2 2.9141271 -3.6893488e+19
2.4940062 -1.0842022e-19 -1.8479093
-0 2.8948631 -1.0842022e-19
2.3808174 -1.0842022e-19 -1.8571974
-2 2.8859556 -1.0842022e-19
2.4604008 0 -1.8763648
0 2.8551159 2
2.342484 -0 -1.8746268
0 2.7886178 -0
2.3442879 -2 -1.8476421
-2 2.7510288 3.6893488e+19
2.3331628 1.0842022e-19 -1.8353059
0 2.7093115 3.6893488e+19
2.251405 -1.0842022e-19 -1.8276381
1.0842022e-19 2.6554537 2
2.2690568 0 -1.8187286
-1.0842022e-19 2.6233213 -1.0842022e-19
2.1586764 2 -1.8113581
3.6893488e+19 2.5874403 0
2.1978471 -0 -1.8061326
2 2.5673387 -3.6893488e+19
2.0973918 -0 -1.8018332
-0 2.5425479 1.0842022e-19
2.1382666 -2 -1.7993007
3.6893488e+19 2.5341175 1.0842022e-19
2.0610247 -0 -1.7998323
-0 2.5058436 2
2.0300732 -0 -1.7973146
-2 2.4693196 -2
2.0614378 -3.6893488e+19 -1.7925541
-1.0842022e-19 2.4614236 -2
2.0025611 -3.6893488e+19 -1.7938247
0 2.4340606 2
2.0380402 -1.0842022e-19 -1.792819
0 2.4037838 3.6893488e+19
2.0179486 1.0842022e-19 -1.793085
-3.6893488e+19 2.3480043 1.0842022e-19
1.9178128 1.0842022e-19 -1.7866225
-1.0842022e-19 2.3078828 -2
1.8984655 2 -1.7859056
-2 2.2760234 1.0842022e-19
1.8831025 3.6893488e+19 -1.7853749
-0 2.2475929 -2
1.8649465 -0 -1.7841424
0 2.18839 3.6893488e+19
1.8954566 -0 -1.7818291
2 2.1541731 2
1.8841035 -0 -1.7818347
-2 2.1493723 3.6893488e+19
1.8825107 -0 -1.792135
-0 3.1358242 1.0842022e-19
2.6178231 -3.6893488e+19 2.6201193
-1.0842022e-19 3.1337297 3.6893488e+19
2.7033687 2 2.6174972
-3.6893488e+19 3.0546348 -0
2.5404217 2 2.5330429
3.6893488e+19 3.053385 -0
2.5392301 -0 2.5227542
2 3.0547025 -2
2.5404861 0 2.5148015
-2 3.0544074 -3.6893488e+19
2.5402048 3.6893488e+19 2.492732
2 3.0500093 1.0842022e-19
2.5360119 -1.0842022e-19 2.4677691
-1.0842022e-19 3.1192522 3.6893488e+19
2.6862638 2 2.5364254
-1.0842022e-19 3.0499198 0
2.5359268 3.6893488e+19 2.4498422
-2 3.054168 -3.6893488e+19
2.6093681 -3.6893488e+19 2.4536026
-2 3.1172593 1.0842022e-19
2.7331526 -3.6893488e+19 2.5209091
-0 3.1257401 -3.6893488e+19
2.6570933 -2 2.5171878
3.6893488e+19 3.0699215 1.0842022e-19
2.6708767 1.0842022e-19 2.4526441
0 3.1264484 2
2.6578608 -1.0842022e-19 2.5065081
2 3.0448189 0
2.6378527 3.6893488e+19 2.399353
0 3.1284499 -2
2.6600292 2 2.4933143
-3.6893488e+19 3.0445848 -3.6893488e+19
2.6375446 2 2.3813121
2 3.1289153 -3.6893488e+19
2.6605334 -3.6893488e+19 2.4715083
2 3.1152389 2
2.7304945 -2 2.4508433
-3.6893488e+19 3.1301684 2
2.6618915 3.6893488e+19 2.4506283
3.6893488e+19 3.0457461 2
2.6390724 -1.0842022e-19 2.3473434
1.0842022e-19 3.1318235 -2
2.6636844 3.6893488e+19 2.4301019
3.6893488e+19 3.0458498 -1.0842022e-19
2.6392088 -2 2.3297775
1.0842022e-19 3.1029482 -1.0842022e-19
2.6323996 -3.6893488e+19 2.3768232
-0 3.1219339 1.0842022e-19
2.7393024 0 2.3923872
1.0842022e-19 3.1023283 -1.0842022e-19
2.6317279 2 2.3554871
-1.0842022e-19 3.1134682 1.0842022e-19
2.5965102 -2 2.3533187
3.6893488e+19 3.0465281 1.0842022e-19
2.6003418 -1.0842022e-19 2.2836285
3.6893488e+19 3.113487 1.0842022e-19
2.5965281 -3.6893488e+19 2.3322217
-1.0842022e-19 3.1665754 -3.6893488e+19
2.7421751 -0 2.3739326
-1.0842022e-19 3.1184764 1.0842022e-19
2.6012847 1.0842022e-19 2.3154104
2 3.0529671 1.0842022e-19
2.6079493 -3.6893488e+19 2.2541432
-1.0842022e-19 3.1666005 -1.0842022e-19
2.6471634 -1.0842022e-19 2.3324804
-2 3.0460999 -1.0842022e-19
2.5998359 0 2.2120082
-2 3.1152816 3.6893488e+19
2.5982389 -0 2.2703967
2 3.0465248 -0
2.6003377 -0 2.1779017
-2 3.1126845 -0
2.595763 2 2.2450554
-2 3.0478315 -1.0842022e-19
2.6018817 -0 2.1449142
0 3.2364948 2
2.7137966 -1.0842022e-19 2.3039563
-1.0842022e-19 3.0258098 0
2.5758636 2 2.0834486
3.6893488e+19 3.2366192 2
2.7139153 -1.0842022e-19 2.2759919
3.6893488e+19 3.0259724 -0
2.5760555 -0 2.0513933
-0 3.2063732 -3.6893488e+19
2.8001935 -0 2.2262864
-1.0842022e-19 3.0371909 3.6893488e+19
2.6278176 -1.0842022e-19 2.0158894
3.6893488e+19 3.0215609 0
2.5442212 -1.0842022e-19 1.9816998
-0 3.2013562 2
2.7968936 0 2.1147366
0 3.1560464 2
2.6899285 1.0842022e-19 2.0494199
2 3.1935768 2
2.7917764 -2 2.0562589
-3.6893488e+19 3.0277576 -0
2.550935 0 1.9226656
0 3.0353816 -2
2.625437 3.6893488e+19 1.9134841
3.6893488e+19 3.1588213 -3.6893488e+19
2.692935 3.6893488e+19 1.9568478
-2 3.050873 -2
2.6458173 -2 1.8869951
0 3.0287204 -0
2.5519779 2 1.8425739
1.0842022e-19 3.0182641 0
2.5406492 3.6893488e+19 1.772393
0 3.0214226 2
2.6070733 -0 1.7392827
3.6893488e+19 3.0194044 3.6893488e+19
2.5418847 -3.6893488e+19 1.6714793
-1.0842022e-19 3.0261047 3.6893488e+19
2.5132227 -1.0842022e-19 1.5971363
-0 3.0161026 0
2.5643947 -0 1.4366391
0 3.0262923 0
2.5134015 1.0842022e-19 -1.2494503
-2 3.0085344 -1.0842022e-19
2.5554531 0 -1.6952187
-1.0842022e-19 3.0408213 3.6893488e+19
2.5272527 0 -1.7665998
-2 3.0077586 1.0842022e-19
2.5545366 0 -1.7822793
-1.0842022e-19 2.9994512 3.6893488e+19
2.4761486 -1.0842022e-19 -1.803872
-0 3.0065811 3.6893488e+19
2.5531452 2 -1.8412764
-0 2.9117908 -2
2.3925781 -2 -1.8197291
3.6893488e+19 2.9140301 0
2.4891679 -0 -1.8476838
1.0842022e-19 2.894443 1.0842022e-19
2.3760397 -2 -1.8568046
-0 2.8851779 -0
2.4550796 3.6893488e+19 -1.8760121
0 2.8566754 -2
2.340034 2 -1.8752828
3.6893488e+19 2.7912374 -3.6893488e+19
2.3440907 1.0842022e-19 -1.8494883
-0 2.7546263 -3.6893488e+19
2.3349767 -0 -1.8381351
1.0842022e-19 2.7107236 0
2.2491684 -2 -1.8281162
-1.0842022e-19 2.6560419 1.0842022e-19
2.2670867 -0 -1.8188417
-0 2.6238286 -3.6893488e+19
2.1550224 1.0842022e-19 -1.8114783
1.0842022e-19 2.5874956 1.0842022e-19
2.1939964 1.0842022e-19 -1.8060055
2 2.5621481 1.0842022e-19
2.0881951 -0 -1.7988167
0 2.5430384 0
2.1355102 -2 -1.7994417
3.6893488e+19 2.5327561 2
2.0563505 0 -1.7988706
-3.6893488e+19 2.5137637 2
2.0969977 2 -1.7975868
3.6893488e+19 2.5032604 0
2.0243936 -2 -1.7954531
-2 2.4746954 -3.6893488e+19
2.0622456 -0 -1.7943268
-3.6893488e+19 2.4615126 0
2.0000117 -1.0842022e-19 -1.7937368
-3.6893488e+19 2.4344363 -2
2.035764 -1.0842022e-19 -1.792819
-0 3.054503 -3.6893488e+19
2.5402958 -1.0842022e-19 2.5421083
-1.0842022e-19 3.1337297 3.6893488e+19
2.7033687 2 2.6174972
-3.6893488e+19 3.0546348 -0
2.5404217 2 2.5330429
3.6893488e+19 3.053385 -0
2.5392301 -0 2.5227542
2 3.0547025 -2
2.5404861 0 2.5148015
-2 3.0544074 -3.6893488e+19
2.5402048 3.6893488e+19 2.492732
2 3.0500093 1.0842022e-19
2.5360119 -1.0842022e-19 2.4677691
3.6893488e+19 3.0537226 -0
2.6088419 -3.6893488e+19 2.4711893
-1.0842022e-19 3.0499198 0
2.5359268 3.6893488e+19 2.4498422
-2 3.054168 -3.6893488e+19
2.6093681 -3.6893488e+19 2.4536026
-1.0842022e-19 3.069422 2
2.6702197 1.0842022e-19 2.4712441
-0 3.1257401 -3.6893488e+19
2.6570933 -2 2.5171878
3.6893488e+19 3.0699215 1.0842022e-19
2.6708767 1.0842022e-19 2.4526441
0 3.1264484 2
2.6578608 -1.0842022e-19 2.5065081
2 3.0448189 0
2.6378527 3.6893488e+19 2.399353
0 3.1284499 -2
2.6600292 2 2.4933143
-3.6893488e+19 3.0445848 -3.6893488e+19
2.6375446 2 2.3813121
1.0842022e-19 3.0620391 -2
2.5880768 0 2.3882902
-2 3.0464499 3.6893488e+19
2.6399984 -2 2.3659317
-1.0842022e-19 3.0565355 1.0842022e-19
2.5821142 3.6893488e+19 2.3633482
3.6893488e+19 3.0457461 2
2.6390724 -1.0842022e-19 2.3473434
-1.0842022e-19 3.0560565 -0
2.5815952 0 2.3447549
3.6893488e+19 3.0458498 -1.0842022e-19
2.6392088 -2 2.3297775
3.6893488e+19 3.0631599 3.6893488e+19
2.5892913 2 2.3343437
2 3.0474117 -1.0842022e-19
2.6412635 2 2.3137667
1.0842022e-19 3.1023283 -1.0842022e-19
2.6317279 2 2.3554871
-1.0842022e-19 3.1134682 1.0842022e-19
2.5965102 -2 2.3533187
3.6893488e+19 3.0465281 1.0842022e-19
2.6003418 -1.0842022e-19 2.2836285
-1.0842022e-19 3.0518231 -0
2.5377412 -2 2.275862
-2 3.0472941 -1.0842022e-19
2.6012468 1.0842022e-19 2.2668617
-0 3.0179443 2
2.5054431 3.6893488e+19 2.2087128
2 3.0529671 1.0842022e-19
2.6079493 -3.6893488e+19 2.2541432
-0 3.0181625 -0
2.505651 -2 2.1780303
-2 3.0460999 -1.0842022e-19
2.5998359 0 2.2120082
0 3.0162787 -1.0842022e-19
2.503855 -3.6893488e+19 2.1442211
2 3.0465248 -0
2.6003377 -0 2.1779017
-2 3.0169239 0
2.5044703 2 2.1143446
-2 3.0478315 -1.0842022e-19
2.6018817 -0 2.1449142
3.6893488e+19 3.1125219 0
2.595608 3.6893488e+19 2.2029991
-1.0842022e-19 3.0258098 0
2.5758636 2 2.0834486
-3.6893488e+19 3.0101407 1.0842022e-19
2.4960072 -0 2.045084
3.6893488e+19 3.0259724 -0
2.5760555 -0 2.0513933
1.0842022e-19 3.0362444 -3.6893488e+19
2.6265721 3.6893488e+19 2.0487342
-1.0842022e-19 3.0371909 3.6893488e+19
2.6278176 -1.0842022e-19 2.0158894
3.6893488e+19 3.0215609 0
2.5442212 -1.0842022e-19 1.9816998
2 3.0378871 2
2.6287334 3.6893488e+19 1.9826387
-2 3.0250266 -0
2.547976 -3.6893488e+19 1.9528055
-1.0842022e-19 3.0337348 0
2.623271 -1.0842022e-19 1.9458992
-3.6893488e+19 3.0277576 -0
2.550935 0 1.9226656
0 3.0353816 -2
2.625437 3.6893488e+19 1.9134841
-1.0842022e-19 3.028517 0
2.5517578 -0 1.8909189
-2 3.050873 -2
2.6458173 -2 1.8869951
0 3.0287204 -0
2.5519779 2 1.8425739
1.0842022e-19 3.0182641 0
2.5406492 3.6893488e+19 1.772393
0 3.0214226 2
2.6070733 -0 1.7392827
3.6893488e+19 3.0194044 3.6893488e+19
2.5418847 -3.6893488e+19 1.6714793
-1.0842022e-19 3.0261047 3.6893488e+19
2.5132227 -1.0842022e-19 1.5971363
-0 3.0161026 0
2.5643947 -0 1.4366391
0 3.0262923 0
2.5134015 1.0842022e-19 -1.2494503
-2 3.0085344 -1.0842022e-19
2.5554531 0 -1.6952187
2 3.0011556 -2
2.4788752 0 -1.7445734
-2 3.0077586 1.0842022e-19
2.5545366 0 -1.7822793
-1.0842022e-19 2.9994512 3.6893488e+19
2.4761486 -1.0842022e-19 -1.803872
3.6893488e+19 2.9561176 -0
2.5194466 0 -1.8172345
-0 2.9117908 -2
2.3925781 -2 -1.8197291
3.6893488e+19 2.9140301 0
2.4891679 -0 -1.8476838
1.0842022e-19 2.894443 1.0842022e-19
2.3760397 -2 -1.8568046
-0 2.8851779 -0
2.4550796 3.6893488e+19 -1.8760121
0 2.8566754 -2
2.340034 2 -1.8752828
3.6893488e+19 2.7912374 -3.6893488e+19
2.3440907 1.0842022e-19 -1.8494883
-0 2.7546263 -3.6893488e+19
2.3349767 -0 -1.8381351
1.0842022e-19 2.7107236 0
2.2491684 -2 -1.8281162
-1.0842022e-19 2.6560419 1.0842022e-19
2.2670867 -0 -1.8188417
-0 2.6238286 -3.6893488e+19
2.1550224 1.0842022e-19 -1.8114783
1.0842022e-19 2.5874956 1.0842022e-19
2.1939964 1.0842022e-19 -1.8060055
2 2.5621481 1.0842022e-19
2.0881951 -0 -1.7988167
0 2.5430384 0
2.1355102 -2 -1.7994417
3.6893488e+19 2.5327561 2
2.0563505 0 -1.7988706
-3.6893488e+19 2.5137637 2
2.0969977 2 -1.7975868
3.6893488e+19 2.5032604 0
2.0243936 -2 -1.7954531
-2 2.4746954 -3.6893488e+19
2.0622456 -0 -1.7943268
-3.6893488e+19 2.4615126 0
2.0000117 -1.0842022e-19 -1.7937368
-3.6893488e+19 2.4344363 -2
2.035764 -1.0842022e-19 -1.792819
-2 3.1297557 2
2.6078072 -3.6893488e+19 2.6140704
0 3.1340859 -0
2.6993878 -3.6893488e+19 2.617553
-3.6893488e+19 3.0549142 2
2.5372913 0 2.5331256
-2 3.0530694 3.6893488e+19
2.535553 -2 2.5223002
1.0842022e-19 3.1021721 -0
2.6620481 2 2.5655384
2 3.0558751 -1.0842022e-19
2.5381963 -1.0842022e-19 2.5156543
0 3.1327333 0
2.6978054 -3.6893488e+19 2.5813031
3.6893488e+19 3.054359 3.6893488e+19
2.536768 -0 2.4923458
2 3.0504956 -2
2.5331278 -3.6893488e+19 2.4682348
-0 3.0537517 -2
2.6053953 -2 2.4708693
-1.0842022e-19 3.0493293 -3.6893488e+19
2.5320289 0 2.4486761
-1.0842022e-19 3.1024117 0
2.6623287 2 2.5125704
1.0842022e-19 3.1173718 0
2.7290099 -1.0842022e-19 2.5207582
0 3.1320465 3.6893488e+19
2.6596034 2 2.5214794
3.6893488e+19 3.0705202 2
2.6679208 1.0842022e-19 2.4530997
-0 3.1270435 3.6893488e+19
2.6542397 2 2.5067313
-1.0842022e-19 3.1300502 1.0842022e-19
2.6574633 -1.0842022e-19 2.4725847
-1.0842022e-19 3.1139081 -3.6893488e+19
2.7244935 0 2.4488132
1.0842022e-19 3.1321421 -0
2.6597059 1.0842022e-19 2.4526458
0 3.0453837 3.6893488e+19
2.6351457 1.0842022e-19 2.3466184
-0 3.1321547 -1.0842022e-19
2.6597195 -2 2.4301691
-0 3.1269283 1.0842022e-19
2.7414706 -0 2.4197915
-2 3.0657475 -0
2.5885224 -0 2.3368669
-1.0842022e-19 3.1233165 -1.0842022e-19
2.7367611 2 2.3935058
-2 3.1131516 3.6893488e+19
2.5921626 2 2.3527906
-3.6893488e+19 3.0465493 0
2.5969687 -0 2.2834291
-1.0842022e-19 3.0535536 -3.6893488e+19
2.5360091 -0 2.2772703
1.0842022e-19 3.0495825 2
2.6005173 1.0842022e-19 2.2687073
1.0842022e-19 3.1185858 3.6893488e+19
2.5972826 0 2.3153069
-2 3.0530527 -1.0842022e-19
2.6045775 2 2.2540183
-3.6893488e+19 3.1684048 1.0842022e-19
2.6442225 -3.6893488e+19 2.3337119
2 3.05496 2
2.6068091 2 2.2254639
-0 3.1110263 2
2.5901601 2 2.2670798
2 3.0479798 -0
2.5986421 0 2.1796684
0 3.0170302 1.0842022e-19
2.5015967 2 2.1142619
2 3.0468667 -1.0842022e-19
2.5973396 2 2.1433296
0 3.2363439 -2
2.7082345 0 2.3036723
-3.6893488e+19 3.0470238 3.6893488e+19
2.5975237 2 2.1088178
-3.6893488e+19 3.2338583 0
2.705893 2 2.2742548
2 3.0259769 0
2.5728984 -0 2.0511646
-2 3.2110376 -1.0842022e-19
2.8005695 -1.0842022e-19 2.2307391
-2 3.0233974 1.0842022e-19
2.5431178 0 2.0147703
2 3.0380027 2
2.6255219 -1.0842022e-19 2.0164108
-2 3.0221457 3.6893488e+19
2.5417757 -0 1.982034
3.6893488e+19 3.2016571 -2
2.7944539 -0 2.1146646
2 3.1548574 -2
2.6840596 3.6893488e+19 2.048331
2 3.1944647 -0
2.7897649 0 2.0566072
0 3.0278347 -2
2.5478747 2 1.9225906
-0 3.1974611 2
2.7917185 0 2.0061121
-3.6893488e+19 3.0273874 3.6893488e+19
2.5473955 1.0842022e-19 1.8902477
-3.6893488e+19 3.0294917 0
2.5496516 1.0842022e-19 1.8430212
0 3.1972735 -3.6893488e+19
2.7915959 -1.0842022e-19 1.9009836
-2 3.020869 1.0842022e-19
2.5404069 -1.0842022e-19 1.7737186
-0 3.0260539 -2
2.609942 -3.6893488e+19 1.7431556
1.0842022e-19 3.0191131 2
2.5385242 2 1.6711723
1.0842022e-19 3.0278895 -2
2.5118282 -3.6893488e+19 1.5984324
1.0842022e-19 3.0135796 1.0842022e-19
2.5583932 2 1.4347262
2 3.0310276 2
2.5147851 -1.0842022e-19 -1.2517835
0 3.0082693 1.0842022e-19
2.5521801 -3.6893488e+19 -1.5245852
0 3.0054083 1.0842022e-19
2.481293 -0 -1.6314633
2 3.0083451 -0
2.5522687 2 -1.6949245
-2 3.0397561 -1.0842022e-19
2.5230091 0 -1.765993
-0 3.0070889 -3.6893488e+19
2.5507989 0 -1.781749
-3.6893488e+19 3.0406618 2
2.5238626 -1.0842022e-19 -1.8330636
2 3.0047412 -0
2.5480521 -2 -1.8395591
-0 2.980581 1.0842022e-19
2.452805 2 -1.8521169
0 2.913332 2
2.4836063 -1.0842022e-19 -1.847136
2 2.8935952 -2
2.3708465 3.6893488e+19 -1.856162
1.0842022e-19 2.8867953 -2
2.4525578 -0 -1.8764431
2 2.8557434 -2
2.3351824 2 -1.8747548
-3.6893488e+19 2.7893658 3.6893488e+19
2.3385637 3.6893488e+19 -1.8478729
1.0842022e-19 2.7521756 -1.0842022e-19
2.3288074 -1.0842022e-19 -1.8359015
0 2.7117746 0
2.2450824 1.0842022e-19 -1.8284349
3.6893488e+19 2.6561553 0
2.2647896 0 -1.8187286
-1.0842022e-19 2.6251791 3.6893488e+19
2.1522408 -3.6893488e+19 -1.8120189
-0 2.5879056 -1.0842022e-19
2.1905894 3.6893488e+19 -1.806069
-2 2.561888 -3.6893488e+19
2.0843844 2 -1.7985486
-1.0842022e-19 2.5432913 -0
2.1324177 -2 -1.7994417
3.6893488e+19 2.5333183 1.0842022e-19
2.0537541 0 -1.7990925
-0 2.5144656 -0
2.0948322 -0 -1.7978966
3.6893488e+19 2.5034404 0
2.0217211 -2 -1.7954531
1.0842022e-19 2.476053 -2
2.0603585 -3.6893488e+19 -1.7946644
-1.0842022e-19 2.4623218 2
1.9978346 0 -1.7939126
2 2.4343383 -1.0842022e-19
2.0331631 -3.6893488e+19 -1.7926363
-3.6893488e+19 2.4040093 1.0842022e-19
2.0133905 0 -1.7928884
-3.6893488e+19 2.351826 0
1.9157459 1.0842022e-19 -1.7881927
3.6893488e+19 2.3070619 1.0842022e-19
1.8946574 2 -1.7852756
-0 2.2749238 1.0842022e-19
1.8795171 -3.6893488e+19 -1.7845359
-2 2.2443695 -3.6893488e+19
1.8578982 -2 -1.7829134
-1.0842022e-19 2.1924293 1.0842022e-19
1.894219 -2 -1.7830007
3.6893488e+19 2.1530025 -2
1.881367 -2 -1.7811103
3.6893488e+19 2.133744 -0
1.8750893 1.0842022e-19 -1.7853172
2 2.1019583 -0
1.8544562 -3.6893488e+19 -1.7827979
0 3.0521755 2
2.5347106 0 2.5396945
0 3.1340859 -0
2.6993878 -3.6893488e+19 2.617553
-3.6893488e+19 3.0549142 2
2.5372913 0 2.5331256
-2 3.0530694 3.6893488e+19
2.535553 -2 2.5223002
1.0842022e-19 3.1021721 -0
2.6620481 2 2.5655384
2 3.0558751 -1.0842022e-19
2.5381963 -1.0842022e-19 2.5156543
-2 3.0994022 0
2.6588075 -0 2.5524511
3.6893488e+19 3.054359 3.6893488e+19
2.536768 -0 2.4923458
2 3.0504956 -2
2.5331278 -3.6893488e+19 2.4682348
-0 3.0537517 -2
2.6053953 -2 2.4708693
-1.0842022e-19 3.0493293 -3.6893488e+19
2.5320289 0 2.4486761
0 3.0536954 0
2.6053295 0 2.4525468
-3.6893488e+19 3.0695808 -1.0842022e-19
2.6666961 2 2.4710715
0 3.1320465 3.6893488e+19
2.6596034 2 2.5214794
3.6893488e+19 3.0705202 2
2.6679208 1.0842022e-19 2.4530997
-0 3.1270435 3.6893488e+19
2.6542397 2 2.5067313
2 3.0601416 -3.6893488e+19
2.5825119 3.6893488e+19 2.3856547
1.0842022e-19 3.0440016 0
2.6333437 -0 2.3625963
-3.6893488e+19 3.0581577 -0
2.5803852 -1.0842022e-19 2.3650117
0 3.0453837 3.6893488e+19
2.6351457 1.0842022e-19 2.3466184
-0 3.0610895 0
2.5835285 0 2.3501754
-0 3.0458403 0
2.6357412 -0 2.3294823
-2 3.0657475 -0
2.5885224 -0 2.3368669
-1.0842022e-19 3.0481107 0
2.6387017 3.6893488e+19 2.3142328
-1.0842022e-19 3.0526767 3.6893488e+19
2.535183 -3.6893488e+19 2.2940409
-3.6893488e+19 3.0465493 0
2.5969687 -0 2.2834291
-1.0842022e-19 3.0535536 -3.6893488e+19
2.5360091 -0 2.2772703
1.0842022e-19 3.0495825 2
2.6005173 1.0842022e-19 2.2687073
-1.0842022e-19 3.0182328 1.0842022e-19
2.5027299 -2 2.2089198
-2 3.0530527 -1.0842022e-19
2.6045775 2 2.2540183
-3.6893488e+19 3.1684048 1.0842022e-19
2.6442225 -3.6893488e+19 2.3337119
2 3.05496 2
2.6068091 2 2.2254639
-1.0842022e-19 3.0180204 -1.0842022e-19
2.5025296 1.0842022e-19 2.1465521
2 3.0479798 -0
2.5986421 0 2.1796684
0 3.0170302 1.0842022e-19
2.5015967 2 2.1142619
2 3.0468667 -1.0842022e-19
2.5973396 2 2.1433296
-3.6893488e+19 3.0183003 0
2.5027936 1.0842022e-19 2.0850527
-3.6893488e+19 3.0470238 3.6893488e+19
2.5975237 2 2.1088178
-1.0842022e-19 3.0109406 0
2.4917183 3.6893488e+19 2.0458064
2 3.0259769 0
2.5728984 -0 2.0511646
-3.6893488e+19 3.0347419 -2
2.6212702 3.6893488e+19 2.0469098
-2 3.0233974 1.0842022e-19
2.5431178 0 2.0147703
2 3.0380027 2
2.6255219 -1.0842022e-19 2.0164108
-2 3.0221457 3.6893488e+19
2.5417757 -0 1.982034
2 3.0381951 3.6893488e+19
2.6257727 2 1.9826866
-1.0842022e-19 3.0267298 1.0842022e-19
2.5466905 -1.0842022e-19 1.9539165
-3.6893488e+19 3.0323174 -0
2.618109 -1.0842022e-19 1.9447525
0 3.0278347 -2
2.5478747 2 1.9225906
-0 3.0323319 -1.0842022e-19
2.6181278 -2 1.9115975
-3.6893488e+19 3.0273874 3.6893488e+19
2.5473955 1.0842022e-19 1.8902477
-3.6893488e+19 3.0294917 0
2.5496516 1.0842022e-19 1.8430212
0 3.1972735 -3.6893488e+19
2.7915959 -1.0842022e-19 1.9009836
-2 3.020869 1.0842022e-19
2.5404069 -1.0842022e-19 1.7737186
-0 3.0260539 -2
2.609942 -3.6893488e+19 1.7431556
1.0842022e-19 3.0191131 2
2.5385242 2 1.6711723
1.0842022e-19 3.0278895 -2
2.5118282 -3.6893488e+19 1.5984324
1.0842022e-19 3.0135796 1.0842022e-19
2.5583932 2 1.4347262
2 3.0310276 2
2.5147851 -1.0842022e-19 -1.2517835
0 3.0082693 1.0842022e-19
2.5521801 -3.6893488e+19 -1.5245852
0 3.0054083 1.0842022e-19
2.481293 -0 -1.6314633
2 3.0083451 -0
2.5522687 2 -1.6949245
-0 3.0018904 -0
2.474664 -0 -1.7451357
-0 3.0070889 -3.6893488e+19
2.5507989 0 -1.781749
-2 2.9983644 3.6893488e+19
2.4695606 -2 -1.8033713
-1.0842022e-19 2.9445977 -0
2.5100939 2 -1.8122342
3.6893488e+19 2.9025619 2
2.3792951 3.6893488e+19 -1.815246
0 2.913332 2
2.4836063 -1.0842022e-19 -1.847136
2 2.8935952 -2
2.3708465 3.6893488e+19 -1.856162
1.0842022e-19 2.8867953 -2
2.4525578 -0 -1.8764431
2 2.8557434 -2
2.3351824 2 -1.8747548
-3.6893488e+19 2.7893658 3.6893488e+19
2.3385637 3.6893488e+19 -1.8478729
1.0842022e-19 2.7521756 -1.0842022e-19
2.3288074 -1.0842022e-19 -1.8359015
0 2.7117746 0
2.2450824 1.0842022e-19 -1.8284349
3.6893488e+19 2.6561553 0
2.2647896 0 -1.8187286
-1.0842022e-19 2.6251791 3.6893488e+19
2.1522408 -3.6893488e+19 -1.8120189
-0 2.5879056 -1.0842022e-19
2.1905894 3.6893488e+19 -1.806069
-2 2.561888 -3.6893488e+19
2.0843844 2 -1.7985486
-1.0842022e-19 2.5432913 -0
2.1324177 -2 -1.7994417
3.6893488e+19 2.5333183 1.0842022e-19
2.0537541 0 -1.7990925
-0 2.5144656 -0
2.0948322 -0 -1.7978966
3.6893488e+19 2.5034404 0
2.0217211 -2 -1.7954531
1.0842022e-19 2.476053 -2
2.0603585 -3.6893488e+19 -1.7946644
-1.0842022e-19 2.4623218 2
1.9978346 0 -1.7939126
2 2.4343383 -1.0842022e-19
2.0331631 -3.6893488e+19 -1.7926363
-3.6893488e+19 2.4040093 1.0842022e-19
2.0133905 0 -1.7928884
-3.6893488e+19 2.351826 0
1.9157459 1.0842022e-19 -1.7881927
3.6893488e+19 2.3070619 1.0842022e-19
1.8946574 2 -1.7852756
-0 2.2749238 1.0842022e-19
1.8795171 -3.6893488e+19 -1.7845359
-2 2.2443695 -3.6893488e+19
1.8578982 -2 -1.7829134
-1.0842022e-19 2.1924293 1.0842022e-19
1.894219 -2 -1.7830007
3.6893488e+19 2.1530025 -2
1.881367 -2 -1.7811103
3.6893488e+19 2.133744 -0
1.8750893 1.0842022e-19 -1.7853172
2 2.1019583 -0
1.8544562 -3.6893488e+19 -1.7827979
-3.6893488e+19 3.1302853 -0
2.6041009 0 2.6143546
3.6893488e+19 3.1342618 -1.0842022e-19
2.6952243 -0 2.6174412
0 3.1376805 0
2.6991854 -2 2.608882
0 3.0521257 0
2.531323 3.6893488e+19 2.5212858
-2 3.1025581 -2
2.6584909 1.0842022e-19 2.5656435
-0 3.0558543 -1.0842022e-19
2.5347948 -2 2.5154734
-3.6893488e+19 3.0561185 -2
2.5350409 -0 2.5065596
-1.0842022e-19 3.0538721 0
2.6020811 -0 2.5036504
2 3.056905 -3.6893488e+19
2.535773 -0 2.4961598
1.0842022e-19 3.0554683 -1.0842022e-19
2.6039302 0 2.4915409
2 3.0545738 -0
2.6028938 2 2.4717836
-0 3.1031535 -1.0842022e-19
2.6591806 -0 2.5129223
-3.6893488e+19 3.1205254 3.6893488e+19
2.7288287 0 2.5228505
-1.0842022e-19 3.1324027 0
2.6556919 1.0842022e-19 2.5215428
3.6893488e+19 3.0711741 0
2.6650522 -2 2.4536381
-2 3.1291847 1.0842022e-19
2.6522779 2 2.508009
3.6893488e+19 3.1137176 3.6893488e+19
2.7200308 -2 2.4481966
-3.6893488e+19 3.134532 2
2.6579509 1.0842022e-19 2.4551587
-0 3.0435438 0
2.6293457 1.0842022e-19 2.3441668
3.6893488e+19 3.1336191 -0
2.6569822 2 2.4315159
3.6893488e+19 3.1271901 -0
2.7374413 3.6893488e+19 2.4197259
0 3.1245785 2
2.7340662 1.0842022e-19 2.3945003
3.6893488e+19 3.112226 -0
2.587285 0 2.3516755
-1.0842022e-19 3.099946 -0
2.6554644 -2 2.3342083
3.6893488e+19 3.0173492 3.6893488e+19
2.4978821 2 2.238102
-2 3.0487366 0
2.5961308 3.6893488e+19 2.2677443
2 3.1164508 2
2.5912189 -3.6893488e+19 2.313288
-1.0842022e-19 3.1557226 3.6893488e+19
2.7200899 -3.6893488e+19 2.3398166
1.0842022e-19 3.1682074 0
2.6394119 -1.0842022e-19 2.3333497
-0 3.1094594 -1.0842022e-19
2.5847089 2 2.2657576
3.6893488e+19 3.0502408 3.6893488e+19
2.5978734 2 2.1825984
-1.0842022e-19 3.1143169 -3.6893488e+19
2.589232 -0 2.2466681
3.6893488e+19 3.165344 2
2.7312376 -1.0842022e-19 2.2749424
-1.0842022e-19 3.0186775 2
2.5001779 1.0842022e-19 2.0853179
1.0842022e-19 3.1661928 -2
2.7322209 -3.6893488e+19 2.2511976
3.6893488e+19 3.0130441 -3.6893488e+19
2.4898646 -1.0842022e-19 2.048008
-2 3.2099459 -3.6893488e+19
2.7971931 -2 2.229193
0 3.0239506 1.0842022e-19
2.5406346 -3.6893488e+19 2.0151203
2 3.2114697 1.0842022e-19
2.7981777 -2 2.1765099
1.0842022e-19 3.0223663 -1.0842022e-19
2.5389538 0 1.9820597
3.6893488e+19 3.2040908 -0
2.7934098 0 2.116318
-1.0842022e-19 3.1567094 0
2.681479 -2 2.0494864
-1.0842022e-19 3.0316069 -3.6893488e+19
2.6139195 -0 1.9440972
3.6893488e+19 3.0487051 0
2.5668969 3.6893488e+19 1.9354258
2 3.1978419 0
2.7893722 0 2.0061121
1.0842022e-19 3.0216639 2
2.5382087 -0 1.8872578
-2 3.0342374 -3.6893488e+19
2.6173189 0 1.8791989
-3.6893488e+19 3.0312271 -3.6893488e+19
2.5483544 -2 1.8442216
-3.6893488e+19 3.1947997 -0
2.7874064 3.6893488e+19 1.900021
-2 3.0205147 3.6893488e+19
2.5369897 -1.0842022e-19 1.7734203
0 3.0271809 -2
2.6081996 2 1.7439407
3.6893488e+19 3.0190897 -3.6893488e+19
2.5354776 -3.6893488e+19 1.6710378
-0 3.0264773 -1.0842022e-19
2.5074406 -3.6893488e+19 1.5971607
-1.0842022e-19 3.0158818 -0
2.5580635 -1.0842022e-19 1.4361976
-2 3.0378959 1.0842022e-19
2.5180731 -2 -1.2548025
3.6893488e+19 3.0085864 -2
2.5496106 -2 -1.5246547
-2 3.0012431 -3.6893488e+19
2.4678879 2 -1.6292402
1.0842022e-19 3.0088124 -3.6893488e+19
2.5498724 -1.0842022e-19 -1.6951281
0 3.0401776 -0
2.5201974 1.0842022e-19 -1.7661114
0 3.0076153 2
2.5484855 2 -1.7819501
2 3.0392885 -1.0842022e-19
2.5193696 -2 -1.8319534
2 3.0056558 -0
2.5462151 1.0842022e-19 -1.8401653
-2 2.9724791 1.0842022e-19
2.4399469 3.6893488e+19 -1.8481511
-1.0842022e-19 2.9135273 -2
2.4791327 -3.6893488e+19 -1.8470715
-2 2.8907342 -2
2.3638303 -1.0842022e-19 -1.8543409
-0 2.8773127 -2
2.4371727 2 -1.8714986
-1.0842022e-19 2.8483596 3.6893488e+19
2.3243735 2 -1.8694209
3.6893488e+19 2.7912059 3.6893488e+19
2.3374052 -3.6893488e+19 -1.8491189
-0 2.7538157 2
2.3280051 -1.0842022e-19 -1.8370928
0 2.71258 -3.6893488e+19
2.2407517 3.6893488e+19 -1.8286474
-1.0842022e-19 2.6562634 -0
2.2625062 -0 -1.8186153
1.0842022e-19 2.6241148 3.6893488e+19
2.146899 2 -1.8113581
0 2.5885494 2
2.187506 -3.6893488e+19 -1.8062596
-2 2.5622265 3.6893488e+19
2.0812418 -0 -1.7986156
0 2.5436597 -0
2.1294951 2 -1.7995123
-2 2.5337572 1.0842022e-19
2.0510387 1.0842022e-19 -1.7992405
0 2.5143349 -3.6893488e+19
2.0915987 0 -1.7976643
3.6893488e+19 2.5036175 -2
2.0190632 -2 -1.7954531
-1.0842022e-19 2.477169 -3.6893488e+19
2.0583217 1.0842022e-19 -1.7949177
0 2.4638486 0
1.9960489 1.0842022e-19 -1.7943521
0 2.4349449 0
2.0310388 2 -1.7927277
-3.6893488e+19 3.1302853 -0
2.6041009 0 2.6143546
3.6893488e+19 3.1342618 -1.0842022e-19
2.6952243 -0 2.6174412
0 3.1376805 0
2.6991854 -2 2.608882
0 3.0521257 0
2.531323 3.6893488e+19 2.5212858
-2 3.1025581 -2
2.6584909 1.0842022e-19 2.5656435
-0 3.0558543 -1.0842022e-19
2.5347948 -2 2.5154734
-3.6893488e+19 3.0561185 -2
2.5350409 -0 2.5065596
-1.0842022e-19 3.0538721 0
2.6020811 -0 2.5036504
2 3.056905 -3.6893488e+19
2.535773 -0 2.4961598
1.0842022e-19 3.0554683 -1.0842022e-19
2.6039302 0 2.4915409
2 3.0545738 -0
2.6028938 2 2.4717836
-1.0842022e-19 3.0536611 -1.0842022e-19
2.6018364 2 2.4521508
-1.0842022e-19 3.0709951 -3.6893488e+19
2.6648207 -2 2.4727538
-1.0842022e-19 3.1324027 0
2.6556919 1.0842022e-19 2.5215428
3.6893488e+19 3.0711741 0
2.6650522 -2 2.4536381
-2 3.1291847 1.0842022e-19
2.6522779 2 2.508009
3.6893488e+19 3.1137176 3.6893488e+19
2.7200308 -2 2.4481966
-3.6893488e+19 3.134532 2
2.6579509 1.0842022e-19 2.4551587
-0 3.0435438 0
2.6293457 1.0842022e-19 2.3441668
3.6893488e+19 3.1336191 -0
2.6569822 2 2.4315159
-1.0842022e-19 3.0470648 -3.6893488e+19
2.6338956 0 2.330565
-1.0842022e-19 3.0487185 2
2.6360328 3.6893488e+19 2.3146057
-1.0842022e-19 3.057487 2
2.5363152 -1.0842022e-19 2.2985308
0 3.0471635 3.6893488e+19
2.5943079 2 2.2837994
3.6893488e+19 3.0173492 3.6893488e+19
2.4978821 2 2.238102
-2 3.0487366 0
2.5961308 3.6893488e+19 2.2677443
-1.0842022e-19 3.0180645 -1.0842022e-19
2.4992142 -2 2.2083504
0 3.0517311 -1.0842022e-19
2.5996001 -0 2.2527175
-3.6893488e+19 3.0191612 -2
2.5006282 -3.6893488e+19 2.1790926
0 3.0184579 2
2.4999466 1.0842022e-19 2.1469555
3.6893488e+19 3.0502408 3.6893488e+19
2.5978734 2 2.1825984
-0 3.0164964 2
2.496294 2 2.1133108
-3.6893488e+19 3.0482001 1.0842022e-19
2.5955093 0 2.1447954
-1.0842022e-19 3.0186775 2
2.5001779 1.0842022e-19 2.0853179
-3.6893488e+19 3.0465319 0
2.5935764 3.6893488e+19 2.1079504
3.6893488e+19 3.0130441 -3.6893488e+19
2.4898646 -1.0842022e-19 2.048008
-1.0842022e-19 3.0348952 1.0842022e-19
2.6181691 3.6893488e+19 2.0468171
0 3.0239506 1.0842022e-19
2.5406346 -3.6893488e+19 2.0151203
2 3.2114697 1.0842022e-19
2.7981777 -2 2.1765099
1.0842022e-19 3.0223663 -1.0842022e-19
2.5389538 0 1.9820597
-0 3.0379651 -0
2.6221361 3.6893488e+19 1.9823033
-2 3.024992 1.0842022e-19
2.5417397 2 1.9524945
-1.0842022e-19 3.0316069 -3.6893488e+19
2.6139195 -0 1.9440972
3.6893488e+19 3.0215089 0
2.5380445 2 1.9185433
-3.6893488e+19 3.032156 2
2.6146293 -2 1.9113595
1.0842022e-19 3.0216639 2
2.5382087 -0 1.8872578
-2 3.0342374 -3.6893488e+19
2.6173189 0 1.8791989
-3.6893488e+19 3.0312271 -3.6893488e+19
2.5483544 -2 1.8442216
-2 3.0275352 1.0842022e-19
2.6086578 -0 1.8122128
-2 3.0205147 3.6893488e+19
2.5369897 -1.0842022e-19 1.7734203
0 3.0271809 -2
2.6081996 2 1.7439407
3.6893488e+19 3.0190897 -3.6893488e+19
2.5354776 -3.6893488e+19 1.6710378
-0 3.0264773 -1.0842022e-19
2.5074406 -3.6893488e+19 1.5971607
-1.0842022e-19 3.0158818 -0
2.5580635 -1.0842022e-19 1.4361976
-2 3.0378959 1.0842022e-19
2.5180731 -2 -1.2548025
3.6893488e+19 3.0085864 -2
2.5496106 -2 -1.5246547
-2 3.0012431 -3.6893488e+19
2.4678879 2 -1.6292402
1.0842022e-19 3.0088124 -3.6893488e+19
2.5498724 -1.0842022e-19 -1.6951281
3.6893488e+19 3.0021973 0
2.4696648 0 -1.7452837
0 3.0076153 2
2.5484855 2 -1.7819501
3.6893488e+19 2.999279 1.0842022e-19
2.4649014 -2 -1.803589
1.0842022e-19 2.9487779 3.6893488e+19
2.5099878 3.6893488e+19 -1.8138504
2 2.8966026 -0
2.3692946 0 -1.8123147
-1.0842022e-19 2.9135273 -2
2.4791327 -3.6893488e+19 -1.8470715
-2 2.8907342 -2
2.3638303 -1.0842022e-19 -1.8543409
-0 2.8773127 -2
2.4371727 2 -1.8714986
-1.0842022e-19 2.8483596 3.6893488e+19
2.3243735 2 -1.8694209
3.6893488e+19 2.7912059 3.6893488e+19
2.3374052 -3.6893488e+19 -1.8491189
-0 2.7538157 2
2.3280051 -1.0842022e-19 -1.8370928
0 2.71258 -3.6893488e+19
2.2407517 3.6893488e+19 -1.8286474
-1.0842022e-19 2.6562634 -0
2.2625062 -0 -1.8186153
1.0842022e-19 2.6241148 3.6893488e+19
2.146899 2 -1.8113581
0 2.5885494 2
2.187506 -3.6893488e+19 -1.8062596
-2 2.5622265 3.6893488e+19
2.0812418 -0 -1.7986156
0 2.5436597 -0
2.1294951 2 -1.7995123
-2 2.5337572 1.0842022e-19
2.0510387 1.0842022e-19 -1.7992405
0 2.5143349 -3.6893488e+19
2.0915987 0 -1.7976643
3.6893488e+19 2.5036175 -2
2.0190632 -2 -1.7954531
-1.0842022e-19 2.477169 -3.6893488e+19
2.0583217 1.0842022e-19 -1.7949177
0 2.4638486 0
1.9960489 1.0842022e-19 -1.7943521
0 2.4349449 0
2.0310388 2 -1.7927277
3.6893488e+19 3.1305459 -1.0842022e-19
2.6001384 0 2.614383
-1.0842022e-19 3.1343181 0
2.6909239 -3.6893488e+19 2.6172173
-0 3.1377683 2
2.6948822 3.6893488e+19 2.6086922
1.0842022e-19 3.051476 1.0842022e-19
2.5273867 -3.6893488e+19 2.5205381
2 3.1017675 -2
2.6535788 0 2.5646977
-0 3.0543118 1.0842022e-19
2.5299959 -3.6893488e+19 2.5139742
-0 3.0555882 3.6893488e+19
2.5311704 -1.0842022e-19 2.5059597
0 3.0556924 -0
2.6007173 -1.0842022e-19 2.504977
-0 3.0575395 -0
2.5329657 0 2.4968841
-0 3.0523369 0
2.5968678 -0 2.4861345
1.0842022e-19 3.0552766 -1.0842022e-19
2.6002402 0 2.4725151
-0 3.1047215 -3.6893488e+19
2.6569679 2 2.5138903
0 3.1323099 -2
2.6513042 1.0842022e-19 2.5212891
3.6893488e+19 3.1309683 -1.0842022e-19
2.6498961 -0 2.5090432
1.0842022e-19 3.1477289 0
2.6674895 -0 2.5086782
1.0842022e-19 3.1194093 2
2.7231109 2 2.476944
2 3.1362944 2
2.6554868 -1.0842022e-19 2.4569283
0 3.0722659 -1.0842022e-19
2.6627331 -3.6893488e+19 2.3775232
0 3.1339445 3.6893488e+19
2.6530201 -1.0842022e-19 2.4315832
0 3.1273904 2
2.7333324 0 2.4195948
0 3.1221576 0
2.6406476 0 2.3964982
-3.6893488e+19 3.1248057 0
2.7300224 0 2.394407
3.6893488e+19 3.1108429 0
2.58201 -1.0842022e-19 2.3501201
3.6893488e+19 3.1002107 0
2.6517928 -2 2.3342083
-1.0842022e-19 3.0185103 -2
2.4941103 3.6893488e+19 2.2399244
0 3.0483952 3.6893488e+19
2.5923452 -2 2.267236
-0 3.115098 0
2.5859251 1.0842022e-19 2.3119423
3.6893488e+19 3.1562088 1.0842022e-19
2.7160387 3.6893488e+19 2.3399668
3.6893488e+19 3.0185366 -2
2.4941585 3.6893488e+19 2.1778371
-2 3.0508175 -2
2.5951245 3.6893488e+19 2.2182937
1.0842022e-19 3.1089194 3.6893488e+19
2.58024 1.0842022e-19 2.2651973
-3.6893488e+19 3.0496895 1.0842022e-19
2.5938306 3.6893488e+19 2.181478
3.6893488e+19 3.1138401 3.6893488e+19
2.5847676 3.6893488e+19 2.245717
3.6893488e+19 3.1676643 1.0842022e-19
2.7291815 -3.6893488e+19 2.2762694
1.0842022e-19 3.1699781 0
2.63642 2 2.2619138
-1.0842022e-19 3.1644101 0
2.7254481 -1.0842022e-19 2.2498658
-2 3.0174572 -3.6893488e+19
2.4921725 -0 2.052824
-1.0842022e-19 3.0443211 2
2.5876713 0 2.0706959
0 3.2141364 1.0842022e-19
2.797215 -2 2.233151
0 3.0240798 -3.6893488e+19
2.5376968 0 2.0150621
1.0842022e-19 3.2130179 2
2.7964988 -1.0842022e-19 2.1775801
2 3.0227358 1.0842022e-19
2.5362864 -1.0842022e-19 1.9822139
-2 3.1981716 3.6893488e+19
2.7869918 0 2.1112382
0 3.158833 -2
2.6791451 -3.6893488e+19 2.0508418
2 3.168009 2
2.7676768 1.0842022e-19 2.0378692
-3.6893488e+19 3.0215456 -2
2.535037 2 1.9184496
1.0842022e-19 3.0316803 -3.6893488e+19
2.6107543 0 1.9109517
-0 3.0217612 2
2.5352633 -2 1.887212
0 3.0340014 -1.0842022e-19
2.6137269 -0 1.8789827
3.6893488e+19 3.0325701 -0
2.5466092 3.6893488e+19 1.8451161
3.6893488e+19 3.0206416 -3.6893488e+19
2.5340879 -1.0842022e-19 1.7733872
1.0842022e-19 3.0290217 -1.0842022e-19
2.6073494 1.0842022e-19 1.7453538
-2 3.0193362 2
2.5327179 0 1.6710763
3.6893488e+19 3.0266452 2
2.50454 -3.6893488e+19 1.5971607
1.0842022e-19 3.0077622 -0
2.5457275 -3.6893488e+19 1.430375
-1.0842022e-19 3.0371571 -0
2.5142119 3.6893488e+19 -1.2543908
2 3.0089021 0
2.5470355 -1.0842022e-19 -1.5247242
-1.0842022e-19 3.0376661 -3.6893488e+19
2.5146801 -1.0842022e-19 -1.6478864
-1.0842022e-19 3.0113509 2
2.549845 -3.6893488e+19 -1.6968931
0 3.0060046 2
2.4710972 -3.6893488e+19 -1.7488354
1.0842022e-19 3.008621 1.0842022e-19
2.5467129 3.6893488e+19 -1.7824438
0 3.0317609 -0
2.5092468 0 -1.8264461
-3.6893488e+19 3.0053084 -1.0842022e-19
2.5429125 -3.6893488e+19 -1.8397106
-3.6893488e+19 2.9751403 2
2.4371746 1.0842022e-19 -1.8492719
3.6893488e+19 2.9108377 -2
2.4713492 2 -1.8454605
0 2.8883541 -0
2.3573227 -3.6893488e+19 -1.8528055
-1.0842022e-19 2.885462 -1.0842022e-19
2.4422362 -1.0842022e-19 -1.8758161
3.6893488e+19 2.8485103 1.0842022e-19
2.3206627 3.6893488e+19 -1.8693782
-3.6893488e+19 2.7903457 -1.0842022e-19
2.3331103 -3.6893488e+19 -1.8482882
-1.0842022e-19 2.7536731 -3.6893488e+19
2.3248849 3.6893488e+19 -1.836795
-3.6893488e+19 2.70964 2
2.2324767 0 -1.8272133
3.6893488e+19 2.6580324 -0
2.2612882 -0 -1.8192945
0 2.6243737 -3.6893488e+19
