# .PCD v0.7 - Point Cloud Data file format
VERSION 0.7
FIELDS x y z
SIZE 4 4 4
TYPE F F F
COUNT 1 1 1
WIDTH 1691
HEIGHT 1
VIEWPOINT 0 0 0 1 0 0 0
POINTS 1691
DATA ascii
-1.0842022e-19 3.0492694 3.6893488e+19
-1.7040535 -1.0842022e-19 2.4582448
-0 3.0531337 3.6893488e+19
-2.0602777 -0 2.4563107
2 3.050303 -2
1.8161614 -0 2.4166219
-2 2.983125 0
-1.878917 -0 2.3283117
-3.6893488e+19 3.0507202 -0
1.8164271 -1.0842022e-19 2.3999414
3.6893488e+19 2.9844251 0
-1.8792639 2 2.315305
1.0842022e-19 3.0473588 -2
1.8142872 1.0842022e-19 2.3784471
1.0842022e-19 3.0477431 0
1.8145319 2 2.3619249
3.6893488e+19 3.0633321 1.0842022e-19
-1.9172189 1.0842022e-19 2.3720727
-1.0842022e-19 3.0478964 2
1.8146296 2 2.3451307
-0 3.0504184 2
1.8162349 1.0842022e-19 2.3309593
-2 3.0565822 -1.0842022e-19
-1.9136167 3.6893488e+19 2.32916
-0 3.0500488 -3.6893488e+19
1.8159996 3.6893488e+19 2.3135159
2 2.9885495 1.0842022e-19
-1.8803644 -2 2.246799
-1.0842022e-19 3.0471518 3.6893488e+19
1.8141556 1.0842022e-19 2.2936447
2 3.0551102 1.0842022e-19
-1.9128311 0 2.2929792
-2 2.9868963 -2
-1.9991854 3.6893488e+19 2.2044396
-0 3.0084682 0
-1.6762336 1.0842022e-19 2.2169113
-0 2.9805834 -0
-1.9959546 3.6893488e+19 2.1713462
2 3.0088518 -3.6893488e+19
-1.6764951 -2 2.1883881
-2 2.8841424 0
-1.9465978 2 2.065083
-0 2.9918895 -3.6893488e+19
-1.6676946 1.0842022e-19 2.1388054
-2 2.884407 1.0842022e-19
-1.9467332 -3.6893488e+19 2.0436106
-0 2.9927764 2
-1.667997 -1.0842022e-19 2.1117764
1.0842022e-19 2.8879461 2
-1.9485444 -3.6893488e+19 2.0244493
1.0842022e-19 3.007282 2
-1.6754248 0 2.0988474
-2 2.8846316 3.6893488e+19
-1.9468482 0 2.0004582
-2 3.0062437 2
-1.6747169 0 2.0686715
-0 2.8800507 2
-1.9445037 -2 1.9761064
2 3.0034776 2
-1.6728308 2 2.0367987
2 2.8889506 -2
-1.9490584 3.6893488e+19 1.9595591
2 3.0027232 -0
-1.6723164 -3.6893488e+19 2.0076251
-3.6893488e+19 2.9336286 2
1.7630157 -2 1.9589119
0 2.8998847 0
-1.8384103 1.0842022e-19 1.9315301
-2 2.936296 1.0842022e-19
1.7638648 2 1.9357846
3.6893488e+19 2.9046497 -1.0842022e-19
-1.8409532 -3.6893488e+19 1.9110476
-3.6893488e+19 2.942627 3.6893488e+19
1.7658798 -3.6893488e+19 1.9137272
2 2.9024711 -3.6893488e+19
-1.8397905 -1.0842022e-19 1.8876768
0 2.932519 1.0842022e-19
1.7626625 -1.0842022e-19 1.8858159
2 2.9036424 -3.6893488e+19
-1.8404156 -0 1.8560349
-3.6893488e+19 2.9385598 2
1.7645853 -1.0842022e-19 1.8514422
2 2.9054191 -2
-1.8413638 -2 1.8117644
0 2.9380233 -0
1.7644144 0 1.8022541
-1.0842022e-19 2.9087379 -3.6893488e+19
-1.843135 -0 1.7676445
-0 2.940089 0
1.765072 2 1.7539752
-1.0842022e-19 2.9064167 0
-1.8418963 -1.0842022e-19 1.6929352
0 2.9423215 3.6893488e+19
1.7657825 0 1.6605368
2 2.9022639 3.6893488e+19
-1.83968 -3.6893488e+19 1.5773164
-0 2.8956249 -2
-1.9524742 2 1.4716885
-0 2.8955026 -1.0842022e-19
-1.9524117 2 -1.3820446
3.6893488e+19 2.9477787 1.0842022e-19
-1.6526564 -2 -1.5494866
3.6893488e+19 2.8943632 -3.6893488e+19
-1.9518285 2 -1.6171268
1.0842022e-19 2.9483738 -2
-1.6528592 3.6893488e+19 -1.6874052
0 2.893579 -3.6893488e+19
-1.9514271 0 -1.7088237
-0 2.9493842 -1.0842022e-19
-1.6532037 -0 -1.7690488
3.6893488e+19 2.8944592 3.6893488e+19
-1.9518777 -3.6893488e+19 -1.7737458
3.6893488e+19 2.930506 -3.6893488e+19
-1.6467677 1.0842022e-19 -1.8110492
-0 2.8940732 2
-1.9516802 1.0842022e-19 -1.8176807
3.6893488e+19 2.820859 1.0842022e-19
-1.5937741 -0 -1.7994834
3.6893488e+19 2.8050368 2
-1.9061128 -2 -1.808282
1.0842022e-19 2.799778 1.0842022e-19
-1.9034214 -0 -1.8386801
1.0842022e-19 2.7973289 -2
-1.5777303 2 -1.8531306
-3.6893488e+19 2.791182 -3.6893488e+19
1.6853554 -1.0842022e-19 -1.8647329
-3.6893488e+19 2.7695057 -2
-1.7688297 3.6893488e+19 -1.8620455
-3.6893488e+19 2.7013903 -3.6893488e+19
1.6436689 -3.6893488e+19 -1.8360689
0 2.6522551 -1.0842022e-19
-1.7146752 0 -1.8244276
-1.0842022e-19 2.6158948 -2
1.6079147 3.6893488e+19 -1.8165814
1.0842022e-19 2.5819023 3.6893488e+19
-1.6771294 1.0842022e-19 -1.8081461
-1.0842022e-19 2.560375 3.6893488e+19
1.5725729 1.0842022e-19 -1.8049047
-2 2.5278192 -2
1.5518491 -1.0842022e-19 -1.8016218
1.0842022e-19 2.4990387 -0
1.5338345 0 -1.7976429
1.0842022e-19 2.4571652 1.0842022e-19
1.520507 3.6893488e+19 -1.7960116
-2 2.4212923 2
1.5090894 -1.0842022e-19 -1.7944542
2 2.354697 -3.6893488e+19
-1.681528 2 -1.7879825
-2 2.3137617 1.0842022e-19
-1.6605781 0 -1.7869668
-0 2.2793319 -0
-1.6429574 0 -1.7850921
0 2.2538555 -2
-1.6299189 1.0842022e-19 -1.7849969
3.6893488e+19 2.2131402 2
1.3974087 0 -1.7839485
-1.0842022e-19 2.1780756 0
1.3862484 -2 -1.784235
0 2.144084 2
1.3754294 -0 -1.7829921
3.6893488e+19 2.1180189 -2
1.3592668 -2 -1.7832493
1.0842022e-19 3.0497384 -0
-2.0694308 -3.6893488e+19 2.5281124
3.6893488e+19 3.0532062 -1.0842022e-19
-1.7538135 1.0842022e-19 2.5262828
-2 3.0514925 -0
-2.0713003 1.0842022e-19 2.5208783
3.6893488e+19 3.0518494 1.0842022e-19
-1.7532371 -0 2.5162067
0 3.0552704 -2
-1.7546904 -0 2.5103097
-0 3.0484631 2
-1.7517985 -2 2.4916313
2 3.0468614 0
-1.7511181 2 2.4717603
1.0842022e-19 3.0526166 -1.0842022e-19
-2.0724981 2 2.4731455
-0 3.0496898 -3.6893488e+19
-1.7523196 1.0842022e-19 2.4589028
-1.0842022e-19 3.0524383 1.0842022e-19
-2.0723083 -1.0842022e-19 2.4553418
-1.0842022e-19 3.1414745 3.6893488e+19
-1.7913133 -1.0842022e-19 2.5384235
0 3.1424909 0
-1.7917451 2 2.527869
0 3.0510874 0
1.7913888 0 2.4176898
-0 3.062417 0
-1.9298533 -0 2.42465
0 3.0495946 1.0842022e-19
1.7905638 2 2.3984249
1.0842022e-19 3.0557513 -1.0842022e-19
-1.9260159 -3.6893488e+19 2.3980539
3.6893488e+19 3.0474041 -0
1.7893533 0 2.3784864
-3.6893488e+19 3.0555348 1.0842022e-19
-1.9258914 1.0842022e-19 2.3802924
3.6893488e+19 3.0451627 0
1.7881147 1.0842022e-19 2.3587708
3.6893488e+19 3.0569708 2
-1.926718 1.0842022e-19 2.364552
-0 3.0481274 -3.6893488e+19
1.789753 1.0842022e-19 2.3453815
2 3.0487926 2
1.7901206 1.0842022e-19 2.3291521
-1.0842022e-19 3.0560901 3.6893488e+19
-1.926211 -0 2.3286614
-1.0842022e-19 3.0509 0
1.7912853 3.6893488e+19 2.3143899
1.0842022e-19 3.0562451 1.0842022e-19
-1.9263002 -1.0842022e-19 2.3114445
-0 3.0447786 -1.0842022e-19
1.7879024 0 2.2912853
1.0842022e-19 3.0552685 2
-1.925738 2 2.2931578
0 3.0532439 -0
-2.0731666 1.0842022e-19 2.283078
-2 3.0521784 0
-1.753377 -0 2.2729445
-2 3.0502589 -1.0842022e-19
-2.0699856 -0 2.2632937
0 3.0619175 -2
-1.7575144 -2 2.264138
2 3.0498292 -2
-2.0695276 -3.6893488e+19 2.2419386
-1.0842022e-19 3.0584085 -3.6893488e+19
-1.7560236 -2 2.2375674
-3.6893488e+19 3.0492597 3.6893488e+19
-2.0689209 1.0842022e-19 2.2072284
0 3.0570266 -1.0842022e-19
-1.7554365 -3.6893488e+19 2.2008269
-3.6893488e+19 3.0489852 -2
-2.0686283 1.0842022e-19 2.1731024
-1.0842022e-19 3.0746202 2
-1.7629111 -0 2.1901648
3.6893488e+19 2.8787231 0
-1.9518025 3.6893488e+19 1.996653
-2 3.0042107 -2
-1.7159969 2 2.066153
1.0842022e-19 2.8785553 -0
-1.951713 0 1.9752554
0 3.0624111 -1.0842022e-19
-1.757724 3.6893488e+19 2.1034904
0 2.8862085 2
-1.955791 -3.6893488e+19 1.9581172
-1.0842022e-19 3.064023 -2
-1.7584089 -0 2.0701241
1.0842022e-19 3.0621381 -2
1.7974956 1.0842022e-19 2.0507467
3.6893488e+19 2.8983517 -3.6893488e+19
-1.8543243 3.6893488e+19 1.9308506
-3.6893488e+19 3.0653191 -1.0842022e-19
1.7992536 0 2.0185268
-2 2.9007452 -3.6893488e+19
-1.8557023 -3.6893488e+19 1.9095081
-3.6893488e+19 3.0770392 -2
1.8057305 2 1.9919312
-1.0842022e-19 3.1055388 2
-1.9546778 -2 1.9932668
-1.0842022e-19 3.0035169 2
1.7651001 2 1.9092067
3.6893488e+19 3.0619736 3.6893488e+19
-1.929598 2 1.9285822
3.6893488e+19 2.9369574 -1.0842022e-19
1.741474 2 1.8506038
3.6893488e+19 2.9055071 -1.0842022e-19
-1.8584436 2 1.8118219
3.6893488e+19 2.9376073 -0
1.7418332 -0 1.8020771
3.6893488e+19 3.074338 2
-1.936716 0 1.8514006
-1.0842022e-19 3.01401 -1.0842022e-19
1.7708988 2 1.7797372
0 2.908191 2
-1.8599887 -1.0842022e-19 1.6937951
1.0842022e-19 2.9463422 3.6893488e+19
1.7466604 0 1.6619881
-2 2.9041009 3.6893488e+19
-1.8576342 -2 1.5782589
2 2.9989522 -1.0842022e-19
-2.0158663 -1.0842022e-19 1.5148178
-0 2.910526 2
-1.6744071 0 1.1854475
-1.0842022e-19 2.8930027 1.0842022e-19
-1.9594114 -1.0842022e-19 -1.3812324
0 2.9468899 2
-1.6898558 -2 -1.5491457
2 2.8944204 -0
-1.9601667 -1.0842022e-19 -1.6172034
-1.0842022e-19 2.9479847 -0
-1.690321 -2 -1.6872485
0 2.894634 0
-1.9602805 2 -1.7094193
3.6893488e+19 2.9474957 -1.0842022e-19
-1.6901132 0 -1.768448
1.0842022e-19 2.8951399 -1.0842022e-19
-1.9605501 -3.6893488e+19 -1.7740279
2 2.931617 0
-1.6833674 -3.6893488e+19 -1.8115351
-0 2.8935695 1.0842022e-19
-1.9597133 2 -1.8174673
3.6893488e+19 2.8245339 3.6893488e+19
-1.6378744 2 -1.8014874
-0 2.8853126 -3.6893488e+19
-1.9553136 -0 -1.8565556
-1.0842022e-19 2.8182049 1.0842022e-19
-1.6351856 -1.0842022e-19 -1.833594
1.0842022e-19 2.8034647 3.6893488e+19
-1.911701 2 -1.8413451
2 2.7975693 -2
-1.6264187 -0 -1.8533221
0 2.8026795 -3.6893488e+19
1.6672685 -2 -1.8741865
-0 2.7674856 1.0842022e-19
-1.7789871 2 -1.8602901
-1.0842022e-19 2.7000399 2
1.6237038 -1.0842022e-19 -1.8354272
-1.0842022e-19 2.652343 2
-1.7316222 -1.0842022e-19 -1.8244894
2 2.615788 1.0842022e-19
1.577144 -0 -1.816516
-3.6893488e+19 2.5598915 -1.0842022e-19
1.5462542 -2 -1.8046156
0 2.5243444 0
1.5266099 -0 -1.7994041
1.0842022e-19 2.4995611 -1.0842022e-19
1.5130352 1.0842022e-19 -1.7978152
0 2.456192 2
1.5010518 -1.0842022e-19 -1.7956392
1.0842022e-19 3.0497384 -0
-2.0694308 -3.6893488e+19 2.5281124
3.6893488e+19 3.0532062 -1.0842022e-19
-1.7538135 1.0842022e-19 2.5262828
-2 3.0514925 -0
-2.0713003 1.0842022e-19 2.5208783
3.6893488e+19 3.0518494 1.0842022e-19
-1.7532371 -0 2.5162067
0 3.0552704 -2
-1.7546904 -0 2.5103097
-0 3.0484631 2
-1.7517985 -2 2.4916313
2 3.0468614 0
-1.7511181 2 2.4717603
1.0842022e-19 3.0526166 -1.0842022e-19
-2.0724981 2 2.4731455
-0 3.0496898 -3.6893488e+19
-1.7523196 1.0842022e-19 2.4589028
-1.0842022e-19 3.0524383 1.0842022e-19
-2.0723083 -1.0842022e-19 2.4553418
-1.0842022e-19 3.1414745 3.6893488e+19
-1.7913133 -1.0842022e-19 2.5384235
0 3.1424909 0
-1.7917451 2 2.527869
0 3.0510874 0
1.7913888 0 2.4176898
3.6893488e+19 2.9819727 0
-1.8887318 0 2.3275585
0 3.0495946 1.0842022e-19
1.7905638 2 2.3984249
3.6893488e+19 2.9821 3.6893488e+19
-1.8887684 3.6893488e+19 2.3138201
-0 3.0115168 -2
1.769521 -2 2.3328149
-3.6893488e+19 3.0555348 1.0842022e-19
-1.9258914 1.0842022e-19 2.3802924
3.6893488e+19 3.0451627 0
1.7881147 1.0842022e-19 2.3587708
3.6893488e+19 3.0569708 2
-1.926718 1.0842022e-19 2.364552
-0 3.0481274 -3.6893488e+19
1.789753 1.0842022e-19 2.3453815
2 3.0487926 2
1.7901206 1.0842022e-19 2.3291521
-1.0842022e-19 3.0560901 3.6893488e+19
-1.926211 -0 2.3286614
-1.0842022e-19 3.0509 0
1.7912853 3.6893488e+19 2.3143899
2 2.9888768 -1.0842022e-19
-1.8907191 -0 2.2471771
-0 3.0447786 -1.0842022e-19
1.7879024 0 2.2912853
3.6893488e+19 2.9791894 3.6893488e+19
-1.8879306 -0 2.2101789
1.0842022e-19 2.8746955 -3.6893488e+19
-1.9496562 -1.0842022e-19 2.0997779
1.0842022e-19 3.0092053 2
-1.7202406 -1.0842022e-19 2.2182574
-0 2.8740606 3.6893488e+19
-1.9493181 -0 2.0780096
-1.0842022e-19 3.0088747 1.0842022e-19
-1.7199597 -0 2.1884408
2 2.8787415 0
-1.9518123 3.6893488e+19 2.0607061
1.0842022e-19 3.0081577 3.6893488e+19
-1.7193505 3.6893488e+19 2.1581252
0 2.8800578 3.6893488e+19
-1.9525136 -0 2.0403383
-0 2.9921386 1.0842022e-19
-1.7090793 2 2.1113195
-0 2.8866372 0
-1.9560195 -2 2.0235703
-1.0842022e-19 3.0043471 -0
-1.7161127 -3.6893488e+19 2.0948787
3.6893488e+19 2.8787231 0
-1.9518025 3.6893488e+19 1.996653
-2 3.0042107 -2
-1.7159969 2 2.066153
1.0842022e-19 2.8785553 -0
-1.951713 0 1.9752554
-1.0842022e-19 3.0068047 3.6893488e+19
-1.7182009 2 2.0405724
0 2.8862085 2
-1.955791 -3.6893488e+19 1.9581172
1.0842022e-19 3.0007195 -3.6893488e+19
-1.7130303 3.6893488e+19 2.0055907
3.6893488e+19 2.9335251 -0
1.7395773 -1.0842022e-19 1.9588518
3.6893488e+19 2.8983517 -3.6893488e+19
-1.8543243 3.6893488e+19 1.9308506
-3.6893488e+19 2.9373157 3.6893488e+19
1.7416722 -1.0842022e-19 1.9362097
-2 2.9007452 -3.6893488e+19
-1.8557023 -3.6893488e+19 1.9095081
-1.0842022e-19 3.002068 -1.0842022e-19
1.7642994 -3.6893488e+19 1.9364703
-3.6893488e+19 2.9048057 -3.6893488e+19
-1.8580399 -3.6893488e+19 1.8884881
1.0842022e-19 2.9321029 3.6893488e+19
1.7387913 2 1.8856786
2 2.9082248 -3.6893488e+19
-1.8600081 -2 1.8586789
3.6893488e+19 2.9369574 -1.0842022e-19
1.741474 2 1.8506038
3.6893488e+19 2.9055071 -1.0842022e-19
-1.8584436 2 1.8118219
3.6893488e+19 2.9376073 -0
1.7418332 -0 1.8020771
3.6893488e+19 3.074338 2
-1.936716 0 1.8514006
0 2.9426098 -0
1.7445977 0 1.7547076
0 2.908191 2
-1.8599887 -1.0842022e-19 1.6937951
1.0842022e-19 2.9463422 3.6893488e+19
1.7466604 0 1.6619881
-2 2.9041009 3.6893488e+19
-1.8576342 -2 1.5782589
-0 2.8934369 -1.0842022e-19
-1.9596426 1.0842022e-19 1.4705002
-0 2.910526 2
-1.6744071 0 1.1854475
-1.0842022e-19 2.8930027 1.0842022e-19
-1.9594114 -1.0842022e-19 -1.3812324
0 2.9468899 2
-1.6898558 -2 -1.5491457
2 2.8944204 -0
-1.9601667 -1.0842022e-19 -1.6172034
-1.0842022e-19 2.9479847 -0
-1.690321 -2 -1.6872485
0 2.894634 0
-1.9602805 2 -1.7094193
3.6893488e+19 2.9474957 -1.0842022e-19
-1.6901132 0 -1.768448
1.0842022e-19 2.8951399 -1.0842022e-19
-1.9605501 -3.6893488e+19 -1.7740279
2 2.8306003 -0
-1.6404516 -3.6893488e+19 -1.7678779
-0 2.8935695 1.0842022e-19
-1.9597133 2 -1.8174673
3.6893488e+19 2.8245339 3.6893488e+19
-1.6378744 2 -1.8014874
1.0842022e-19 2.8080382 -1.0842022e-19
-1.914138 -0 -1.8101171
-1.0842022e-19 2.8182049 1.0842022e-19
-1.6351856 -1.0842022e-19 -1.833594
1.0842022e-19 2.8034647 3.6893488e+19
-1.911701 2 -1.8413451
2 2.7975693 -2
-1.6264187 -0 -1.8533221
0 2.8026795 -3.6893488e+19
1.6672685 -2 -1.8741865
-0 2.7674856 1.0842022e-19
-1.7789871 2 -1.8602901
-1.0842022e-19 2.7000399 2
1.6237038 -1.0842022e-19 -1.8354272
-1.0842022e-19 2.652343 2
-1.7316222 -1.0842022e-19 -1.8244894
2 2.615788 1.0842022e-19
1.577144 -0 -1.816516
-3.6893488e+19 2.5598915 -1.0842022e-19
1.5462542 -2 -1.8046156
0 2.5243444 0
1.5266099 -0 -1.7994041
1.0842022e-19 2.4995611 -1.0842022e-19
1.5130352 1.0842022e-19 -1.7978152
0 2.456192 2
1.5010518 -1.0842022e-19 -1.7956392
1.0842022e-19 3.0506873 -2
-2.0831151 2 2.5290427
-1.0842022e-19 3.0531945 -0
-1.7792541 1.0842022e-19 2.5262828
2 3.0511651 -3.6893488e+19
-2.0836444 2 2.5206323
1.0842022e-19 3.0516548 -2
-1.7784706 2 2.5160453
0 3.0469973 3.6893488e+19
-2.0790272 -2 2.5081811
2 3.0484211 1.0842022e-19
-1.7768255 2 2.491581
0 3.0716698 -1.0842022e-19
-2.1063604 3.6893488e+19 2.5108573
-0 3.0470645 -2
-1.7761353 1.0842022e-19 2.4721012
1.0842022e-19 3.0522873 3.6893488e+19
-2.0848877 0 2.4727149
-1.0842022e-19 3.0496476 -2
-1.7774495 1.0842022e-19 2.4588559
-1.0842022e-19 3.0518942 1.0842022e-19
-2.0844524 3.6893488e+19 2.4546037
-0 3.1406913 0
-1.8237692 -0 2.5378575
-0 3.0529263 -2
-2.0855956 0 2.4386508
-1.0842022e-19 3.1380451 -1.0842022e-19
-1.8224229 -0 2.5247321
-1.0842022e-19 3.0512846 2
1.7662115 -1.0842022e-19 2.4179459
1.0842022e-19 3.063772 2
-1.9438154 3.6893488e+19 2.4265332
-0 3.0498228 0
1.7655264 -2 2.3987117
-2 3.0560603 3.6893488e+19
-1.939052 2 2.3984954
1.0842022e-19 3.0474474 3.6893488e+19
1.764413 -2 2.3785255
0 3.0559063 -0
-1.9389567 -0 2.3807917
3.6893488e+19 3.0452368 0
1.763377 1.0842022e-19 2.3588459
-0 3.0564466 3.6893488e+19
-1.9392905 1.0842022e-19 2.363965
-1.0842022e-19 3.0487893 -0
1.7650419 -0 2.3461337
-3.6893488e+19 3.048743 -3.6893488e+19
1.7650203 0 2.3290839
-3.6893488e+19 3.0575767 -1.0842022e-19
-1.9399886 0 2.3302901
-0 3.0514703 -0
1.7662985 2 2.3149726
3.6893488e+19 3.056277 0
-1.9391859 0 2.3115077
1.0842022e-19 3.0451632 2
1.7633424 2 2.2916529
-3.6893488e+19 3.0559206 -1.0842022e-19
-1.9389657 0 2.293813
1.0842022e-19 3.0509293 1.0842022e-19
-2.0833833 -1.0842022e-19 2.2809672
3.6893488e+19 3.0546198 0
-1.7799792 -1.0842022e-19 2.2751601
-2 3.0497406 1.0842022e-19
-2.0820665 -0 2.262886
-3.6893488e+19 3.0615947 1.0842022e-19
-1.7835279 1.0842022e-19 2.263875
1.0842022e-19 3.0485353 2
-2.0807312 2 2.239903
1.0842022e-19 3.0601692 -1.0842022e-19
-1.7828025 -1.0842022e-19 2.2403696
-2 3.047996 -3.6893488e+19
-2.0801337 3.6893488e+19 2.2053788
0 3.0578239 1.0842022e-19
-1.7816093 -0 2.2020149
3.6893488e+19 3.0495222 -3.6893488e+19
-2.0818243 -3.6893488e+19 2.1739373
2 3.0762892 -2
-1.7910037 -0 2.1924446
-1.0842022e-19 2.8798985 -0
-1.9604346 0 1.9974626
-3.6893488e+19 3.0003381 -0
-1.7523627 -0 2.0613487
3.6893488e+19 2.8825295 3.6893488e+19
-1.9618919 -3.6893488e+19 1.9776607
-0 3.0634899 1.0842022e-19
-1.784492 -2 2.1047246
-0 2.8817227 -0
-1.961445 0 1.9557368
-1.0842022e-19 3.0637927 -1.0842022e-19
-1.784646 1.0842022e-19 2.0699017
1.0842022e-19 3.0622759 -2
1.771363 2 2.0508668
1.0842022e-19 3.0558116 1.0842022e-19
-1.9388983 1.0842022e-19 2.0277026
2 3.0660501 -2
1.773132 2 2.0191379
-1.0842022e-19 2.8998327 3.6893488e+19
-1.8719747 -3.6893488e+19 1.9091605
0 3.0016418 0
1.735888 2 1.9361471
2 2.9007728 1.0842022e-19
-1.8725554 3.6893488e+19 1.8871218
1.0842022e-19 3.0114582 0
1.7450899 -0 1.9141868
-3.6893488e+19 2.9001334 -1.0842022e-19
-1.8721604 3.6893488e+19 1.8540697
-1.0842022e-19 2.9382873 1.0842022e-19
1.7054244 0 1.851281
-1.0842022e-19 2.9091506 0
-1.8763652 3.6893488e+19 1.813519
1.0842022e-19 3.0126066 -2
1.7461663 -2 1.8375177
3.6893488e+19 2.9052267 -2
-1.8751532 2 1.7664459
0 3.0148647 -2
1.748283 3.6893488e+19 1.7802316
0 3.0508366 1.0842022e-19
-1.9358252 3.6893488e+19 1.7678409
1.0842022e-19 2.9404869 1.0842022e-19
1.7064553 -3.6893488e+19 1.6598563
3.6893488e+19 2.904561 -0
-1.8748953 0 1.5785103
0 2.8956115 -0
-1.9691383 -1.0842022e-19 1.4717584
-1.0842022e-19 3.0132165 -2
-1.7589147 2 1.2378154
1.0842022e-19 2.8967986 -0
-1.9697958 0 -1.3825235
3.6893488e+19 2.9434357 -3.6893488e+19
-1.7256035 1.0842022e-19 -1.5478064
3.6893488e+19 2.8969064 -1.0842022e-19
-1.9698555 -2 -1.6187733
-1.0842022e-19 2.9515293 1.0842022e-19
-1.7297213 -1.0842022e-19 -1.6887373
-2 2.895561 3.6893488e+19
-1.9691104 3.6893488e+19 -1.7099487
-0 2.9261105 -0
-1.7167891 -0 -1.761598
1.0842022e-19 2.8971889 0
-1.9700121 1.0842022e-19 -1.7748275
3.6893488e+19 2.9256034 1.0842022e-19
-1.7165312 3.6893488e+19 -1.8089433
3.6893488e+19 2.8969271 -3.6893488e+19
-1.969867 2 -1.8191439
-1.0842022e-19 2.9278238 -0
-1.7176608 -2 -1.8576672
-3.6893488e+19 2.8955245 0
-1.9690902 3.6893488e+19 -1.8627349
-1.0842022e-19 2.8274338 1.0842022e-19
-1.6665862 3.6893488e+19 -1.8396521
2 2.7973707 0
-1.6512911 1.0842022e-19 -1.8531785
-3.6893488e+19 2.7975743 -3.6893488e+19
1.6394725 0 -1.8699735
1.0842022e-19 2.7643416 -3.6893488e+19
-1.7882824 -3.6893488e+19 -1.857547
-2 2.7008073 -2
1.5862925 0 -1.8357773
3.6893488e+19 2.6536751 -3.6893488e+19
-1.749348 -3.6893488e+19 -1.8251693
3.6893488e+19 2.6155539 2
1.5463344 1.0842022e-19 -1.8163855
1.0842022e-19 2.5591567 -2
1.519901 2 -1.8041822
1.0842022e-19 2.5237329 3.6893488e+19
1.503298 3.6893488e+19 -1.7990081
2 2.5001645 1.0842022e-19
1.4845033 2 -1.7980736
-1.0842022e-19 2.4549665 -0
1.4632419 0 -1.7951738
-2 2.4200869 3.6893488e+19
1.4468939 0 -1.7939541
3.6893488e+19 2.3533342 1.0842022e-19
-1.69572 2 -1.787413
-1.0842022e-19 2.3124154 2
-1.6730541 3.6893488e+19 -1.7863281
2 2.2814565 0
-1.6559052 -2 -1.786366
3.6893488e+19 2.2520421 -3.6893488e+19
-1.6396118 -1.0842022e-19 -1.7839094
-3.6893488e+19 2.2102256 -3.6893488e+19
1.3407068 1.0842022e-19 -1.782934
0 2.1761484 -3.6893488e+19
1.3247348 3.6893488e+19 -1.7835038
-1.0842022e-19 2.1416686 2
1.3085743 3.6893488e+19 -1.7820096
1.0842022e-19 2.1175635 3.6893488e+19
1.2972763 -3.6893488e+19 -1.7830391
1.0842022e-19 3.0506873 -2
-2.0831151 2 2.5290427
-1.0842022e-19 3.0531945 -0
-1.7792541 1.0842022e-19 2.5262828
2 3.0511651 -3.6893488e+19
-2.0836444 2 2.5206323
1.0842022e-19 3.0516548 -2
-1.7784706 2 2.5160453
0 3.0469973 3.6893488e+19
-2.0790272 -2 2.5081811
2 3.0484211 1.0842022e-19
-1.7768255 2 2.491581
0 3.0716698 -1.0842022e-19
-2.1063604 3.6893488e+19 2.5108573
-0 3.0470645 -2
-1.7761353 1.0842022e-19 2.4721012
1.0842022e-19 3.0522873 3.6893488e+19
-2.0848877 0 2.4727149
-1.0842022e-19 3.0496476 -2
-1.7774495 1.0842022e-19 2.4588559
-1.0842022e-19 3.0518942 1.0842022e-19
-2.0844524 3.6893488e+19 2.4546037
-2 3.0503166 1.0842022e-19
-1.77779 3.6893488e+19 2.4425409
-0 3.0529263 -2
-2.0855956 0 2.4386508
-0 3.0482643 0
-1.7767458 -3.6893488e+19 2.4223363
-1.0842022e-19 3.0512846 2
1.7662115 -1.0842022e-19 2.4179459
0 2.9831572 -3.6893488e+19
-1.8992218 -1.0842022e-19 2.3283954
-0 3.0498228 0
1.7655264 -2 2.3987117
3.6893488e+19 2.9818063 2
-1.8988047 2 2.3136597
3.6893488e+19 3.0108798 2
1.7445477 -3.6893488e+19 2.3319902
0 3.0559063 -0
-1.9389567 -0 2.3807917
3.6893488e+19 3.0452368 0
1.763377 1.0842022e-19 2.3588459
-0 3.0564466 3.6893488e+19
-1.9392905 1.0842022e-19 2.363965
-1.0842022e-19 3.0487893 -0
1.7650419 -0 2.3461337
-3.6893488e+19 3.048743 -3.6893488e+19
1.7650203 0 2.3290839
-3.6893488e+19 3.0575767 -1.0842022e-19
-1.9399886 0 2.3302901
-0 3.0514703 -0
1.7662985 2 2.3149726
1.0842022e-19 2.9779868 -1.0842022e-19
-1.897625 3.6893488e+19 2.2361498
1.0842022e-19 3.0451632 2
1.7633424 2 2.2916529
-3.6893488e+19 3.0559206 -1.0842022e-19
-1.9389657 0 2.293813
3.6893488e+19 2.8738236 2
-1.9570695 -2 2.0990262
-2 3.0063698 -1.0842022e-19
-1.7554314 1.0842022e-19 2.2131531
-1.0842022e-19 2.8748617 2
-1.9576446 -1.0842022e-19 2.0787706
1.0842022e-19 3.0052605 -0
-1.754867 1.0842022e-19 2.1823361
0 2.8727195 3.6893488e+19
-1.9564579 -3.6893488e+19 2.0558202
-1.0842022e-19 3.0070283 0
-1.7557665 -1.0842022e-19 2.1563554
1.0842022e-19 2.8752108 -0
-1.9578378 -3.6893488e+19 2.0366864
0 2.990253 -3.6893488e+19
-1.7494223 0 2.1099489
3.6893488e+19 3.0495222 -3.6893488e+19
-2.0818243 -3.6893488e+19 2.1739373
-0 2.9933567 -2
-1.7505007 3.6893488e+19 2.0844932
-1.0842022e-19 2.8798985 -0
-1.9604346 0 1.9974626
-3.6893488e+19 3.0003381 -0
-1.7523627 -0 2.0613487
3.6893488e+19 2.8825295 3.6893488e+19
-1.9618919 -3.6893488e+19 1.9776607
3.6893488e+19 3.0044885 0
-1.7544743 -2 2.0379624
-0 2.8817227 -0
-1.961445 0 1.9557368
-1.0842022e-19 3.0006163 -1.0842022e-19
-1.7525042 3.6893488e+19 2.0054953
2 2.9314847 1.0842022e-19
1.7022361 -3.6893488e+19 1.9578601
-1.0842022e-19 2.9000585 3.6893488e+19
-1.8721142 1.0842022e-19 1.9316434
-1.0842022e-19 2.9368348 -0
1.7047436 -0 1.9359971
-1.0842022e-19 2.8998327 3.6893488e+19
-1.8719747 -3.6893488e+19 1.9091605
0 3.0016418 0
1.735888 2 1.9361471
2 2.9007728 1.0842022e-19
-1.8725554 3.6893488e+19 1.8871218
0 2.9371791 -0
1.7049049 -1.0842022e-19 1.8872668
-3.6893488e+19 2.9001334 -1.0842022e-19
-1.8721604 3.6893488e+19 1.8540697
-1.0842022e-19 2.9382873 1.0842022e-19
1.7054244 0 1.851281
-1.0842022e-19 2.9091506 0
-1.8763652 3.6893488e+19 1.813519
1.0842022e-19 2.9318781 -1.0842022e-19
1.7024204 -1.0842022e-19 1.7997514
3.6893488e+19 2.9052267 -2
-1.8751532 2 1.7664459
3.6893488e+19 2.9440653 -2
1.7081325 -2 1.7551286
-2 2.910399 3.6893488e+19
-1.8767507 -3.6893488e+19 1.6948625
1.0842022e-19 2.9404869 1.0842022e-19
1.7064553 -3.6893488e+19 1.6598563
3.6893488e+19 2.904561 -0
-1.8748953 0 1.5785103
0 2.8956115 -0
-1.9691383 -1.0842022e-19 1.4717584
-0 2.9103854 -1.0842022e-19
-1.7087888 3.6893488e+19 1.1853909
1.0842022e-19 2.8967986 -0
-1.9697958 0 -1.3825235
3.6893488e+19 2.9434357 -3.6893488e+19
-1.7256035 1.0842022e-19 -1.5478064
3.6893488e+19 2.8969064 -1.0842022e-19
-1.9698555 -2 -1.6187733
-1.0842022e-19 2.9515293 1.0842022e-19
-1.7297213 -1.0842022e-19 -1.6887373
-2 2.895561 3.6893488e+19
-1.9691104 3.6893488e+19 -1.7099487
-0 2.9261105 -0
-1.7167891 -0 -1.761598
1.0842022e-19 2.8971889 0
-1.9700121 1.0842022e-19 -1.7748275
-0 2.8323991 1.0842022e-19
-1.6691123 -3.6893488e+19 -1.7686609
3.6893488e+19 2.8969271 -3.6893488e+19
-1.969867 2 -1.8191439
3.6893488e+19 2.8275194 2
-1.6666297 -3.6893488e+19 -1.8031178
-1.0842022e-19 2.8069863 -0
-1.9200468 -3.6893488e+19 -1.8095179
-1.0842022e-19 2.8274338 1.0842022e-19
-1.6665862 3.6893488e+19 -1.8396521
2 2.7973707 0
-1.6512911 1.0842022e-19 -1.8531785
-3.6893488e+19 2.7975743 -3.6893488e+19
1.6394725 0 -1.8699735
1.0842022e-19 2.7643416 -3.6893488e+19
-1.7882824 -3.6893488e+19 -1.857547
-2 2.7008073 -2
1.5862925 0 -1.8357773
3.6893488e+19 2.6536751 -3.6893488e+19
-1.749348 -3.6893488e+19 -1.8251693
3.6893488e+19 2.6155539 2
1.5463344 1.0842022e-19 -1.8163855
1.0842022e-19 2.5591567 -2
1.519901 2 -1.8041822
1.0842022e-19 2.5237329 3.6893488e+19
1.503298 3.6893488e+19 -1.7990081
2 2.5001645 1.0842022e-19
1.4845033 2 -1.7980736
-1.0842022e-19 2.4549665 -0
1.4632419 0 -1.7951738
-2 2.4200869 3.6893488e+19
1.4468939 0 -1.7939541
3.6893488e+19 2.3533342 1.0842022e-19
-1.69572 2 -1.787413
-1.0842022e-19 2.3124154 2
-1.6730541 3.6893488e+19 -1.7863281
2 2.2814565 0
-1.6559052 -2 -1.786366
3.6893488e+19 2.2520421 -3.6893488e+19
-1.6396118 -1.0842022e-19 -1.7839094
-3.6893488e+19 2.2102256 -3.6893488e+19
1.3407068 1.0842022e-19 -1.782934
0 2.1761484 -3.6893488e+19
1.3247348 3.6893488e+19 -1.7835038
-1.0842022e-19 2.1416686 2
1.3085743 3.6893488e+19 -1.7820096
1.0842022e-19 2.1175635 3.6893488e+19
1.2972763 -3.6893488e+19 -1.7830391
-2 3.0448315 -3.6893488e+19
-2.0890522 0 2.5236592
-2 3.0525715 -0
-1.8043193 2 2.5257275
3.6893488e+19 3.0466688 2
-2.0911651 2 2.5166411
-3.6893488e+19 3.0516715 1.0842022e-19
-1.8037859 1.0842022e-19 2.5160723
2 3.0470033 -0
-2.0915496 0 2.5082343
-3.6893488e+19 3.049448 0
-1.8024682 -0 2.493295
1.0842022e-19 3.0712743 -3.6893488e+19
-2.1194608 1.0842022e-19 2.5105848
2 3.0470512 -0
-1.8010476 1.0842022e-19 2.4721012
-3.6893488e+19 3.0522618 2
-2.0975971 -1.0842022e-19 2.4727626
0 3.049849 -2
-1.8027056 -3.6893488e+19 2.4591846
1.0842022e-19 3.0518079 -2
-2.0970747 -2 2.4545574
-3.6893488e+19 3.0505795 -0
-1.8031387 -1.0842022e-19 2.4429483
0 3.0524716 2
-2.0978382 -1.0842022e-19 2.4380732
1.0842022e-19 3.0510814 -2
-1.803436 2 2.4263446
-3.6893488e+19 3.0646625 -0
-1.9575808 2 2.4277887
-1.0842022e-19 3.0509121 3.6893488e+19
1.7315941 1.0842022e-19 2.4001465
-2 3.0557201 2
-1.9516816 0 2.3980942
-2 3.0478897 2
1.729268 -1.0842022e-19 2.3790753
-2 3.0562444 -0
-1.9520274 -2 2.3812525
2 3.0452781 0
1.7272578 -1.0842022e-19 2.3588834
0 2.981319 -2
-1.9087614 2 2.2858598
-1.0842022e-19 3.0762014 -3.6893488e+19
-1.9651929 3.6893488e+19 2.3688774
3.6893488e+19 3.0772574 2
-1.9658896 -0 2.3514607
2 3.0565858 2
-1.9522526 -1.0842022e-19 2.3118541
-1.0842022e-19 3.0456696 1.0842022e-19
1.7275592 -1.0842022e-19 2.2921431
3.6893488e+19 3.0555787 3.6893488e+19
-1.9515883 0 2.2935152
0 3.0517097 -3.6893488e+19
-2.0969617 -3.6893488e+19 2.2817478
-0 3.0625541 -3.6893488e+19
-1.8102354 -3.6893488e+19 2.2823398
1.0842022e-19 3.0498092 -0
-2.0947764 -0 2.2629948
-1.0842022e-19 3.0590639 3.6893488e+19
-1.808167 2 2.2617435
-1.0842022e-19 3.0456583 -2
-2.090003 1.0842022e-19 2.2352717
-0 3.0599375 1.0842022e-19
-1.8086847 3.6893488e+19 2.2400255
0 3.045676 2
-2.0900233 3.6893488e+19 2.2019167
-2 3.0609212 -3.6893488e+19
-1.8092676 2 2.206584
-0 3.0496531 -1.0842022e-19
-2.0945969 0 2.1742013
0 2.9925251 -2
-1.7709476 3.6893488e+19 2.0839443
-0 2.87784 2
-1.9672555 3.6893488e+19 1.9961672
0 2.9972274 -1.0842022e-19
-1.772341 -2 2.0592177
3.6893488e+19 2.8803451 -3.6893488e+19
-1.9686958 2 1.9764025
0 3.0636005 -0
-1.8108555 3.6893488e+19 2.1048658
2 2.8839536 -3.6893488e+19
-1.9707706 -3.6893488e+19 1.9569772
1.0842022e-19 3.0623443 3.6893488e+19
-1.810111 -1.0842022e-19 2.0684392
-0 2.9374261 3.6893488e+19
1.6683303 -2 1.9607149
0 3.0506361 -1.0842022e-19
-1.9483275 1.0842022e-19 2.0230312
2 2.9377239 -0
1.6684449 0 1.9363692
1.0842022e-19 3.0501239 -2
-1.9479897 3.6893488e+19 1.9889643
-2 3.0024931 -0
1.6943289 -3.6893488e+19 1.9367704
-1.0842022e-19 2.9002941 0
-1.8820357 -3.6893488e+19 1.8869723
3.6893488e+19 2.9360702 3.6893488e+19
1.6678085 1.0842022e-19 1.8869139
0 2.9943888 3.6893488e+19
-1.9130725 0 1.8915294
0 2.9380529 3.6893488e+19
1.6685715 0 1.8511521
3.6893488e+19 2.9958732 -3.6893488e+19
-1.9135621 0 1.853501
-1.0842022e-19 3.0081174 -3.6893488e+19
1.6986575 1.0842022e-19 1.8338777
1.0842022e-19 2.9067452 -1.0842022e-19
-1.8841635 -3.6893488e+19 1.7669907
0 3.0080318 3.6893488e+19
1.6985916 1.0842022e-19 1.7762218
2 2.9013648 3.6893488e+19
-1.8823888 3.6893488e+19 1.6905929
-2 2.9359403 1.0842022e-19
1.6677586 -1.0842022e-19 1.6582009
-2 2.9068916 0
-1.8842119 3.6893488e+19 1.579704
-1.0842022e-19 2.8959746 -0
-1.9776827 -3.6893488e+19 1.472003
1.0842022e-19 2.9111793 -2
-1.7436856 0 1.185758
-1.0842022e-19 2.8963511 3.6893488e+19
-1.9778992 -3.6893488e+19 -1.3823985
3.6893488e+19 2.941416 1.0842022e-19
-1.7558028 0 -1.5470271
-2 2.8938408 3.6893488e+19
-1.9764558 0 -1.6169354
0 2.928515 0
-1.7519798 -0 -1.6791254
-1.0842022e-19 2.8959866 0
-1.9776896 -3.6893488e+19 -1.7102133
-1.0842022e-19 2.9242795 0
-1.7507248 1.0842022e-19 -1.7610172
-1.0842022e-19 2.8981125 3.6893488e+19
-1.978912 1.0842022e-19 -1.7752037
-3.6893488e+19 2.9232728 0
-1.7504265 -1.0842022e-19 -1.8079443
2 2.8951714 -3.6893488e+19
-1.9772208 1.0842022e-19 -1.8183209
-3.6893488e+19 2.9237449 -0
-1.7505664 -0 -1.8554595
3.6893488e+19 2.8933334 -2
-1.976164 0 -1.8614616
2 2.928005 -0
-1.7518287 -2 -1.8902974
2 2.8054097 -2
-1.9256084 3.6893488e+19 -1.8428108
-3.6893488e+19 2.7954845 -1.0842022e-19
-1.6751192 -1.0842022e-19 -1.8517416
-1.0842022e-19 2.7983961 3.6893488e+19
1.6046576 0 -1.8706415
-3.6893488e+19 2.7648749 0
-1.7997364 -0 -1.8580408
-1.0842022e-19 2.701447 3.6893488e+19
1.5487258 -3.6893488e+19 -1.8360689
2 2.6505165 1.0842022e-19
-1.757109 -0 -1.8236239
0 2.6158161 -1.0842022e-19
1.5157733 -0 -1.816516
3.6893488e+19 2.5571728 0
1.4864125 0 -1.8030262
0 2.5241163 -2
1.4609708 -1.0842022e-19 -1.7992457
-0 2.5007958 -3.6893488e+19
1.4430225 -1.0842022e-19 -1.7985044
0 2.4557292 -0
1.4253737 -2 -1.795453
-2 3.0448315 -3.6893488e+19
-2.0890522 0 2.5236592
-2 3.0525715 -0
-1.8043193 2 2.5257275
3.6893488e+19 3.0466688 2
-2.0911651 2 2.5166411
-3.6893488e+19 3.0516715 1.0842022e-19
-1.8037859 1.0842022e-19 2.5160723
2 3.0470033 -0
-2.0915496 0 2.5082343
-3.6893488e+19 3.049448 0
-1.8024682 -0 2.493295
1.0842022e-19 3.0712743 -3.6893488e+19
-2.1194608 1.0842022e-19 2.5105848
2 3.0470512 -0
-1.8010476 1.0842022e-19 2.4721012
-3.6893488e+19 3.0522618 2
-2.0975971 -1.0842022e-19 2.4727626
0 3.049849 -2
-1.8027056 -3.6893488e+19 2.4591846
1.0842022e-19 3.0518079 -2
-2.0970747 -2 2.4545574
-3.6893488e+19 3.0505795 -0
-1.8031387 -1.0842022e-19 2.4429483
0 3.0524716 2
-2.0978382 -1.0842022e-19 2.4380732
1.0842022e-19 3.0510814 -2
-1.803436 2 2.4263446
1.0842022e-19 2.9834144 -2
-1.9094526 2 2.3286047
-1.0842022e-19 3.0509121 3.6893488e+19
1.7315941 1.0842022e-19 2.4001465
1.0842022e-19 2.981756 0
-1.9089056 2 2.3136597
-2 3.0117528 0
1.7014556 -2 2.3330898
-0 2.982969 -2
-1.9093057 3.6893488e+19 2.300631
2 3.0452781 0
1.7272578 -1.0842022e-19 2.3588834
0 2.981319 -2
-1.9087614 2 2.2858598
-1.0842022e-19 3.0762014 -3.6893488e+19
-1.9651929 3.6893488e+19 2.3688774
3.6893488e+19 3.0772574 2
-1.9658896 -0 2.3514607
1.0842022e-19 2.9784944 3.6893488e+19
-1.9078298 1.0842022e-19 2.236717
-1.0842022e-19 3.0456696 1.0842022e-19
1.7275592 -1.0842022e-19 2.2921431
3.6893488e+19 3.0555787 3.6893488e+19
-1.9515883 0 2.2935152
0 2.8747454 -2
-1.9654759 3.6893488e+19 2.0999515
-1.0842022e-19 3.004185 -3.6893488e+19
-1.7756429 -0 2.2092266
1.0842022e-19 2.873801 -3.6893488e+19
-1.9649329 -0 2.0779009
-0 3.0049381 0
-1.7760893 -1.0842022e-19 2.1818097
-1.0842022e-19 2.8735807 -2
-1.9648063 -2 2.0565836
0 3.0051513 1.0842022e-19
-1.7762156 0 2.1534059
2 2.8740864 -0
-1.9650971 3.6893488e+19 2.0358803
1.0842022e-19 3.0047607 -2
-1.775984 3.6893488e+19 2.1241128
-2 2.8754435 -2
-1.9658774 2 2.0157466
0 2.9925251 -2
-1.7709476 3.6893488e+19 2.0839443
-0 2.87784 2
-1.9672555 3.6893488e+19 1.9961672
0 2.9972274 -1.0842022e-19
-1.772341 -2 2.0592177
3.6893488e+19 2.8803451 -3.6893488e+19
-1.9686958 2 1.9764025
-1.0842022e-19 3.0013914 -2
-1.7739873 2 2.034471
2 2.8839536 -3.6893488e+19
-1.9707706 -3.6893488e+19 1.9569772
-0 3.0016963 -1.0842022e-19
-1.774168 1.0842022e-19 2.006608
-0 2.9374261 3.6893488e+19
1.6683303 -2 1.9607149
-3.6893488e+19 2.8841805 -1.0842022e-19
-1.8767207 -1.0842022e-19 1.9244523
2 2.9377239 -0
1.6684449 0 1.9363692
1.0842022e-19 3.0501239 -2
-1.9479897 3.6893488e+19 1.9889643
-2 3.0024931 -0
1.6943289 -3.6893488e+19 1.9367704
-1.0842022e-19 2.9002941 0
-1.8820357 -3.6893488e+19 1.8869723
3.6893488e+19 2.9360702 3.6893488e+19
1.6678085 1.0842022e-19 1.8869139
-1.0842022e-19 2.9035864 -1.0842022e-19
-1.8831216 3.6893488e+19 1.8560706
0 2.9380529 3.6893488e+19
1.6685715 0 1.8511521
-0 2.8969357 3.6893488e+19
-1.8809279 -3.6893488e+19 1.80791
2 2.9390154 -1.0842022e-19
1.6689419 -2 1.8026332
1.0842022e-19 2.9067452 -1.0842022e-19
-1.8841635 -3.6893488e+19 1.7669907
3.6893488e+19 2.934833 -1.0842022e-19
1.6673324 -1.0842022e-19 1.7524188
2 2.9013648 3.6893488e+19
-1.8823888 3.6893488e+19 1.6905929
-2 2.9359403 1.0842022e-19
1.6677586 -1.0842022e-19 1.6582009
-2 2.9068916 0
-1.8842119 3.6893488e+19 1.579704
-1.0842022e-19 2.8959746 -0
-1.9776827 -3.6893488e+19 1.472003
1.0842022e-19 2.9111793 -2
-1.7436856 0 1.185758
-1.0842022e-19 2.8963511 3.6893488e+19
-1.9778992 -3.6893488e+19 -1.3823985
3.6893488e+19 2.941416 1.0842022e-19
-1.7558028 0 -1.5470271
-2 2.8938408 3.6893488e+19
-1.9764558 0 -1.6169354
0 2.928515 0
-1.7519798 -0 -1.6791254
-1.0842022e-19 2.8959866 0
-1.9776896 -3.6893488e+19 -1.7102133
-1.0842022e-19 2.9242795 0
-1.7507248 1.0842022e-19 -1.7610172
-1.0842022e-19 2.8981125 3.6893488e+19
-1.978912 1.0842022e-19 -1.7752037
-3.6893488e+19 2.9232728 0
-1.7504265 -1.0842022e-19 -1.8079443
2 2.8951714 -3.6893488e+19
-1.9772208 1.0842022e-19 -1.8183209
-2 2.8307521 -2
-1.6960205 1.0842022e-19 -1.8048841
-2 2.8063066 -1.0842022e-19
-1.9261242 -0 -1.8091434
-1.0842022e-19 2.8128712 -0
-1.6854234 1.0842022e-19 -1.8301147
2 2.8054097 -2
-1.9256084 3.6893488e+19 -1.8428108
-3.6893488e+19 2.7954845 -1.0842022e-19
-1.6751192 -1.0842022e-19 -1.8517416
-1.0842022e-19 2.7983961 3.6893488e+19
1.6046576 0 -1.8706415
-3.6893488e+19 2.7648749 0
-1.7997364 -0 -1.8580408
-1.0842022e-19 2.701447 3.6893488e+19
1.5487258 -3.6893488e+19 -1.8360689
2 2.6505165 1.0842022e-19
-1.757109 -0 -1.8236239
0 2.6158161 -1.0842022e-19
1.5157733 -0 -1.816516
3.6893488e+19 2.5571728 0
1.4864125 0 -1.8030262
0 2.5241163 -2
1.4609708 -1.0842022e-19 -1.7992457
-0 2.5007958 -3.6893488e+19
1.4430225 -1.0842022e-19 -1.7985044
0 2.4557292 -0
1.4253737 -2 -1.795453
-2 3.0471125 0
-2.1042593 0 2.5258296
2 3.0525863 3.6893488e+19
-1.8298327 -2 2.5257552
-2 3.0460641 2
-2.1030092 2 2.516149
0 3.0515034 -2
-1.8290995 -3.6893488e+19 2.5159376
2 3.0489562 -1.0842022e-19
-2.1064572 -3.6893488e+19 2.5099821
-0 3.0487204 -1.0842022e-19
-1.8272157 1.0842022e-19 2.5047591
2 3.0495243 -0
-1.8277599 -2 2.4934461
3.6893488e+19 3.0778406 -3.6893488e+19
-2.1408973 -2 2.5159619
-0 3.0483227 2
-1.8269465 1.0842022e-19 2.4741468
0 3.058933 1.0842022e-19
-2.1183531 -0 2.4832897
-3.6893488e+19 3.0500786 1.0842022e-19
-1.8281353 -1.0842022e-19 2.4595606
3.6893488e+19 3.0570483 0
-2.116106 -2 2.4625394
-2 3.0505946 -2
-1.8284844 -0 2.4429936
-2 3.051527 -2
-1.8291156 2 2.4269981
-1.0842022e-19 3.0679822 1.0842022e-19
-1.973191 2 2.4323504
0 3.05089 1.0842022e-19
1.6808677 2 2.4001055
2 3.0550697 3.6893488e+19
-1.9641277 -2 2.3972914
1.0842022e-19 3.0480525 -2
1.679162 1.0842022e-19 2.3792717
2 3.0519838 0
-1.9619617 -3.6893488e+19 2.3759904
1.0842022e-19 3.0452864 -1.0842022e-19
1.6774993 -1.0842022e-19 2.3588834
-0 3.0768549 1.0842022e-19
-1.9794188 3.6893488e+19 2.388288
-0 3.0753303 -3.6893488e+19
-1.9783485 1.0842022e-19 2.3679335
2 3.0752714 -2
-1.9783071 2 2.3493669
-0 3.0570159 -3.6893488e+19
-1.9654937 -3.6893488e+19 2.3123267
3.6893488e+19 3.0475698 -0
1.6788719 -0 2.2940123
-1.0842022e-19 3.0549865 -3.6893488e+19
-1.9640692 0 2.2929792
-2 3.0517132 -1.0842022e-19
-2.1097448 3.6893488e+19 2.2818058
0 3.0678468 -2
-1.840163 3.6893488e+19 2.2871358
0 3.0505879 -2
-2.1084027 -0 2.2637286
3.6893488e+19 3.0583022 -0
-1.833702 3.6893488e+19 2.261112
-0 3.0445163 2
-2.1011636 -2 2.2334902
-3.6893488e+19 3.059859 -3.6893488e+19
-1.8347559 0 2.2399273
3.6893488e+19 3.0467668 -1.0842022e-19
-2.1038468 2 2.2036715
-0 3.0487261 3.6893488e+19
-2.1061831 0 2.1729705
1.0842022e-19 2.9921257 1.0842022e-19
-1.7915697 0 2.0836911
3.6893488e+19 2.868511 0
-1.9696952 -0 1.9901354
-1.0842022e-19 2.9958308 1.0842022e-19
-1.7928238 -1.0842022e-19 2.0583653
-1.0842022e-19 3.0513022 -3.6893488e+19
-2.1092546 -2 2.1087728
0 3.0608728 3.6893488e+19
-1.8354421 0 2.1017976
-1.0842022e-19 2.8791533 -2
-1.9760398 -1.0842022e-19 1.954429
1.0842022e-19 3.0669115 -1.0842022e-19
-1.8395299 1.0842022e-19 2.0731125
-0 3.0515997 -3.6893488e+19
-1.9616921 1.0842022e-19 2.0239372
-3.6893488e+19 3.0005093 1.0842022e-19
1.6505835 -0 1.9633121
1.0842022e-19 3.0500903 -3.6893488e+19
-1.9606326 3.6893488e+19 1.9889643
-0 3.002157 1.0842022e-19
1.6515739 2 1.9365165
-1.0842022e-19 2.903306 -3.6893488e+19
-1.8915397 -3.6893488e+19 1.8880184
0 3.0082898 1.0842022e-19
1.6552603 1.0842022e-19 1.912187
1.0842022e-19 2.9951446 -2
-1.9237703 2 1.8917617
0 3.0070736 -1.0842022e-19
1.6545292 2 1.8827147
-2 2.9962544 -1.0842022e-19
-1.9241599 0 1.8537023
2 3.0071251 -2
1.6545602 3.6893488e+19 1.8330687
1.0842022e-19 2.9062626 -3.6893488e+19
-1.8925773 1.0842022e-19 1.7668382
3.6893488e+19 3.0073204 -0
1.6546776 2 1.7758006
2 2.9348903 3.6893488e+19
1.6307082 -1.0842022e-19 1.6578153
-1.0842022e-19 2.9024754 -0
-1.8912482 0 1.577505
-1.0842022e-19 2.89621 -3.6893488e+19
-1.9862084 -3.6893488e+19 1.4721777
1.0842022e-19 2.910533 -0
-1.763953 -2 1.1854756
2 2.894031 -1.0842022e-19
-1.9849094 3.6893488e+19 -1.3816489
-3.6893488e+19 2.9298332 -3.6893488e+19
-1.7704855 2 -1.5425218
-3.6893488e+19 2.894762 1.0842022e-19
-1.9853454 -1.0842022e-19 -1.617548
3.6893488e+19 2.9266806 3.6893488e+19
-1.7694185 -0 -1.678368
-0 2.8932929 3.6893488e+19
-1.9844694 0 -1.7088237
2 2.9233828 -3.6893488e+19
-1.7683022 -3.6893488e+19 -1.7607367
3.6893488e+19 2.8933003 2
-1.9844738 -0 -1.7734166
0 2.9241254 3.6893488e+19
-1.7685536 3.6893488e+19 -1.8083223
0 2.8928525 -2
-1.9842068 -1.0842022e-19 -1.8172234
-0 2.9262834 -1.0842022e-19
-1.769284 -0 -1.8568521
2 2.8913269 2
-1.9832973 2 -1.8603007
-3.6893488e+19 2.9259222 3.6893488e+19
-1.7691618 1.0842022e-19 -1.8896221
3.6893488e+19 2.8030469 0
-1.9306675 -3.6893488e+19 -1.8411673
-1.0842022e-19 2.7967799 -0
-1.7009021 0 -1.8527474
-0 2.7955959 -1.0842022e-19
1.5526854 1.0842022e-19 -1.8683294
-3.6893488e+19 2.766778 -3.6893488e+19
-1.8122509 -0 -1.8597414
1.0842022e-19 2.7012103 -3.6893488e+19
1.5106132 1.0842022e-19 -1.8359523
3.6893488e+19 2.6508455 1.0842022e-19
-1.7656763 2 -1.8238094
-1.0842022e-19 2.6160758 2
1.4700515 1.0842022e-19 -1.8166467
-0 2.5561841 0
1.4340501 2 -1.8024482
-1.0842022e-19 2.5269897 -0
1.416501 -3.6893488e+19 -1.8010674
-3.6893488e+19 2.5003047 -0
1.4004605 -3.6893488e+19 -1.7981597
-3.6893488e+19 2.4569864 2
1.3873494 3.6893488e+19 -1.7959185
-2 2.4188697 1.0842022e-19
1.3758932 2 -1.7934539
3.6893488e+19 2.3539438 1.0842022e-19
-1.7110107 3.6893488e+19 -1.7877547
-3.6893488e+19 2.3122973 2
-1.6861824 3.6893488e+19 -1.7863281
-2 2.2798693 2
-1.6668497 2 -1.7855167
2 2.2526858 -3.6893488e+19
-1.6506436 -3.6893488e+19 -1.7843754
3.6893488e+19 2.2117331 -0
1.2637759 -0 -1.7834412
-1.0842022e-19 2.1727343 -0
1.2520547 1.0842022e-19 -1.7822241
2 2.1416934 -2
1.2354504 3.6893488e+19 -1.7820096
-3.6893488e+19 2.1097655 2
1.2162584 -3.6893488e+19 -1.7796766
-2 3.0471125 0
-2.1042593 0 2.5258296
2 3.0525863 3.6893488e+19
-1.8298327 -2 2.5257552
-2 3.0460641 2
-2.1030092 2 2.516149
0 3.0515034 -2
-1.8290995 -3.6893488e+19 2.5159376
2 3.0489562 -1.0842022e-19
-2.1064572 -3.6893488e+19 2.5099821
-0 3.0487204 -1.0842022e-19
-1.8272157 1.0842022e-19 2.5047591
2 3.0495243 -0
-1.8277599 -2 2.4934461
3.6893488e+19 3.0778406 -3.6893488e+19
-2.1408973 -2 2.5159619
-0 3.0483227 2
-1.8269465 1.0842022e-19 2.4741468
0 3.058933 1.0842022e-19
-2.1183531 -0 2.4832897
-3.6893488e+19 3.0500786 1.0842022e-19
-1.8281353 -1.0842022e-19 2.4595606
3.6893488e+19 3.0570483 0
-2.116106 -2 2.4625394
-2 3.0505946 -2
-1.8284844 -0 2.4429936
-2 3.051527 -2
-1.8291156 2 2.4269981
2 2.9831755 2
-1.9195698 -1.0842022e-19 2.3284791
0 3.05089 1.0842022e-19
1.6808677 2 2.4001055
-2 2.9815786 2
-1.9190094 -1.0842022e-19 2.3135793
1.0842022e-19 3.0480525 -2
1.679162 1.0842022e-19 2.3792717
3.6893488e+19 2.9815576 1.0842022e-19
-1.9190021 2 2.2997861
1.0842022e-19 3.0452864 -1.0842022e-19
1.6774993 -1.0842022e-19 2.3588834
-0 2.9807708 0
-1.918726 2 2.2855663
-0 3.0753303 -3.6893488e+19
-1.9783485 1.0842022e-19 2.3679335
2 3.0752714 -2
-1.9783071 2 2.3493669
2 2.9793699 -0
-1.9182342 -0 2.2376621
0 3.0148201 0
1.6591858 2 2.2616541
-1.0842022e-19 3.0549865 -3.6893488e+19
-1.9640692 0 2.2929792
-2 3.0517132 -1.0842022e-19
-2.1097448 3.6893488e+19 2.2818058
0 3.0678468 -2
-1.840163 3.6893488e+19 2.2871358
1.0842022e-19 2.9791191 -3.6893488e+19
-2.0356362 2 2.1703677
-1.0842022e-19 3.0049248 -3.6893488e+19
-1.7975687 -1.0842022e-19 2.1818097
-0 3.0445163 2
-2.1011636 -2 2.2334902
-2 3.0057907 2
-1.798155 0 2.1544383
1.0842022e-19 2.8753793 -1.0842022e-19
-1.9737898 -0 2.0369236
2 2.8749366 -1.0842022e-19
-1.9735259 -2 2.0154388
1.0842022e-19 2.9921257 1.0842022e-19
-1.7915697 0 2.0836911
3.6893488e+19 2.868511 0
-1.9696952 -0 1.9901354
-1.0842022e-19 2.9958308 1.0842022e-19
-1.7928238 -1.0842022e-19 2.0583653
-1.0842022e-19 2.8769774 3.6893488e+19
-1.9747427 -0 1.9744412
0 3.0608728 3.6893488e+19
-1.8354421 0 2.1017976
-1.0842022e-19 2.8791533 -2
-1.9760398 -1.0842022e-19 1.954429
1.0842022e-19 3.0669115 -1.0842022e-19
-1.8395299 1.0842022e-19 2.0731125
-0 2.8838882 3.6893488e+19
-1.8847251 -2 1.9243391
-3.6893488e+19 3.0005093 1.0842022e-19
1.6505835 -0 1.9633121
3.6893488e+19 2.885278 -2
-1.8852128 -2 1.9033999
-0 3.002157 1.0842022e-19
1.6515739 2 1.9365165
-1.0842022e-19 2.903306 -3.6893488e+19
-1.8915397 -3.6893488e+19 1.8880184
2 2.934896 -3.6893488e+19
1.6307099 1.0842022e-19 1.8865414
1.0842022e-19 2.8989861 -3.6893488e+19
-1.8900236 0 1.8534623
0 3.0070736 -1.0842022e-19
1.6545292 2 1.8827147
-2 2.896704 -2
-1.8892227 0 1.8078238
-1.0842022e-19 2.9357164 -0
1.6309565 0 1.8012935
1.0842022e-19 2.9062626 -3.6893488e+19
-1.8925773 1.0842022e-19 1.7668382
3.6893488e+19 2.9352202 3.6893488e+19
1.6308074 2 1.7525287
2 2.9348903 3.6893488e+19
1.6307082 -1.0842022e-19 1.6578153
-1.0842022e-19 2.9024754 -0
-1.8912482 0 1.577505
-1.0842022e-19 2.89621 -3.6893488e+19
-1.9862084 -3.6893488e+19 1.4721777
1.0842022e-19 2.910533 -0
-1.763953 -2 1.1854756
2 2.894031 -1.0842022e-19
-1.9849094 3.6893488e+19 -1.3816489
-3.6893488e+19 2.9298332 -3.6893488e+19
-1.7704855 2 -1.5425218
-3.6893488e+19 2.894762 1.0842022e-19
-1.9853454 -1.0842022e-19 -1.617548
3.6893488e+19 2.9266806 3.6893488e+19
-1.7694185 -0 -1.678368
-0 2.8932929 3.6893488e+19
-1.9844694 0 -1.7088237
2 2.9233828 -3.6893488e+19
-1.7683022 -3.6893488e+19 -1.7607367
3.6893488e+19 2.8933003 2
-1.9844738 -0 -1.7734166
0 2.9241254 3.6893488e+19
-1.7685536 3.6893488e+19 -1.8083223
0 2.8928525 -2
-1.9842068 -1.0842022e-19 -1.8172234
-3.6893488e+19 2.8301103 3.6893488e+19
-1.7234648 -3.6893488e+19 -1.8045443
1.0842022e-19 2.8073065 0
-1.9332069 0 -1.8097801
3.6893488e+19 2.8113565 0
-1.7107697 3.6893488e+19 -1.8291323
3.6893488e+19 2.8030469 0
-1.9306675 -3.6893488e+19 -1.8411673
-1.0842022e-19 2.7967799 -0
-1.7009021 0 -1.8527474
-0 2.7955959 -1.0842022e-19
1.5526854 1.0842022e-19 -1.8683294
-3.6893488e+19 2.766778 -3.6893488e+19
-1.8122509 -0 -1.8597414
1.0842022e-19 2.7012103 -3.6893488e+19
1.5106132 1.0842022e-19 -1.8359523
3.6893488e+19 2.6508455 1.0842022e-19
-1.7656763 2 -1.8238094
-1.0842022e-19 2.6160758 2
1.4700515 1.0842022e-19 -1.8166467
-0 2.5561841 0
1.4340501 2 -1.8024482
-1.0842022e-19 2.5269897 -0
1.416501 -3.6893488e+19 -1.8010674
-3.6893488e+19 2.5003047 -0
1.4004605 -3.6893488e+19 -1.7981597
-3.6893488e+19 2.4569864 2
1.3873494 3.6893488e+19 -1.7959185
-2 2.4188697 1.0842022e-19
1.3758932 2 -1.7934539
3.6893488e+19 2.3539438 1.0842022e-19
-1.7110107 3.6893488e+19 -1.7877547
-3.6893488e+19 2.3122973 2
-1.6861824 3.6893488e+19 -1.7863281
-2 2.2798693 2
-1.6668497 2 -1.7855167
2 2.2526858 -3.6893488e+19
-1.6506436 -3.6893488e+19 -1.7843754
3.6893488e+19 2.2117331 -0
1.2637759 -0 -1.7834412
-1.0842022e-19 2.1727343 -0
1.2520547 1.0842022e-19 -1.7822241
2 2.1416934 -2
1.2354504 3.6893488e+19 -1.7820096
-3.6893488e+19 2.1097655 2
1.2162584 -3.6893488e+19 -1.7796766
1.0842022e-19 3.0468714 3.6893488e+19
-2.116498 -1.0842022e-19 2.5256603
0 3.0526295 -0
-1.8552673 -1.0842022e-19 2.5258107
3.6893488e+19 3.045975 -3.6893488e+19
-2.1153913 -2 2.5161216
1.0842022e-19 3.050967 -0
-1.8540024 0 2.5154803
3.6893488e+19 3.0513022 2
-2.121968 -3.6893488e+19 2.5120745
-0 3.0488555 1.0842022e-19
-1.8523959 -1.0842022e-19 2.5048892
-1.0842022e-19 3.0829773 -1.0842022e-19
-2.161072 -3.6893488e+19 2.529891
2 3.0495985 -1.0842022e-19
-1.8529611 1.0842022e-19 2.4935975
-2 3.0490711 2
-1.8525599 1.0842022e-19 2.4753644
-2 3.0519021 -1.0842022e-19
-1.8547139 3.6893488e+19 2.4623804
-2 3.0562522 2
-2.1280792 2 2.4614322
-2 3.0507612 1.0842022e-19
-1.853846 1.0842022e-19 2.4432654
3.6893488e+19 3.0484638 -1.0842022e-19
-1.8520977 -2 2.4226849
2 3.0147316 -1.0842022e-19
1.6044083 1.0842022e-19 2.3672082
-2 3.067606 -1.0842022e-19
-1.9862788 3.6893488e+19 2.43189
-2 3.0508962 2
1.6303737 2 2.4001055
2 3.0538011 -3.6893488e+19
-1.9760087 0 2.3956864
2 3.0496328 -3.6893488e+19
1.6298262 -0 2.3812745
-1.0842022e-19 3.0505908 3.6893488e+19
-1.9736205 -0 2.3743005
1.0842022e-19 3.0472391 -0
1.6287891 3.6893488e+19 2.361249
-2 3.0774028 -2
-1.993567 0 2.3889852
2 3.0612471 0
1.6348586 0 2.3605351
2 3.0753536 -1.0842022e-19
-1.9920424 -0 2.3680034
0 3.0578389 1.0842022e-19
1.6333818 -1.0842022e-19 2.3390746
1.0842022e-19 3.0722318 2
-1.98972 -2 2.346143
-0 3.0576608 -0
-1.9788802 1.0842022e-19 2.31302
-3.6893488e+19 3.0476069 2
1.6289486 0 2.2940431
3.6893488e+19 3.0517771 3.6893488e+19
-2.1225543 3.6893488e+19 2.2819214
3.6893488e+19 3.0508378 -0
-2.1213946 -0 2.2640004
-0 3.0576937 2
-1.8591207 3.6893488e+19 2.260612
0 3.0447369 3.6893488e+19
-2.1138628 1.0842022e-19 2.2339485
-1.0842022e-19 3.0463045 3.6893488e+19
-2.1157982 -0 2.2030549
3.6893488e+19 3.0484805 -1.0842022e-19
-2.1184845 -3.6893488e+19 2.1727066
-0 2.9911628 -1.0842022e-19
-1.8118601 -3.6893488e+19 2.0830576
3.6893488e+19 2.8699284 -0
-1.9783447 -0 1.991107
-2 3.0765786 1.0842022e-19
-1.8734901 -1.0842022e-19 2.1562333
-0 3.0496266 1.0842022e-19
-2.1198995 -0 2.1068485
-0 3.060605 -2
-1.8613359 -0 2.1015153
-0 2.8762178 -2
-1.982227 3.6893488e+19 1.9528867
-1.0842022e-19 3.0678592 -1.0842022e-19
-1.8668555 -0 2.0740979
-3.6893488e+19 3.0080578 -2
1.5986251 -0 1.9986088
-0 3.0519068 1.0842022e-19
-1.9745996 2 2.0242486
-0 3.0041969 -1.0842022e-19
1.5952792 0 1.9664476
-1.0842022e-19 3.0503664 2
-1.9734536 3.6893488e+19 1.9892126
-2 3.0684586 1.0842022e-19
-1.9869131 -0 1.9679902
-2 3.0074208 -1.0842022e-19
1.598073 -3.6893488e+19 1.9116379
0 2.8954449 1.0842022e-19
-1.8970929 0 1.8514614
-3.6893488e+19 3.0082033 -3.6893488e+19
1.5987511 -0 1.8832952
1.0842022e-19 2.9974439 -0
-1.9350333 -2 1.8542775
-0 3.0074742 3.6893488e+19
1.5981193 0 1.8333468
0 2.9981558 -2
-1.9352981 2 1.7989414
2 3.0072322 -3.6893488e+19
1.5979095 -1.0842022e-19 1.7757456
-0 2.8948424 -0
-1.8968688 -0 1.6875389
-1.0842022e-19 2.9351494 -0
1.5635436 -1.0842022e-19 1.6579061
-0 2.8974333 -3.6893488e+19
-1.8978325 3.6893488e+19 1.5749917
0 2.8902738 0
-1.9909033 -2 1.4688925
1.0842022e-19 2.9108837 -1.0842022e-19
-1.7813183 -2 1.185645
-1.0842022e-19 2.8905876 -0
-1.991097 3.6893488e+19 -1.3805244
-1.0842022e-19 2.8918796 -0
-1.9918945 -1.0842022e-19 -1.6158248
-0 2.922157 -2
-1.7856072 0 -1.6764874
2 2.8941493 -2
-1.9932954 -0 -1.7093199
1.0842022e-19 2.9252944 1.0842022e-19
-1.7868009 3.6893488e+19 -1.7613577
-3.6893488e+19 2.8939695 -1.0842022e-19
-1.9931846 -0 -1.7736988
-2 2.9226012 -0
-1.7857763 -2 -1.8076743
-3.6893488e+19 2.8905942 2
