# .PCD v0.7 - Point Cloud Data file format
VERSION 0.7
FIELDS x y z
SIZE 4 4 4
TYPE F F F
COUNT 1 1 1
WIDTH 1708
HEIGHT 1
VIEWPOINT 0 0 0 1 0 0 0
POINTS 1708
DATA ascii
2.7318738 -2 1.7577564
-2 3.1613014 2
2.6735148 -2 1.6661925
2 3.1650467 0
2.7615023 1.0842022e-19 1.5213537
0 3.1628525 -1.0842022e-19
2.6751118 2 -1.3122044
-0 3.1617358 -0
2.7594161 0 -1.6149689
0 3.1669254 0
2.6793058 3.6893488e+19 -1.7156925
-3.6893488e+19 3.1644552 1.0842022e-19
2.7611296 3.6893488e+19 -1.782338
-3.6893488e+19 3.1674068 -2
2.6798015 1.0842022e-19 -1.8291416
0 3.1663496 1.0842022e-19
2.7623231 1.0842022e-19 -1.8777231
3.6893488e+19 3.1602132 3.6893488e+19
2.6723943 -2 -1.8975688
-0 3.1655116 -2
2.761795 -2 -1.9260844
-2 3.1610787 -0
2.6732855 -0 -1.9452608
-1.0842022e-19 3.1646538 -3.6893488e+19
2.7612545 -3.6893488e+19 -1.9742465
-2 3.124512 2
2.635633 3.6893488e+19 -1.9710749
3.6893488e+19 3.1295555 -3.6893488e+19
2.7282815 -3.6893488e+19 -1.999712
-1.0842022e-19 2.8697174 0
2.5080175 2 -1.905682
-1.0842022e-19 2.8417659 3.6893488e+19
2.3968029 3.6893488e+19 -1.9014342
2 2.770189 -2
2.3771176 1.0842022e-19 -1.8797749
-1.0842022e-19 2.7468088 -1.0842022e-19
2.2884066 0 -1.8740783
-3.6893488e+19 2.6923916 -2
2.3087351 -3.6893488e+19 -1.8637136
-1.0842022e-19 2.6696925 0
2.2372787 -1.0842022e-19 -1.8598838
0 2.6231964 0
2.2604454 3.6893488e+19 -1.8485167
2 2.6116629 1.0842022e-19
2.169904 3.6893488e+19 -1.8485161
-3.6893488e+19 2.5651112 -1.0842022e-19
2.1898181 1.0842022e-19 -1.832445
0 2.5612135 3.6893488e+19
2.1113303 0 -1.8355169
1.0842022e-19 2.5368266 -1.0842022e-19
2.1503396 0 -1.8308765
0 2.5288625 2
2.0737696 3.6893488e+19 -1.829945
-2 2.5044475 -2
2.1051464 -0 -1.8227835
3.6893488e+19 2.492836 2
2.0361004 1.0842022e-19 -1.8205292
-2 2.4519465 -3.6893488e+19
2.0654032 2 -1.8141202
2 2.4471164 -2
2.0095592 3.6893488e+19 -1.8155004
0 2.4377065 1.0842022e-19
1.9753519 -3.6893488e+19 -1.8163072
-3.6893488e+19 3.2192054 -3.6893488e+19
2.7929254 3.6893488e+19 2.6870544
-3.6893488e+19 3.2589853 -0
2.7637844 -2 2.7174413
1.0842022e-19 3.277818 -0
2.7829659 2 2.7347069
3.6893488e+19 3.2188909 1.0842022e-19
2.7927291 -3.6893488e+19 2.658098
2 3.2778497 0
2.7829983 -2 2.7180808
1.0842022e-19 3.2168968 2
2.7914841 -1.0842022e-19 2.6421571
-2 3.2771089 -3.6893488e+19
2.7822437 3.6893488e+19 2.7002468
3.6893488e+19 3.2203159 -3.6893488e+19
2.7290308 -3.6893488e+19 2.6180451
-2 3.209475 -2
2.7868507 -3.6893488e+19 2.6080773
-0 3.2214324 -2
2.7301681 0 2.6048861
0 3.2083273 -3.6893488e+19
2.786134 1.0842022e-19 2.5933478
1.0842022e-19 3.2125185 -3.6893488e+19
2.8200655 3.6893488e+19 2.5929503
-3.6893488e+19 3.1762602 3.6893488e+19
2.7400653 0 2.5544155
-3.6893488e+19 3.2137709 -0
2.8209324 3.6893488e+19 2.5797906
-0 3.21525 -0
2.8219559 2 2.552676
2 3.2127144 -2
2.7659879 0 2.5391297
0 3.2116172 0
2.819442 0 2.5363863
-2 3.2030489 -3.6893488e+19
2.7604318 -2 2.5196619
2 3.2112002 -3.6893488e+19
2.8191533 1.0842022e-19 2.5222394
-2 3.1994421 -2
2.7583585 0 2.5042231
-1.0842022e-19 3.2014489 1.0842022e-19
2.8124056 -0 2.502918
2 3.1997678 -1.0842022e-19
2.7585456 -0 2.4822559
2 3.2020304 -1.0842022e-19
2.8128078 0 2.4793668
0 3.2061832 3.6893488e+19
2.7622335 -3.6893488e+19 2.4622509
1.0842022e-19 3.2221665 3.6893488e+19
2.7309158 -2 2.4607229
0 3.2296927 -0
2.7994726 -1.0842022e-19 2.4609711
-2 3.2223935 -1.0842022e-19
2.7311471 2 2.433399
3.6893488e+19 3.2002568 -1.0842022e-19
2.7810957 2 2.4060566
-3.6893488e+19 3.205308 0
2.7137451 0 2.3912156
-1.0842022e-19 3.1604552 -3.6893488e+19
2.7562475 -0 2.3459201
0 3.2037888 0
2.7121975 -1.0842022e-19 2.3635335
-1.0842022e-19 3.2231047 1.0842022e-19
2.7953598 3.6893488e+19 2.3708217
-2 3.2029083 2
2.7113008 -0 2.3365335
-1.0842022e-19 3.1846178 -2
2.7713323 3.6893488e+19 2.3150556
-2 3.2052639 3.6893488e+19
2.7137001 -1.0842022e-19 2.3118906
-0 3.1881106 -1.0842022e-19
2.7735128 2 2.2918181
-0 3.2169003 -0
2.7255521 -0 2.2928207
0 3.1892056 -2
2.7741964 3.6893488e+19 2.2667372
-0 3.2216983 3.6893488e+19
2.7304389 0 2.2685444
-1.0842022e-19 3.2137957 2
2.7895482 -0 2.2544434
-0 3.1845596 0
2.8007181 -3.6893488e+19 2.205878
-1.0842022e-19 3.1999824 2
2.7586691 -2 2.1879666
-0 3.1954408 3.6893488e+19
2.8082478 3.6893488e+19 2.1645451
-2 3.2006648 -0
2.7590613 -1.0842022e-19 2.1361663
0 3.1888456 -2
2.8036838 3.6893488e+19 2.1064699
-3.6893488e+19 3.2478323 -0
2.7861753 -3.6893488e+19 2.1186807
-1.0842022e-19 3.1881554 -3.6893488e+19
2.8032062 0 2.0540884
2 3.2475846 -3.6893488e+19
2.7860327 -3.6893488e+19 2.060648
-2 3.1828392 -1.0842022e-19
2.7995274 -3.6893488e+19 1.9992456
3.6893488e+19 3.2501421 1.0842022e-19
2.7875848 -3.6893488e+19 2.0042121
0 3.1776471 2
2.7959344 -3.6893488e+19 1.9457304
2 3.2501292 -3.6893488e+19
2.7875698 2 1.9460943
-1.0842022e-19 3.1733472 3.6893488e+19
2.792959 -2 1.8937738
-1.0842022e-19 3.1804187 -3.6893488e+19
2.7448461 1.0842022e-19 1.8625025
1.0842022e-19 3.1721265 -3.6893488e+19
2.792114 -3.6893488e+19 1.8120377
2 3.1636698 0
2.7255902 3.6893488e+19 1.7572188
0 3.2793312 0
2.7845073 3.6893488e+19 1.7255846
2 3.1612115 0
2.7567198 0 1.5198823
2 3.279412 3.6893488e+19
2.7845895 -2 -1.3766119
-0 3.1633866 -1.0842022e-19
2.7580776 -1.0842022e-19 -1.6157331
1.0842022e-19 3.1668417 -0
2.6745658 3.6893488e+19 -1.7155046
-0 3.1656907 -3.6893488e+19
2.759516 -2 -1.7826774
3.6893488e+19 3.168232 -3.6893488e+19
2.6759818 -2 -1.8294079
-1.0842022e-19 3.1671987 -1.0842022e-19
2.7604575 -3.6893488e+19 -1.8778784
-0 3.1636674 2
2.6713328 -2 -1.8987117
-1.0842022e-19 3.1677616 -1.0842022e-19
2.7608089 -3.6893488e+19 -1.9268925
-1.0842022e-19 3.1622324 -2
2.6698711 1.0842022e-19 -1.9456775
3.6893488e+19 3.1659188 2
2.7596586 3.6893488e+19 -1.974746
-1.0842022e-19 3.162291 3.6893488e+19
2.6699309 2 -1.9932128
3.6893488e+19 3.1283472 1.0842022e-19
2.7224052 1.0842022e-19 -1.9987128
-3.6893488e+19 2.8755991 -0
2.509917 -2 -1.9080148
3.6893488e+19 2.8435242 -3.6893488e+19
2.3949447 0 -1.9020982
0 2.7732067 -1.0842022e-19
2.3781214 0 -1.8811049
-0 2.7480242 1.0842022e-19
2.2862856 -2 -1.8744987
1.0842022e-19 2.6952703 3.6893488e+19
2.3081298 -2 -1.8650483
-0 2.6697705 3.6893488e+19
2.232604 -3.6893488e+19 -1.8597497
3.6893488e+19 2.6241252 1.0842022e-19
2.2588971 -3.6893488e+19 -1.8488692
2 2.6100197 1.0842022e-19
2.1639094 0 -1.8473324
3.6893488e+19 2.5653982 -1.0842022e-19
2.1865151 1.0842022e-19 -1.832445
2 2.5626464 -3.6893488e+19
2.1094449 3.6893488e+19 -1.8363262
1.0842022e-19 2.5368524 -0
2.1470072 -2 -1.8307076
0 2.5297916 3.6893488e+19
2.0716722 -1.0842022e-19 -1.8304722
3.6893488e+19 2.5055027 -3.6893488e+19
2.1036189 -3.6893488e+19 -1.8234229
0 2.4932091 2
2.0335176 1.0842022e-19 -1.8205292
-0 2.4568253 -2
2.0661259 -3.6893488e+19 -1.8159877
-1.0842022e-19 2.4474547 -2
2.007216 3.6893488e+19 -1.8155004
1.0842022e-19 2.4377592 2
1.9729354 1.0842022e-19 -1.816202
1.0842022e-19 2.4013145 -2
1.9543754 -2 -1.8119706
-1.0842022e-19 2.343924 -2
1.9251485 -0 -1.80531
-0 2.2972229 0
1.9013653 -2 -1.7982384
-2 2.2669239 3.6893488e+19
1.8859351 -0 -1.7962778
2 2.2121227 2
1.9098959 2 -1.7910347
-3.6893488e+19 2.1770606 -0
1.8977643 0 -1.7914332
-1.0842022e-19 2.1439438 2
1.8863058 0 -1.7905767
2 2.105844 1.0842022e-19
1.8712463 0 -1.7855079
-3.6893488e+19 3.2192054 -3.6893488e+19
2.7929254 3.6893488e+19 2.6870544
-3.6893488e+19 3.2589853 -0
2.7637844 -2 2.7174413
1.0842022e-19 3.277818 -0
2.7829659 2 2.7347069
3.6893488e+19 3.2188909 1.0842022e-19
2.7927291 -3.6893488e+19 2.658098
2 3.2778497 0
2.7829983 -2 2.7180808
2 3.184109 2
2.7710147 0 2.6146181
-2 3.2771089 -3.6893488e+19
2.7822437 3.6893488e+19 2.7002468
3.6893488e+19 3.2203159 -3.6893488e+19
2.7290308 -3.6893488e+19 2.6180451
-2 3.209475 -2
2.7868507 -3.6893488e+19 2.6080773
-0 3.2214324 -2
2.7301681 0 2.6048861
3.6893488e+19 3.1694775 -0
2.7618802 -2 2.564244
2 3.1547472 -3.6893488e+19
2.7800875 2 2.5501139
-3.6893488e+19 3.1762602 3.6893488e+19
2.7400653 0 2.5544155
-0 3.1702888 1.0842022e-19
2.7908425 -1.0842022e-19 2.5488701
-0 3.21525 -0
2.8219559 2 2.552676
2 3.2127144 -2
2.7659879 0 2.5391297
0 3.2116172 0
2.819442 0 2.5363863
-2 3.2030489 -3.6893488e+19
2.7604318 -2 2.5196619
2 3.2112002 -3.6893488e+19
2.8191533 1.0842022e-19 2.5222394
-2 3.1994421 -2
2.7583585 0 2.5042231
-0 3.1635647 -1.0842022e-19
2.7861893 0 2.463388
2 3.1997678 -1.0842022e-19
2.7585456 -0 2.4822559
-2 3.1558778 -2
2.78087 0 2.4304233
0 3.2061832 3.6893488e+19
2.7622335 -3.6893488e+19 2.4622509
1.0842022e-19 3.2221665 3.6893488e+19
2.7309158 -2 2.4607229
0 3.1548018 1.0842022e-19
2.7527182 -2 2.389003
3.6893488e+19 3.2070434 3.6893488e+19
2.7155125 -1.0842022e-19 2.4193158
0 3.1578739 2
2.754636 -2 2.3678341
-3.6893488e+19 3.1656387 -2
2.6733406 -0 2.3571303
-1.0842022e-19 3.1604552 -3.6893488e+19
2.7562475 -0 2.3459201
0 3.1668346 -3.6893488e+19
2.6745584 3.6893488e+19 2.3339293
0 3.1607034 3.6893488e+19
2.7564025 -1.0842022e-19 2.3219111
-2 3.1665332 2
2.6742518 -2 2.309505
3.6893488e+19 3.157692 1.0842022e-19
2.7545226 3.6893488e+19 2.295537
3.6893488e+19 3.1685953 1.0842022e-19
2.676352 3.6893488e+19 2.2867699
-3.6893488e+19 3.1618233 3.6893488e+19
2.7571018 2 2.2743087
-0 3.2169003 -0
2.7255521 -0 2.2928207
-2 3.1666234 2
2.7600985 -0 2.2530227
-0 3.2216983 3.6893488e+19
2.7304389 0 2.2685444
3.6893488e+19 3.1653652 -1.0842022e-19
2.7593129 -3.6893488e+19 2.2057478
-0 3.1845596 0
2.8007181 -3.6893488e+19 2.205878
-1.0842022e-19 3.1610947 -1.0842022e-19
2.7226295 1.0842022e-19 2.1501174
-0 3.1954408 3.6893488e+19
2.8082478 3.6893488e+19 2.1645451
-1.0842022e-19 3.1660213 -2
2.7282937 3.6893488e+19 2.1064811
0 3.1888456 -2
2.8036838 3.6893488e+19 2.1064699
2 3.1667306 -2
2.729109 -1.0842022e-19 2.058619
-2 3.1667035 0
2.7883615 1.0842022e-19 2.0392003
2 3.1561952 1.0842022e-19
2.7169967 -1.0842022e-19 2.0035925
-3.6893488e+19 3.1626213 -0
2.7855365 -2 1.9876034
2 3.1573122 -0
2.7182808 1.0842022e-19 1.9569699
0 3.1776471 2
2.7959344 -3.6893488e+19 1.9457304
1.0842022e-19 3.1827607 -1.0842022e-19
2.7475386 -2 1.919636
-1.0842022e-19 3.1733472 3.6893488e+19
2.792959 -2 1.8937738
-1.0842022e-19 3.1579564 3.6893488e+19
2.7190216 -1.0842022e-19 1.8501078
1.0842022e-19 3.1721265 -3.6893488e+19
2.792114 -3.6893488e+19 1.8120377
2 3.1636698 0
2.7255902 3.6893488e+19 1.7572188
2 3.167634 2
2.6753728 1.0842022e-19 1.6686382
2 3.1612115 0
2.7567198 0 1.5198823
0 3.162009 -3.6893488e+19
2.6696434 1.0842022e-19 -1.3116966
-0 3.1633866 -1.0842022e-19
2.7580776 -1.0842022e-19 -1.6157331
1.0842022e-19 3.1668417 -0
2.6745658 3.6893488e+19 -1.7155046
-0 3.1656907 -3.6893488e+19
2.759516 -2 -1.7826774
3.6893488e+19 3.168232 -3.6893488e+19
2.6759818 -2 -1.8294079
-1.0842022e-19 3.1671987 -1.0842022e-19
2.7604575 -3.6893488e+19 -1.8778784
-0 3.1636674 2
2.6713328 -2 -1.8987117
-1.0842022e-19 3.1677616 -1.0842022e-19
2.7608089 -3.6893488e+19 -1.9268925
-1.0842022e-19 3.1622324 -2
2.6698711 1.0842022e-19 -1.9456775
3.6893488e+19 3.1659188 2
2.7596586 3.6893488e+19 -1.974746
-2 3.1246724 -2
2.6316152 1.0842022e-19 -1.9710214
3.6893488e+19 3.1283472 1.0842022e-19
2.7224052 1.0842022e-19 -1.9987128
-3.6893488e+19 2.8755991 -0
2.509917 -2 -1.9080148
3.6893488e+19 2.8435242 -3.6893488e+19
2.3949447 0 -1.9020982
0 2.7732067 -1.0842022e-19
2.3781214 0 -1.8811049
-0 2.7480242 1.0842022e-19
2.2862856 -2 -1.8744987
1.0842022e-19 2.6952703 3.6893488e+19
2.3081298 -2 -1.8650483
-0 2.6697705 3.6893488e+19
2.232604 -3.6893488e+19 -1.8597497
3.6893488e+19 2.6241252 1.0842022e-19
2.2588971 -3.6893488e+19 -1.8488692
2 2.6100197 1.0842022e-19
2.1639094 0 -1.8473324
3.6893488e+19 2.5653982 -1.0842022e-19
2.1865151 1.0842022e-19 -1.832445
2 2.5626464 -3.6893488e+19
2.1094449 3.6893488e+19 -1.8363262
1.0842022e-19 2.5368524 -0
2.1470072 -2 -1.8307076
0 2.5297916 3.6893488e+19
2.0716722 -1.0842022e-19 -1.8304722
3.6893488e+19 2.5055027 -3.6893488e+19
2.1036189 -3.6893488e+19 -1.8234229
0 2.4932091 2
2.0335176 1.0842022e-19 -1.8205292
-0 2.4568253 -2
2.0661259 -3.6893488e+19 -1.8159877
-1.0842022e-19 2.4474547 -2
2.007216 3.6893488e+19 -1.8155004
1.0842022e-19 2.4377592 2
1.9729354 1.0842022e-19 -1.816202
1.0842022e-19 2.4013145 -2
1.9543754 -2 -1.8119706
-1.0842022e-19 2.343924 -2
1.9251485 -0 -1.80531
-0 2.2972229 0
1.9013653 -2 -1.7982384
-2 2.2669239 3.6893488e+19
1.8859351 -0 -1.7962778
2 2.2121227 2
1.9098959 2 -1.7910347
-3.6893488e+19 2.1770606 -0
1.8977643 0 -1.7914332
-1.0842022e-19 2.1439438 2
1.8863058 0 -1.7905767
2 2.105844 1.0842022e-19
1.8712463 0 -1.7855079
1.0842022e-19 3.2195585 2
2.7904484 -1.0842022e-19 2.6870272
-3.6893488e+19 3.2821894 -2
2.7842722 3.6893488e+19 2.7544923
2 3.216743 -3.6893488e+19
2.7887068 1.0842022e-19 2.6701312
-1.0842022e-19 3.2774389 3.6893488e+19
2.7794867 -1.0842022e-19 2.7337246
3.6893488e+19 3.2201788 -3.6893488e+19
2.790832 1.0842022e-19 2.6588862
-0 3.2760446 1.0842022e-19
2.7780821 -0 2.7147317
1.0842022e-19 3.2191796 3.6893488e+19
2.7902141 2 2.643754
0 3.2200878 3.6893488e+19
2.7907758 -0 2.6302624
0 3.2206876 2
2.7241616 1.0842022e-19 2.6180918
-1.0842022e-19 3.2140758 2
2.7870572 1.0842022e-19 2.6113687
-3.6893488e+19 3.2205229 0
2.7239959 3.6893488e+19 2.6039665
2 3.2087004 0
2.7837322 1.0842022e-19 2.5933478
-3.6893488e+19 3.2120333 -3.6893488e+19
2.8170221 -3.6893488e+19 2.5922816
-0 3.2145276 -1.0842022e-19
2.7643976 0 2.5814958
-2 3.2090883 -1.0842022e-19
2.8150015 0 2.5761664
0 3.213352 -3.6893488e+19
2.7637284 3.6893488e+19 2.5668428
2 3.1809273 3.6893488e+19
2.7956789 2 2.543113
-1.0842022e-19 3.2123573 -1.0842022e-19
2.7631624 3.6893488e+19 2.5524127
-1.0842022e-19 3.2129238 -0
2.8176332 3.6893488e+19 2.5508909
2 3.2125559 -0
2.7632754 -1.0842022e-19 2.5388141
-0 3.211566 -3.6893488e+19
2.8167014 3.6893488e+19 2.5360961
-0 3.2052035 3.6893488e+19
2.7590907 -0 2.5207415
-3.6893488e+19 3.2129924 2
2.8176804 -2 2.5230508
-0 3.199779 -0
2.7560031 0 2.5042231
-3.6893488e+19 3.201036 -2
2.8094764 2 2.5024588
3.6893488e+19 3.1995683 2
2.7558832 0 2.4816811
2 3.2026145 2
2.8105595 1.0842022e-19 2.4795532
-0 3.2059879 -3.6893488e+19
2.759537 0 2.4617074
-1.0842022e-19 3.2221487 1.0842022e-19
2.7256336 -3.6893488e+19 2.4604001
1.0842022e-19 3.2295494 0
2.7966285 -0 2.4604585
3.6893488e+19 3.2065938 3.6893488e+19
2.7099638 1.0842022e-19 2.4186256
-1.0842022e-19 3.1872065 2
2.770437 3.6893488e+19 2.3939667
-1.0842022e-19 3.2082324 2
2.7116146 0 2.3934672
-2 3.1876724 0
2.7707253 3.6893488e+19 2.3685579
-1.0842022e-19 3.165422 0
2.6684883 -2 2.332577
-2 3.2238169 -2
2.7930825 3.6893488e+19 2.3710778
1.0842022e-19 3.2035108 -1.0842022e-19
2.7068579 -0 2.3367577
3.6893488e+19 3.1875892 -3.6893488e+19
2.7706735 2 2.3169515
2 3.2039654 -3.6893488e+19
2.7073159 -0 2.3107948
-1.0842022e-19 3.1895387 -3.6893488e+19
2.7718794 1.0842022e-19 2.2925313
3.6893488e+19 3.2200506 -3.6893488e+19
2.7235198 1.0842022e-19 2.294601
3.6893488e+19 3.197186 0
2.7766099 0 2.271363
1.0842022e-19 3.2227974 -1.0842022e-19
2.7262869 -2 2.2689915
3.6893488e+19 3.2136669 3.6893488e+19
2.7868042 2 2.2541659
2 3.1776354 -3.6893488e+19
2.7934201 -0 2.1982095
-2 3.1995995 0
2.7559011 2 2.1872663
0 3.1944559 2
2.8049614 -0 2.1632552
-1.0842022e-19 3.200042 3.6893488e+19
2.7561529 1.0842022e-19 2.135344
-1.0842022e-19 3.1892712 -2
2.801404 -2 2.1064937
-1.0842022e-19 3.1977303 -1.0842022e-19
2.754837 0 2.0813284
2 3.1648648 1.0842022e-19
2.7846577 1.0842022e-19 2.0376644
-1.0842022e-19 3.1555984 -2
2.7117133 -3.6893488e+19 2.0030303
0 3.1819007 -2
2.7963467 1.0842022e-19 1.9984809
-3.6893488e+19 3.1587288 -0
2.715277 -2 1.9575342
-1.0842022e-19 3.1779149 2
2.793612 3.6893488e+19 1.9456764
-1.0842022e-19 3.1823037 3.6893488e+19
2.7421134 -2 1.91933
-0 3.2746794 -0
2.8769403 1.0842022e-19 1.9364007
-0 3.1819735 -1.0842022e-19
2.7417374 1.0842022e-19 1.8631818
1.0842022e-19 3.1711776 -2
2.7889891 -3.6893488e+19 1.8114489
0 3.1628077 -0
2.7199199 -3.6893488e+19 1.7568444
0 3.2843499 -2
2.7864485 -0 1.7294854
0 3.1601133 0
2.7536783 1.0842022e-19 1.5193778
-0 3.2820065 -2
2.7840879 2 -1.377703
0 3.1613648 -2
2.7544522 -0 -1.6143608
-1.0842022e-19 3.1669364 -3.6893488e+19
2.6700137 -0 -1.7154107
1.0842022e-19 3.1671636 3.6893488e+19
2.7580392 3.6893488e+19 -1.7831074
1.0842022e-19 3.1667218 -2
2.6697974 1.0842022e-19 -1.8285348
-3.6893488e+19 3.1677771 3.6893488e+19
2.7584188 3.6893488e+19 -1.8779516
1.0842022e-19 3.1632755 0
2.6663258 0 -1.8984723
0 3.1678631 0
2.758472 3.6893488e+19 -1.9267915
-0 3.1628997 -2
2.6659472 0 -1.9458643
3.6893488e+19 3.1634824 0
2.7557623 -1.0842022e-19 -1.9732476
-0 3.1619287 -2
2.664969 1.0842022e-19 -1.9928379
-2 3.1301765 0
2.7203217 -3.6893488e+19 -1.999712
1.0842022e-19 2.8419209 -3.6893488e+19
2.3892257 -1.0842022e-19 -1.9012748
0 2.772568 -3.6893488e+19
2.3740425 2 -1.8806804
-1.0842022e-19 2.7449172 -0
2.2816947 -2 -1.8727565
-0 2.6955543 -1.0842022e-19
2.3057151 -1.0842022e-19 -1.8649848
2 2.6694853 -2
2.2275214 3.6893488e+19 -1.8594146
3.6893488e+19 2.6251707 -0
2.2574217 -2 -1.8492923
-3.6893488e+19 2.6102893 -3.6893488e+19
2.1601357 0 -1.8473324
-3.6893488e+19 2.572402 1.0842022e-19
2.1924298 -3.6893488e+19 -1.8368603
3.6893488e+19 2.56336 -3.6893488e+19
2.1067135 2 -1.83665
-1.0842022e-19 2.5304801 3.6893488e+19
2.0692849 -0 -1.8308238
0 2.4971693 -1.0842022e-19
2.0329764 0 -1.8219516
-0 2.4473116 1.0842022e-19
2.0045989 1.0842022e-19 -1.8152969
-3.6893488e+19 2.4385316 -2
1.9708842 -1.0842022e-19 -1.8164124
1.0842022e-19 3.2195585 2
2.7904484 -1.0842022e-19 2.6870272
-3.6893488e+19 3.2821894 -2
2.7842722 3.6893488e+19 2.7544923
2 3.216743 -3.6893488e+19
2.7887068 1.0842022e-19 2.6701312
-1.0842022e-19 3.2774389 3.6893488e+19
2.7794867 -1.0842022e-19 2.7337246
-0 3.1822956 1.0842022e-19
2.7673993 -2 2.6259413
-0 3.2760446 1.0842022e-19
2.7780821 -0 2.7147317
-1.0842022e-19 3.1855454 -2
2.7694094 3.6893488e+19 2.6155269
0 3.2200878 3.6893488e+19
2.7907758 -0 2.6302624
0 3.2206876 2
2.7241616 1.0842022e-19 2.6180918
-1.0842022e-19 3.2140758 2
2.7870572 1.0842022e-19 2.6113687
-3.6893488e+19 3.2205229 0
2.7239959 3.6893488e+19 2.6039665
-0 3.1709945 -0
2.7604089 3.6893488e+19 2.565124
3.6893488e+19 3.1566849 2
2.7790451 -0 2.5512786
-0 3.2145276 -1.0842022e-19
2.7643976 0 2.5814958
-0 3.17061 3.6893488e+19
2.7885997 -3.6893488e+19 2.5488286
0 3.213352 -3.6893488e+19
2.7637284 3.6893488e+19 2.5668428
2 3.1809273 3.6893488e+19
2.7956789 2 2.543113
-1.0842022e-19 3.2123573 -1.0842022e-19
2.7631624 3.6893488e+19 2.5524127
-1.0842022e-19 3.2129238 -0
2.8176332 3.6893488e+19 2.5508909
2 3.2125559 -0
2.7632754 -1.0842022e-19 2.5388141
-3.6893488e+19 3.1654444 -0
2.7850554 2 2.5075083
-0 3.2052035 3.6893488e+19
2.7590907 -0 2.5207415
-3.6893488e+19 3.2129924 2
2.8176804 -2 2.5230508
-0 3.199779 -0
2.7560031 0 2.5042231
-2 3.1645534 3.6893488e+19
2.7844441 3.6893488e+19 2.4640768
3.6893488e+19 3.1995683 2
2.7558832 0 2.4816811
2 3.2026145 2
2.8105595 1.0842022e-19 2.4795532
-0 3.2059879 -3.6893488e+19
2.759537 0 2.4617074
-3.6893488e+19 3.1645181 2
2.6675777 -2 2.4042037
1.0842022e-19 3.2295494 0
2.7966285 -0 2.4604585
-1.0842022e-19 3.1671989 0
2.6702783 -0 2.3825066
2 3.1548517 1.0842022e-19
2.7504237 -0 2.3648117
-1.0842022e-19 3.1664872 0
2.6695614 0 2.3576221
-0 3.1588883 1.0842022e-19
2.7529206 -3.6893488e+19 2.3443191
-1.0842022e-19 3.165422 0
2.6684883 -2 2.332577
-1.0842022e-19 3.1614835 1.0842022e-19
2.7545259 1.0842022e-19 2.3222604
-3.6893488e+19 3.1635802 1.0842022e-19
2.6666329 -2 2.307107
-3.6893488e+19 3.160552 -1.0842022e-19
2.7539496 0 2.2973683
2 3.2039654 -3.6893488e+19
2.7073159 -0 2.3107948
-3.6893488e+19 3.1623967 3.6893488e+19
2.7550907 -2 2.274467
0 3.1688938 -3.6893488e+19
2.6719854 -0 2.2625387
1.0842022e-19 3.1632109 2
2.7555943 2 2.250746
1.0842022e-19 3.2227974 -1.0842022e-19
2.7262869 -2 2.2689915
1.0842022e-19 3.1661801 -2
2.7574308 -1.0842022e-19 2.2062705
2 3.1776354 -3.6893488e+19
2.7934201 -0 2.1982095
-1.0842022e-19 3.1610427 -3.6893488e+19
2.7179108 3.6893488e+19 2.1497672
1.0842022e-19 3.1637905 2
2.7839205 -1.0842022e-19 2.1347425
-0 3.1623409 1.0842022e-19
2.7193887 -3.6893488e+19 2.1030626
0 3.1625218 1.0842022e-19
2.7830501 -1.0842022e-19 2.084785
-1.0842022e-19 3.1663222 -0
2.7239208 -3.6893488e+19 2.0580857
2 3.1648648 1.0842022e-19
2.7846577 1.0842022e-19 2.0376644
-1.0842022e-19 3.1555984 -2
2.7117133 -3.6893488e+19 2.0030303
1.0842022e-19 3.1608374 -1.0842022e-19
2.7818942 0 1.9863628
-3.6893488e+19 3.1587288 -0
2.715277 -2 1.9575342
-1.0842022e-19 3.1779149 2
2.793612 3.6893488e+19 1.9456764
-1.0842022e-19 3.1823037 3.6893488e+19
2.7421134 -2 1.91933
3.6893488e+19 3.1715131 3.6893488e+19
2.7892194 0 1.8930218
2 3.1573005 0
2.7136509 -0 1.8495775
1.0842022e-19 3.1711776 -2
2.7889891 -3.6893488e+19 1.8114489
0 3.1628077 -0
2.7199199 -3.6893488e+19 1.7568444
3.6893488e+19 3.1669111 -2
2.6699882 0 1.6682347
0 3.1601133 0
2.7536783 1.0842022e-19 1.5193778
-0 3.2820065 -2
2.7840879 2 -1.377703
0 3.1613648 -2
2.7544522 -0 -1.6143608
-1.0842022e-19 3.1669364 -3.6893488e+19
2.6700137 -0 -1.7154107
1.0842022e-19 3.1671636 3.6893488e+19
2.7580392 3.6893488e+19 -1.7831074
1.0842022e-19 3.1667218 -2
2.6697974 1.0842022e-19 -1.8285348
-3.6893488e+19 3.1677771 3.6893488e+19
2.7584188 3.6893488e+19 -1.8779516
1.0842022e-19 3.1632755 0
2.6663258 0 -1.8984723
0 3.1678631 0
2.758472 3.6893488e+19 -1.9267915
-0 3.1628997 -2
2.6659472 0 -1.9458643
3.6893488e+19 3.1634824 0
2.7557623 -1.0842022e-19 -1.9732476
1.0842022e-19 3.1242247 1.0842022e-19
2.6269867 -1.0842022e-19 -1.9706107
-2 3.1301765 0
2.7203217 -3.6893488e+19 -1.999712
1.0842022e-19 2.8419209 -3.6893488e+19
2.3892257 -1.0842022e-19 -1.9012748
0 2.772568 -3.6893488e+19
2.3740425 2 -1.8806804
-1.0842022e-19 2.7449172 -0
2.2816947 -2 -1.8727565
-0 2.6955543 -1.0842022e-19
2.3057151 -1.0842022e-19 -1.8649848
2 2.6694853 -2
2.2275214 3.6893488e+19 -1.8594146
3.6893488e+19 2.6251707 -0
2.2574217 -2 -1.8492923
-3.6893488e+19 2.6102893 -3.6893488e+19
2.1601357 0 -1.8473324
-3.6893488e+19 2.572402 1.0842022e-19
2.1924298 -3.6893488e+19 -1.8368603
3.6893488e+19 2.56336 -3.6893488e+19
2.1067135 2 -1.83665
-1.0842022e-19 2.5304801 3.6893488e+19
2.0692849 -0 -1.8308238
0 2.4971693 -1.0842022e-19
2.0329764 0 -1.8219516
-0 2.4473116 1.0842022e-19
2.0045989 1.0842022e-19 -1.8152969
-3.6893488e+19 2.4385316 -2
1.9708842 -1.0842022e-19 -1.8164124
0 3.2204621 3.6893488e+19
2.7883105 3.6893488e+19 2.6875155
2 3.2823894 0
2.7813311 3.6893488e+19 2.7545056
-1.0842022e-19 3.2185214 3.6893488e+19
2.7871213 -1.0842022e-19 2.6713922
-3.6893488e+19 3.2803354 -3.6893488e+19
2.7792847 -1.0842022e-19 2.7384546
-2 3.2189488 3.6893488e+19
2.7873833 0 2.6574881
-0 3.2776964 0
2.7766557 -1.0842022e-19 2.717206
-0 3.2203488 -1.0842022e-19
2.7882411 3.6893488e+19 2.6444173
2 3.2221975 3.6893488e+19
2.7893741 2 2.6316614
3.6893488e+19 3.221324 0
2.7195575 3.6893488e+19 2.6183479
-3.6893488e+19 3.2173874 0
2.7864265 3.6893488e+19 2.6136541
1.0842022e-19 3.2185943 -0
2.7168379 -0 2.6022844
0 3.2117763 -1.0842022e-19
2.7829876 -2 2.5953715
2 3.2098241 -2
2.8128176 -2 2.5903404
-2 3.2150795 -1.0842022e-19
2.7620814 -2 2.5816436
0 3.2064066 2
2.8104928 2 2.573971
-0 3.2157137 -0
2.7624388 -1.0842022e-19 2.5682218
0 3.1813421 -2
2.7934413 -0 2.5431328
-1.0842022e-19 3.2132053 -2
2.7610252 1.0842022e-19 2.552743
2 3.2117686 -2
2.7602155 -2 2.5381088
-0 3.2089639 -0
2.8122325 -3.6893488e+19 2.5342288
-1.0842022e-19 3.2022061 3.6893488e+19
2.754827 2 2.5187595
-1.0842022e-19 3.2001722 -3.6893488e+19
2.7536807 1.0842022e-19 2.5042567
-1.0842022e-19 3.1964242 2
2.8037019 -1.0842022e-19 2.4993081
3.6893488e+19 3.2024374 -3.6893488e+19
2.7549572 0 2.484396
2 3.2047436 -2
2.7562568 2 2.4601061
-1.0842022e-19 3.2247169 -3.6893488e+19
2.7229376 1.0842022e-19 2.4626012
2 3.1948788 1.0842022e-19
2.7726326 3.6893488e+19 2.4268241
-1.0842022e-19 3.2065315 -1.0842022e-19
2.7048204 2 2.4182942
2 3.1883612 3.6893488e+19
2.7686384 3.6893488e+19 2.3946888
-3.6893488e+19 3.1679969 -2
2.6664302 -1.0842022e-19 2.3586831
3.6893488e+19 3.1902847 -1.0842022e-19
2.7698171 -3.6893488e+19 2.3704588
3.6893488e+19 3.2131705 1.0842022e-19
2.7114346 2 2.3705604
1.0842022e-19 3.2256567 -2
2.7914939 -3.6893488e+19 2.3722184
2 3.2043216 1.0842022e-19
2.7026188 -0 2.3371387
3.6893488e+19 3.1889243 -3.6893488e+19
2.7689834 1.0842022e-19 2.3176625
-2 3.2052906 2
2.7035842 0 2.3114979
1.0842022e-19 3.2008541 -1.0842022e-19
2.7762942 -0 2.2998202
1.0842022e-19 3.2185447 3.6893488e+19
2.7167885 1.0842022e-19 2.2934647
3.6893488e+19 3.1987982 3.6893488e+19
2.7750344 0 2.2721219
1.0842022e-19 3.2198403 0
2.7180793 3.6893488e+19 2.267134
0 3.2148757 3.6893488e+19
2.7848871 0 2.2546232
-2 3.1764824 -2
2.7901354 3.6893488e+19 2.1966016
-1.0842022e-19 3.2002332 2
2.7537153 1.0842022e-19 2.1875582
-3.6893488e+19 3.1939671 2
2.8020303 3.6893488e+19 2.162432
3.6893488e+19 3.2009466 1.0842022e-19
2.7541173 2 2.1358323
-0 3.1905804 3.6893488e+19
2.7997262 3.6893488e+19 2.1072366
-3.6893488e+19 3.1976116 -3.6893488e+19
2.7522378 1.0842022e-19 2.0809951
2 3.1631372 3.6893488e+19
2.7810566 -1.0842022e-19 2.0362103
-3.6893488e+19 3.2075984 -1.0842022e-19
2.7578657 -1.0842022e-19 2.0352588
-1.0842022e-19 3.1655219 0
2.7826791 -0 1.9888442
-2 3.2302856 3.6893488e+19
2.7706504 -2 1.9936868
-2 3.1790371 1.0842022e-19
2.7918735 1.0842022e-19 1.9460143
0 3.1808503 -1.0842022e-19
2.735585 -1.0842022e-19 1.9186356
-2 3.2765224 -2
2.8762357 -1.0842022e-19 1.9374835
0 3.1575425 3.6893488e+19
2.7093163 -0 1.8495444
2 3.1717911 1.0842022e-19
2.7869439 -3.6893488e+19 1.8115536
-0 3.1627829 2
2.7152226 2 1.7567389
-2 3.2851124 -1.0842022e-19
2.7840438 3.6893488e+19 1.7299501
1.0842022e-19 3.161669 -0
2.7522807 -3.6893488e+19 1.5198087
-0 3.2830405 -3.6893488e+19
2.7819796 -0 -1.3780872
1.0842022e-19 3.1627123 1.0842022e-19
2.7529202 1.0842022e-19 -1.6149515
-1.0842022e-19 3.1695144 -1.0842022e-19
2.667942 -2 -1.7166005
-2 3.1649005 1.0842022e-19
2.7542613 0 -1.7821231
3.6893488e+19 3.1697543 -1.0842022e-19
2.6681809 -0 -1.8298815
-1.0842022e-19 3.1656046 -1.0842022e-19
2.7546926 -0 -1.8771837
-1.0842022e-19 3.1630614 0
2.6615133 1.0842022e-19 -1.8982981
2 3.1669455 0
2.7555144 -1.0842022e-19 -1.9262612
2 3.1627159 1.0842022e-19
2.6611691 0 -1.9456488
2 3.1627109 -1.0842022e-19
2.7529192 2 -1.9726516
0 3.1619868 3.6893488e+19
2.6604426 -2 -1.9927129
-1.0842022e-19 3.126781 2
2.7118013 0 -1.9972824
2 2.8430755 0
2.3866596 -0 -1.9016732
0 2.7719848 -2
2.3700616 -3.6893488e+19 -1.8802842
-3.6893488e+19 2.7467253 -3.6893488e+19
2.2799144 3.6893488e+19 -1.8734775
0 2.7000866 -3.6893488e+19
2.3061931 -0 -1.8672092
-2 2.6701565 3.6893488e+19
2.2235329 3.6893488e+19 -1.8596157
-1.0842022e-19 2.6269228 3.6893488e+19
2.2564201 -0 -1.8501384
-1.0842022e-19 2.6123564 0
2.15839 -2 -1.8484421
-1.0842022e-19 2.5729265 -2
2.189373 -0 -1.8370153
1.0842022e-19 2.5639522 -2
2.1038363 0 -1.8368928
-1.0842022e-19 2.2931461 2
1.949427 -3.6893488e+19 -1.7098436
0 2.5315273 2
2.0672922 2 -1.831439
-2 2.4965796 3.6893488e+19
2.0298324 2 -1.8215723
3.6893488e+19 2.2939491 3.6893488e+19
1.9499732 0 -1.7453451
-2 2.4471645 2
2.001986 -2 -1.8150933
3.6893488e+19 2.4388194 -3.6893488e+19
1.9685873 -1.0842022e-19 -1.8164124
-2 2.401844 -1.0842022e-19
1.950169 -2 -1.8119706
1.0842022e-19 2.3429341 1.0842022e-19
1.9208244 -0 -1.804554
-3.6893488e+19 2.2971346 -2
1.8980105 -3.6893488e+19 -1.7979587
-0 2.2684748 -3.6893488e+19
1.8837342 3.6893488e+19 -1.7970458
-1.0842022e-19 2.2176206 -0
1.9090608 -2 -1.7927084
2 2.1755011 3.6893488e+19
1.8947339 0 -1.7905277
-2 2.139545 1.0842022e-19
1.8825035 2 -1.7884339
-3.6893488e+19 2.1078727 -1.0842022e-19
1.8684604 -3.6893488e+19 -1.7861332
0 3.2204621 3.6893488e+19
2.7883105 3.6893488e+19 2.6875155
2 3.2823894 0
2.7813311 3.6893488e+19 2.7545056
3.6893488e+19 3.1822701 0
2.7649057 1.0842022e-19 2.6387875
-3.6893488e+19 3.2803354 -3.6893488e+19
2.7792847 -1.0842022e-19 2.7384546
-0 3.1843116 -1.0842022e-19
2.7661567 1.0842022e-19 2.6273904
-0 3.2776964 0
2.7766557 -1.0842022e-19 2.717206
-0 3.1858673 3.6893488e+19
2.7671101 3.6893488e+19 2.6155024
0 3.1736753 0
2.7596385 0 2.5924425
3.6893488e+19 3.221324 0
2.7195575 3.6893488e+19 2.6183479
-3.6893488e+19 3.2173874 0
2.7864265 3.6893488e+19 2.6136541
1.0842022e-19 3.2185943 -0
2.7168379 -0 2.6022844
-0 3.1756282 0
2.7608354 3.6893488e+19 2.5683358
2 3.2098241 -2
2.8128176 -2 2.5903404
-2 3.2150795 -1.0842022e-19
2.7620814 -2 2.5816436
3.6893488e+19 3.1690607 -0
2.7850864 -2 2.5474617
-0 3.2157137 -0
2.7624388 -1.0842022e-19 2.5682218
0 3.1813421 -2
2.7934413 -0 2.5431328
-1.0842022e-19 3.2132053 -2
2.7610252 1.0842022e-19 2.552743
2 3.2117686 -2
2.7602155 -2 2.5381088
-2 3.1653185 -2
2.7825406 -1.0842022e-19 2.5072
-1.0842022e-19 3.2022061 3.6893488e+19
2.754827 2 2.5187595
-1.0842022e-19 3.2001722 -3.6893488e+19
2.7536807 1.0842022e-19 2.5042567
-0 3.165071 -0
2.7823722 3.6893488e+19 2.4642408
3.6893488e+19 3.2024374 -3.6893488e+19
2.7549572 0 2.484396
2 3.2047436 -2
2.7562568 2 2.4601061
-3.6893488e+19 3.2064075 -3.6893488e+19
2.7046969 3.6893488e+19 2.4447591
2 3.1948788 1.0842022e-19
2.7726326 3.6893488e+19 2.4268241
0 3.1689193 3.6893488e+19
2.6673491 -3.6893488e+19 2.383832
2 3.1883612 3.6893488e+19
2.7686384 3.6893488e+19 2.3946888
-3.6893488e+19 3.1679969 -2
2.6664302 -1.0842022e-19 2.3586831
3.6893488e+19 3.1902847 -1.0842022e-19
2.7698171 -3.6893488e+19 2.3704588
-0 3.1655436 0
2.6639862 3.6893488e+19 2.3324564
3.6893488e+19 3.1612501 -3.6893488e+19
2.7520239 -3.6893488e+19 2.3218179
2 3.2043216 1.0842022e-19
2.7026188 -0 2.3371387
1.0842022e-19 3.1621335 2
2.7525654 1.0842022e-19 2.2982731
-2 3.2052906 2
2.7035842 0 2.3114979
0 3.1633549 -2
2.7533138 3.6893488e+19 2.274883
-0 3.168987 -2
2.6674166 -3.6893488e+19 2.2624249
2 3.164885 0
2.7542517 -2 2.251559
-3.6893488e+19 3.170923 -2
2.6693454 -1.0842022e-19 2.2286429
-2 3.1677082 -1.0842022e-19
2.7559817 2 2.207577
-2 3.1764824 -2
2.7901354 3.6893488e+19 2.1966016
-0 3.1595159 -0
2.7115405 0 2.1479871
0 3.1638949 2
2.7815721 -2 2.1344955
0 3.1636682 3.6893488e+19
2.7162201 1.0842022e-19 2.1039367
-0 3.1905804 3.6893488e+19
2.7997262 3.6893488e+19 2.1072366
1.0842022e-19 3.1756458 -2
2.7297194 -1.0842022e-19 2.0647519
2 3.1631372 3.6893488e+19
2.7810566 -1.0842022e-19 2.0362103
-1.0842022e-19 3.1580935 -1.0842022e-19
2.7099373 0 2.0043983
-1.0842022e-19 3.1655219 0
2.7826791 -0 1.9888442
2 3.1584609 0
2.7103515 3.6893488e+19 1.9572444
-2 3.1790371 1.0842022e-19
2.7918735 1.0842022e-19 1.9460143
0 3.1808503 -1.0842022e-19
2.735585 -1.0842022e-19 1.9186356
2 3.171417 -2
2.7866893 1.0842022e-19 1.8928614
0 3.1575425 3.6893488e+19
2.7093163 -0 1.8495444
2 3.1717911 1.0842022e-19
2.7869439 -3.6893488e+19 1.8115536
-0 3.1627829 2
2.7152226 2 1.7567389
-2 3.1705503 -0
2.6689742 1.0842022e-19 1.669592
1.0842022e-19 3.161669 -0
2.7522807 -3.6893488e+19 1.5198087
0 3.1694059 -2
2.6678338 -2 -1.3147979
1.0842022e-19 3.1627123 1.0842022e-19
2.7529202 1.0842022e-19 -1.6149515
-1.0842022e-19 3.1695144 -1.0842022e-19
2.667942 -2 -1.7166005
-2 3.1649005 1.0842022e-19
2.7542613 0 -1.7821231
3.6893488e+19 3.1697543 -1.0842022e-19
2.6681809 -0 -1.8298815
-1.0842022e-19 3.1656046 -1.0842022e-19
2.7546926 -0 -1.8771837
-1.0842022e-19 3.1630614 0
2.6615133 1.0842022e-19 -1.8982981
2 3.1669455 0
2.7555144 -1.0842022e-19 -1.9262612
2 3.1627159 1.0842022e-19
2.6611691 0 -1.9456488
2 3.1627109 -1.0842022e-19
2.7529192 2 -1.9726516
0 3.1619868 3.6893488e+19
2.6604426 -2 -1.9927129
-1.0842022e-19 3.126781 2
2.7118013 0 -1.9972824
2 2.8430755 0
2.3866596 -0 -1.9016732
0 2.7719848 -2
2.3700616 -3.6893488e+19 -1.8802842
-3.6893488e+19 2.7467253 -3.6893488e+19
2.2799144 3.6893488e+19 -1.8734775
0 2.7000866 -3.6893488e+19
2.3061931 -0 -1.8672092
-2 2.6701565 3.6893488e+19
2.2235329 3.6893488e+19 -1.8596157
-1.0842022e-19 2.6269228 3.6893488e+19
2.2564201 -0 -1.8501384
-1.0842022e-19 2.6123564 0
2.15839 -2 -1.8484421
-1.0842022e-19 2.5729265 -2
2.189373 -0 -1.8370153
1.0842022e-19 2.5639522 -2
2.1038363 0 -1.8368928
-1.0842022e-19 2.2931461 2
1.949427 -3.6893488e+19 -1.7098436
0 2.5315273 2
2.0672922 2 -1.831439
-2 2.4965796 3.6893488e+19
2.0298324 2 -1.8215723
3.6893488e+19 2.2939491 3.6893488e+19
1.9499732 0 -1.7453451
-2 2.4471645 2
2.001986 -2 -1.8150933
3.6893488e+19 2.4388194 -3.6893488e+19
1.9685873 -1.0842022e-19 -1.8164124
-2 2.401844 -1.0842022e-19
1.950169 -2 -1.8119706
1.0842022e-19 2.3429341 1.0842022e-19
1.9208244 -0 -1.804554
-3.6893488e+19 2.2971346 -2
1.8980105 -3.6893488e+19 -1.7979587
-0 2.2684748 -3.6893488e+19
1.8837342 3.6893488e+19 -1.7970458
-1.0842022e-19 2.2176206 -0
1.9090608 -2 -1.7927084
2 2.1755011 3.6893488e+19
1.8947339 0 -1.7905277
-2 2.139545 1.0842022e-19
1.8825035 2 -1.7884339
-3.6893488e+19 2.1078727 -1.0842022e-19
1.8684604 -3.6893488e+19 -1.7861332
-1.0842022e-19 3.2594635 0
2.7556059 1.0842022e-19 2.7330244
1.0842022e-19 3.2228813 -3.6893488e+19
2.7870853 1.0842022e-19 2.6894143
-1.0842022e-19 3.2822762 2
2.7780793 -0 2.7542386
-1.0842022e-19 3.2176971 -0
2.7839382 -0 2.670315
-3.6893488e+19 3.2805026 1.0842022e-19
2.7763321 3.6893488e+19 2.7384288
2 3.2162788 -2
2.783077 3.6893488e+19 2.6548443
0 3.277951 -0
2.7738183 -2 2.7173309
3.6893488e+19 3.2180567 -3.6893488e+19
2.7841563 -2 2.6421816
-3.6893488e+19 3.2720277 -2
2.7679832 -1.0842022e-19 2.6911221
1.0842022e-19 3.1719587 -3.6893488e+19
2.7561703 3.6893488e+19 2.5907826
-1.0842022e-19 3.2711275 -0
2.7670963 2 2.673507
-3.6893488e+19 3.2165556 -3.6893488e+19
2.7832451 0 2.6127172
-1.0842022e-19 3.1775284 -1.0842022e-19
2.7595518 -1.0842022e-19 2.5695016
0 3.2048655 -1.0842022e-19
2.806788 -1.0842022e-19 2.5863717
3.6893488e+19 3.2182693 0
2.7612331 -2 2.583673
-3.6893488e+19 3.203424 -0
2.8058159 -3.6893488e+19 2.5715685
3.6893488e+19 3.217541 -1.0842022e-19
2.7608266 -2 2.5692358
3.6893488e+19 3.1811986 0
2.7908258 -2 2.5427754
-3.6893488e+19 3.2135456 1.0842022e-19
2.7585979 1.0842022e-19 2.552743
3.6893488e+19 3.2045884 2
2.8066013 3.6893488e+19 2.5449471
1.0842022e-19 3.2121079 -2
2.7577956 -2 2.5381088
1.0842022e-19 3.2080822 -0
2.8089576 3.6893488e+19 2.5334313
0 3.2011082 -3.6893488e+19
2.7516592 -0 2.51791
-3.6893488e+19 3.2008905 0
2.751538 0 2.5044756
2 3.1946776 -0
2.7999167 -0 2.4969134
1.0842022e-19 3.2036655 -1.0842022e-19
2.7530859 0 2.4853542
-3.6893488e+19 3.193079 -2
2.7988386 -2 2.4686146
-1.0842022e-19 3.2056453 -0
2.7541904 -2 2.46068
-2 3.2217705 2
2.7147563 1.0842022e-19 2.4594319
3.6893488e+19 3.1959176 -3.6893488e+19
2.7707157 -3.6893488e+19 2.427479
3.6893488e+19 3.2230225 -3.6893488e+19
2.7159894 0 2.4331229
-3.6893488e+19 3.2004254 -1.0842022e-19
2.7734525 3.6893488e+19 2.4052274
-0 3.2138405 -0
2.706944 -1.0842022e-19 2.3977633
3.6893488e+19 3.2755392 -2
2.8345587 2 2.4633114
-1.0842022e-19 3.2125952 3.6893488e+19
2.7057173 0 2.3698602
-3.6893488e+19 3.1937332 0
2.7693899 2 2.3469601
-1.0842022e-19 3.2135921 1.0842022e-19
2.7066994 0 2.3437951
-1.0842022e-19 3.1879344 0
2.7658694 -3.6893488e+19 2.3166928
-3.6893488e+19 3.1648233 -2
2.6586556 0 2.2836273
-1.0842022e-19 3.1849089 -3.6893488e+19
2.7640324 3.6893488e+19 2.2889857
-3.6893488e+19 3.2196352 -1.0842022e-19
2.7126527 3.6893488e+19 2.293957
-2 3.1995146 3.6893488e+19
2.7728996 -0 2.2723386
0 3.2200847 -1.0842022e-19
2.7130952 0 2.2670996
-1.0842022e-19 3.2266455 1.0842022e-19
2.7893708 0 2.2608614
-2 3.1899242 1.0842022e-19
2.796711 -1.0842022e-19 2.210269
-1.0842022e-19 3.2028177 1.0842022e-19
2.7526131 1.0842022e-19 2.1897469
-3.6893488e+19 3.157639 1.0842022e-19
2.774936 0 2.1283486
-3.6893488e+19 3.2041335 1.0842022e-19
2.7533472 2 2.138274
2 3.1917701 -0
2.7979558 -3.6893488e+19 2.1078835
3.6893488e+19 3.1987524 -2
2.750345 -0 2.0815949
-3.6893488e+19 3.1624682 1.0842022e-19
2.778193 3.6893488e+19 2.0354936
-2 3.2073631 0
2.7551489 -0 2.0349028
1.0842022e-19 3.1845057 2
2.7930562 -1.0842022e-19 1.9995346
-3.6893488e+19 3.2305181 -2
2.7680662 -3.6893488e+19 1.9936258
-1.0842022e-19 3.1807203 2
2.7905033 1.0842022e-19 1.9466088
2 3.1733601 -2
2.7855389 3.6893488e+19 1.8933928
1.0842022e-19 3.1580224 2
2.7052462 -1.0842022e-19 1.8496438
2 3.1732314 -0
2.7854521 1.0842022e-19 1.8120247
-0 3.1614006 -0
2.7090154 -3.6893488e+19 1.7562013
3.6893488e+19 3.2859347 0
2.7816834 -1.0842022e-19 1.7304636
2 3.1635828 -3.6893488e+19
2.7510853 -1.0842022e-19 1.5203657
-1.0842022e-19 3.283649 -2
2.7794316 1.0842022e-19 -1.3782793
2 3.1641784 -0
2.751447 -1.0842022e-19 -1.6156116
0 3.1691799 2
2.6629474 0 -1.7162875
3.6893488e+19 3.1662488 -1.0842022e-19
2.7527039 0 -1.7825078
1.0842022e-19 3.1624417 3.6893488e+19
2.6563094 1.0842022e-19 -1.8261818
-0 3.1683884 -2
2.7540028 0 -1.8779334
0 3.1620858 -1.0842022e-19
2.6559587 -1.0842022e-19 -1.8978518
3.6893488e+19 3.1670096 -3.6893488e+19
2.7531657 3.6893488e+19 -1.9261476
1.0842022e-19 3.1620739 -0
2.655947 -3.6893488e+19 -1.9452176
-3.6893488e+19 3.1653419 -0
2.7521534 -0 -1.9738921
-2 3.1621327 3.6893488e+19
2.6560051 -2 -1.9926414
-3.6893488e+19 3.1255581 1.0842022e-19
2.7060018 1.0842022e-19 -1.9962831
-0 2.8421853 -0
2.3817892 -0 -1.9011686
-0 2.7696245 -1.0842022e-19
2.3637013 1.0842022e-19 -1.8790392
2 2.7433646 -0
2.2752328 -0 -1.8716151
3.6893488e+19 2.6958759 3.6893488e+19
2.300725 0 -1.8647306
0 2.6708257 2
2.2195313 2 -1.8598168
-2 2.6270211 2
2.2542853 -1.0842022e-19 -1.8499974
-2 2.6143036 0
2.1564677 -3.6893488e+19 -1.8494779
-1.0842022e-19 2.5628626 2
2.0990729 -1.0842022e-19 -1.8360025
0 2.5310144 1.0842022e-19
2.0635386 -3.6893488e+19 -1.8309116
-3.6893488e+19 2.496465 3.6893488e+19
2.0269625 2 -1.8213826
1.0842022e-19 2.4458163 0
1.9987072 1.0842022e-19 -1.814381
1.0842022e-19 2.4393456 -2
1.9664066 2 -1.8165177
-1.0842022e-19 3.2594635 0
2.7556059 1.0842022e-19 2.7330244
1.0842022e-19 3.2228813 -3.6893488e+19
2.7870853 1.0842022e-19 2.6894143
-1.0842022e-19 3.2822762 2
2.7780793 -0 2.7542386
1.0842022e-19 3.1820893 1.0842022e-19
2.7623208 -1.0842022e-19 2.6383145
-3.6893488e+19 3.2805026 1.0842022e-19
2.7763321 3.6893488e+19 2.7384288
-3.6893488e+19 3.1848636 -2
2.7640049 -0 2.6275682
0 3.277951 -0
2.7738183 -2 2.7173309
3.6893488e+19 3.1875057 2
2.765609 1.0842022e-19 2.6165833
-3.6893488e+19 3.2720277 -2
2.7679832 -1.0842022e-19 2.6911221
1.0842022e-19 3.1719587 -3.6893488e+19
2.7561703 3.6893488e+19 2.5907826
-1.0842022e-19 3.2711275 -0
2.7670963 2 2.673507
0 3.1751626 0
2.7581155 -3.6893488e+19 2.5805364
-1.0842022e-19 3.1775284 -1.0842022e-19
2.7595518 -1.0842022e-19 2.5695016
0 3.2048655 -1.0842022e-19
2.806788 -1.0842022e-19 2.5863717
3.6893488e+19 3.2182693 0
2.7612331 -2 2.583673
-0 3.1672132 0
2.7813933 0 2.5458879
3.6893488e+19 3.217541 -1.0842022e-19
2.7608266 -2 2.5692358
3.6893488e+19 3.1811986 0
2.7908258 -2 2.5427754
-3.6893488e+19 3.2135456 1.0842022e-19
2.7585979 1.0842022e-19 2.552743
3.6893488e+19 3.2045884 2
2.8066013 3.6893488e+19 2.5449471
1.0842022e-19 3.2121079 -2
2.7577956 -2 2.5381088
1.0842022e-19 3.1655993 3.6893488e+19
2.7803047 -0 2.5071456
0 3.2011082 -3.6893488e+19
2.7516592 -0 2.51791
-3.6893488e+19 3.2008905 0
2.751538 0 2.5044756
2 3.160449 -2
2.7768309 1.0842022e-19 2.4586642
1.0842022e-19 3.2036655 -1.0842022e-19
2.7530859 0 2.4853542
-3.6893488e+19 3.193079 -2
2.7988386 -2 2.4686146
-1.0842022e-19 3.2056453 -0
2.7541904 -2 2.46068
2 3.1665359 3.6893488e+19
2.6603427 -3.6893488e+19 2.4056416
3.6893488e+19 3.1959176 -3.6893488e+19
2.7707157 -3.6893488e+19 2.427479
-3.6893488e+19 3.1672006 3.6893488e+19
2.6609976 -2 2.3820095
-3.6893488e+19 3.2004254 -1.0842022e-19
2.7734525 3.6893488e+19 2.4052274
-3.6893488e+19 3.1688416 0
2.6626143 1.0842022e-19 2.359175
-0 3.1921539 3.6893488e+19
2.7684309 -2 2.3717346
-0 3.1691656 -0
2.6629333 3.6893488e+19 2.3351367
-3.6893488e+19 3.1937332 0
2.7693899 2 2.3469601
-2 3.1666284 0
2.660434 -2 2.3089671
-2 3.1623137 -1.0842022e-19
2.750315 -0 2.2981653
-3.6893488e+19 3.1648233 -2
2.6586556 0 2.2836273
-0 3.1627014 -1.0842022e-19
2.7505503 -3.6893488e+19 2.2742293
-0 3.1699851 -0
2.6637406 2 2.2628796
2 3.1650078 -0
2.7519505 2 2.2514327
1.0842022e-19 3.170712 -2
2.6644566 1.0842022e-19 2.2280927
1.0842022e-19 3.1663711 -3.6893488e+19
2.7527781 -3.6893488e+19 2.2057478
-2 3.1554632 -3.6893488e+19
2.7734683 2 2.1742144
-1.0842022e-19 3.2028177 1.0842022e-19
2.7526131 1.0842022e-19 2.1897469
-3.6893488e+19 3.157639 1.0842022e-19
2.774936 0 2.1283486
1.0842022e-19 3.1620481 -0
2.7097378 -3.6893488e+19 2.1022916
3.6893488e+19 3.1593235 -2
2.7760718 0 2.0815983
3.6893488e+19 3.1636593 -3.6893488e+19
2.7115355 1.0842022e-19 2.0556638
-3.6893488e+19 3.1624682 1.0842022e-19
2.778193 3.6893488e+19 2.0354936
-1.0842022e-19 3.1559567 0
2.7029417 1.0842022e-19 2.0028806
-2 3.1643517 3.6893488e+19
2.7794633 -2 1.9879603
3.6893488e+19 3.157768 0
2.7049625 -1.0842022e-19 1.956741
-1.0842022e-19 3.1807203 2
2.7905033 1.0842022e-19 1.9466088
2 3.1733601 -2
2.7855389 3.6893488e+19 1.8933928
1.0842022e-19 3.1580224 2
2.7052462 -1.0842022e-19 1.8496438
2 3.1732314 -0
2.7854521 1.0842022e-19 1.8120247
-0 3.1614006 -0
2.7090154 -3.6893488e+19 1.7562013
3.6893488e+19 3.2859347 0
2.7816834 -1.0842022e-19 1.7304636
2 3.1635828 -3.6893488e+19
2.7510853 -1.0842022e-19 1.5203657
-0 3.1706793 1.0842022e-19
2.6644247 -0 -1.3152508
2 3.1641784 -0
2.751447 -1.0842022e-19 -1.6156116
0 3.1691799 2
2.6629474 0 -1.7162875
3.6893488e+19 3.1662488 -1.0842022e-19
2.7527039 0 -1.7825078
1.0842022e-19 3.1624417 3.6893488e+19
2.6563094 1.0842022e-19 -1.8261818
-0 3.1683884 -2
2.7540028 0 -1.8779334
0 3.1620858 -1.0842022e-19
2.6559587 -1.0842022e-19 -1.8978518
3.6893488e+19 3.1670096 -3.6893488e+19
2.7531657 3.6893488e+19 -1.9261476
1.0842022e-19 3.1620739 -0
2.655947 -3.6893488e+19 -1.9452176
-3.6893488e+19 3.1653419 -0
2.7521534 -0 -1.9738921
-2 3.1621327 3.6893488e+19
2.6560051 -2 -1.9926414
-3.6893488e+19 3.1255581 1.0842022e-19
2.7060018 1.0842022e-19 -1.9962831
-0 2.8421853 -0
2.3817892 -0 -1.9011686
-0 2.7696245 -1.0842022e-19
2.3637013 1.0842022e-19 -1.8790392
2 2.7433646 -0
2.2752328 -0 -1.8716151
3.6893488e+19 2.6958759 3.6893488e+19
2.300725 0 -1.8647306
0 2.6708257 2
2.2195313 2 -1.8598168
-2 2.6270211 2
2.2542853 -1.0842022e-19 -1.8499974
-2 2.6143036 0
2.1564677 -3.6893488e+19 -1.8494779
-1.0842022e-19 2.5628626 2
2.0990729 -1.0842022e-19 -1.8360025
0 2.5310144 1.0842022e-19
2.0635386 -3.6893488e+19 -1.8309116
-3.6893488e+19 2.496465 3.6893488e+19
2.0269625 2 -1.8213826
1.0842022e-19 2.4458163 0
1.9987072 1.0842022e-19 -1.814381
1.0842022e-19 2.4393456 -2
1.9664066 2 -1.8165177
2 3.2596745 -1.0842022e-19
2.7529297 -3.6893488e+19 2.7331069
-2 3.2822051 -1.0842022e-19
2.7748752 -2 2.7540116
-2 3.1824605 0
2.7600739 -3.6893488e+19 2.6383407
-2 3.2806826 3.6893488e+19
2.7733922 3.6893488e+19 2.7384288
-0 3.2164428 -3.6893488e+19
2.7805099 0 2.6546664
2 3.2792003 3.6893488e+19
2.7719483 -1.0842022e-19 2.7191305
0 3.2169309 -1.0842022e-19
2.7808034 -2 2.6409287
1.0842022e-19 3.2718301 2
2.7647696 -0 2.6905186
3.6893488e+19 3.1729097 0
2.7543302 -3.6893488e+19 2.5912805
-2 3.2710478 0
2.7640078 0 2.6731112
1.0842022e-19 3.1771173 0
2.7568605 3.6893488e+19 2.5817935
-3.6893488e+19 3.1754806 0
2.7558763 -3.6893488e+19 2.5677197
0 3.205616 0
2.8046384 2 2.5866306
0 3.2188475 2
2.7589102 1.0842022e-19 2.5838423
-3.6893488e+19 3.2044952 2
2.803889 -3.6893488e+19 2.5720448
-2 3.2124414 -3.6893488e+19
2.7553725 2 2.5655246
2 3.2069478 1.0842022e-19
2.8055289 -1.0842022e-19 2.5599859
0 3.2149243 3.6893488e+19
2.7567437 0 2.5534227
3.6893488e+19 3.2051642 1.0842022e-19
2.8043363 2 2.5450611
-3.6893488e+19 3.212265 2
2.7552752 -1.0842022e-19 2.5379975
-3.6893488e+19 3.206491 -0
2.8052235 0 2.5321987
3.6893488e+19 3.2011976 2
2.748327 -1.0842022e-19 2.5177684
-2 3.2016065 -2
2.7487786 -3.6893488e+19 2.5046942
2 3.1953039 -1.0842022e-19
2.7977433 3.6893488e+19 2.4971759
3.6893488e+19 3.2036667 -0
2.7505269 3.6893488e+19 2.4850028
3.6893488e+19 3.1986153 2
2.7999575 0 2.4740529
-2 3.2029266 -1.0842022e-19
2.7501183 1.0842022e-19 2.4575987
-2 3.2206862 -3.6893488e+19
2.7084606 2 2.458082
3.6893488e+19 3.1927326 -1.0842022e-19
2.7662511 0 2.4240901
-3.6893488e+19 3.2215455 3.6893488e+19
2.7092977 -1.0842022e-19 2.4314935
2 3.1993539 1.0842022e-19
2.7702332 -0 2.4039435
1.0842022e-19 3.2129302 2
2.700906 -1.0842022e-19 2.396728
2 3.2756233 1.0842022e-19
2.8315096 -3.6893488e+19 2.4630861
-1.0842022e-19 3.2127712 0
2.7007513 0 2.3697636
-1.0842022e-19 3.1891086 -2
2.7640717 1.0842022e-19 2.3430724
-0 3.2123473 1.0842022e-19
2.7003384 -3.6893488e+19 2.3426518
2 3.1868501 -2
2.7627134 -0 2.3156588
-1.0842022e-19 3.1660578 1.0842022e-19
2.6552513 1.0842022e-19 2.2842889
-1.0842022e-19 3.1574793 3.6893488e+19
2.7401011 -0 2.2705452
1.0842022e-19 3.2173634 2
2.705224 -1.0842022e-19 2.2923472
2 3.1937816 -1.0842022e-19
2.7668819 -3.6893488e+19 2.2686524
1.0842022e-19 3.220871 1.0842022e-19
2.7086406 3.6893488e+19 2.2673748
3.6893488e+19 3.1646402 2
2.748714 -1.0842022e-19 2.2034943
-3.6893488e+19 3.1901634 -1.0842022e-19
2.7943063 1.0842022e-19 2.2101145
0 3.204771 1.0842022e-19
2.7511368 -2 2.1913226
-0 3.1568437 3.6893488e+19
2.7720277 0 2.1272783
1.0842022e-19 3.1809089 3.6893488e+19
2.725919 -1.0842022e-19 2.1181495
3.6893488e+19 3.1908858 2
2.7947893 3.6893488e+19 2.1068532
0 3.20591 2
2.7517657 -1.0842022e-19 2.0866389
-2 3.1771045 -2
2.7855747 1.0842022e-19 2.0453644
-1.0842022e-19 3.2101641 -3.6893488e+19
2.7541149 -3.6893488e+19 2.0364392
-1.0842022e-19 3.1837623 1.0842022e-19
2.7900264 -3.6893488e+19 1.9988887
0 3.2318614 0
2.7660968 -2 1.9941292
-2 3.2912822 -3.6893488e+19
2.8217077 3.6893488e+19 1.977684
-1.0842022e-19 3.1737325 2
2.7833202 3.6893488e+19 1.8933928
-1.0842022e-19 3.1601562 -3.6893488e+19
2.7029986 -2 1.8506546
1.0842022e-19 3.1731 0
2.7828972 2 1.8118023
-3.6893488e+19 3.1609466 3.6893488e+19
2.7038717 -2 1.7559613
-2 3.2861788 -1.0842022e-19
2.7787457 1.0842022e-19 1.7305126
-3.6893488e+19 3.1649575 -1.0842022e-19
2.7490957 -0 1.5207336
1.0842022e-19 3.2834516 1.0842022e-19
2.7760892 1.0842022e-19 -1.3781078
-0 3.1656435 -0
2.7499206 1.0842022e-19 -1.6162717
-0 3.1670198 2
2.6561882 -0 -1.715035
-2 3.1679249 -0
2.7513323 0 -1.7830169
0 3.1615224 -1.0842022e-19
2.6508334 3.6893488e+19 -1.8256046
3.6893488e+19 3.1686897 -0
2.7517922 2 -1.8779242
2 3.1618948 3.6893488e+19
2.6511962 1.0842022e-19 -1.8976886
3.6893488e+19 3.1692245 3.6893488e+19
2.7521138 -0 -1.9269431
1.0842022e-19 3.1622169 0
2.65151 -2 -1.9451602
-0 3.1657605 0
2.7500308 0 -1.9739405
3.6893488e+19 3.1624579 1.0842022e-19
2.6517448 2 -1.9926772
-1.0842022e-19 3.1258256 -1.0842022e-19
2.7020292 -2 -1.9962634
0 2.8902607 2
2.5109398 -3.6893488e+19 -1.9135988
1.0842022e-19 2.8436975 0
2.3795981 0 -1.9017264
1.0842022e-19 2.7705719 -1.0842022e-19
2.3618248 -1.0842022e-19 -1.8793787
1.0842022e-19 2.7510111 0
2.2772303 3.6893488e+19 -1.8753802
-3.6893488e+19 2.6962681 -3.6893488e+19
2.298388 0 -1.8647306
3.6893488e+19 2.6706507 3.6893488e+19
2.2145894 0 -1.8595487
1.0842022e-19 2.627353 3.6893488e+19
2.2523093 -1.0842022e-19 -1.8499974
-3.6893488e+19 2.6156499 3.6893488e+19
2.1538436 -2 -1.8501438
-0 2.56285 -1.0842022e-19
2.0955284 -2 -1.8358406
0 2.2964997 0
1.9482485 0 -1.7118696
-0 2.5284581 2
2.0575442 -2 -1.8288903
-1.0842022e-19 2.4975457 -1.0842022e-19
2.0247581 -1.0842022e-19 -1.8216671
-0 2.2944689 0
1.9468907 0 -1.7453451
-1.0842022e-19 2.4463801 -3.6893488e+19
1.9965031 -3.6893488e+19 -1.8144827
-3.6893488e+19 2.4398689 2
1.964222 0 -1.816623
-1.0842022e-19 2.4047766 1.0842022e-19
1.9471315 3.6893488e+19 -1.8130922
3.6893488e+19 2.3416901 -2
1.9164075 -1.0842022e-19 -1.803672
-0 2.299202 -1.0842022e-19
1.8957152 2 -1.7989376
0 2.2683415 1.0842022e-19
1.8806858 2 -1.7967386
-1.0842022e-19 2.2175124 0
1.9062964 -0 -1.7923737
-3.6893488e+19 2.1762533 -3.6893488e+19
1.8925028 0 -1.7905277
-3.6893488e+19 2.1458151 -3.6893488e+19
1.8823268 0 -1.7907715
2 2.1108246 3.6893488e+19
1.866258 0 -1.7871755
2 3.2596745 -1.0842022e-19
2.7529297 -3.6893488e+19 2.7331069
-2 3.2822051 -1.0842022e-19
2.7748752 -2 2.7540116
-2 3.1824605 0
2.7600739 -3.6893488e+19 2.6383407
-2 3.2806826 3.6893488e+19
2.7733922 3.6893488e+19 2.7384288
0 3.1854424 0
2.761867 -0 2.6277716
2 3.2792003 3.6893488e+19
