# .PCD v0.7 - Point Cloud Data file format
VERSION 0.7
FIELDS x y z
SIZE 4 4 4
TYPE F F F
COUNT 1 1 1
WIDTH 1696
HEIGHT 1
VIEWPOINT 0 0 0 1 0 0 0
POINTS 1696
DATA ascii
-3.6893488e+19 3.2584794 -2
-2.8040121 -1.0842022e-19 2.5161891
-1.0842022e-19 3.2743955 3.6893488e+19
-2.8872819 2 2.5292518
-0 3.2728407 -1.0842022e-19
-2.9229918 2 2.5225539
2 3.2677455 -3.6893488e+19
-2.8507831 -2 2.504462
3.6893488e+19 3.266495 -3.6893488e+19
-2.9131536 -1.0842022e-19 2.5000706
2 3.2678168 -0
-2.8508766 -1.0842022e-19 2.4772537
1.0842022e-19 3.2695324 -1.0842022e-19
-2.9178627 -3.6893488e+19 2.4732351
-1.0842022e-19 3.2696333 0
-2.8532567 -2 2.4485099
-0 3.2658496 0
-2.8482995 1.0842022e-19 2.4107337
-2 3.2412512 0
-2.8807995 -3.6893488e+19 2.3719616
2 3.2518389 -0
-2.8299434 0 2.3592963
2 3.2333517 2
-2.874676 3.6893488e+19 2.3368657
2 3.2532103 2
-2.8317401 1.0842022e-19 2.3313408
2 3.2364323 1.0842022e-19
-2.877064 -2 2.3097398
2 3.2524378 -1.0842022e-19
-2.8307281 -3.6893488e+19 2.3005354
1.0842022e-19 3.2356837 0
-2.8764837 3.6893488e+19 2.2800715
1.0842022e-19 3.2545271 1.0842022e-19
-2.8334653 -2 2.2730114
1.0842022e-19 3.254451 -0
-2.799274 -2 2.2555053
2 3.2740219 1.0842022e-19
-2.8867545 0 2.2636745
-3.6893488e+19 3.2544916 3.6893488e+19
-2.7993219 -2 2.2017338
3.6893488e+19 3.24827 -3.6893488e+19
-2.851629 -2 2.1703477
0 3.2530975 3.6893488e+19
-2.797682 0 2.1402578
2 3.2438965 -0
-2.8485427 -0 2.1081221
-0 3.2539368 1.0842022e-19
-2.7986693 0 2.0823932
2 3.2440317 -1.0842022e-19
-2.8486381 -0 2.0496914
-2 3.2690575 2
-2.8164537 -2 2.0395505
-2 3.2694881 -2
-2.8803556 2 2.0131471
-3.6893488e+19 3.266474 -2
-2.8134151 3.6893488e+19 1.9747527
0 3.2397811 2
-2.8456385 3.6893488e+19 1.9311553
-2 3.264746 -2
-2.8113825 -3.6893488e+19 1.9117132
3.6893488e+19 3.2423482 -3.6893488e+19
-2.84745 -1.0842022e-19 1.8727144
-2 3.2580431 3.6893488e+19
-2.803499 -0 1.8201998
3.6893488e+19 3.3176544 0
-2.9483376 1.0842022e-19 1.7943223
-3.6893488e+19 3.2217686 1.0842022e-19
-2.8656974 -0 1.6414692
-3.6893488e+19 3.2485929 3.6893488e+19
-2.8266125 1.0842022e-19 1.3619826
2 3.2260258 -3.6893488e+19
-2.8689971 0 -1.5451003
-1.0842022e-19 3.2476633 1.0842022e-19
-2.8260036 -1.0842022e-19 -1.7040508
-1.0842022e-19 3.2275498 0
-2.8701787 -0 -1.7819057
1.0842022e-19 3.2443933 -0
-2.8238614 0 -1.8424293
-1.0842022e-19 3.2270985 -1.0842022e-19
-2.8698287 -3.6893488e+19 -1.8854656
-0 3.2454646 0
-2.8245633 -1.0842022e-19 -1.9171122
0 3.2254007 2
-2.8685126 1.0842022e-19 -1.9418695
2 3.2461553 -1.0842022e-19
-2.8250155 0 -1.9756161
3.6893488e+19 3.1823816 1.0842022e-19
-2.835166 2 -1.9762726
2 3.2075245 -0
-2.7997098 1.0842022e-19 -2.0117931
1.0842022e-19 2.8817968 2
-2.5459545 -2 -1.8956364
3.6893488e+19 2.8548944 0
-2.4649603 -1.0842022e-19 -1.8932581
-2 2.7994719 0
-2.3522258 -1.0842022e-19 -1.8784723
2 2.7634118 1.0842022e-19
-2.3717794 0 -1.8705487
3.6893488e+19 2.7426436 -3.6893488e+19
-2.2897127 -0 -1.8650632
-0 2.6984882 -3.6893488e+19
-2.316498 -0 -1.8606534
-0 2.6738615 1.0842022e-19
-2.2485273 -3.6893488e+19 -1.8562819
0 2.6313705 -0
-2.2691331 -1.0842022e-19 -1.8480352
3.6893488e+19 2.6146903 2
-2.1789327 3.6893488e+19 -1.8452929
-3.6893488e+19 2.5888638 2
-2.2282727 -2 -1.8433235
0 2.5768402 2
-2.1344149 2 -1.84154
3.6893488e+19 2.5540216 1.0842022e-19
-2.1790962 2 -1.8389665
0 2.5387769 1.0842022e-19
-2.0896466 2 -1.8332225
0 2.5186176 -2
-2.1291268 -2 -1.8300556
1.0842022e-19 2.5161481 -3.6893488e+19
-2.0630314 -2 -1.8325039
-3.6893488e+19 2.4965248 -1.0842022e-19
-2.1003976 -0 -1.8293259
-1.0842022e-19 2.4849234 3.6893488e+19
-2.0351727 3.6893488e+19 -1.8282651
0 2.4490449 3.6893488e+19
-2.066891 -0 -1.8232008
2 2.4280729 2
-2.081826 1.0842022e-19 -1.8225644
1.0842022e-19 3.2544386 1.0842022e-19
-2.8973336 -0 2.6919484
-0 3.2906775 -1.0842022e-19
-2.9539247 -3.6893488e+19 2.7368066
-3.6893488e+19 3.2776322 0
-2.8667519 -3.6893488e+19 2.6976709
-3.6893488e+19 3.2747128 -0
-2.8628953 -3.6893488e+19 2.6762619
0 3.2757165 -1.0842022e-19
-2.8642209 0 2.6610963
3.6893488e+19 3.2805753 2
-2.8329902 3.6893488e+19 2.6559448
1.0842022e-19 3.314405 1.0842022e-19
-2.9472194 -1.0842022e-19 2.7032752
-3.6893488e+19 3.2820158 -0
-2.8346999 -1.0842022e-19 2.641149
3.6893488e+19 3.2725425 2
-2.8876729 0 2.6263435
0 3.2785487 -2
-2.8305848 0 2.6197095
-1.0842022e-19 3.2720883 1.0842022e-19
-2.887027 -1.0842022e-19 2.6092055
-0 3.2767329 -1.0842022e-19
-2.8284299 -2 2.6008105
-1.0842022e-19 3.3076761 -1.0842022e-19
-2.9376481 -3.6893488e+19 2.6375542
3.6893488e+19 3.276026 -1.0842022e-19
-2.8275909 -1.0842022e-19 2.5835056
1.0842022e-19 3.2732058 2
-2.8886163 -2 2.5776229
2 3.2635508 -0
-2.8127851 2 2.552794
1.0842022e-19 3.2724905 -3.6893488e+19
-2.8875988 -0 2.5603323
-0 3.276794 -0
-2.8285024 0 2.5516195
-2 3.2712927 -0
-2.8858953 -1.0842022e-19 2.542635
1.0842022e-19 3.2730105 -0
-2.824012 -0 2.531357
-3.6893488e+19 3.2741427 -0
-2.8899493 -3.6893488e+19 2.5292368
-0 3.2730145 2
-2.926342 2 2.5229876
1.0842022e-19 3.268208 -2
-2.8543022 -0 2.5051072
1.0842022e-19 3.2649245 1.0842022e-19
-2.9137084 2 2.497668
-3.6893488e+19 3.2690763 -2
-2.8554494 -0 2.4798851
1.0842022e-19 3.2692757 -0
-2.9205031 -3.6893488e+19 2.4732351
-0 3.2681906 -2
-2.8542793 -2 2.4464698
-0 3.269635 -1.0842022e-19
-2.9210644 -2 2.4412696
-2 3.2654285 3.6893488e+19
-2.8506308 -2 2.4104137
3.6893488e+19 3.2670963 2
-2.9171 0 2.4048615
-2 3.2686374 -1.0842022e-19
-2.8548696 3.6893488e+19 2.3835716
2 3.2666883 2
-2.9164629 -1.0842022e-19 2.3720844
3.6893488e+19 3.2693074 1.0842022e-19
-2.8557546 -0 2.3526888
-0 3.2664554 0
-2.9160993 -0 2.3396592
-1.0842022e-19 3.2526784 -2
-2.8337877 -2 2.3010645
-2 3.2662237 3.6893488e+19
-2.9157374 -2 2.3073308
-0 3.2546625 0
-2.8364089 1.0842022e-19 2.2733772
-3.6893488e+19 3.2551041 0
-2.8027608 -3.6893488e+19 2.2563467
-2 3.2741809 -3.6893488e+19
-2.8900034 1.0842022e-19 2.2640567
-1.0842022e-19 3.2554593 0
-2.8031824 1.0842022e-19 2.2037799
2 3.2720037 -0
-2.8869064 -3.6893488e+19 2.2093308
3.6893488e+19 3.2533932 -2
-2.80073 0 2.1409967
-0 3.2681053 -2
-2.8813612 -0 2.1391416
-0 3.2700832 2
-2.820538 1.0842022e-19 2.1037841
2 3.3131547 1.0842022e-19
-2.945441 3.6893488e+19 2.1302643
1.0842022e-19 3.3143141 1.0842022e-19
-2.9470901 3.6893488e+19 2.0571847
1.0842022e-19 3.2659819 2
-2.8156705 -3.6893488e+19 1.9744998
-1.0842022e-19 3.3146932 -1.0842022e-19
-2.9476295 -0 1.9829934
-0 3.2660372 0
-2.8157363 -2 1.9126196
2 3.3122311 -0
-2.9441271 -1.0842022e-19 1.9072287
3.6893488e+19 3.2642074 1.0842022e-19
-2.8135645 3.6893488e+19 1.8250076
-2 3.3106952 0
-2.9419427 1.0842022e-19 1.7907566
0 3.314606 -0
-2.9912913 3.6893488e+19 1.6888616
0 3.2475979 3.6893488e+19
-2.8286629 0 1.3617003
3.6893488e+19 3.3153355 -1.0842022e-19
-2.9924307 -3.6893488e+19 -1.6005752
1.0842022e-19 3.2456305 0
-2.8273635 -2 -1.7033811
-1.0842022e-19 3.2439654 3.6893488e+19
-2.8262637 -1.0842022e-19 -1.8424162
-2 3.2239661 -3.6893488e+19
-2.8700747 -2 -1.8847046
-0 3.2440567 3.6893488e+19
-2.826324 2 -1.9167718
3.6893488e+19 3.2832224 3.6893488e+19
-2.9422827 -3.6893488e+19 -1.9788325
-2 3.2456071 -2
-2.827348 -1.0842022e-19 -1.9755485
1.0842022e-19 3.1814752 3.6893488e+19
-2.8368976 -1.0842022e-19 -1.9760134
0 3.2042201 1.0842022e-19
-2.8000119 1.0842022e-19 -2.0101118
-0 2.882829 -2
-2.5489144 -2 -1.8961694
1.0842022e-19 2.8514075 3.6893488e+19
-2.4642086 -0 -1.8919649
0 2.7993152 2
-2.3552308 0 -1.8784981
3.6893488e+19 2.7641828 -1.0842022e-19
-2.3757818 1.0842022e-19 -1.8714813
0 2.7419283 -3.6893488e+19
-2.291913 2 -1.8648882
0 2.6965711 -2
-2.3176081 0 -1.8598498
-2 2.6755877 2
-2.2525463 -2 -1.857392
-0 2.6333895 -3.6893488e+19
-2.2726724 0 -1.8494108
-0 2.6155021 3.6893488e+19
-2.1837823 1.0842022e-19 -1.8459432
-2 2.5885699 -0
-2.2315924 -2 -1.8433235
0 2.5763648 0
-2.1373336 3.6893488e+19 -1.8413815
1.0842022e-19 2.5537579 -1.0842022e-19
-2.1820745 2 -1.8389665
-2 2.5385678 1.0842022e-19
-2.0924759 2 -1.8332225
-0 2.5187364 -3.6893488e+19
-2.1322589 2 -1.8303245
-0 2.5159554 0
-2.0656393 -2 -1.8325039
1.0842022e-19 2.4960942 -3.6893488e+19
-2.1028297 -0 -1.8293259
2 2.4836187 0
-2.0369823 -3.6893488e+19 -1.8278649
3.6893488e+19 2.448421 2
-2.068924 2 -1.8230973
-3.6893488e+19 2.4239602 1.0842022e-19
-2.0810301 -0 -1.8208529
1.0842022e-19 2.3863821 -2
-2.0516887 0 -1.8152032
-3.6893488e+19 2.3326027 -2
-2.0096977 -3.6893488e+19 -1.808937
-3.6893488e+19 2.293704 2
-1.9793255 2 -1.8053336
1.0842022e-19 2.2592721 -1.0842022e-19
-1.9524407 -3.6893488e+19 -1.8000644
1.0842022e-19 2.2309473 -2
-1.8926984 1.0842022e-19 -1.7971379
2 2.1929913 2
-1.8814368 -2 -1.7968495
-3.6893488e+19 2.1556096 0
-1.8656913 -2 -1.7945861
-3.6893488e+19 2.1197574 1.0842022e-19
-1.8444164 -0 -1.790815
1.0842022e-19 3.2544386 1.0842022e-19
-2.8973336 -0 2.6919484
-1.0842022e-19 3.2560768 -1.0842022e-19
-2.8998919 0 2.6788599
-3.6893488e+19 3.2776322 0
-2.8667519 -3.6893488e+19 2.6976709
-3.6893488e+19 3.2747128 -0
-2.8628953 -3.6893488e+19 2.6762619
0 3.2757165 -1.0842022e-19
-2.8642209 0 2.6610963
3.6893488e+19 3.2805753 2
-2.8329902 3.6893488e+19 2.6559448
1.0842022e-19 3.314405 1.0842022e-19
-2.9472194 -1.0842022e-19 2.7032752
-3.6893488e+19 3.2820158 -0
-2.8346999 -1.0842022e-19 2.641149
3.6893488e+19 3.2725425 2
-2.8876729 0 2.6263435
0 3.2643616 -1.0842022e-19
-2.8137474 0 2.6008794
-1.0842022e-19 3.2720883 1.0842022e-19
-2.887027 -1.0842022e-19 2.6092055
-0 3.2767329 -1.0842022e-19
-2.8284299 -2 2.6008105
2 3.2720709 -2
-2.887002 3.6893488e+19 2.5927052
3.6893488e+19 3.276026 -1.0842022e-19
-2.8275909 -1.0842022e-19 2.5835056
1.0842022e-19 3.2732058 2
-2.8886163 -2 2.5776229
2 3.2635508 -0
-2.8127851 2 2.552794
1.0842022e-19 3.2724905 -3.6893488e+19
-2.8875988 -0 2.5603323
3.6893488e+19 3.2591035 1.0842022e-19
-2.8075073 0 2.5323424
-2 3.2712927 -0
-2.8858953 -1.0842022e-19 2.542635
-0 3.2576234 -0
-2.8057506 -3.6893488e+19 2.5154996
-3.6893488e+19 3.2741427 -0
-2.8899493 -3.6893488e+19 2.5292368
-0 3.2730145 2
-2.926342 2 2.5229876
1.0842022e-19 3.268208 -2
-2.8543022 -0 2.5051072
1.0842022e-19 3.2649245 1.0842022e-19
-2.9137084 2 2.497668
-3.6893488e+19 3.2690763 -2
-2.8554494 -0 2.4798851
1.0842022e-19 3.2692757 -0
-2.9205031 -3.6893488e+19 2.4732351
-0 3.2681906 -2
-2.8542793 -2 2.4464698
-0 3.269635 -1.0842022e-19
-2.9210644 -2 2.4412696
-2 3.2654285 3.6893488e+19
-2.8506308 -2 2.4104137
0 3.2318232 -1.0842022e-19
-2.8762095 -1.0842022e-19 2.3651707
-2 3.2686374 -1.0842022e-19
-2.8548696 3.6893488e+19 2.3835716
-3.6893488e+19 3.2342257 -1.0842022e-19
-2.8780856 -0 2.3377967
-1.0842022e-19 3.2601953 3.6893488e+19
-2.8437176 -3.6893488e+19 2.3407555
3.6893488e+19 3.2336464 -2
-2.8776331 1.0842022e-19 2.3082597
-1.0842022e-19 3.2526784 -2
-2.8337877 -2 2.3010645
0 3.2352791 -0
-2.8789079 -3.6893488e+19 2.2801049
-0 3.2546625 0
-2.8364089 1.0842022e-19 2.2733772
-3.6893488e+19 3.2551041 0
-2.8027608 -3.6893488e+19 2.2563467
-1.0842022e-19 3.2467711 -0
-2.8533113 -2 2.2284274
-1.0842022e-19 3.2554593 0
-2.8031824 1.0842022e-19 2.2037799
2 3.2460439 0
-2.8527942 -2 2.168833
3.6893488e+19 3.2533932 -2
-2.80073 0 2.1409967
-2 3.2416735 0
-2.8496859 3.6893488e+19 2.1068199
-0 3.2550104 0
-2.8026495 -3.6893488e+19 2.0840399
2 3.2683258 1.0842022e-19
-2.881675 1.0842022e-19 2.0758286
-0 3.2695487 1.0842022e-19
-2.8834145 -1.0842022e-19 2.0134346
1.0842022e-19 3.2659819 2
-2.8156705 -3.6893488e+19 1.9744998
1.0842022e-19 3.2404454 1.0842022e-19
-2.8488123 -1.0842022e-19 1.9315585
-0 3.2660372 0
-2.8157363 -2 1.9126196
-2 3.2403901 -1.0842022e-19
-2.848773 -2 1.8719435
3.6893488e+19 3.2642074 1.0842022e-19
-2.8135645 3.6893488e+19 1.8250076
-0 3.2457581 -0
-2.8525908 0 1.757244
-0 3.2218142 1.0842022e-19
-2.8683946 -0 1.6416178
0 3.2475979 3.6893488e+19
-2.8286629 0 1.3617003
3.6893488e+19 3.2240877 -2
-2.8701696 -1.0842022e-19 -1.5445693
1.0842022e-19 3.2456305 0
-2.8273635 -2 -1.7033811
-1.0842022e-19 3.2439654 3.6893488e+19
-2.8262637 -1.0842022e-19 -1.8424162
-2 3.2239661 -3.6893488e+19
-2.8700747 -2 -1.8847046
-0 3.2440567 3.6893488e+19
-2.826324 2 -1.9167718
1.0842022e-19 3.2198839 -0
-2.8668873 -1.0842022e-19 -1.9398237
3.6893488e+19 3.2146392 -3.6893488e+19
-2.8068936 -0 -1.9614551
1.0842022e-19 3.1814752 3.6893488e+19
-2.8368976 -1.0842022e-19 -1.9760134
0 3.2042201 1.0842022e-19
-2.8000119 1.0842022e-19 -2.0101118
-0 2.882829 -2
-2.5489144 -2 -1.8961694
1.0842022e-19 2.8514075 3.6893488e+19
-2.4642086 -0 -1.8919649
0 2.7993152 2
-2.3552308 0 -1.8784981
3.6893488e+19 2.7641828 -1.0842022e-19
-2.3757818 1.0842022e-19 -1.8714813
0 2.7419283 -3.6893488e+19
-2.291913 2 -1.8648882
0 2.6965711 -2
-2.3176081 0 -1.8598498
-2 2.6755877 2
-2.2525463 -2 -1.857392
-0 2.6333895 -3.6893488e+19
-2.2726724 0 -1.8494108
-0 2.6155021 3.6893488e+19
-2.1837823 1.0842022e-19 -1.8459432
-2 2.5885699 -0
-2.2315924 -2 -1.8433235
0 2.5763648 0
-2.1373336 3.6893488e+19 -1.8413815
1.0842022e-19 2.5537579 -1.0842022e-19
-2.1820745 2 -1.8389665
-2 2.5385678 1.0842022e-19
-2.0924759 2 -1.8332225
-0 2.5187364 -3.6893488e+19
-2.1322589 2 -1.8303245
-0 2.5159554 0
-2.0656393 -2 -1.8325039
1.0842022e-19 2.4960942 -3.6893488e+19
-2.1028297 -0 -1.8293259
2 2.4836187 0
-2.0369823 -3.6893488e+19 -1.8278649
3.6893488e+19 2.448421 2
-2.068924 2 -1.8230973
-3.6893488e+19 2.4239602 1.0842022e-19
-2.0810301 -0 -1.8208529
1.0842022e-19 2.3863821 -2
-2.0516887 0 -1.8152032
-3.6893488e+19 2.3326027 -2
-2.0096977 -3.6893488e+19 -1.808937
-3.6893488e+19 2.293704 2
-1.9793255 2 -1.8053336
1.0842022e-19 2.2592721 -1.0842022e-19
-1.9524407 -3.6893488e+19 -1.8000644
1.0842022e-19 2.2309473 -2
-1.8926984 1.0842022e-19 -1.7971379
2 2.1929913 2
-1.8814368 -2 -1.7968495
-3.6893488e+19 2.1556096 0
-1.8656913 -2 -1.7945861
-3.6893488e+19 2.1197574 1.0842022e-19
-1.8444164 -0 -1.790815
3.6893488e+19 3.2895637 -1.0842022e-19
-2.9556923 -0 2.7517383
2 3.2909639 -3.6893488e+19
-2.9578958 2 2.7377877
-3.6893488e+19 3.2743571 -2
-2.8656228 0 2.6760809
1.0842022e-19 3.2754619 3.6893488e+19
-2.867095 -0 2.6610744
-3.6893488e+19 3.2803557 1.0842022e-19
-2.8359349 3.6893488e+19 2.6559448
-2 3.2815294 0
-2.8373413 2 2.6407802
1.0842022e-19 3.3105259 -0
-2.9453776 -1.0842022e-19 2.6791952
0 3.2783308 -0
-2.8335083 0 2.6197095
2 3.3110738 -2
-2.9461634 1.0842022e-19 2.6610584
-3.6893488e+19 3.2761316 -3.6893488e+19
-2.8308733 -0 2.6003225
-2 3.2688189 0
-2.8855588 3.6893488e+19 2.5889266
2 3.2757657 -3.6893488e+19
-2.8304346 2 2.583452
1.0842022e-19 3.2728624 2
-2.8913581 -2 2.577518
-3.6893488e+19 3.2749844 -3.6893488e+19
-2.8294985 2 2.5661776
-0 3.2721622 3.6893488e+19
-2.8903539 -3.6893488e+19 2.5602491
1.0842022e-19 3.2762659 -1.0842022e-19
-2.8310339 3.6893488e+19 2.5512795
-3.6893488e+19 3.2710531 -2
-2.8887632 -3.6893488e+19 2.5426507
3.6893488e+19 3.2745943 0
-2.8290312 1.0842022e-19 2.533211
-1.0842022e-19 3.2734771 -0
-2.8922398 2 2.52882
3.6893488e+19 3.272315 2
-2.9285479 -3.6893488e+19 2.5225682
2 3.2671497 0
-2.8560178 -2 2.5043218
-0 3.2613854 -3.6893488e+19
-2.9113476 -3.6893488e+19 2.4915252
-0 3.2689455 -2
-2.8584108 1.0842022e-19 2.4800694
-1.0842022e-19 3.2689264 2
-2.9232152 2 2.4731081
2 3.2682228 1.0842022e-19
-2.8574479 -0 2.4469123
-2 3.268055 -1.0842022e-19
-2.9218438 -0 2.4391356
0 3.270453 -0
-2.8604198 -1.0842022e-19 2.4185467
0 3.2672563 -0
-2.9205866 3.6893488e+19 2.4055207
2 3.2715499 2
-2.8618817 -2 2.3880677
2 3.2663417 0
-2.9191475 1.0842022e-19 2.3719833
2 3.2731225 -0
-2.8639774 -2 2.3579967
-1.0842022e-19 3.2672834 -2
-2.9206295 -1.0842022e-19 2.3410654
-1.0842022e-19 3.2513051 3.6893488e+19
-2.8349025 -2 2.2996891
2 3.2642672 1.0842022e-19
-2.9158828 0 2.3053863
-0 3.2660654 3.6893488e+19
-2.8188114 3.6893488e+19 2.2675707
-3.6893488e+19 3.2726464 -3.6893488e+19
-2.8910484 -2 2.262825
0 3.254318 -2
-2.8047349 0 2.202106
-1.0842022e-19 3.2714403 -0
-2.8893185 -3.6893488e+19 2.2088094
-3.6893488e+19 3.2522678 1.0842022e-19
-2.8022788 -2 2.139565
3.6893488e+19 3.2425942 -2
-2.8532562 -3.6893488e+19 2.1078231
1.0842022e-19 3.3155365 2
-2.9525642 1.0842022e-19 2.1335158
-1.0842022e-19 3.3158426 3.6893488e+19
-2.9530034 -0 2.0589681
2 3.3158395 3.6893488e+19
-2.9529989 -3.6893488e+19 1.9840612
-3.6893488e+19 3.2661881 0
-2.8189588 -3.6893488e+19 1.9128393
-2 3.3149385 -3.6893488e+19
-2.9517066 -1.0842022e-19 1.9087409
-1.0842022e-19 3.265662 0
-2.8183281 -0 1.8262662
0 3.3148754 -3.6893488e+19
-2.9516158 -0 1.7931441
-1.0842022e-19 3.3177719 1.0842022e-19
-3.0000422 3.6893488e+19 1.6909586
-2 3.2433994 -3.6893488e+19
-2.8287649 0 1.3599076
-2 3.3188353 -1.0842022e-19
-3.0008788 -2 -1.6033136
3.6893488e+19 3.2478673 -0
-2.831742 -0 -1.704477
0 3.2197418 -2
-2.869621 1.0842022e-19 -1.7796464
-2 3.2438319 -0
-2.8290532 1.0842022e-19 -1.8425468
-1.0842022e-19 3.2261539 0
-2.8746667 -3.6893488e+19 -1.8854656
3.6893488e+19 3.2439232 3.6893488e+19
-2.829114 3.6893488e+19 -1.9168719
-1.0842022e-19 3.2175691 -0
-2.8679116 3.6893488e+19 -1.9390831
-1.0842022e-19 3.2456501 -3.6893488e+19
-2.8302646 -0 -1.9757645
-1.0842022e-19 3.1805954 0
-2.8388186 0 -1.9757849
3.6893488e+19 3.2029357 -1.0842022e-19
-2.8018029 1.0842022e-19 -2.0096023
-0 2.8432243 0
-2.4573989 -2 -1.8887798
-0 2.7952542 -2
-2.3537867 1.0842022e-19 -1.8768539
-2 2.7641702 -1.0842022e-19
-2.3788912 -3.6893488e+19 -1.8717006
-3.6893488e+19 2.7408261 -3.6893488e+19
-2.2940648 1.0842022e-19 -1.8645382
-0 2.6988537 -1.0842022e-19
-2.3218884 2 -1.8612716
1.0842022e-19 2.6751354 1.0842022e-19
-2.2547081 -3.6893488e+19 -1.8573266
2 2.634439 -1.0842022e-19
-2.2756944 0 -1.8502361
-3.6893488e+19 2.6158133 0
-2.188334 -1.0842022e-19 -1.8463044
1.0842022e-19 2.5880182 -1.0842022e-19
-2.2348089 1.0842022e-19 -1.8431721
-3.6893488e+19 2.5783772 0
-2.1434765 0 -1.8428864
3.6893488e+19 2.5549977 -0
-2.1874487 2 -1.8400413
2 2.539058 3.6893488e+19
-2.0963621 2 -1.8337394
2 2.5188363 -3.6893488e+19
-2.1355834 -1.0842022e-19 -1.8305933
-3.6893488e+19 2.5156281 1.0842022e-19
-2.0682876 -3.6893488e+19 -1.8324108
0 2.4963322 -2
-2.1059368 -1.0842022e-19 -1.8296156
3.6893488e+19 2.4825256 2
-2.0390918 -0 -1.8275648
1.0842022e-19 2.448235 3.6893488e+19
-2.0714447 -0 -1.8232008
1.0842022e-19 2.4228306 1.0842022e-19
-2.0827086 -1.0842022e-19 -1.820532
-3.6893488e+19 3.2543051 -2
-2.9002054 0 2.6921716
1.0842022e-19 3.2574406 -0
-2.9051394 -3.6893488e+19 2.6815872
-3.6893488e+19 3.2743571 -2
-2.8656228 0 2.6760809
1.0842022e-19 3.2754619 3.6893488e+19
-2.867095 -0 2.6610744
-3.6893488e+19 3.2803557 1.0842022e-19
-2.8359349 3.6893488e+19 2.6559448
-2 3.2633681 -3.6893488e+19
-2.8155794 1.0842022e-19 2.6155713
1.0842022e-19 3.3105259 -0
-2.9453776 -1.0842022e-19 2.6791952
-2 3.2649233 0
-2.8174431 -0 2.6019003
1.0842022e-19 3.2719934 2
-2.8901117 -1.0842022e-19 2.6094167
-3.6893488e+19 3.2761316 -3.6893488e+19
-2.8308733 -0 2.6003225
-2 3.2688189 0
-2.8855588 3.6893488e+19 2.5889266
2 3.2757657 -3.6893488e+19
-2.8304346 2 2.583452
1.0842022e-19 3.2728624 2
-2.8913581 -2 2.577518
1.0842022e-19 3.2616987 0
-2.8135791 -2 2.5509014
-0 3.2721622 3.6893488e+19
-2.8903539 -3.6893488e+19 2.5602491
1.0842022e-19 3.2762659 -1.0842022e-19
-2.8310339 3.6893488e+19 2.5512795
-3.6893488e+19 3.2710531 -2
-2.8887632 -3.6893488e+19 2.5426507
-3.6893488e+19 3.2571099 2
-2.8080807 3.6893488e+19 2.515178
-1.0842022e-19 3.2734771 -0
-2.8922398 2 2.52882
3.6893488e+19 3.272315 2
-2.9285479 -3.6893488e+19 2.5225682
2 3.2671497 0
-2.8560178 -2 2.5043218
-0 3.2613854 -3.6893488e+19
-2.9113476 -3.6893488e+19 2.4915252
-0 3.2689455 -2
-2.8584108 1.0842022e-19 2.4800694
-1.0842022e-19 3.2689264 2
-2.9232152 2 2.4731081
2 3.2682228 1.0842022e-19
-2.8574479 -0 2.4469123
-2 3.268055 -1.0842022e-19
-2.9218438 -0 2.4391356
0 3.270453 -0
-2.8604198 -1.0842022e-19 2.4185467
2 3.2339058 -2
-2.8807662 -0 2.3671267
2 3.2715499 2
-2.8618817 -2 2.3880677
-0 3.2304237 -2
-2.8780262 3.6893488e+19 2.3354893
0 3.2528896 3.6893488e+19
-2.837014 -3.6893488e+19 2.3314762
3.6893488e+19 3.2334101 -3.6893488e+19
-2.8803761 -1.0842022e-19 2.3084261
-1.0842022e-19 3.2513051 3.6893488e+19
-2.8349025 -2 2.2996891
3.6893488e+19 3.2351573 0
-2.8817511 0 2.280323
-2 3.2532163 -1.0842022e-19
-2.8034151 -0 2.2546489
2 3.2430458 0
-2.8535802 0 2.2252851
0 3.254318 -2
-2.8047349 0 2.202106
-1.0842022e-19 3.2714403 -0
-2.8893185 -3.6893488e+19 2.2088094
-3.6893488e+19 3.2522678 1.0842022e-19
-2.8022788 -2 2.139565
3.6893488e+19 3.2425942 -2
-2.8532562 -3.6893488e+19 2.1078231
1.0842022e-19 3.3155365 2
-2.9525642 1.0842022e-19 2.1335158
-1.0842022e-19 3.3158426 3.6893488e+19
-2.9530034 -0 2.0589681
2 3.3158395 3.6893488e+19
-2.9529989 -3.6893488e+19 1.9840612
-3.6893488e+19 3.2661881 0
-2.8189588 -3.6893488e+19 1.9128393
1.0842022e-19 3.2381072 1.0842022e-19
-2.8500385 2 1.8710244
-1.0842022e-19 3.265662 0
-2.8183281 -0 1.8262662
2 3.2441759 1.0842022e-19
-2.8543906 -0 1.7569455
0 3.2191482 3.6893488e+19
-2.869154 3.6893488e+19 1.6409625
-2 3.2433994 -3.6893488e+19
-2.8287649 0 1.3599076
3.6893488e+19 3.2218263 -0
-2.8712614 -2 -1.5439341
3.6893488e+19 3.2478673 -0
-2.831742 -0 -1.704477
0 3.2197418 -2
-2.869621 1.0842022e-19 -1.7796464
-2 3.2438319 -0
-2.8290532 1.0842022e-19 -1.8425468
-1.0842022e-19 3.2261539 0
-2.8746667 -3.6893488e+19 -1.8854656
3.6893488e+19 3.2439232 3.6893488e+19
-2.829114 3.6893488e+19 -1.9168719
-1.0842022e-19 3.2175691 -0
-2.8679116 3.6893488e+19 -1.9390831
-3.6893488e+19 3.2116859 -3.6893488e+19
-2.8076334 -3.6893488e+19 -1.9602941
-1.0842022e-19 3.1805954 0
-2.8388186 0 -1.9757849
3.6893488e+19 3.2029357 -1.0842022e-19
-2.8018029 1.0842022e-19 -2.0096023
-0 2.8432243 0
-2.4573989 -2 -1.8887798
-0 2.7952542 -2
-2.3537867 1.0842022e-19 -1.8768539
-2 2.7641702 -1.0842022e-19
-2.3788912 -3.6893488e+19 -1.8717006
-3.6893488e+19 2.7408261 -3.6893488e+19
-2.2940648 1.0842022e-19 -1.8645382
-0 2.6988537 -1.0842022e-19
-2.3218884 2 -1.8612716
1.0842022e-19 2.6751354 1.0842022e-19
-2.2547081 -3.6893488e+19 -1.8573266
2 2.634439 -1.0842022e-19
-2.2756944 0 -1.8502361
-3.6893488e+19 2.6158133 0
-2.188334 -1.0842022e-19 -1.8463044
1.0842022e-19 2.5880182 -1.0842022e-19
-2.2348089 1.0842022e-19 -1.8431721
-3.6893488e+19 2.5783772 0
-2.1434765 0 -1.8428864
3.6893488e+19 2.5549977 -0
-2.1874487 2 -1.8400413
2 2.539058 3.6893488e+19
-2.0963621 2 -1.8337394
2 2.5188363 -3.6893488e+19
-2.1355834 -1.0842022e-19 -1.8305933
-3.6893488e+19 2.5156281 1.0842022e-19
-2.0682876 -3.6893488e+19 -1.8324108
0 2.4963322 -2
-2.1059368 -1.0842022e-19 -1.8296156
3.6893488e+19 2.4825256 2
-2.0390918 -0 -1.8275648
1.0842022e-19 2.448235 3.6893488e+19
-2.0714447 -0 -1.8232008
1.0842022e-19 2.4228306 1.0842022e-19
-2.0827086 -1.0842022e-19 -1.820532
2 3.289335 -0
-2.9588423 3.6893488e+19 2.7518003
3.6893488e+19 3.2909477 3.6893488e+19
-2.9613998 3.6893488e+19 2.7382662
-2 3.2768402 3.6893488e+19
-2.8721623 1.0842022e-19 2.6803148
-0 3.2758327 0
-2.8708079 -3.6893488e+19 2.6619892
1.0842022e-19 3.2802672 0
-2.8390362 -0 2.656137
1.0842022e-19 3.28175 0
-2.8408298 0 2.6413951
1.0842022e-19 3.3099136 2
-2.9481733 2 2.6787539
2 3.2773135 2
-2.835463 -3.6893488e+19 2.618649
2 3.3109689 0
-2.9496994 3.6893488e+19 2.6613081
1.0842022e-19 3.2762244 2
-2.8341455 1.0842022e-19 2.6007168
2 3.268914 -3.6893488e+19
-2.8888826 -3.6893488e+19 2.5893667
-2 3.2754591 0
-2.83322 3.6893488e+19 2.5833445
-3.6893488e+19 3.2722263 -3.6893488e+19
-2.8936729 -0 2.5770636
-2 3.2765305 2
-2.834516 0 2.5682065
2 3.2718034 3.6893488e+19
-2.8930612 0 2.560133
-2 3.2755435 2
-2.833322 2 2.5507293
0 3.2714679 3.6893488e+19
-2.892576 2 2.5433755
-3.6893488e+19 3.2737689 -1.0842022e-19
-2.8311753 3.6893488e+19 2.5325828
-0 3.2722998 -2
-2.893779 1.0842022e-19 2.5278821
3.6893488e+19 3.2671998 1.0842022e-19
-2.9237392 -3.6893488e+19 2.5177255
1.0842022e-19 3.2677248 1.0842022e-19
-2.8599081 -0 2.5050931
2 3.2603495 2
-2.9128757 -1.0842022e-19 2.4900846
0 3.2683561 -2
-2.8607566 2 2.4794378
-2 3.2692981 -1.0842022e-19
-2.9270668 2 2.4742532
2 3.2671702 1.0842022e-19
-2.9236922 2 2.4381397
-1.0842022e-19 3.269891 3.6893488e+19
-2.8628204 -1.0842022e-19 2.4180441
-1.0842022e-19 3.2668636 3.6893488e+19
-2.9232061 -3.6893488e+19 2.4053447
1.0842022e-19 3.2706919 1.0842022e-19
-2.8638968 2 2.3871813
-3.6893488e+19 3.2662973 -0
-2.9223082 -0 2.3723071
0 3.2697229 -1.0842022e-19
-2.8625941 -1.0842022e-19 2.3538511
-3.6893488e+19 3.2637329 0
-2.9182415 3.6893488e+19 2.3368838
-2 3.2670553 1.0842022e-19
-2.8590083 -2 2.3187513
-3.6893488e+19 3.2642977 -3.6893488e+19
-2.919137 -2 2.3057382
0 3.2366483 3.6893488e+19
-2.8271058 -1.0842022e-19 2.2616625
3.6893488e+19 3.2666466 0
-2.8225596 3.6893488e+19 2.2683671
-3.6893488e+19 3.2720222 -3.6893488e+19
-2.8933778 3.6893488e+19 2.2624712
1.0842022e-19 3.2787299 0
-2.8371766 -0 2.2458949
1.0842022e-19 3.2711987 -3.6893488e+19
-2.8921866 0 2.2088344
-1.0842022e-19 3.2517998 -1.0842022e-19
-2.8045995 3.6893488e+19 2.1391494
2 3.316591 0
-2.9578297 3.6893488e+19 2.2103817
-3.6893488e+19 3.2516656 -2
-2.8044372 1.0842022e-19 2.0801775
-2 3.3136084 -3.6893488e+19
-2.9535165 -0 2.1315327
-3.6893488e+19 3.2566314 1.0842022e-19
-2.8104444 -2 2.0268128
0 3.3134441 2
-2.9532788 2 2.0569115
1.0842022e-19 3.3392289 -2
-2.9103613 1.0842022e-19 2.0367739
1.0842022e-19 3.3143661 -1.0842022e-19
-2.954612 -3.6893488e+19 1.9831895
0 3.3271382 -2
-2.8957353 3.6893488e+19 1.9502832
1.0842022e-19 3.3132455 -3.6893488e+19
-2.9529915 3.6893488e+19 1.9080367
-2 3.2660205 -2
-2.8218021 0 1.8266971
-3.6893488e+19 3.3141518 -2
-2.9543023 0 1.7929164
3.6893488e+19 3.3178351 1.0842022e-19
-3.0020196 3.6893488e+19 1.6911945
3.6893488e+19 3.2404487 -3.6893488e+19
-2.8296602 -0 1.3587078
2 3.3192024 3.6893488e+19
-3.0031037 2 -1.6038134
-1.0842022e-19 3.2507145 -3.6893488e+19
-2.8370409 -2 -1.7061207
-0 3.2248907 2
-2.8765531 -1.0842022e-19 -1.7815036
1.0842022e-19 3.2493818 2
-2.8356647 -0 -1.8451848
0 3.2265904 -1.0842022e-19
-2.8779006 3.6893488e+19 -1.8857304
0 3.2506247 1.0842022e-19
-2.83692 -0 -1.9194957
-1.0842022e-19 3.2242293 -2
-2.8760285 -1.0842022e-19 -1.9419752
-0 3.2489758 -3.6893488e+19
-2.8353918 3.6893488e+19 -1.977479
-3.6893488e+19 3.1792493 -1.0842022e-19
-2.8403628 -0 -1.9753124
-2 3.2032783 -1.0842022e-19
-2.8046758 0 -2.0100269
3.6893488e+19 2.7804279 -3.6893488e+19
-2.4447169 -3.6893488e+19 -1.8058852
2 3.0201912 2
-2.6132238 -0 -1.9368382
0 2.7822053 -3.6893488e+19
-2.4475355 1.0842022e-19 -1.8409454
1.0842022e-19 2.8416805 2
-2.4593284 1.0842022e-19 -1.8882769
2 2.8034453 2
-2.3670745 3.6893488e+19 -1.8804761
0 2.7640383 2
-2.3818319 2 -1.8718104
-3.6893488e+19 2.7410359 -0
-2.2970004 -3.6893488e+19 -1.8648298
2 2.6966701 -0
-2.3229699 -0 -1.8603443
3.6893488e+19 2.6734865 -2
-2.2561433 -1.0842022e-19 -1.8566084
-3.6893488e+19 2.6329031 2
-2.2768626 -2 -1.8495482
0 2.6134961 -0
-2.1897171 1.0842022e-19 -1.8450762
-0 2.5876989 0
-2.2383544 1.0842022e-19 -1.8431721
0 2.5782375 -1.0842022e-19
-2.1470652 3.6893488e+19 -1.8429656
0 2.5542412 0
-2.1899703 1.0842022e-19 -1.8397106
3.6893488e+19 2.5388298 0
-2.0993943 2 -1.8337394
-2 2.5189335 2
-2.1389112 1.0842022e-19 -1.8308623
1.0842022e-19 2.514823 -2
-2.0703533 2 -1.8319454
-0 2.4958634 3.6893488e+19
-2.1085398 -1.0842022e-19 -1.8296156
0 2.4821448 0
-2.0416226 -0 -1.8275648
-2 2.4494486 3.6893488e+19
-2.0749791 0 -1.8239254
-0 2.4223926 -0
-2.0849259 -1.0842022e-19 -1.820532
3.6893488e+19 2.3895102 -3.6893488e+19
-2.0588524 0 -1.8171394
3.6893488e+19 2.3319168 -1.0842022e-19
-2.0131853 -3.6893488e+19 -1.808937
-3.6893488e+19 2.2930982 -1.0842022e-19
-1.9824052 2 -1.8053336
0 2.2585077 1.0842022e-19
-1.9549774 -2 -1.7999091
-3.6893488e+19 2.2287765 3.6893488e+19
-1.8947927 -3.6893488e+19 -1.7966305
-2 2.1908836 -3.6893488e+19
-1.883333 0 -1.7963011
0 2.1582575 1.0842022e-19
-1.8719323 -2 -1.7959616
2 2.1205804 -0
-1.8491435 3.6893488e+19 -1.7914455
-3.6893488e+19 3.2539136 -1.0842022e-19
-2.9026694 -0 2.6919484
2 3.2575731 -3.6893488e+19
-2.9084725 -1.0842022e-19 2.6822572
-2 3.2768402 3.6893488e+19
-2.8721623 1.0842022e-19 2.6803148
-0 3.2758327 0
-2.8708079 -3.6893488e+19 2.6619892
-1.0842022e-19 3.262569 0
-2.817627 3.6893488e+19 2.6304905
-1.0842022e-19 3.2631898 0
-2.818378 0 2.6156123
1.0842022e-19 3.3099136 2
-2.9481733 2 2.6787539
-2 3.2646847 -3.6893488e+19
-2.8201861 -1.0842022e-19 2.601861
0 3.2696893 3.6893488e+19
-2.8900039 1.0842022e-19 2.606709
1.0842022e-19 3.2762244 2
-2.8341455 1.0842022e-19 2.6007168
2 3.268914 -3.6893488e+19
-2.8888826 -3.6893488e+19 2.5893667
-0 3.2609091 -3.6893488e+19
-2.8156188 -2 2.5657368
-3.6893488e+19 3.2722263 -3.6893488e+19
-2.8936729 -0 2.5770636
-0 3.2622032 2
-2.8171844 1.0842022e-19 2.5517199
2 3.2718034 3.6893488e+19
-2.8930612 0 2.560133
-2 3.2755435 2
-2.833322 2 2.5507293
0 3.2714679 3.6893488e+19
-2.892576 2 2.5433755
-3.6893488e+19 3.2580647 -2
-2.8121781 -3.6893488e+19 2.5163729
-0 3.2722998 -2
-2.893779 1.0842022e-19 2.5278821
3.6893488e+19 3.2671998 1.0842022e-19
-2.9237392 -3.6893488e+19 2.5177255
1.0842022e-19 3.2677248 1.0842022e-19
-2.8599081 -0 2.5050931
2 3.2603495 2
-2.9128757 -1.0842022e-19 2.4900846
0 3.2683561 -2
-2.8607566 2 2.4794378
-2 3.2692981 -1.0842022e-19
-2.9270668 2 2.4742532
-2 3.218925 -3.6893488e+19
-2.8718226 3.6893488e+19 2.3845015
-1.0842022e-19 3.269891 3.6893488e+19
-2.8628204 -1.0842022e-19 2.4180441
-3.6893488e+19 3.2235947 2
-2.8755255 0 2.3596766
0 3.2511227 -0
-2.8375895 3.6893488e+19 2.3591907
-3.6893488e+19 3.2662973 -0
-2.9223082 -0 2.3723071
-0 3.2530811 3.6893488e+19
-2.8402224 -3.6893488e+19 2.3320186
2 3.222683 -0
-2.8748024 2 2.3018947
-1.0842022e-19 3.2515869 -1.0842022e-19
-2.8382137 -0 2.3002887
-2 3.2202783 -0
-2.8728957 1.0842022e-19 2.2720077
0 3.2366483 3.6893488e+19
-2.8271058 -1.0842022e-19 2.2616625
-3.6893488e+19 3.2537777 3.6893488e+19
-2.8069923 -1.0842022e-19 2.2554152
1.0842022e-19 3.2396169 -3.6893488e+19
-2.854023 -2 2.2224255
-3.6893488e+19 3.2551625 3.6893488e+19
-2.8086674 2 2.2039659
-2 3.24335 0
-2.8567226 1.0842022e-19 2.1673434
-1.0842022e-19 3.2517998 -1.0842022e-19
-2.8045995 3.6893488e+19 2.1391494
-0 3.243098 -0
-2.8565402 -2 2.1085277
-3.6893488e+19 3.2516656 -2
-2.8044372 1.0842022e-19 2.0801775
2 3.2374766 1.0842022e-19
-2.8524756 3.6893488e+19 2.0465293
-3.6893488e+19 3.2566314 1.0842022e-19
-2.8104444 -2 2.0268128
0 3.3134441 2
-2.9532788 2 2.0569115
0 3.2652352 1.0842022e-19
-2.820852 3.6893488e+19 1.9742218
1.0842022e-19 3.3143661 -1.0842022e-19
-2.954612 -3.6893488e+19 1.9831895
-1.0842022e-19 3.2655594 1.0842022e-19
-2.8212445 -1.0842022e-19 1.912583
2 3.2353249 3.6893488e+19
-2.8509197 -0 1.8698531
-2 3.2660205 -2
-2.8218021 0 1.8266971
1.0842022e-19 3.2440619 -1.0842022e-19
-2.8572371 0 1.7570398
2 3.2145662 1.0842022e-19
-2.8683665 -1.0842022e-19 1.6397305
3.6893488e+19 3.2404487 -3.6893488e+19
-2.8296602 -0 1.3587078
-0 3.219769 -1.0842022e-19
-2.8724918 3.6893488e+19 -1.5433719
-1.0842022e-19 3.2507145 -3.6893488e+19
-2.8370409 -2 -1.7061207
-0 3.2248907 2
-2.8765531 -1.0842022e-19 -1.7815036
1.0842022e-19 3.2493818 2
-2.8356647 -0 -1.8451848
0 3.2265904 -1.0842022e-19
-2.8779006 3.6893488e+19 -1.8857304
0 3.2506247 1.0842022e-19
-2.83692 -0 -1.9194957
-1.0842022e-19 3.2242293 -2
-2.8760285 -1.0842022e-19 -1.9419752
1.0842022e-19 3.2127023 -2
-2.8110101 3.6893488e+19 -1.9609421
-3.6893488e+19 3.1792493 -1.0842022e-19
-2.8403628 -0 -1.9753124
2 3.0211203 1.0842022e-19
-2.6144729 -3.6893488e+19 -1.9055303
3.6893488e+19 2.7804279 -3.6893488e+19
-2.4447169 -3.6893488e+19 -1.8058852
2 3.0201912 2
-2.6132238 -0 -1.9368382
0 2.7822053 -3.6893488e+19
-2.4475355 1.0842022e-19 -1.8409454
1.0842022e-19 2.8416805 2
-2.4593284 1.0842022e-19 -1.8882769
2 2.8034453 2
-2.3670745 3.6893488e+19 -1.8804761
0 2.7640383 2
-2.3818319 2 -1.8718104
-3.6893488e+19 2.7410359 -0
-2.2970004 -3.6893488e+19 -1.8648298
2 2.6966701 -0
-2.3229699 -0 -1.8603443
3.6893488e+19 2.6734865 -2
-2.2561433 -1.0842022e-19 -1.8566084
-3.6893488e+19 2.6329031 2
-2.2768626 -2 -1.8495482
0 2.6134961 -0
-2.1897171 1.0842022e-19 -1.8450762
-0 2.5876989 0
-2.2383544 1.0842022e-19 -1.8431721
0 2.5782375 -1.0842022e-19
-2.1470652 3.6893488e+19 -1.8429656
0 2.5542412 0
-2.1899703 1.0842022e-19 -1.8397106
3.6893488e+19 2.5388298 0
-2.0993943 2 -1.8337394
-2 2.5189335 2
-2.1389112 1.0842022e-19 -1.8308623
1.0842022e-19 2.514823 -2
-2.0703533 2 -1.8319454
-0 2.4958634 3.6893488e+19
-2.1085398 -1.0842022e-19 -1.8296156
0 2.4821448 0
-2.0416226 -0 -1.8275648
-2 2.4494486 3.6893488e+19
-2.0749791 0 -1.8239254
-0 2.4223926 -0
-2.0849259 -1.0842022e-19 -1.820532
3.6893488e+19 2.3895102 -3.6893488e+19
-2.0588524 0 -1.8171394
3.6893488e+19 2.3319168 -1.0842022e-19
-2.0131853 -3.6893488e+19 -1.808937
-3.6893488e+19 2.2930982 -1.0842022e-19
-1.9824052 2 -1.8053336
0 2.2585077 1.0842022e-19
-1.9549774 -2 -1.7999091
-3.6893488e+19 2.2287765 3.6893488e+19
-1.8947927 -3.6893488e+19 -1.7966305
-2 2.1908836 -3.6893488e+19
-1.883333 0 -1.7963011
0 2.1582575 1.0842022e-19
-1.8719323 -2 -1.7959616
2 2.1205804 -0
-1.8491435 3.6893488e+19 -1.7914455
-0 3.2567358 3.6893488e+19
-2.9102674 -3.6893488e+19 2.7134006
0 3.2878952 1.0842022e-19
-2.9600604 0 2.7508092
-0 3.2908432 3.6893488e+19
-2.9647715 2 2.7386012
3.6893488e+19 3.3243146 -3.6893488e+19
-2.9397759 -3.6893488e+19 2.7522771
-2 3.2574217 2
-2.9113636 2 2.6504455
-0 3.2798817 -1.0842022e-19
-2.8417797 3.6893488e+19 2.6559021
2 3.308131 0
-2.9492569 -3.6893488e+19 2.6954911
1.0842022e-19 3.2823067 -0
-2.8447409 2 2.6424813
-1.0842022e-19 3.3069522 2
-2.9475384 -3.6893488e+19 2.6750617
-3.6893488e+19 3.2678657 -2
-2.8905499 -1.0842022e-19 2.6046348
-3.6893488e+19 3.2762699 -1.0842022e-19
-2.8373692 -0 2.6010547
-1.0842022e-19 3.2668571 0
-2.8890796 -2 2.5870922
2 3.2763932 3.6893488e+19
-2.8375196 -0 2.5847416
-1.0842022e-19 3.2771983 -1.0842022e-19
-2.8385029 -0 2.5692294
-1.0842022e-19 3.2754571 -0
-2.8363767 2 2.5508749
-0 3.2732689 -0
-2.8337045 -0 2.5322917
2 3.2660849 -3.6893488e+19
-2.9252071 2 2.5168872
3.6893488e+19 3.2710755 0
-2.867583 0 2.5085149
-0 3.2706504 -0
-2.932503 -3.6893488e+19 2.5050037
-2 3.2721651 -0
-2.8690605 3.6893488e+19 2.4866741
-2 3.2697675 -0
-2.9310923 2 2.4755764
-2 3.2745976 0
-2.8723593 0 2.4583421
-1.0842022e-19 3.2658367 -3.6893488e+19
-2.9248106 -2 2.4364085
-1.0842022e-19 3.2757232 -1.0842022e-19
-2.8738854 2 2.4274564
3.6893488e+19 3.2662671 -3.6893488e+19
-2.9254982 0 2.4048615
1.0842022e-19 3.2703047 -1.0842022e-19
-2.8665376 -2 2.38697
-0 3.2665834 -1.0842022e-19
-2.9260039 3.6893488e+19 2.3730965
-3.6893488e+19 3.2693954 -3.6893488e+19
-2.8653047 1.0842022e-19 2.353735
-2 3.2617357 -2
-2.9182572 2 2.334682
2 3.2670994 -0
-2.8621912 1.0842022e-19 2.3190866
0 3.2647314 -0
-2.9230442 1.0842022e-19 2.3065598
-3.6893488e+19 3.2678151 1.0842022e-19
-2.863162 -1.0842022e-19 2.2882547
3.6893488e+19 3.2703424 -2
-2.8301306 -3.6893488e+19 2.2723036
3.6893488e+19 3.2716753 -0
-2.8961043 1.0842022e-19 2.2623863
-2 3.2790298 -2
-2.8407395 1.0842022e-19 2.246825
-0 3.2708085 1.0842022e-19
-2.8948405 -2 2.2086108
-1.0842022e-19 3.2853367 -3.6893488e+19
-2.8484411 2 2.1913316
1.0842022e-19 3.2392259 -0
-2.856647 -3.6893488e+19 2.1060512
3.6893488e+19 3.285825 3.6893488e+19
-2.8490374 -2 2.1252925
1.0842022e-19 3.3143809 0
-2.9583693 -1.0842022e-19 2.1328368
0 3.2849255 -1.0842022e-19
-2.8479388 -3.6893488e+19 2.0575769
-2 3.3146422 0
-2.9587505 2 2.0583785
-2 3.2626183 2
-2.8206985 -3.6893488e+19 1.9721868
2 3.3137438 3.6893488e+19
-2.9574404 -3.6893488e+19 1.9829497
3.6893488e+19 3.2643168 3.6893488e+19
-2.8227725 -1.0842022e-19 1.9119513
-3.6893488e+19 3.313725 1.0842022e-19
-2.9574132 0 1.9084296
1.0842022e-19 3.3149097 -3.6893488e+19
-2.9591401 -1.0842022e-19 1.7934818
0 3.2127464 2
-2.8697374 1.0842022e-19 1.6393286
-1.0842022e-19 3.2415829 -2
-2.8332973 0 1.3594559
-2 3.2801712 -0
-2.9477174 1.0842022e-19 -1.5760447
-1.0842022e-19 3.2901499 1.0842022e-19
-2.8934484 -0 -1.7387533
2 3.2822487 -2
-2.9510372 -1.0842022e-19 -1.8112285
-3.6893488e+19 3.2907372 2
-2.8942447 3.6893488e+19 -1.878304
-0 3.2251642 1.0842022e-19
-2.8796594 -3.6893488e+19 -1.8854656
-1.0842022e-19 3.2905114 -3.6893488e+19
-2.8939383 -3.6893488e+19 -1.946645
3.6893488e+19 3.2252429 -2
-2.8797221 0 -1.9425867
-2 3.2493622 -0
-2.8385718 1.0842022e-19 -1.977857
2 3.1763067 0
-2.8406219 0 -1.9740016
-3.6893488e+19 3.2017825 -0
-2.8063123 -0 -2.0093985
1.0842022e-19 2.7818172 1.0842022e-19
-2.4503477 3.6893488e+19 -1.8069713
1.0842022e-19 3.0193901 0
-2.6152976 -0 -1.9364493
-0 2.7826064 1.0842022e-19
-2.4516089 -3.6893488e+19 -1.8414782
1.0842022e-19 2.8437428 -2
-2.466121 -2 -1.8892348
1.0842022e-19 2.798547 1.0842022e-19
-2.364573 -1.0842022e-19 -1.8784723
0 2.7647836 -1.0842022e-19
-2.3860559 -1.0842022e-19 -1.872743
-2 2.7395704 2
-2.2989213 -1.0842022e-19 -1.8643048
-3.6893488e+19 2.6943691 2
-2.3239465 3.6893488e+19 -1.8593552
-2 2.6717172 3.6893488e+19
-2.2574916 -1.0842022e-19 -1.8558248
2 2.6305468 1.0842022e-19
-2.2774198 1.0842022e-19 -1.8483791
-0 2.6132061 -0
-2.193532 1.0842022e-19 -1.8450762
2 2.5864406 2
-2.2405324 2 -1.8425663
1.0842022e-19 2.5772607 1.0842022e-19
-2.149637 -3.6893488e+19 -1.8424903
3.6893488e+19 2.5520787 -2
-2.1904325 -0 -1.8383877
-1.0842022e-19 2.5396714 -2
-2.1037345 3.6893488e+19 -1.8345147
-0 2.5175078 -2
-2.140028 0 -1.8299661
1.0842022e-19 2.5135405 0
-2.0718246 -3.6893488e+19 -1.8311075
-2 2.4958587 0
-2.1114826 -0 -1.8298087
-2 2.4817603 0
-2.0441527 -0 -1.8275648
0 2.4478526 1.0842022e-19
-2.0764859 -3.6893488e+19 -1.8234078
1.0842022e-19 2.4224133 2
-2.0875111 1.0842022e-19 -1.8207459
-0 3.2567358 3.6893488e+19
-2.9102674 -3.6893488e+19 2.7134006
1.0842022e-19 3.2522976 -2
-2.9031749 -2 2.6895943
-1.0842022e-19 3.2562644 3.6893488e+19
-2.9095142 1.0842022e-19 2.6805108
3.6893488e+19 3.3243146 -3.6893488e+19
-2.9397759 -3.6893488e+19 2.7522771
-2 3.2574217 2
-2.9113636 2 2.6504455
-1.0842022e-19 3.2624185 -3.6893488e+19
-2.8204544 -1.0842022e-19 2.6305759
2 3.308131 0
-2.9492569 -3.6893488e+19 2.6954911
2 3.263098 -1.0842022e-19
-2.8212841 -1.0842022e-19 2.6157761
-1.0842022e-19 3.3069522 2
-2.9475384 -3.6893488e+19 2.6750617
-3.6893488e+19 3.2678657 -2
-2.8905499 -1.0842022e-19 2.6046348
-3.6893488e+19 3.2594712 2
-2.8168554 -2 2.5797086
-1.0842022e-19 3.2668571 0
-2.8890796 -2 2.5870922
0 3.2602131 3.6893488e+19
-2.8177612 -0 2.5651457
-2 3.2618313 2
-2.8197374 -1.0842022e-19 2.5515323
-1.0842022e-19 3.2754571 -0
-2.8363767 2 2.5508749
-0 3.2732689 -0
-2.8337045 -0 2.5322917
2 3.2660849 -3.6893488e+19
-2.9252071 2 2.5168872
3.6893488e+19 3.2710755 0
-2.867583 0 2.5085149
-3.6893488e+19 3.2591112 -3.6893488e+19
-2.9140632 -0 2.4882636
-2 3.2721651 -0
-2.8690605 3.6893488e+19 2.4866741
-2 3.2697675 -0
-2.9310923 2 2.4755764
1.0842022e-19 3.2478604 3.6893488e+19
-2.8375535 1.0842022e-19 2.4154992
-1.0842022e-19 3.2183199 1.0842022e-19
-2.8741908 -1.0842022e-19 2.3844066
-1.0842022e-19 3.2757232 -1.0842022e-19
-2.8738854 2 2.4274564
0 3.220412 0
-2.8758624 3.6893488e+19 2.3576326
-2 3.2510476 1.0842022e-19
-2.840425 -2 2.3594017
-1.0842022e-19 3.2211237 -0
-2.876431 3.6893488e+19 2.3296802
-3.6893488e+19 3.2524438 0
-2.8423183 -3.6893488e+19 2.3314762
3.6893488e+19 3.2200768 -2
-2.8755944 -3.6893488e+19 2.3005438
-1.0842022e-19 3.2522941 1.0842022e-19
-2.8421152 0 2.3013997
2 3.2204244 -2
-2.8758721 1.0842022e-19 2.2723765
3.6893488e+19 3.2398207 3.6893488e+19
-2.8321025 2 2.2636018
3.6893488e+19 3.2532623 1.0842022e-19
-2.8092732 1.0842022e-19 2.2550998
-0 3.2413783 2
-2.8582163 -0 2.2245772
3.6893488e+19 3.2539444 -3.6893488e+19
-2.810106 -3.6893488e+19 2.2021589
-0 3.2708085 1.0842022e-19
-2.8948405 -2 2.2086108
0 3.2508976 2
-2.8063855 -3.6893488e+19 2.1380641
1.0842022e-19 3.2392259 -0
-2.856647 -3.6893488e+19 2.1060512
1.0842022e-19 3.2524507 0
-2.8082821 -2 2.0814714
1.0842022e-19 3.3143809 0
-2.9583693 -1.0842022e-19 2.1328368
-2 3.2628644 -0
-2.8209989 3.6893488e+19 2.0337622
2 3.2407024 3.6893488e+19
-2.8577235 -0 1.9904667
-2 3.2626183 2
-2.8206985 -3.6893488e+19 1.9721868
2 3.3137438 3.6893488e+19
-2.9574404 -3.6893488e+19 1.9829497
3.6893488e+19 3.2643168 3.6893488e+19
-2.8227725 -1.0842022e-19 1.9119513
-3.6893488e+19 3.2346864 0
-2.853338 2 1.8697642
-3.6893488e+19 3.2531812 -1.0842022e-19
-2.8691399 3.6893488e+19 1.7604562
0 3.2127464 2
-2.8697374 1.0842022e-19 1.6393286
-1.0842022e-19 3.2415829 -2
-2.8332973 0 1.3594559
-1.0842022e-19 3.2230511 -1.0842022e-19
-2.8779709 -2 -1.5447254
-2 3.2475226 0
-2.8373246 1.0842022e-19 -1.7046962
-3.6893488e+19 3.2281382 2
-2.8820357 1.0842022e-19 -1.7827386
2 3.2486732 -2
-2.8381045 -2 -1.8450673
-0 3.2251642 1.0842022e-19
-2.8796594 -3.6893488e+19 -1.8854656
-2 3.2500474 -0
-2.8390687 2 -1.9192554
3.6893488e+19 3.2252429 -2
-2.8797221 0 -1.9425867
-2 3.2493622 -0
-2.8385718 1.0842022e-19 -1.977857
2 3.1763067 0
-2.8406219 0 -1.9740016
0 3.020762 3.6893488e+19
-2.6171577 1.0842022e-19 -1.9054625
1.0842022e-19 2.7818172 1.0842022e-19
-2.4503477 3.6893488e+19 -1.8069713
1.0842022e-19 3.0193901 0
-2.6152976 -0 -1.9364493
-0 2.7826064 1.0842022e-19
-2.4516089 -3.6893488e+19 -1.8414782
1.0842022e-19 2.8437428 -2
-2.466121 -2 -1.8892348
1.0842022e-19 2.798547 1.0842022e-19
-2.364573 -1.0842022e-19 -1.8784723
0 2.7647836 -1.0842022e-19
-2.3860559 -1.0842022e-19 -1.872743
-2 2.7395704 2
-2.2989213 -1.0842022e-19 -1.8643048
-3.6893488e+19 2.6943691 2
-2.3239465 3.6893488e+19 -1.8593552
-2 2.6717172 3.6893488e+19
-2.2574916 -1.0842022e-19 -1.8558248
2 2.6305468 1.0842022e-19
-2.2774198 1.0842022e-19 -1.8483791
-0 2.6132061 -0
-2.193532 1.0842022e-19 -1.8450762
2 2.5864406 2
-2.2405324 2 -1.8425663
1.0842022e-19 2.5772607 1.0842022e-19
-2.149637 -3.6893488e+19 -1.8424903
3.6893488e+19 2.5520787 -2
-2.1904325 -0 -1.8383877
-1.0842022e-19 2.5396714 -2
-2.1037345 3.6893488e+19 -1.8345147
-0 2.5175078 -2
-2.140028 0 -1.8299661
1.0842022e-19 2.5135405 0
-2.0718246 -3.6893488e+19 -1.8311075
-2 2.4958587 0
-2.1114826 -0 -1.8298087
-2 2.4817603 0
-2.0441527 -0 -1.8275648
0 2.4478526 1.0842022e-19
-2.0764859 -3.6893488e+19 -1.8234078
1.0842022e-19 2.4224133 2
-2.0875111 1.0842022e-19 -1.8207459
2 3.2566645 -3.6893488e+19
-2.9132798 0 2.7137597
1.0842022e-19 3.2870526 2
-2.9622107 2 2.7503383
-2 3.2913625 -3.6893488e+19
-2.9691505 -0 2.7399888
2 3.3000426 -0
-2.9831271 3.6893488e+19 2.7358856
-1.0842022e-19 3.3232253 2
-2.9420841 3.6893488e+19 2.7516546
0 3.2572653 1.0842022e-19
-2.9142473 -0 2.6506231
-1.0842022e-19 3.2783766 -2
-2.8431377 1.0842022e-19 2.6540444
-2 3.3082111 -1.0842022e-19
-2.9530413 -3.6893488e+19 2.6960351
1.0842022e-19 3.2812493 2
-2.8466787 3.6893488e+19 2.6244807
-0 3.2649276 -2
-2.8894186 -2 2.6010818
-0 3.2594249 3.6893488e+19
-2.8197773 -3.6893488e+19 2.579915
3.6893488e+19 3.2656581 2
-2.8904924 -2 2.5858998
-0 3.2764072 0
-2.8407104 -0 2.5850282
0 3.2777743 3.6893488e+19
-2.8423953 1.0842022e-19 2.5701501
2 3.2728963 -3.6893488e+19
-2.8363824 0 2.5483177
0 3.2707522 3.6893488e+19
-2.8337395 -3.6893488e+19 2.5299168
0 3.2653012 0
-2.9271867 -3.6893488e+19 2.516381
0 3.2712302 -0
-2.8709688 0 2.5088935
-3.6893488e+19 3.2753079 -2
-2.9432995 2 2.5096653
-3.6893488e+19 3.2716427 -3.6893488e+19
-2.8715332 -0 2.4861741
1.0842022e-19 3.2710557 -2
-2.9364524 0 2.4783502
-1.0842022e-19 3.2747498 -2
-2.8757827 -1.0842022e-19 2.4590056
1.0842022e-19 3.2673898 -0
-2.9305496 -3.6893488e+19 2.43942
-1.0842022e-19 3.2750943 0
-2.8762541 0 2.4268625
3.6893488e+19 3.2661026 3.6893488e+19
-2.928477 3.6893488e+19 2.4050372
1.0842022e-19 3.2664099 0
-2.8643761 -0 2.3817351
1.0842022e-19 3.2671845 -3.6893488e+19
-2.9302189 1.0842022e-19 2.3743312
1.0842022e-19 3.2647772 -2
-2.8621428 1.0842022e-19 2.3479815
0 3.2655225 0
-2.9275429 -3.6893488e+19 2.3398812
3.6893488e+19 3.2663152 2
-2.8642466 -0 2.318434
-0 3.2646554 -1.0842022e-19
-2.9261467 -1.0842022e-19 2.3067944
2 3.2483542 2
-2.8408062 2 2.2684338
-1.0842022e-19 3.2699609 0
-2.8327644 -2 2.2721384
-0 3.2717953 3.6893488e+19
-2.8995135 -2 2.2627542
3.6893488e+19 3.2782538 -1.0842022e-19
-2.8429863 -2 2.2458417
-1.0842022e-19 3.2694206 2
-2.896023 -2 2.2066989
-0 3.2920582 -0
-2.8600023 -2 2.2020912
3.6893488e+19 3.2437088 -2
-2.8628526 3.6893488e+19 2.1096592
-2 3.2839687 3.6893488e+19
-2.8500309 0 2.1231556
-3.6893488e+19 3.3054409 2
-2.8764985 -3.6893488e+19 2.079989
-1.0842022e-19 3.2367129 1.0842022e-19
-2.8577111 1.0842022e-19 1.9887409
-0 3.2957697 0
-2.8645773 0 2.0004358
-0 3.23979 3.6893488e+19
-2.8599725 -1.0842022e-19 1.9320053
3.6893488e+19 3.2956355 -3.6893488e+19
-2.8644116 -2 1.9312866
1.0842022e-19 3.2529237 3.6893488e+19
-2.871774 3.6893488e+19 1.7604483
-3.6893488e+19 3.2176225 3.6893488e+19
-2.8764818 -2 1.640945
0 3.3137438 -1.0842022e-19
-2.9291158 -0 1.3997709
-0 3.2205534 1.0842022e-19
-2.8788414 1.0842022e-19 -1.5440071
1.0842022e-19 3.3151722 -3.6893488e+19
-2.9310694 0 -1.7547874
-1.0842022e-19 3.284097 -1.0842022e-19
-2.9574516 0 -1.8126454
-1.0842022e-19 3.2891028 2
-2.8954139 2 -1.8776968
-3.6893488e+19 3.225534 0
-2.8828514 -0 -1.8857138
-2 3.2896163 3.6893488e+19
-2.8961163 -0 -1.9462144
-2 3.2256415 0
-2.8829379 2 -1.9429511
-3.6893488e+19 3.2433593 -2
-2.8373904 -0 -1.975319
-1.0842022e-19 3.1755686 -0
-2.8426242 -0 -1.9738492
-0 3.2010541 1.0842022e-19
-2.8084595 -3.6893488e+19 -2.0092115
-1.0842022e-19 2.8504062 0
-2.4792602 0 -1.8920608
0 2.764178 -0
-2.3883166 3.6893488e+19 -1.8724139
2 2.7407269 3.6893488e+19
-2.3024445 -0 -1.8650632
-2 2.6930058 0
-2.3255885 -2 -1.8588606
-3.6893488e+19 2.6717355 -2
-2.2599237 -3.6893488e+19 -1.8560207
-1.0842022e-19 2.6298304 3.6893488e+19
-2.2791574 3.6893488e+19 -1.8481728
1.0842022e-19 2.6127949 0
-2.1971951 0 -1.845004
-3.6893488e+19 2.5845966 -2
-2.2418256 -3.6893488e+19 -1.8415817
-1.0842022e-19 2.5768783 -1.0842022e-19
-2.1529229 -1.0842022e-19 -1.8424112
-1.0842022e-19 2.5521395 -3.6893488e+19
-2.1941166 1.0842022e-19 -1.8386358
3.6893488e+19 2.5394385 1.0842022e-19
-2.1067731 3.6893488e+19 -1.8345147
-2 2.516433 1.0842022e-19
-2.1416316 3.6893488e+19 -1.8293387
-1.0842022e-19 2.5129716 2
-2.0741491 2 -1.8308283
0 2.4951494 1.0842022e-19
-2.1139114 -1.0842022e-19 -1.8297122
2 2.4806597 2
-2.0462399 0 -1.8272648
-0 2.4464891 -0
-2.0781484 1.0842022e-19 -1.8229939
0 2.4233527 3.6893488e+19
-2.0908401 -3.6893488e+19 -1.8213876
2 2.3873119 2
-2.0618238 -1.0842022e-19 -1.816456
-1.0842022e-19 2.3309915 3.6893488e+19
-2.0164804 3.6893488e+19 -1.8088093
-2 2.2904181 -3.6893488e+19
-1.983815 -2 -1.8040596
-3.6893488e+19 2.2584243 -2
-1.9580568 -3.6893488e+19 -1.8002198
2 2.2223587 -3.6893488e+19
-1.8955618 1.0842022e-19 -1.7946014
-1.0842022e-19 2.1854801 -2
-1.8841974 0 -1.7944729
2 2.1552613 -3.6893488e+19
-1.8747703 -1.0842022e-19 -1.7949791
-0 2.1171842 2
-1.8513027 -2 -1.7901845
2 3.2566645 -3.6893488e+19
-2.9132798 0 2.7137597
0 3.2529416 3.6893488e+19
-2.9072852 -0 2.6911802
-2 3.2555966 -1.0842022e-19
-2.9115605 3.6893488e+19 2.6798408
2 3.2589581 0
-2.9169731 -1.0842022e-19 2.6693537
-1.0842022e-19 3.3232253 2
-2.9420841 3.6893488e+19 2.7516546
0 3.2572653 1.0842022e-19
-2.9142473 -0 2.6506231
-1.0842022e-19 3.2783766 -2
-2.8431377 1.0842022e-19 2.6540444
-2 3.3082111 -1.0842022e-19
-2.9530413 -3.6893488e+19 2.6960351
-3.6893488e+19 3.2575364 0
-2.8174496 -0 2.5929074
-0 3.2649276 -2
-2.8894186 -2 2.6010818
-0 3.2594249 3.6893488e+19
-2.8197773 -3.6893488e+19 2.579915
3.6893488e+19 3.2656581 2
-2.8904924 -2 2.5858998
-0 3.2586145 -1.0842022e-19
-2.8187783 2 2.563462
-1.0842022e-19 3.2623308 -3.6893488e+19
-2.823359 1.0842022e-19 2.5523508
1.0842022e-19 3.2630649 -1.0842022e-19
-2.8242638 -1.0842022e-19 2.5375702
0 3.2707522 3.6893488e+19
-2.8337395 -3.6893488e+19 2.5299168
0 3.2653012 0
-2.9271867 -3.6893488e+19 2.516381
0 3.2712302 -0
-2.8709688 0 2.5088935
-0 3.258954 0
-2.9169667 -0 2.488481
-3.6893488e+19 3.2716427 -3.6893488e+19
-2.8715332 -0 2.4861741
1.0842022e-19 3.2710557 -2
-2.9364524 0 2.4783502
-1.0842022e-19 3.2466507 3.6893488e+19
-2.8396413 -1.0842022e-19 2.41486
-3.6893488e+19 3.2190394 1.0842022e-19
-2.8776226 -3.6893488e+19 2.3854024
-1.0842022e-19 3.2750943 0
-2.8762541 0 2.4268625
-0 3.2201772 -2
-2.8785384 1.0842022e-19 2.3578305
1.0842022e-19 3.2460492 -0
-2.8392298 -1.0842022e-19 2.355391
