# .PCD v0.7 - Point Cloud Data file format
VERSION 0.7
FIELDS x y z
SIZE 4 4 4
TYPE F F F
COUNT 1 1 1
WIDTH 1733
HEIGHT 1
VIEWPOINT 0 0 0 1 0 0 0
POINTS 1733
DATA ascii
2 3.1946859 0
3.1901567 1.0842022e-19 2.6337807
1.0842022e-19 3.2008641 2
3.1510947 2 2.5943489
0 3.1997283 0
3.1500843 -1.0842022e-19 2.5763736
3.6893488e+19 3.198359 3.6893488e+19
3.1488662 0 2.5583534
2 3.1748531 3.6893488e+19
3.127955 2 2.5260854
1.0842022e-19 3.2024724 2
3.1284158 2 2.5280459
-1.0842022e-19 3.177577 0
3.1481187 -3.6893488e+19 2.5171347
-0 3.1949468 -2
3.1221218 -2 2.5070341
1.0842022e-19 3.1766567 -0
3.1472616 1.0842022e-19 2.5001061
-1.0842022e-19 3.1381025 -1.0842022e-19
3.0745814 3.6893488e+19 2.4198503
-2 3.1735289 -3.6893488e+19
3.1443493 -2 2.4639215
-0 3.1397099 1.0842022e-19
3.0759258 1.0842022e-19 2.3929749
-0 3.1821492 -2
3.1523757 2 2.4401293
-3.6893488e+19 3.1324661 2
3.0698676 1.0842022e-19 2.3576202
-3.6893488e+19 3.167722 1.0842022e-19
3.1389427 0 2.3933461
1.0842022e-19 3.1322899 -0
3.06972 3.6893488e+19 2.3294585
0 3.1789751 3.6893488e+19
3.1494203 -2 2.3710339
-1.0842022e-19 3.1344368 1.0842022e-19
3.0715158 0 2.3031819
-0 3.1265519 -2
3.1006088 -0 2.2968311
-3.6893488e+19 3.1386957 -1.0842022e-19
3.0750775 0 2.2781374
-3.6893488e+19 3.1260245 3.6893488e+19
3.1001179 3.6893488e+19 2.2676244
-2 3.1671104 -1.0842022e-19
3.1628621 -0 2.2892721
-0 3.1804438 1.0842022e-19
3.1329286 2 2.2678452
3.6893488e+19 3.1653724 -0
3.1611416 3.6893488e+19 2.2553661
-1.0842022e-19 3.1242721 -0
3.0829575 1.0842022e-19 2.1597385
-0 3.1414499 -0
3.1374629 0 2.1697183
-3.6893488e+19 3.1229968 1.0842022e-19
3.0818231 -1.0842022e-19 2.1025381
3.6893488e+19 3.1796734 -0
3.175297 2 2.1431322
-1.0842022e-19 3.1819227 -0
3.1342442 1.0842022e-19 2.0936389
-3.6893488e+19 3.1415608 1.0842022e-19
3.1375728 1.0842022e-19 2.0467317
-2 3.1178925 2
3.0772822 -0 1.9877181
2 3.1140018 -3.6893488e+19
3.1102941 1.0842022e-19 1.9686639
0 3.1167006 -0
3.0762217 3.6893488e+19 1.9321601
0 3.1723504 -3.6893488e+19
3.1680484 -3.6893488e+19 1.9374034
2 3.116214 0
3.075789 -2 1.8772317
-2 3.1170776 0
3.1133389 0 1.8354986
0 3.1248384 -2
3.083461 -3.6893488e+19 1.7735105
2 3.1203544 1.0842022e-19
3.0597382 3.6893488e+19 1.6781387
1.0842022e-19 3.1114964 -3.6893488e+19
3.0865905 0 1.5190541
-3.6893488e+19 3.1230929 -3.6893488e+19
3.0620284 -1.0842022e-19 -1.4002525
1.0842022e-19 3.1071937 2
3.0825844 3.6893488e+19 -1.6465567
1.0842022e-19 3.1277552 -0
3.0659275 -3.6893488e+19 -1.753862
-0 3.1089799 -0
3.0842476 3.6893488e+19 -1.808081
3.6893488e+19 3.1420817 -2
3.0779092 3.6893488e+19 -1.8727964
3.6893488e+19 3.1138356 2
3.0887687 -0 -1.8982351
1.0842022e-19 3.1433489 -2
3.078969 -0 -1.9315073
-2 3.132093 -2
3.1057682 0 -1.9639394
-3.6893488e+19 3.065979 -1.0842022e-19
3.0142624 -2 -1.941785
3.6893488e+19 2.7719965 1.0842022e-19
2.753257 1.0842022e-19 -1.8602892
-1.0842022e-19 2.6796904 2
2.6500864 -1.0842022e-19 -1.8436509
3.6893488e+19 2.629492 2
2.6256268 -0 -1.8387824
-3.6893488e+19 2.6240616 1.0842022e-19
2.5827703 -2 -1.839447
1.0842022e-19 2.5661993 -3.6893488e+19
2.5629785 3.6893488e+19 -1.8280076
3.6893488e+19 2.5654628 -1.0842022e-19
2.5306399 0 -1.8294789
-3.6893488e+19 2.5243964 -0
2.5216017 0 -1.8227818
0 2.520782 -0
2.4817824 -2 -1.8208101
3.6893488e+19 2.4827816 -1.0842022e-19
2.4778643 -0 -1.8180177
-2 2.4842975 3.6893488e+19
2.4308376 2 -1.8182725
3.6893488e+19 2.4325771 3.6893488e+19
2.4281712 2 -1.8150136
-1.0842022e-19 2.4339552 -0
2.3860524 1.0842022e-19 -1.8144749
2 2.3813438 0
2.3774598 -1.0842022e-19 -1.8075687
1.0842022e-19 2.3832767 0
2.3409681 -0 -1.8067569
1.0842022e-19 2.3501456 -2
2.3465791 -0 -1.8064793
-1.0842022e-19 2.349376 2
2.3108096 0 -1.8038292
-0 2.3221526 -3.6893488e+19
2.3188713 2 -1.804727
2 3.2592816 -2
3.1815381 1.0842022e-19 2.7650738
0 3.2589579 0
3.1809993 2 2.7549982
0 3.1968248 3.6893488e+19
3.1455474 3.6893488e+19 2.6075213
0 3.197767 -3.6893488e+19
3.1463814 -1.0842022e-19 2.5912418
2 3.2002649 -2
3.1485927 -0 2.5760546
3.6893488e+19 3.1977785 -1.0842022e-19
3.1463916 3.6893488e+19 2.5572863
-3.6893488e+19 3.1724415 -2
3.1660979 1.0842022e-19 2.5462825
-1.0842022e-19 3.2128196 1.0842022e-19
3.1351495 -0 2.5338244
-0 3.1771832 3.6893488e+19
3.1458054 1.0842022e-19 2.516283
-0 3.2132125 3.6893488e+19
3.1354764 2 2.5170403
-1.0842022e-19 3.1781969 1.0842022e-19
3.1467447 -3.6893488e+19 2.5004392
2 3.2136068 -1.0842022e-19
3.1358044 -0 2.5002542
-1.0842022e-19 3.1736712 -0
3.1425514 0 2.4630244
3.6893488e+19 3.1323292 0
3.068167 0 2.3847463
-2 3.183018 0
3.1512117 -2 2.4400132
2 3.2121508 -0
3.1345928 2 2.4312472
0 3.1798403 3.6893488e+19
3.1482673 2 2.4038384
3.6893488e+19 3.2171204 -0
3.1387284 0 2.4017451
0 3.1800652 1.0842022e-19
3.1484756 3.6893488e+19 2.3711326
3.6893488e+19 3.2176895 0
3.1392021 2 2.3680861
-2 3.1763821 3.6893488e+19
3.1450632 -1.0842022e-19 2.3353488
2 3.2186916 -0
3.1400359 2 2.3346958
-0 3.1272917 1.0842022e-19
3.0995786 -3.6893488e+19 2.2679167
-1.0842022e-19 3.1681192 -3.6893488e+19
3.1618404 -0 2.2892721
2 3.1931524 2
3.1422966 -1.0842022e-19 2.2751551
-2 3.1668437 3.6893488e+19
3.1605842 2 2.2556524
-1.0842022e-19 3.192363 -0
3.1415977 3.6893488e+19 2.2332315
0 3.1669924 1.0842022e-19
3.1607306 -2 2.1960263
-2 3.1910605 -1.0842022e-19
3.1404448 3.6893488e+19 2.1659646
-0 3.1710358 0
3.1647134 -0 2.1342998
-1.0842022e-19 3.1809673 -1.0842022e-19
3.1315098 -1.0842022e-19 2.0921352
-2 3.1663609 -1.0842022e-19
3.1601086 -1.0842022e-19 2.0647643
0 3.1708245 2
3.1225309 0 2.0213311
-1.0842022e-19 3.1691859 -1.0842022e-19
3.1628911 -1.0842022e-19 2.0012066
-2 3.1705518 1.0842022e-19
3.1222897 -2 1.9584579
0 3.1169 2
3.1113904 0 1.9124066
0 3.1674981 2
3.1195862 -3.6893488e+19 1.8947345
2 3.118099 0
3.1125715 -2 1.8355749
1.0842022e-19 3.1223304 2
3.079602 3.6893488e+19 1.772197
0 3.141264 -0
3.0756021 2 1.6878124
1.0842022e-19 3.1431041 2
3.1142294 0 1.531294
-3.6893488e+19 3.1250801 -3.6893488e+19
3.0621343 -2 -1.4007448
1.0842022e-19 3.1425736 -2
3.1137378 2 -1.6607076
-1.0842022e-19 3.139888 -1.0842022e-19
3.0744572 -3.6893488e+19 -1.7577298
-0 3.141428 0
3.1126766 -2 -1.8241765
-1.0842022e-19 3.1422582 3.6893488e+19
3.0764296 3.6893488e+19 -1.8724025
1.0842022e-19 3.1403325 1.0842022e-19
3.1116614 3.6893488e+19 -1.9086696
-2 3.1444166 1.0842022e-19
3.0782259 1.0842022e-19 -1.9316291
-2 3.133512 0
3.1053421 3.6893488e+19 -1.9642466
3.6893488e+19 3.0654721 -2
3.0125296 -3.6893488e+19 -1.9410869
2 2.7732108 -0
2.7531426 -2 -1.8608031
-2 2.7445567 -3.6893488e+19
2.6615603 0 -1.846639
0 2.6833241 1.0842022e-19
2.6514952 2 -1.8449996
0 2.6309435 -1.0842022e-19
2.6252229 1.0842022e-19 -1.8390824
2 2.6217904 2
2.579124 -0 -1.8376827
2 2.5650079 -3.6893488e+19
2.5602775 3.6893488e+19 -1.8267548
3.6893488e+19 2.5664287 0
2.5301156 -1.0842022e-19 -1.8296601
1.0842022e-19 2.5250602 -2
2.5209296 0 -1.8227818
-1.0842022e-19 2.5195026 -1.0842022e-19
2.4771495 1.0842022e-19 -1.8194625
0 2.4835939 2
2.4763319 -1.0842022e-19 -1.817876
-1.0842022e-19 2.4829233 3.6893488e+19
2.4275033 -3.6893488e+19 -1.817306
0 2.4338009 -0
2.4272866 0 -1.8150915
0 2.4313536 2
2.3818517 -1.0842022e-19 -1.8129305
-3.6893488e+19 2.3780067 -0
2.3723304 -1.0842022e-19 -1.8055345
-2 2.3844824 -1.0842022e-19
2.3403594 -1.0842022e-19 -1.8069333
3.6893488e+19 2.3501055 3.6893488e+19
2.3448482 2 -1.8060209
-2 2.3499489 -3.6893488e+19
2.3097889 -2 -1.8037339
-2 2.320982 0
2.3161621 0 -1.8036419
2 2.2892804 2
2.231467 2 -1.7954478
1.0842022e-19 2.2500989 -2
2.1662548 -3.6893488e+19 -1.7907699
-0 2.1986499 -3.6893488e+19
2.1233575 -1.0842022e-19 -1.7902566
-2 2.1559486 -3.6893488e+19
2.0878224 1.0842022e-19 -1.7895803
-0 2.0962555 -3.6893488e+19
2.0910559 -0 -1.7903697
-2 2.0722804 2
2.067441 -0 -1.7919301
-1.0842022e-19 2.0410249 -2
2.0366547 2 -1.7875503
1.0842022e-19 2.0290418 0
2.0248516 1.0842022e-19 -1.7922434
2 3.2592816 -2
3.1815381 1.0842022e-19 2.7650738
0 3.2589579 0
3.1809993 2 2.7549982
0 3.1968248 3.6893488e+19
3.1455474 3.6893488e+19 2.6075213
0 3.197767 -3.6893488e+19
3.1463814 -1.0842022e-19 2.5912418
2 3.2002649 -2
3.1485927 -0 2.5760546
3.6893488e+19 3.1977785 -1.0842022e-19
3.1463916 3.6893488e+19 2.5572863
-3.6893488e+19 3.1724415 -2
3.1660979 1.0842022e-19 2.5462825
-1.0842022e-19 3.2128196 1.0842022e-19
3.1351495 -0 2.5338244
-0 3.1771832 3.6893488e+19
3.1458054 1.0842022e-19 2.516283
-3.6893488e+19 3.1949484 -1.0842022e-19
3.1202774 0 2.5065112
-1.0842022e-19 3.1781969 1.0842022e-19
3.1467447 -3.6893488e+19 2.5004392
-3.6893488e+19 3.1977661 2
3.1226223 2 2.483407
-1.0842022e-19 3.1736712 -0
3.1425514 0 2.4630244
3.6893488e+19 3.1323292 0
3.068167 0 2.3847463
-2 3.183018 0
3.1512117 -2 2.4400132
3.6893488e+19 3.1330562 2
3.0687718 0 2.3574417
3.6893488e+19 3.1255078 -1.0842022e-19
3.0979257 0 2.3527927
0 3.1328554 2
3.0686047 2 2.3292732
-1.0842022e-19 3.1269581 0
3.0992696 1.0842022e-19 2.3253031
-3.6893488e+19 3.1332102 2
3.0689001 3.6893488e+19 2.3015983
0 3.1270199 3.6893488e+19
3.0993266 -0 2.2965255
1.0842022e-19 3.1316297 1.0842022e-19
3.0675848 1.0842022e-19 2.2725244
-0 3.1272917 1.0842022e-19
3.0995786 -3.6893488e+19 2.2679167
-1.0842022e-19 3.1681192 -3.6893488e+19
3.1618404 -0 2.2892721
2 3.1931524 2
3.1422966 -1.0842022e-19 2.2751551
0 3.1254506 -1.0842022e-19
3.1198125 -3.6893488e+19 2.2105315
1.0842022e-19 3.1284039 -3.6893488e+19
3.0849783 0 2.1633635
-1.0842022e-19 3.1264071 0
3.120755 0 2.1526155
0 3.1198804 3.6893488e+19
3.0774331 0 2.0988345
-0 3.1710358 0
3.1647134 -0 2.1342998
-0 3.1218324 3.6893488e+19
3.0791612 1.0842022e-19 2.0451894
-2 3.1663609 -1.0842022e-19
3.1601086 -1.0842022e-19 2.0647643
-0 3.1209841 -2
3.0784101 3.6893488e+19 1.9891959
0 3.1157501 -1.0842022e-19
3.1102576 3.6893488e+19 1.969184
1.0842022e-19 3.1176379 0
3.075448 0 1.9322298
0 3.1169 2
3.1113904 0 1.9124066
1.0842022e-19 3.119139 -0
3.0767767 2 1.8779699
2 3.118099 0
3.1125715 -2 1.8355749
1.0842022e-19 3.1223304 2
3.079602 3.6893488e+19 1.772197
0 3.1220238 3.6893488e+19
3.0595908 -2 1.6785768
3.6893488e+19 3.1130292 1.0842022e-19
3.0863638 0 1.5193366
-3.6893488e+19 3.1250801 -3.6893488e+19
3.0621343 -2 -1.4007448
-0 3.1082582 1.0842022e-19
3.0819433 2 -1.64666
1.0842022e-19 3.1256685 1.0842022e-19
3.062624 1.0842022e-19 -1.752889
2 3.1089485 1.0842022e-19
3.0825827 3.6893488e+19 -1.8076495
-3.6893488e+19 3.1248212 1.0842022e-19
3.061919 0 -1.8614049
-2 3.1139755 -3.6893488e+19
3.0872405 -3.6893488e+19 -1.8979555
-2 3.1444166 1.0842022e-19
3.0782259 1.0842022e-19 -1.9316291
-2 3.133512 0
3.1053421 3.6893488e+19 -1.9642466
3.6893488e+19 3.0654721 -2
3.0125296 -3.6893488e+19 -1.9410869
2 2.7732108 -0
2.7531426 -2 -1.8608031
-2 2.7445567 -3.6893488e+19
2.6615603 0 -1.846639
0 2.6833241 1.0842022e-19
2.6514952 2 -1.8449996
0 2.6309435 -1.0842022e-19
2.6252229 1.0842022e-19 -1.8390824
2 2.6217904 2
2.579124 -0 -1.8376827
2 2.5650079 -3.6893488e+19
2.5602775 3.6893488e+19 -1.8267548
3.6893488e+19 2.5664287 0
2.5301156 -1.0842022e-19 -1.8296601
1.0842022e-19 2.5250602 -2
2.5209296 0 -1.8227818
-1.0842022e-19 2.5195026 -1.0842022e-19
2.4771495 1.0842022e-19 -1.8194625
0 2.4835939 2
2.4763319 -1.0842022e-19 -1.817876
-1.0842022e-19 2.4829233 3.6893488e+19
2.4275033 -3.6893488e+19 -1.817306
0 2.4338009 -0
2.4272866 0 -1.8150915
0 2.4313536 2
2.3818517 -1.0842022e-19 -1.8129305
-3.6893488e+19 2.3780067 -0
2.3723304 -1.0842022e-19 -1.8055345
-2 2.3844824 -1.0842022e-19
2.3403594 -1.0842022e-19 -1.8069333
3.6893488e+19 2.3501055 3.6893488e+19
2.3448482 2 -1.8060209
-2 2.3499489 -3.6893488e+19
2.3097889 -2 -1.8037339
-2 2.320982 0
2.3161621 0 -1.8036419
2 2.2892804 2
2.231467 2 -1.7954478
1.0842022e-19 2.2500989 -2
2.1662548 -3.6893488e+19 -1.7907699
-0 2.1986499 -3.6893488e+19
2.1233575 -1.0842022e-19 -1.7902566
-2 2.1559486 -3.6893488e+19
2.0878224 1.0842022e-19 -1.7895803
-0 2.0962555 -3.6893488e+19
2.0910559 -0 -1.7903697
-2 2.0722804 2
2.067441 -0 -1.7919301
-1.0842022e-19 2.0410249 -2
2.0366547 2 -1.7875503
1.0842022e-19 2.0290418 0
2.0248516 1.0842022e-19 -1.7922434
3.6893488e+19 3.2609918 2
3.1820743 -3.6893488e+19 2.7662423
0 3.1976511 2
3.1441913 -0 2.6073546
-1.0842022e-19 3.1979682 0
3.1444707 0 2.5906065
1.0842022e-19 3.1976593 3.6893488e+19
3.1441984 -3.6893488e+19 2.5734184
0 3.1982808 -3.6893488e+19
3.1447456 0 2.5569201
0 3.1753469 2
3.166769 1.0842022e-19 2.5475531
-3.6893488e+19 3.2201388 -2
3.1391594 -0 2.5376866
-3.6893488e+19 3.1828077 -1.0842022e-19
3.1489139 -0 2.5191364
-3.6893488e+19 3.2140775 -2
3.1341422 0 2.5169578
1.0842022e-19 3.1790297 0
3.1454318 -2 2.5003192
2 3.2142811 1.0842022e-19
3.1343107 2 2.5000737
3.6893488e+19 3.1868851 0
3.1526721 -1.0842022e-19 2.4763105
3.6893488e+19 3.2199008 2
3.1389625 -2 2.471844
0 3.1831987 -0
3.1492741 2 2.439132
2 3.2152431 1.0842022e-19
3.135107 -1.0842022e-19 2.4331894
0 3.1823478 0
3.14849 0 2.4052117
2 3.2236555 -1.0842022e-19
3.1420703 -1.0842022e-19 2.4064803
-1.0842022e-19 3.1798937 -1.0842022e-19
3.1462281 -0 2.3700874
1.0842022e-19 3.2177718 1.0842022e-19
3.1372001 -1.0842022e-19 2.3673508
-1.0842022e-19 3.1783786 2
3.1448317 3.6893488e+19 2.3361042
-0 3.2192798 0
3.1384485 3.6893488e+19 2.3343878
-2 3.1286192 -0
3.098969 1.0842022e-19 2.2682092
0 3.1701107 0
3.1616385 2 2.2899024
3.6893488e+19 3.1948111 2
3.1416905 2 2.2755468
-2 3.1693447 -0
3.160888 1.0842022e-19 2.256525
0 3.1928492 -1.0842022e-19
3.1399627 -3.6893488e+19 2.2326443
1.0842022e-19 3.1680896 1.0842022e-19
3.1596582 3.6893488e+19 2.1960502
-3.6893488e+19 3.189997 0
3.1374514 -3.6893488e+19 2.1640024
1.0842022e-19 3.1178367 -2
3.1104186 0 2.0848792
-0 3.1217093 -2
3.0773187 0 2.0444098
2 3.1691966 -1.0842022e-19
3.1607428 3.6893488e+19 2.0660932
-2 3.1729479 -3.6893488e+19
3.1224382 2 2.0220699
-2 3.1694186 2
3.1609604 0 2.0007
-1.0842022e-19 3.1726046 -1.0842022e-19
3.1221359 0 1.9589914
1.0842022e-19 3.1186268 0
3.1111929 -3.6893488e+19 1.9127513
-3.6893488e+19 3.1674566 -0
3.1176028 2 1.8943858
-1.0842022e-19 3.1181104 1.0842022e-19
3.110687 0 1.8350401
3.6893488e+19 3.1261947 -3.6893488e+19
3.0812683 -1.0842022e-19 1.773381
-1.0842022e-19 3.1476524 3.6893488e+19
3.0791585 0 1.6904644
-1.0842022e-19 3.144264 -1.0842022e-19
3.1133885 1.0842022e-19 1.531376
-0 3.1235137 2
3.0591776 -0 -1.3997891
2 3.1068292 2
3.0788853 -0 -1.6457216
-0 3.1421814 -2
3.0746298 -1.0842022e-19 -1.7582204
3.6893488e+19 3.1303372 -3.6893488e+19
3.1005523 -1.0842022e-19 -1.8180649
2 3.141283 -1.0842022e-19
3.0738862 -2 -1.8712512
2 3.1410491 2
3.1104255 -3.6893488e+19 -1.9085764
-2 3.1431093 -1.0842022e-19
3.075398 0 -1.9306338
-1.0842022e-19 3.0538828 -0
3.0300853 -2 -1.9193516
-0 3.0655334 1.0842022e-19
3.0111842 -3.6893488e+19 -1.9407088
-0 2.7741487 -3.6893488e+19
2.7526796 -2 -1.8610404
-3.6893488e+19 2.7447677 -1.0842022e-19
2.6595461 0 -1.8462518
-1.0842022e-19 2.6858437 2
2.6517122 -0 -1.8457435
3.6893488e+19 2.6344223 1.0842022e-19
2.6266699 -0 -1.8404819
3.6893488e+19 2.6217148 -3.6893488e+19
2.5773234 -0 -1.8371481
-3.6893488e+19 2.5653741 1.0842022e-19
2.5590143 -3.6893488e+19 -1.82647
-1.0842022e-19 2.5665061 -3.6893488e+19
2.528708 -0 -1.8292371
-0 2.5260365 0
2.5204699 2 -1.8229735
-3.6893488e+19 2.5204077 3.6893488e+19
2.4762299 -3.6893488e+19 -1.8196646
3.6893488e+19 2.4821687 3.6893488e+19
2.472445 -0 -1.8168131
2 2.4861002 -1.0842022e-19
2.4280486 1.0842022e-19 -1.8181238
-0 2.4349191 0
2.4261484 0 -1.8150915
-2 2.4327266 -1.0842022e-19
2.3810492 -0 -1.8130931
-1.0842022e-19 2.3800488 3.6893488e+19
2.3723845 -2 -1.806043
3.6893488e+19 2.3840649 -2
2.3381987 -2 -1.8063157
1.0842022e-19 2.3497634 -0
2.3427098 -0 -1.8053789
3.6893488e+19 2.3515067 0
2.3095288 1.0842022e-19 -1.8041147
1.0842022e-19 2.3210988 0
2.3146234 0 -1.8032473
3.6893488e+19 3.2609918 2
3.1820743 -3.6893488e+19 2.7662423
0 3.1976511 2
3.1441913 -0 2.6073546
-1.0842022e-19 3.1979682 0
3.1444707 0 2.5906065
1.0842022e-19 3.1976593 3.6893488e+19
3.1441984 -3.6893488e+19 2.5734184
0 3.1982808 -3.6893488e+19
3.1447456 0 2.5569201
0 3.1753469 2
3.166769 1.0842022e-19 2.5475531
-3.6893488e+19 3.2201388 -2
3.1391594 -0 2.5376866
-3.6893488e+19 3.1828077 -1.0842022e-19
3.1489139 -0 2.5191364
-3.6893488e+19 3.2140775 -2
3.1341422 0 2.5169578
1.0842022e-19 3.1790297 0
3.1454318 -2 2.5003192
-0 3.1335406 3.6893488e+19
3.0674775 -1.0842022e-19 2.4131696
3.6893488e+19 3.1742642 3.6893488e+19
3.1410394 -0 2.4625506
1.0842022e-19 3.1329701 1.0842022e-19
3.0670052 -1.0842022e-19 2.3845537
0 3.1831987 -0
3.1492741 2 2.439132
-1.0842022e-19 3.1333387 3.6893488e+19
3.0673103 3.6893488e+19 2.3569281
1.0842022e-19 3.1339734 2
3.1039038 -2 2.3598733
-2 3.1329691 3.6893488e+19
3.0670044 -0 2.3286555
-3.6893488e+19 3.1317892 2
3.1018908 0 2.3286753
2 3.1340687 -1.0842022e-19
3.0679145 3.6893488e+19 2.3016171
-2 3.1299736 -1.0842022e-19
3.1002173 0 2.298126
-0 3.1343338 2
3.0681341 -2 2.273859
-2 3.1286192 -0
3.098969 1.0842022e-19 2.2682092
-0 3.1268229 1.0842022e-19
3.1192238 -1.0842022e-19 2.2600312
-0 3.1312432 2
3.0857141 0 2.222337
3.6893488e+19 3.1275551 0
3.1199412 -3.6893488e+19 2.2119222
3.6893488e+19 3.1315758 -0
3.0860069 -1.0842022e-19 2.1658649
-0 3.1167648 -2
3.1093683 -3.6893488e+19 2.1412928
3.6893488e+19 3.121815 -1.0842022e-19
3.0774117 -0 2.0998485
1.0842022e-19 3.1178367 -2
3.1104186 0 2.0848792
-0 3.1217093 -2
3.0773187 0 2.0444098
-1.0842022e-19 3.1194935 1.0842022e-19
3.1120422 -3.6893488e+19 2.0286148
1.0842022e-19 3.123508 3.6893488e+19
3.0789025 -2 1.9902666
3.6893488e+19 3.1215348 2
3.1140423 -1.0842022e-19 1.9720782
1.0842022e-19 3.1190991 -2
3.0750201 0 1.9325312
1.0842022e-19 3.1186268 0
3.1111929 -3.6893488e+19 1.9127513
1.0842022e-19 3.1170628 -3.6893488e+19
3.0732269 -1.0842022e-19 1.876956
-1.0842022e-19 3.1181104 1.0842022e-19
3.110687 0 1.8350401
3.6893488e+19 3.1261947 -3.6893488e+19
3.0812683 -1.0842022e-19 1.773381
0 3.1217265 0
3.0576982 -1.0842022e-19 1.6780465
-3.6893488e+19 3.105798 -0
3.077935 2 1.5161194
-0 3.1235137 2
3.0591776 -0 -1.3997891
2 3.1068292 2
3.0788853 -0 -1.6457216
-1.0842022e-19 3.1260049 -1.0842022e-19
3.0612397 3.6893488e+19 -1.7527255
-0 3.1107838 -0
3.0825303 -1.0842022e-19 -1.8081393
-3.6893488e+19 3.1263113 -0
3.0614934 1.0842022e-19 -1.861829
1.0842022e-19 3.1176841 -1.0842022e-19
3.0888901 -2 -1.8991015
-2 3.1431093 -1.0842022e-19
3.075398 0 -1.9306338
-1.0842022e-19 3.0538828 -0
3.0300853 -2 -1.9193516
-0 3.0655334 1.0842022e-19
3.0111842 -3.6893488e+19 -1.9407088
-0 2.7741487 -3.6893488e+19
2.7526796 -2 -1.8610404
-3.6893488e+19 2.7447677 -1.0842022e-19
2.6595461 0 -1.8462518
-1.0842022e-19 2.6858437 2
2.6517122 -0 -1.8457435
3.6893488e+19 2.6344223 1.0842022e-19
2.6266699 -0 -1.8404819
3.6893488e+19 2.6217148 -3.6893488e+19
2.5773234 -0 -1.8371481
-3.6893488e+19 2.5653741 1.0842022e-19
2.5590143 -3.6893488e+19 -1.82647
-1.0842022e-19 2.5665061 -3.6893488e+19
2.528708 -0 -1.8292371
-0 2.5260365 0
2.5204699 2 -1.8229735
-3.6893488e+19 2.5204077 3.6893488e+19
2.4762299 -3.6893488e+19 -1.8196646
3.6893488e+19 2.4821687 3.6893488e+19
2.472445 -0 -1.8168131
2 2.4861002 -1.0842022e-19
2.4280486 1.0842022e-19 -1.8181238
-0 2.4349191 0
2.4261484 0 -1.8150915
-2 2.4327266 -1.0842022e-19
2.3810492 -0 -1.8130931
-1.0842022e-19 2.3800488 3.6893488e+19
2.3723845 -2 -1.806043
3.6893488e+19 2.3840649 -2
2.3381987 -2 -1.8063157
1.0842022e-19 2.3497634 -0
2.3427098 -0 -1.8053789
3.6893488e+19 2.3515067 0
2.3095288 1.0842022e-19 -1.8041147
1.0842022e-19 2.3210988 0
2.3146234 0 -1.8032473
0 3.2519495 -2
3.1913826 3.6893488e+19 2.7088165
3.6893488e+19 3.2547958 1.0842022e-19
3.1963692 1.0842022e-19 2.694577
-0 3.1984966 -2
3.1428537 2 2.6072066
-3.6893488e+19 3.2240772 1.0842022e-19
3.2120879 0 2.6371963
-2 3.2002804 -2
3.1444163 3.6893488e+19 2.5915773
3.6893488e+19 3.1973164 -2
3.14182 -3.6893488e+19 2.5724277
0 3.1986144 0
3.142957 0 2.5564423
-0 3.1769927 2
3.166194 -2 2.5479403
-2 3.2189529 -0
3.1361113 -0 2.5363407
-0 3.1838288 -0
3.1477573 0 2.5191224
-2 3.180156 -1.0842022e-19
3.1443899 3.6893488e+19 2.5003726
-1.0842022e-19 3.2173502 -2
3.1347916 3.6893488e+19 2.5011828
-2 3.1876867 3.6893488e+19
3.1512945 3.6893488e+19 2.4760363
3.6893488e+19 3.2194538 0
3.1365237 0 2.4703765
3.6893488e+19 3.1839683 -2
3.1478851 0 2.4388537
-3.6893488e+19 3.2181008 -3.6893488e+19
3.1354096 -1.0842022e-19 2.4349084
-3.6893488e+19 3.182656 -3.6893488e+19
3.146682 1.0842022e-19 2.404525
-1.0842022e-19 3.1349046 -0
3.0669103 -3.6893488e+19 2.3296025
1.0842022e-19 3.1796908 2
3.1439633 1.0842022e-19 2.3690226
-0 3.2209258 3.6893488e+19
3.1377356 -0 2.3690286
3.6893488e+19 3.1823297 2
3.1463828 1.0842022e-19 2.338388
-1.0842022e-19 3.2207775 3.6893488e+19
3.1376135 -3.6893488e+19 2.3347299
-1.0842022e-19 3.1912019 3.6893488e+19
3.1545174 1.0842022e-19 2.31179
2 3.1697361 -2
3.1591208 0 2.2889032
0 3.1963995 -0
3.1410167 2 2.2758949
3.6893488e+19 3.1717608 1.0842022e-19
3.1610944 2 2.2573431
-2 3.193846 -3.6893488e+19
3.1387801 -1.0842022e-19 2.2326188
-0 3.1711287 2
3.1604784 0 2.1981435
0 3.1885922 2
3.1341782 -1.0842022e-19 2.1617317
-1.0842022e-19 3.1707888 3.6893488e+19
3.160147 0 2.132107
0 3.1236231 0
3.0772696 -2 2.0452449
1.0842022e-19 3.1710992 0
3.1604495 0 2.0667157
3.6893488e+19 3.1242511 3.6893488e+19
3.0778196 2 1.9901912
-3.6893488e+19 3.1707625 -0
3.1601214 1.0842022e-19 2.00086
1.0842022e-19 3.1211717 -1.0842022e-19
3.0751221 -3.6893488e+19 1.9331341
0 3.1691751 0
3.1585741 -3.6893488e+19 1.9345953
0 3.1470537 3.6893488e+19
3.0977931 -1.0842022e-19 1.8870132
-1.0842022e-19 3.1226571 0
3.1132326 -2 1.8370904
-0 3.1207855 0
3.074784 -1.0842022e-19 1.7709112
1.0842022e-19 3.1242445 -1.0842022e-19
3.0581331 -2 1.6788651
0 3.1357021 0
3.1036322 1.0842022e-19 1.527612
-3.6893488e+19 3.1247327 -0
3.0585353 1.0842022e-19 -1.3999532
-3.6893488e+19 3.128315 2
3.0614848 1.0842022e-19 -1.7532325
3.6893488e+19 3.1335118 1.0842022e-19
3.101624 -3.6893488e+19 -1.8192079
-2 3.1455317 -2
3.07566 2 -1.8733872
3.6893488e+19 3.1367185 -2
3.104564 0 -1.906443
3.6893488e+19 3.1443467 3.6893488e+19
3.0746844 2 -1.9308107
0 3.0570798 -3.6893488e+19
3.0315468 0 -1.9207214
-3.6893488e+19 3.0672054 3.6893488e+19
3.0111704 -3.6893488e+19 -1.941305
2 2.7724624 -1.0842022e-19
2.7496159 -2 -1.8590239
-3.6893488e+19 2.7497921 -1.0842022e-19
2.6615026 -3.6893488e+19 -1.8480155
-3.6893488e+19 2.687079 3.6893488e+19
2.6507373 -1.0842022e-19 -1.8458365
-3.6893488e+19 2.6332624 2
2.6235697 3.6893488e+19 -1.8392823
-0 2.6197546 -0
2.5738809 -1.0842022e-19 -1.8355441
2 2.5660937 -1.0842022e-19
2.5580995 2 -1.8264132
1.0842022e-19 2.5674233 -0
2.5280421 2 -1.829358
-1.0842022e-19 2.5270123 -0
2.5200067 3.6893488e+19 -1.8231652
-3.6893488e+19 2.5251586 -1.0842022e-19
2.4820423 1.0842022e-19 -1.8226295
-1.0842022e-19 2.485548 1.0842022e-19
2.4732685 3.6893488e+19 -1.8176634
-1.0842022e-19 2.4872203 2
2.4267733 1.0842022e-19 -1.8181238
0 2.436213 -2
2.4251809 -1.0842022e-19 -1.8151692
2 2.4324119 3.6893488e+19
2.3787646 3.6893488e+19 -1.8125241
1.0842022e-19 2.3815587 2
2.3719089 -2 -1.8062973
-2 2.3853245 -1.0842022e-19
2.3375192 1.0842022e-19 -1.8064922
-2 2.3510168 -1.0842022e-19
2.3421395 0 -1.8055624
-0 2.3510063 -0
2.3074586 -1.0842022e-19 -1.8034484
-2 2.3226347 2
2.3144753 0 -1.8036419
-1.0842022e-19 2.2941818 2
2.2344279 0 -1.7975855
2 2.2525265 3.6893488e+19
2.1658342 0 -1.7916545
-1.0842022e-19 2.2002184 3.6893488e+19
2.1206863 0 -1.7901165
-3.6893488e+19 2.1542811 0
2.082864 -3.6893488e+19 -1.7881947
-0 2.1036861 2
2.0947413 2 -1.7930533
2 2.0683062 0
2.0602562 2 -1.789027
1.0842022e-19 2.0411189 -2
2.0337563 -0 -1.7867697
1.0842022e-19 2.0252261 -0
2.0182655 -2 -1.7891114
0 3.2519495 -2
3.1913826 3.6893488e+19 2.7088165
3.6893488e+19 3.2547958 1.0842022e-19
3.1963692 1.0842022e-19 2.694577
-0 3.1984966 -2
3.1428537 2 2.6072066
-3.6893488e+19 3.2240772 1.0842022e-19
3.2120879 0 2.6371963
-2 3.2002804 -2
3.1444163 3.6893488e+19 2.5915773
3.6893488e+19 3.1973164 -2
3.14182 -3.6893488e+19 2.5724277
0 3.1986144 0
3.142957 0 2.5564423
-0 3.1769927 2
3.166194 -2 2.5479403
-2 3.2189529 -0
3.1361113 -0 2.5363407
-0 3.1838288 -0
3.1477573 0 2.5191224
-2 3.180156 -1.0842022e-19
3.1443899 3.6893488e+19 2.5003726
0 3.1339395 1.0842022e-19
3.0661156 1.0842022e-19 2.4127054
-2 3.1876867 3.6893488e+19
3.1512945 3.6893488e+19 2.4760363
1.0842022e-19 3.1358407 -1.0842022e-19
3.0676808 -0 2.3865988
3.6893488e+19 3.1839683 -2
3.1478851 0 2.4388537
1.0842022e-19 3.1340489 1.0842022e-19
3.0662057 1.0842022e-19 2.3568165
1.0842022e-19 3.1366436 -2
3.1044953 -0 2.3615041
-1.0842022e-19 3.1349046 -0
3.0669103 -3.6893488e+19 2.3296025
1.0842022e-19 3.1796908 2
3.1439633 1.0842022e-19 2.3690226
3.6893488e+19 3.1344194 -3.6893488e+19
3.0665107 1.0842022e-19 2.3012402
2 3.1314187 0
3.099705 -2 2.2985394
3.6893488e+19 3.1355274 -3.6893488e+19
3.0674229 -0 2.2741158
-1.0842022e-19 3.1197407 0
3.0889981 0 2.2612896
2 3.1170905 0
3.1078067 -1.0842022e-19 2.2526672
2 3.1319575 2
3.0845699 3.6893488e+19 2.2221339
-1.0842022e-19 3.1180658 0
3.1087575 2 2.1991608
-0 3.1309526 3.6893488e+19
3.0836897 3.6893488e+19 2.1642313
1.0842022e-19 3.1173477 -2
3.1080573 -0 2.1409123
1.0842022e-19 3.1324883 -3.6893488e+19
3.0850346 1.0842022e-19 2.1090639
-0 3.1196296 0
3.1102817 1.0842022e-19 2.0856507
0 3.1236231 0
3.0772696 -2 2.0452449
1.0842022e-19 3.1194794 -0
3.1101351 -3.6893488e+19 2.0278914
3.6893488e+19 3.1242511 3.6893488e+19
3.0778196 2 1.9901912
-0 3.1221073 2
3.1126966 -1.0842022e-19 1.9718515
1.0842022e-19 3.1211717 -1.0842022e-19
3.0751221 -3.6893488e+19 1.9331341
2 3.1214068 2
3.1120138 2 1.9135593
3.6893488e+19 3.1166394 3.6893488e+19
3.0711522 -1.0842022e-19 1.876518
-1.0842022e-19 3.1226571 0
3.1132326 -2 1.8370904
-0 3.1207855 0
3.074784 -1.0842022e-19 1.7709112
1.0842022e-19 3.1242445 -1.0842022e-19
3.0581331 -2 1.6788651
2 3.1169755 -3.6893488e+19
3.0864625 0 1.5202024
-3.6893488e+19 3.1247327 -0
3.0585353 1.0842022e-19 -1.3999532
-3.6893488e+19 3.128315 2
3.0614848 1.0842022e-19 -1.7532325
3.6893488e+19 3.1335118 1.0842022e-19
3.101624 -3.6893488e+19 -1.8192079
1.0842022e-19 3.1281879 -3.6893488e+19
3.0613799 2 -1.8624955
-3.6893488e+19 3.1188471 -3.6893488e+19
3.0881786 -0 -1.8992133
3.6893488e+19 3.1443467 3.6893488e+19
3.0746844 2 -1.9308107
0 3.0570798 -3.6893488e+19
3.0315468 0 -1.9207214
-3.6893488e+19 3.0672054 3.6893488e+19
3.0111704 -3.6893488e+19 -1.941305
2 2.7724624 -1.0842022e-19
2.7496159 -2 -1.8590239
-3.6893488e+19 2.7497921 -1.0842022e-19
2.6615026 -3.6893488e+19 -1.8480155
-3.6893488e+19 2.687079 3.6893488e+19
2.6507373 -1.0842022e-19 -1.8458365
-3.6893488e+19 2.6332624 2
2.6235697 3.6893488e+19 -1.8392823
-0 2.6197546 -0
2.5738809 -1.0842022e-19 -1.8355441
2 2.5660937 -1.0842022e-19
2.5580995 2 -1.8264132
1.0842022e-19 2.5674233 -0
2.5280421 2 -1.829358
-1.0842022e-19 2.5270123 -0
2.5200067 3.6893488e+19 -1.8231652
-3.6893488e+19 2.5251586 -1.0842022e-19
2.4820423 1.0842022e-19 -1.8226295
-1.0842022e-19 2.485548 1.0842022e-19
2.4732685 3.6893488e+19 -1.8176634
-1.0842022e-19 2.4872203 2
2.4267733 1.0842022e-19 -1.8181238
0 2.436213 -2
2.4251809 -1.0842022e-19 -1.8151692
2 2.4324119 3.6893488e+19
2.3787646 3.6893488e+19 -1.8125241
1.0842022e-19 2.3815587 2
2.3719089 -2 -1.8062973
-2 2.3853245 -1.0842022e-19
2.3375192 1.0842022e-19 -1.8064922
-2 2.3510168 -1.0842022e-19
2.3421395 0 -1.8055624
-0 2.3510063 -0
2.3074586 -1.0842022e-19 -1.8034484
-2 2.3226347 2
2.3144753 0 -1.8036419
-1.0842022e-19 2.2941818 2
2.2344279 0 -1.7975855
2 2.2525265 3.6893488e+19
2.1658342 0 -1.7916545
-1.0842022e-19 2.2002184 3.6893488e+19
2.1206863 0 -1.7901165
-3.6893488e+19 2.1542811 0
2.082864 -3.6893488e+19 -1.7881947
-0 2.1036861 2
2.0947413 2 -1.7930533
2 2.0683062 0
2.0602562 2 -1.789027
1.0842022e-19 2.0411189 -2
2.0337563 -0 -1.7867697
1.0842022e-19 2.0252261 -0
2.0182655 -2 -1.7891114
-0 3.2553566 -0
3.1949916 3.6893488e+19 2.6945364
-2 3.2228391 -2
3.2084706 3.6893488e+19 2.6539776
-2 3.2251534 -2
3.2107146 -3.6893488e+19 2.6370876
0 3.2279963 3.6893488e+19
3.1664848 -2 2.6117728
2 3.1988714 -2
3.1411078 -0 2.5559165
-1.0842022e-19 3.1781042 3.6893488e+19
3.1650951 -3.6893488e+19 2.5479558
-3.6893488e+19 3.1846907 2
3.1287522 -2 2.5299261
-2 3.2201552 -3.6893488e+19
3.1350381 2 2.5364578
3.6893488e+19 3.1833787 1.0842022e-19
3.1452591 -1.0842022e-19 2.5181994
2 3.1811652 -1.0842022e-19
3.1432402 3.6893488e+19 2.5003593
1.0842022e-19 3.2203531 1.0842022e-19
3.1352003 1.0842022e-19 2.5022533
0 3.1868532 -3.6893488e+19
3.1484277 1.0842022e-19 2.4739923
-0 3.218925 -2
3.1340306 2 2.4688365
-0 3.1673765 -3.6893488e+19
3.1306643 1.0842022e-19 2.4210649
-0 3.2198076 -0
3.1347535 1.0842022e-19 2.4355559
2 3.1843154 3.6893488e+19
3.1461134 1.0842022e-19 2.4051044
0 3.2236078 -1.0842022e-19
3.1378655 -2 2.4046891
-2 3.1739776 -2
3.1366849 3.6893488e+19 2.3632445
0 3.2217717 -2
3.1363618 0 2.3688967
0 3.182584 -3.6893488e+19
3.1445341 -2 2.3377764
-2 3.2225394 3.6893488e+19
3.1369908 0 2.3352606
-2 3.1833208 -3.6893488e+19
3.1452062 -3.6893488e+19 2.3054874
1.0842022e-19 3.1699784 -1.0842022e-19
3.1572161 1.0842022e-19 2.2883344
2 3.1956584 0
3.1383085 -1.0842022e-19 2.274807
-0 3.1709774 -1.0842022e-19
3.1581848 -3.6893488e+19 2.2562113
0 3.1962988 1.0842022e-19
3.1388664 0 2.2341762
2 3.1728306 1.0842022e-19
3.1599817 -0 2.1988094
-3.6893488e+19 3.1820886 -2
3.1264849 3.6893488e+19 2.1546991
3.6893488e+19 3.17314 -3.6893488e+19
3.1602817 3.6893488e+19 2.1332643
2 3.1236789 -2
3.0755916 -0 2.0446138
3.6893488e+19 3.1720164 0
3.1591923 1.0842022e-19 2.0665979
-3.6893488e+19 3.1700664 -3.6893488e+19
3.1160097 1.0842022e-19 2.0189786
-0 3.1710286 1.0842022e-19
3.1582346 3.6893488e+19 2.0003798
1.0842022e-19 3.1712282 0
3.117022 -0 1.9573565
-2 3.1680012 1.0842022e-19
3.1552992 -1.0842022e-19 1.9336101
1.0842022e-19 3.1368444 -1.0842022e-19
3.0870628 1.0842022e-19 1.883185
3.6893488e+19 3.1237648 0
3.112407 -0 1.8371795
1.0842022e-19 3.1216354 -1.0842022e-19
3.0738111 -1.0842022e-19 1.7709112
-2 3.1239142 3.6893488e+19
3.0562208 -3.6893488e+19 1.6783231
2 3.1441777 2
3.1095061 1.0842022e-19 1.5305922
3.6893488e+19 3.1258061 3.6893488e+19
3.05777 0 -1.4000595
-3.6893488e+19 3.116329 0
3.0841072 3.6893488e+19 -1.6488839
0 3.127728 -2
3.0593438 -1.0842022e-19 -1.7527581
-2 3.1330235 -3.6893488e+19
3.099333 -0 -1.8184965
-1.0842022e-19 3.1295586 2
3.0608432 1.0842022e-19 -1.862844
-0 3.1351993 -3.6893488e+19
3.1013174 -2 -1.9054554
1.0842022e-19 3.1343091 0
3.1005056 1.0842022e-19 -1.9631457
0 3.0680823 -3.6893488e+19
3.0104964 -3.6893488e+19 -1.9414214
2 2.7743158 -1.0842022e-19
2.7501872 1.0842022e-19 -1.860052
-1.0842022e-19 2.7487433 -2
2.6584506 -1.0842022e-19 -1.8470691
-0 2.6903419 2
2.6516099 -2 -1.8469526
3.6893488e+19 2.633075 3.6893488e+19
2.6214342 -0 -1.8386325
1.0842022e-19 2.6209786 1.0842022e-19
2.5732388 -1.0842022e-19 -1.835758
2 2.5699463 3.6893488e+19
2.5602238 -0 -1.8283492
-3.6893488e+19 2.5691855 0
2.528111 -3.6893488e+19 -1.8300226
-0 2.527719 -1.0842022e-19
2.5192797 3.6893488e+19 -1.8231652
-0 2.5263536 2
2.4815817 -1.0842022e-19 -1.8230337
-3.6893488e+19 2.488935 3.6893488e+19
2.4740775 2 -1.8185138
-0 2.4892769 1.0842022e-19
2.4263139 0 -1.8184955
-0 2.4394729 2
2.4261184 3.6893488e+19 -1.816103
3.6893488e+19 2.433403 -3.6893488e+19
2.37763 3.6893488e+19 -1.8125241
0 2.3832474 0
2.3716013 -2 -1.8066363
-0 2.3860199 0
2.3363447 -2 -1.8064039
-2 2.3517334 3.6893488e+19
2.3410451 -2 -1.8054706
0 2.3501222 2
2.3050663 2 -1.8025919
-3.6893488e+19 2.3248866 2
2.3150141 -2 -1.804431
-0 3.2553566 -0
3.1949916 3.6893488e+19 2.6945364
-2 3.2228391 -2
3.2084706 3.6893488e+19 2.6539776
-2 3.2251534 -2
3.2107146 -3.6893488e+19 2.6370876
0 3.2279963 3.6893488e+19
3.1664848 -2 2.6117728
2 3.1988714 -2
3.1411078 -0 2.5559165
-1.0842022e-19 3.1781042 3.6893488e+19
3.1650951 -3.6893488e+19 2.5479558
-3.6893488e+19 3.1846907 2
3.1287522 -2 2.5299261
-2 3.2201552 -3.6893488e+19
3.1350381 2 2.5364578
3.6893488e+19 3.1833787 1.0842022e-19
3.1452591 -1.0842022e-19 2.5181994
2 3.1811652 -1.0842022e-19
3.1432402 3.6893488e+19 2.5003593
1.0842022e-19 3.2203531 1.0842022e-19
3.1352003 1.0842022e-19 2.5022533
0 3.1868532 -3.6893488e+19
3.1484277 1.0842022e-19 2.4739923
2 3.1349633 -3.6893488e+19
3.0652692 -0 2.3848906
-0 3.1673765 -3.6893488e+19
3.1306643 1.0842022e-19 2.4210649
-0 3.1352134 1.0842022e-19
3.0654743 0 2.3571291
2 3.1843154 3.6893488e+19
3.1461134 1.0842022e-19 2.4051044
3.6893488e+19 3.1340714 3.6893488e+19
3.064539 3.6893488e+19 2.328182
-0 3.130383 -2
3.0969248 -0 2.3258946
3.6893488e+19 3.1351271 -1.0842022e-19
3.0654035 -2 2.3011458
2 3.12151 0
3.0888324 0 2.2900879
3.6893488e+19 3.1371298 -3.6893488e+19
3.0670435 2 2.2746634
-2 3.1220102 0
3.0892887 -2 2.262264
1.0842022e-19 3.1699784 -1.0842022e-19
3.1572161 1.0842022e-19 2.2883344
3.6893488e+19 3.1335857 -1.0842022e-19
3.0842235 -1.0842022e-19 2.223062
-0 3.1709774 -1.0842022e-19
3.1581848 -3.6893488e+19 2.2562113
0 3.1358731 -2
3.0862164 1.0842022e-19 2.168622
-0 3.1194725 2
3.1082451 -0 2.1421731
1.0842022e-19 3.1362131 3.6893488e+19
3.0865128 -2 2.1117313
2 3.1215141 -2
3.1102245 0 2.0865035
2 3.1236789 -2
3.0755916 -0 2.0446138
1.0842022e-19 3.1207807 1.0842022e-19
3.1095135 -3.6893488e+19 2.0281606
-3.6893488e+19 3.1382499 -1.0842022e-19
3.0882876 -0 1.9986057
-0 3.1215987 1.0842022e-19
3.1103067 3.6893488e+19 1.9709846
-0 3.137804 0
3.0878992 0 1.9409029
-3.6893488e+19 3.122556 -0
3.1112349 2 1.913648
-2 3.1169143 3.6893488e+19
3.0696976 -1.0842022e-19 1.8763233
3.6893488e+19 3.1237648 0
3.112407 -0 1.8371795
1.0842022e-19 3.1216354 -1.0842022e-19
3.0738111 -1.0842022e-19 1.7709112
-2 3.1239142 3.6893488e+19
3.0562208 -3.6893488e+19 1.6783231
1.0842022e-19 3.1145082 1.0842022e-19
3.0824463 3.6893488e+19 1.5188808
3.6893488e+19 3.1258061 3.6893488e+19
3.05777 0 -1.4000595
-3.6893488e+19 3.116329 0
3.0841072 3.6893488e+19 -1.6488839
0 3.127728 -2
3.0593438 -1.0842022e-19 -1.7527581
-2 3.1166544 -3.6893488e+19
3.0844038 0 -1.8102272
-1.0842022e-19 3.1295586 2
3.0608432 1.0842022e-19 -1.862844
-0 3.1204479 1.0842022e-19
3.0878637 2 -1.8995022
1.0842022e-19 3.1343091 0
3.1005056 1.0842022e-19 -1.9631457
0 3.0680823 -3.6893488e+19
3.0104964 -3.6893488e+19 -1.9414214
2 2.7743158 -1.0842022e-19
2.7501872 1.0842022e-19 -1.860052
-1.0842022e-19 2.7487433 -2
2.6584506 -1.0842022e-19 -1.8470691
-0 2.6903419 2
2.6516099 -2 -1.8469526
3.6893488e+19 2.633075 3.6893488e+19
2.6214342 -0 -1.8386325
1.0842022e-19 2.6209786 1.0842022e-19
2.5732388 -1.0842022e-19 -1.835758
2 2.5699463 3.6893488e+19
2.5602238 -0 -1.8283492
-3.6893488e+19 2.5691855 0
2.528111 -3.6893488e+19 -1.8300226
-0 2.527719 -1.0842022e-19
2.5192797 3.6893488e+19 -1.8231652
-0 2.5263536 2
2.4815817 -1.0842022e-19 -1.8230337
-3.6893488e+19 2.488935 3.6893488e+19
2.4740775 2 -1.8185138
-0 2.4892769 1.0842022e-19
2.4263139 0 -1.8184955
-0 2.4394729 2
2.4261184 3.6893488e+19 -1.816103
3.6893488e+19 2.433403 -3.6893488e+19
2.37763 3.6893488e+19 -1.8125241
0 2.3832474 0
2.3716013 -2 -1.8066363
-0 2.3860199 0
2.3363447 -2 -1.8064039
-2 2.3517334 3.6893488e+19
2.3410451 -2 -1.8054706
0 2.3501222 2
2.3050663 2 -1.8025919
-3.6893488e+19 2.3248866 2
2.3150141 -2 -1.804431
-0 3.2079377 1.0842022e-19
3.1230319 1.0842022e-19 2.6970603
-1.0842022e-19 3.2614965 2
3.2032857 1.0842022e-19 2.7041898
0 3.2253065 -1.0842022e-19
3.2084522 1.0842022e-19 2.6550577
3.6893488e+19 3.2273386 -3.6893488e+19
3.2104123 -0 2.6378834
-2 3.1753054 0
3.1602244 2 2.5620093
-0 3.1998479 -2
3.1398895 0 2.5558848
1.0842022e-19 3.1766686 -1.0842022e-19
3.1615391 1.0842022e-19 2.546205
-3.6893488e+19 3.2207055 3.6893488e+19
3.1334324 3.6893488e+19 2.5361798
0 3.1840682 0
3.1438091 -0 2.5179865
3.6893488e+19 3.2227185 -0
3.135072 -0 2.5201783
2 3.1823554 -0
3.1422551 -2 2.5004525
3.6893488e+19 3.2221563 -2
3.134614 2 2.5026789
-1.0842022e-19 3.1839347 -1.0842022e-19
3.143688 0 2.4697049
1.0842022e-19 3.2191341 -2
3.1321521 1.0842022e-19 2.4680426
-2 3.1905875 -1.0842022e-19
3.1497238 -2 2.4434226
-2 3.2192216 2
3.1322236 0 2.4340825
-1.0842022e-19 3.1839223 3.6893488e+19
3.1436768 2 2.403774
-0 3.2264335 -1.0842022e-19
3.1380982 3.6893488e+19 2.4062333
3.6893488e+19 3.1304834 -1.0842022e-19
3.0951941 -1.0842022e-19 2.3252044
2 3.2225652 -1.0842022e-19
3.1349471 -0 2.368727
0 3.1841936 2
3.1439228 2 2.3382261
2 3.2237697 -3.6893488e+19
3.1359282 -3.6893488e+19 2.3354144
3.6893488e+19 3.1845629 0
3.144258 0 2.3056338
-1.0842022e-19 3.1723461 0
3.1573701 1.0842022e-19 2.2892261
0 3.1961324 -1.0842022e-19
3.1366692 -0 2.2744734
-1.0842022e-19 3.1706307 1.0842022e-19
3.1557155 1.0842022e-19 2.2553525
-1.0842022e-19 3.1983776 -3.6893488e+19
3.1386151 1.0842022e-19 2.2353249
1.0842022e-19 3.174016 1.0842022e-19
3.1589806 -0 2.1989284
2 3.1902459 -0
3.1315672 -1.0842022e-19 2.161401
1.0842022e-19 3.190937 1.0842022e-19
3.1321664 -3.6893488e+19 2.0968502
-1.0842022e-19 3.1730423 -0
3.1580415 -3.6893488e+19 2.0665641
-3.6893488e+19 3.1697967 1.0842022e-19
3.1138439 2 2.0181944
-0 3.1719847 -1.0842022e-19
3.1570213 -2 2.000313
-1.0842022e-19 3.1712205 -3.6893488e+19
3.1150777 -0 1.956881
-3.6893488e+19 3.1711757 3.6893488e+19
3.1562412 -3.6893488e+19 1.9345362
1.0842022e-19 3.1249762 -3.6893488e+19
3.0749969 0 1.8788053
-2 3.1233563 0
3.0735934 -1.0842022e-19 1.7712535
-2 3.1489923 -3.6893488e+19
3.0750153 1.0842022e-19 1.6898763
-3.6893488e+19 3.1149614 3.6893488e+19
3.0811119 2 1.5187168
3.6893488e+19 3.126781 -1.0842022e-19
3.0569222 -3.6893488e+19 -1.4001269
-0 3.1176662 -2
3.0835657 -1.0842022e-19 -1.6490716
-0 3.1505847 3.6893488e+19
3.0763125 2 -1.7601993
3.6893488e+19 3.1199827 -1.0842022e-19
3.0856674 0 -1.8114635
-3.6893488e+19 3.1288214 2
3.0585845 3.6893488e+19 -1.8618745
-2 3.1364889 -2
3.1006427 2 -1.9056045
-1.0842022e-19 3.1312914 1.0842022e-19
3.0605965 -2 -1.9240758
-2 3.1355038 0
3.0997491 -2 -1.9632993
-1.0842022e-19 3.0692966 2
3.0100961 -3.6893488e+19 -1.9417413
-0 2.7735367 2
2.7463334 -0 -1.8588263
0 2.7479725 1.0842022e-19
2.6556437 0 -1.8462518
-1.0842022e-19 2.6906531 0
2.6497834 1.0842022e-19 -1.8465806
-0 2.6351254 -1.0842022e-19
2.621469 1.0842022e-19 -1.8392323
-3.6893488e+19 2.624088 0
2.5742276 -0 -1.8370411
-3.6893488e+19 2.5713868 -2
2.5599906 3.6893488e+19 -1.8287479
2 2.5702906 -0
2.5276003 -0 -1.8302643
-0 2.5284238 1.0842022e-19
2.5185511 3.6893488e+19 -1.8231652
0 2.5265126 0
2.4793148 -0 -1.8226968
3.6893488e+19 2.4898169 -3.6893488e+19
2.4724481 3.6893488e+19 -1.818372
-0 2.4903924 -3.6893488e+19
2.42503 0 -1.8184955
-3.6893488e+19 2.4404087 -3.6893488e+19
2.4247921 -1.0842022e-19 -1.8160251
0 2.4342029 -1.0842022e-19
2.3763297 3.6893488e+19 -1.8124428
2 2.3842199 0
2.3705957 -2 -1.8066363
-1.0842022e-19 2.3870883 2
2.335495 1.0842022e-19 -1.8064922
-0 2.3526261 2
2.3401222 -2 -1.8054706
1.0842022e-19 2.3520489 2
2.3051257 -0 -1.8031629
-3.6893488e+19 2.3258901 0
2.3143344 2 -1.8045297
-3.6893488e+19 2.2940991 2
2.229141 -0 -1.7967979
-3.6893488e+19 2.2549586 -0
2.165374 3.6893488e+19 -1.7925389
3.6893488e+19 2.2006199 -2
2.1170707 -1.0842022e-19 -1.7895558
1.0842022e-19 2.1598508 1.0842022e-19
2.0838606 -2 -1.7897342
-3.6893488e+19 2.0987473 -0
2.086381 -1.0842022e-19 -1.7898666
-3.6893488e+19 2.0748825 -2
2.0633624 3.6893488e+19 -1.7915672
-1.0842022e-19 2.0418961 -0
2.0315456 -0 -1.7863795
-2 2.0266283 -0
2.0168192 -2 -1.7891114
2 3.206557 -1.0842022e-19
3.121907 -0 2.6957123
-0 3.2562068 -0
3.1941161 -1.0842022e-19 2.6950018
0 3.2253065 -1.0842022e-19
3.2084522 1.0842022e-19 2.6550577
3.6893488e+19 3.2273386 -3.6893488e+19
3.2104123 -0 2.6378834
-2 3.1753054 0
3.1602244 2 2.5620093
-0 3.1998479 -2
3.1398895 0 2.5558848
1.0842022e-19 3.1766686 -1.0842022e-19
3.1615391 1.0842022e-19 2.546205
-3.6893488e+19 3.2207055 3.6893488e+19
3.1334324 3.6893488e+19 2.5361798
0 3.1840682 0
3.1438091 -0 2.5179865
3.6893488e+19 3.2227185 -0
3.135072 -0 2.5201783
2 3.1823554 -0
3.1422551 -2 2.5004525
3.6893488e+19 3.2221563 -2
3.134614 2 2.5026789
-1.0842022e-19 3.1839347 -1.0842022e-19
3.143688 0 2.4697049
1.0842022e-19 3.2191341 -2
3.1321521 1.0842022e-19 2.4680426
3.6893488e+19 3.169064 2
3.1301966 -0 2.4217606
1.0842022e-19 3.1455469 -2
3.0722086 -3.6893488e+19 2.3659248
-1.0842022e-19 3.1839223 3.6893488e+19
3.1436768 2 2.403774
0 3.1344357 -0
3.0631576 -1.0842022e-19 2.3277907
3.6893488e+19 3.1304834 -1.0842022e-19
3.0951941 -1.0842022e-19 2.3252044
-1.0842022e-19 3.1386824 -0
3.066617 3.6893488e+19 2.3032761
-2 3.121681 2
3.0872083 -3.6893488e+19 2.2895303
1.0842022e-19 3.1367991 -1.0842022e-19
3.0650828 0 2.2738421
-3.6893488e+19 3.1236372 3.6893488e+19
3.0889831 0 2.262784
-1.0842022e-19 3.1723461 0
3.1573701 1.0842022e-19 2.2892261
0 3.1961324 -1.0842022e-19
3.1366692 -0 2.2744734
-1.0842022e-19 3.1706307 1.0842022e-19
3.1557155 1.0842022e-19 2.2553525
-2 3.1358094 2
3.0843866 -0 2.1676009
1.0842022e-19 3.174016 1.0842022e-19
3.1589806 -0 2.1989284
0 3.1369286 -3.6893488e+19
3.0853562 3.6893488e+19 2.111577
-3.6893488e+19 3.1234453 3.6893488e+19
3.0736704 0 2.0437601
0 3.1228456 -0
3.1096246 -0 2.0290017
-1.0842022e-19 3.1262238 -3.6893488e+19
3.0760784 -3.6893488e+19 1.990357
-3.6893488e+19 3.1249025 3.6893488e+19
3.1116087 0 1.972385
-1.0842022e-19 3.1712205 -3.6893488e+19
3.1150777 -0 1.956881
-1.0842022e-19 3.123389 3.6893488e+19
3.1101489 -3.6893488e+19 1.9135987
1.0842022e-19 3.1249762 -3.6893488e+19
3.0749969 0 1.8788053
-2 3.1233563 0
3.0735934 -1.0842022e-19 1.7712535
-0 3.1288102 -1.0842022e-19
3.0585752 -2 1.6802717
-3.6893488e+19 3.1149614 3.6893488e+19
3.0811119 2 1.5187168
3.6893488e+19 3.126781 -1.0842022e-19
3.0569222 -3.6893488e+19 -1.4001269
-0 3.1176662 -2
3.0835657 -1.0842022e-19 -1.6490716
-0 3.1264052 -3.6893488e+19
3.0566161 -0 -1.7520386
3.6893488e+19 3.1199827 -1.0842022e-19
3.0856674 0 -1.8114635
-3.6893488e+19 3.1288214 2
3.0585845 3.6893488e+19 -1.8618745
-2 3.120846 1.0842022e-19
3.0864508 0 -1.8993065
-1.0842022e-19 3.1312914 1.0842022e-19
3.0605965 -2 -1.9240758
-2 3.1355038 0
3.0997491 -2 -1.9632993
-1.0842022e-19 3.0692966 2
3.0100961 -3.6893488e+19 -1.9417413
-0 2.7735367 2
2.7463334 -0 -1.8588263
0 2.7479725 1.0842022e-19
2.6556437 0 -1.8462518
-1.0842022e-19 2.6906531 0
2.6497834 1.0842022e-19 -1.8465806
-0 2.6351254 -1.0842022e-19
2.621469 1.0842022e-19 -1.8392323
-3.6893488e+19 2.624088 0
2.5742276 -0 -1.8370411
-3.6893488e+19 2.5713868 -2
2.5599906 3.6893488e+19 -1.8287479
2 2.5702906 -0
2.5276003 -0 -1.8302643
-0 2.5284238 1.0842022e-19
2.5185511 3.6893488e+19 -1.8231652
0 2.5265126 0
2.4793148 -0 -1.8226968
3.6893488e+19 2.4898169 -3.6893488e+19
2.4724481 3.6893488e+19 -1.818372
-0 2.4903924 -3.6893488e+19
2.42503 0 -1.8184955
-3.6893488e+19 2.4404087 -3.6893488e+19
2.4247921 -1.0842022e-19 -1.8160251
0 2.4342029 -1.0842022e-19
2.3763297 3.6893488e+19 -1.8124428
2 2.3842199 0
2.3705957 -2 -1.8066363
-1.0842022e-19 2.3870883 2
2.335495 1.0842022e-19 -1.8064922
-0 2.3526261 2
2.3401222 -2 -1.8054706
1.0842022e-19 2.3520489 2
2.3051257 -0 -1.8031629
-3.6893488e+19 2.3258901 0
2.3143344 2 -1.8045297
-3.6893488e+19 2.2940991 2
2.229141 -0 -1.7967979
-3.6893488e+19 2.2549586 -0
2.165374 3.6893488e+19 -1.7925389
3.6893488e+19 2.2006199 -2
2.1170707 -1.0842022e-19 -1.7895558
1.0842022e-19 2.1598508 1.0842022e-19
2.0838606 -2 -1.7897342
-3.6893488e+19 2.0987473 -0
2.086381 -1.0842022e-19 -1.7898666
-3.6893488e+19 2.0748825 -2
2.0633624 3.6893488e+19 -1.7915672
-1.0842022e-19 2.0418961 -0
2.0315456 -0 -1.7863795
-2 2.0266283 -0
2.0168192 -2 -1.7891114
1.0842022e-19 3.2087946 -2
3.1217337 -2 2.696944
-1.0842022e-19 3.254281 -1.0842022e-19
3.1884494 -3.6893488e+19 2.6714537
-1.0842022e-19 3.2268851 2
3.2075686 1.0842022e-19 2.6553798
3.6893488e+19 3.2167158 -0
3.1523721 -2 2.6191862
-0 3.2285211 2
3.2091384 -0 2.6378653
2 3.1761556 -0
3.1588938 2 2.5618458
0 3.2008917 3.6893488e+19
3.1387296 -2 2.5559006
1.0842022e-19 3.1778128 -2
3.1604838 1.0842022e-19 2.5462515
-3.6893488e+19 3.2043388 -3.6893488e+19
3.1417015 -3.6893488e+19 2.5412526
-0 3.2192252 2
3.1301851 3.6893488e+19 2.534673
-0 3.1853292 -2
3.1428781 -3.6893488e+19 2.5181284
-3.6893488e+19 3.1764617 0
3.1348755 -0 2.492907
-0 3.225143 2
3.13498 0 2.5037365
-1.0842022e-19 3.1811562 -2
3.139112 -3.6893488e+19 2.4655917
-2 3.2191188 1.0842022e-19
3.1300991 -1.0842022e-19 2.467032
-1.0842022e-19 3.1900859 3.6893488e+19
3.147171 0 2.4418688
0 3.2204154 -0
3.1311493 2 2.4342611
-3.6893488e+19 3.1840048 -2
3.1416829 3.6893488e+19 2.4028943
-2 3.2312722 1.0842022e-19
3.1399462 -0 2.4094863
-2 3.184833 0
3.1424305 3.6893488e+19 2.3707776
3.6893488e+19 3.2250977 1.0842022e-19
3.1349432 -2 2.3699145
2 3.1832113 -2
3.1409667 -0 2.3366616
3.6893488e+19 3.2276378 -0
3.1370013 -1.0842022e-19 2.3374338
-1.0842022e-19 3.1838353 0
3.14153 2 2.3043993
-1.0842022e-19 3.1806593 -1.0842022e-19
3.1632152 3.6893488e+19 2.2941763
-2 3.2032166 -1.0842022e-19
3.140734 -3.6893488e+19 2.2782009
1.0842022e-19 3.1693735 -1.0842022e-19
3.1523864 1.0842022e-19 2.2539482
0 3.2022784 -0
3.139925 -0 2.2384391
-2 3.1751988 -0
3.1579759 2 2.1990473
3.6893488e+19 3.1914334 -3.6893488e+19
3.1305752 3.6893488e+19 2.1615775
1.0842022e-19 3.1774251 -1.0842022e-19
3.1601119 -2 2.1351931
0 3.1930487 -0
3.1319678 1.0842022e-19 2.0977228
0 3.1743808 -2
3.1571908 -1.0842022e-19 2.066766
-2 3.1281416 -0
3.0760093 2 1.9910357
1.0842022e-19 3.1733429 1.0842022e-19
3.1561952 -3.6893488e+19 2.0004864
-0 3.1268396 1.0842022e-19
3.0748868 1.0842022e-19 1.9346647
3.6893488e+19 3.1228211 -2
3.1077197 2 1.9129386
-0 3.1391973 2
3.0855408 0 1.8833878
-3.6893488e+19 3.1247797 -0
3.1095991 2 1.8366829
-1.0842022e-19 3.1390898 -1.0842022e-19
3.085448 2 1.7770718
1.0842022e-19 3.1259999 -3.6893488e+19
3.0546501 3.6893488e+19 1.6785538
1.0842022e-19 3.1145289 2
3.0789819 -3.6893488e+19 1.5182064
0 3.1291866 -0
3.0572321 -1.0842022e-19 -1.4007641
-0 3.1172168 1.0842022e-19
3.0814078 -2 -1.6485367
1.0842022e-19 3.1506131 0
3.0745928 0 -1.7599213
-3.6893488e+19 3.1228793 -0
3.086518 1.0842022e-19 -1.8124782
-0 3.1425445 2
3.0680554 3.6893488e+19 -1.8699334
-1.0842022e-19 3.1211467 0
3.0849545 2 -1.8990736
3.6893488e+19 3.1315458 1.0842022e-19
3.0591438 1.0842022e-19 -1.9238216
-1.0842022e-19 3.1368365 -2
3.0991142 -1.0842022e-19 -1.9635297
-1.0842022e-19 3.0699043 3.6893488e+19
3.0091994 -3.6893488e+19 -1.9416977
-2 2.7785678 -0
2.7514033 -0 -1.8206512
1.0842022e-19 2.7783124 3.6893488e+19
2.7511728 -2 -1.8623451
1.0842022e-19 2.7504387 -2
2.6558309 -1.0842022e-19 -1.8470691
1.0842022e-19 2.690587 0
2.6476233 0 -1.8460226
-2 2.6345661 -1.0842022e-19
2.618989 -3.6893488e+19 -1.8383825
3.6893488e+19 2.6273 -2
2.5752835 -3.6893488e+19 -1.8383777
-2 2.5724683 -2
2.5594065 3.6893488e+19 -1.8289187
3.6893488e+19 2.5711114 -1.0842022e-19
2.5268414 3.6893488e+19 -1.8303248
-1.0842022e-19 2.5310168 -3.6893488e+19
2.519634 -3.6893488e+19 -1.8245071
-3.6893488e+19 2.5269506 0
2.4775381 0 -1.8225621
-3.6893488e+19 2.4901536 2
2.4702997 -0 -1.8180177
3.6893488e+19 2.4916935 1.0842022e-19
2.4239063 -0 -1.8185698
1.0842022e-19 2.4406214 -2
2.4227736 0 -1.8156362
-2 2.4359424 3.6893488e+19
2.3758414 0 -1.812768
1.0842022e-19 2.3855493 0
2.3699324 -2 -1.8068058
-1.0842022e-19 2.3898523 -2
2.3361053 -0 -1.8073745
-1.0842022e-19 2.3533366 2
2.3390245 -0 -1.8053789
-0 2.3543551 -2
2.3055019 3.6893488e+19 -1.8039243
1.0842022e-19 2.3272514 -0
2.3139958 -1.0842022e-19 -1.8048255
-0 3.2060032 -2
3.119472 -1.0842022e-19 2.6942248
-1.0842022e-19 3.254281 -1.0842022e-19
3.1884494 -3.6893488e+19 2.6714537
-1.0842022e-19 3.2268851 2
3.2075686 1.0842022e-19 2.6553798
3.6893488e+19 3.2167158 -0
3.1523721 -2 2.6191862
-0 3.2285211 2
3.2091384 -0 2.6378653
2 3.1761556 -0
3.1588938 2 2.5618458
0 3.2008917 3.6893488e+19
3.1387296 -2 2.5559006
1.0842022e-19 3.1778128 -2
3.1604838 1.0842022e-19 2.5462515
-3.6893488e+19 3.2043388 -3.6893488e+19
3.1417015 -3.6893488e+19 2.5412526
-0 3.2192252 2
3.1301851 3.6893488e+19 2.534673
-0 3.1853292 -2
3.1428781 -3.6893488e+19 2.5181284
-3.6893488e+19 3.1764617 0
3.1348755 -0 2.492907
-0 3.225143 2
3.13498 0 2.5037365
-1.0842022e-19 3.1811562 -2
3.139112 -3.6893488e+19 2.4655917
0 3.143595 -1.0842022e-19
3.0689063 1.0842022e-19 2.391844
0 3.175164 0
