# .PCD v0.7 - Point Cloud Data file format
VERSION 0.7
FIELDS x y z
SIZE 4 4 4
TYPE F F F
COUNT 1 1 1
WIDTH 1722
HEIGHT 1
VIEWPOINT 0 0 0 1 0 0 0
POINTS 1722
DATA ascii
2.4313004 0 2.1047525
1.0842022e-19 2.9883134 -3.6893488e+19
2.2296262 1.0842022e-19 2.0186691
-2 3.0544827 -3.6893488e+19
2.4316797 -2 2.0704098
-1.0842022e-19 3.0136778 0
2.4406636 2 2.0140307
-2 3.0467861 3.6893488e+19
2.3654182 2 2.0275247
0 3.0124707 -1.0842022e-19
2.4386458 -2 1.9828175
-3.6893488e+19 3.0412226 3.6893488e+19
2.3585682 -0 1.9893575
-2 3.0127468 1.0842022e-19
2.4391077 -1.0842022e-19 1.9530436
-1.0842022e-19 3.1025693 -0
2.4341013 -0 1.9999057
2 3.0137441 0
2.4407742 1.0842022e-19 1.9237012
-2 3.0415239 -0
2.3589392 1.0842022e-19 1.9236805
-1.0842022e-19 3.0108461 0
2.4359312 1.0842022e-19 1.892033
3.6893488e+19 3.0411286 -1.0842022e-19
2.3584523 0 1.8905575
-3.6893488e+19 3.0152731 -1.0842022e-19
2.4433296 2 1.8533739
2 3.0036032 3.6893488e+19
2.3122492 0 1.8125962
-1.0842022e-19 3.0152543 1.0842022e-19
2.4432981 1.0842022e-19 1.7928828
-1.0842022e-19 3.0022786 -3.6893488e+19
2.3106182 -3.6893488e+19 1.7546606
-1.0842022e-19 3.012439 3.6893488e+19
2.4385931 1.0842022e-19 1.7125449
-0 3.005358 -1.0842022e-19
2.3144097 1.0842022e-19 1.6471879
3.6893488e+19 2.9963903 -0
2.2375596 2 1.5483537
1.0842022e-19 3.0148723 1.0842022e-19
2.3755221 -3.6893488e+19 1.3828665
2 3.0011761 -3.6893488e+19
2.2434154 1.0842022e-19 -1.3265815
2 3.0149925 -3.6893488e+19
2.3756924 0 -1.5486517
-3.6893488e+19 2.9973719 -2
2.2385237 0 -1.6367246
3.6893488e+19 3.0150998 1.0842022e-19
2.3758447 -2 -1.7069991
2 2.9953456 3.6893488e+19
2.2365334 2 -1.7475238
-2 3.0155017 -3.6893488e+19
2.3764145 1.0842022e-19 -1.788815
3.6893488e+19 2.9974506 -0
2.238601 -3.6893488e+19 -1.8052037
2 3.0152142 -0
2.3760068 -0 -1.8487585
2 2.9966166 -0
2.2377818 -2 -1.8607521
3.6893488e+19 3.0205109 2
2.3835163 2 -1.8947796
-3.6893488e+19 2.9968743 -3.6893488e+19
2.238035 1.0842022e-19 -1.8958886
-2 2.9359174 3.6893488e+19
2.3090105 -2 -1.8913778
-2 2.6658585 3.6893488e+19
2.0974953 0 -1.7962826
3.6893488e+19 2.7787461 3.6893488e+19
2.0932064 3.6893488e+19 -1.8681823
-2 2.6643586 -0
2.096242 0 -1.8193383
-3.6893488e+19 2.6997368 0
2.0268695 -1.0842022e-19 -1.8466413
1.0842022e-19 2.6618629 -3.6893488e+19
2.0941563 0 -1.841722
1.0842022e-19 2.6314948 -2
1.9848578 3.6893488e+19 -1.8346231
0 2.6001558 1.0842022e-19
2.0425935 3.6893488e+19 -1.8292911
1.0842022e-19 2.5839961 0
1.9556165 0 -1.8274674
2 2.5587423 0
2.007988 2 -1.8228196
-0 2.5457654 1.0842022e-19
1.9320807 -3.6893488e+19 -1.8210818
-1.0842022e-19 2.5246737 -1.0842022e-19
1.97952 1.0842022e-19 -1.8167434
-3.6893488e+19 2.5151935 -3.6893488e+19
1.9132599 2 -1.8158882
-0 2.490037 -2
1.9547397 -0 -1.8101128
-0 2.4796236 0
1.8976343 -2 -1.8112639
-0 2.4475811 3.6893488e+19
1.9370015 -0 -1.8069437
-1.0842022e-19 2.3895514 -2
1.8163106 -2 -1.8033087
0 2.3379464 -1.0842022e-19
1.7909671 3.6893488e+19 -1.7989527
-3.6893488e+19 2.2948098 1.0842022e-19
1.7697827 -0 -1.7936149
2 2.2588942 -0
1.7521442 -3.6893488e+19 -1.787943
-3.6893488e+19 2.2107615 -1.0842022e-19
1.8175083 -1.0842022e-19 -1.7854991
-3.6893488e+19 2.1701567 -2
1.8005434 -1.0842022e-19 -1.7837018
3.6893488e+19 2.1402335 -1.0842022e-19
1.7880414 1.0842022e-19 -1.7839259
0 2.1080015 -0
1.7745746 2 -1.7814326
-3.6893488e+19 3.1243417 2
2.3597224 3.6893488e+19 2.6007211
-3.6893488e+19 3.1179473 -1.0842022e-19
2.3535776 3.6893488e+19 2.5838561
-0 3.1084762 -2
2.5002422 -3.6893488e+19 2.5724957
-0 3.1167276 1.0842022e-19
2.3524055 -3.6893488e+19 2.571943
-1.0842022e-19 3.1075461 3.6893488e+19
2.4991863 -0 2.5610569
-1.0842022e-19 3.1243801 -2
2.3597591 -0 2.5676651
2 3.1094282 0
2.5009069 -2 2.5520678
-1.0842022e-19 3.1054697 3.6893488e+19
2.3415873 -3.6893488e+19 2.5308268
-2 3.1008172 1.0842022e-19
2.4897919 -0 2.5241783
-1.0842022e-19 3.098386 -1.0842022e-19
2.3347802 3.6893488e+19 2.5150828
-3.6893488e+19 3.0991604 -0
2.4874787 -2 2.5126486
2 3.0976763 -0
2.3340981 2 2.5044441
-0 3.0985725 1.0842022e-19
2.4866579 -3.6893488e+19 2.502013
2 3.0966446 -2
2.535871 -1.0842022e-19 2.4939857
2 3.1032126 1.0842022e-19
2.4273195 -1.0842022e-19 2.4883251
0 3.0970881 2
2.5362368 2 2.4742746
3.6893488e+19 3.0968194 2
2.5360153 1.0842022e-19 2.4536319
-3.6893488e+19 3.0972283 0
2.5363526 -2 2.4339082
3.6893488e+19 3.0999053 -3.6893488e+19
2.4233181 -2 2.4230232
2 3.096076 -2
2.5354021 -0 2.412324
-1.0842022e-19 3.1140575 1.0842022e-19
2.4404399 2 2.4191601
-1.0842022e-19 3.0951765 -1.0842022e-19
2.5346603 1.0842022e-19 2.3911974
-0 3.1354458 -1.0842022e-19
2.4663155 3.6893488e+19 2.421629
-3.6893488e+19 3.0928619 -2
2.5327516 1.0842022e-19 2.3686962
-2 3.1015656 -0
2.4253271 -2 2.3643932
2 3.0884304 0
2.5290971 -1.0842022e-19 2.3443415
1.0842022e-19 3.1261656 -2
2.4550881 -2 2.3683467
-0 3.1042492 0
2.3404145 3.6893488e+19 2.3353622
-1.0842022e-19 3.060853 3.6893488e+19
2.433996 2 2.2876761
0 3.1025572 -2
2.3387883 3.6893488e+19 2.3136981
-3.6893488e+19 3.1019571 2
2.4913833 0 2.3055496
2 3.1021101 2
2.3383589 2 2.2932944
-0 3.1003118 0
2.4890862 -2 2.2840753
-0 3.104023 1.0842022e-19
2.3401971 3.6893488e+19 2.274806
-2 3.0611579 1.0842022e-19
2.4344218 -2 2.2190955
3.6893488e+19 3.1077135 -0
2.3437433 2 2.2574029
-1.0842022e-19 3.0557694 -3.6893488e+19
2.4268985 2 2.1760721
-1.0842022e-19 3.0963624 1.0842022e-19
2.3328357 0 2.2092772
-2 3.1056314 1.0842022e-19
2.4965131 0 2.2050173
-2 3.0989659 -2
2.3353374 -0 2.1732795
1.0842022e-19 3.1006265 2
2.3369331 -2 2.1357052
2 3.0554218 -1.0842022e-19
2.4264131 -0 2.07125
0 3.1109061 3.6893488e+19
2.5476322 3.6893488e+19 2.1111925
1.0842022e-19 3.1198895 -1.0842022e-19
2.4474952 2 2.0957453
-0 3.1066811 -1.0842022e-19
2.544148 -1.0842022e-19 2.0662124
-1.0842022e-19 3.1044147 -0
2.4287739 3.6893488e+19 2.0411789
2 3.10641 -2
2.5439243 -3.6893488e+19 2.025274
-0 3.1010125 3.6893488e+19
2.4246578 -0 1.9987028
-1.0842022e-19 3.1094851 -2
2.5464604 -3.6893488e+19 1.9866272
-2 3.0998759 -0
2.4232829 -3.6893488e+19 1.9583614
-3.6893488e+19 3.1111374 0
2.5478232 -3.6893488e+19 1.9465355
2 3.0025771 0
2.3055699 -3.6893488e+19 1.8687919
1.0842022e-19 3.0144079 -0
2.4361041 -1.0842022e-19 1.8525051
-0 3.0027778 0
2.3058128 -3.6893488e+19 1.8119109
3.6893488e+19 3.0145724 -3.6893488e+19
2.4363754 0 1.7923602
-3.6893488e+19 3.0017614 0
2.3045833 -3.6893488e+19 1.7543432
-1.0842022e-19 3.0505612 1.0842022e-19
2.4957342 3.6893488e+19 1.7432871
1.0842022e-19 3.004595 -1.0842022e-19
2.3080111 -2 1.6466894
-2 3.0757782 0
2.3130555 -0 1.6024698
-1.0842022e-19 3.0579388 3.6893488e+19
2.4299273 -2 1.4043987
-1.0842022e-19 3.0784199 1.0842022e-19
2.315594 1.0842022e-19 -1.3817449
-1.0842022e-19 3.0579047 -1.0842022e-19
2.4298797 -2 -1.5766795
-3.6893488e+19 3.0769501 1.0842022e-19
2.3141816 -0 -1.6796961
2 3.0148218 -0
2.3697295 -3.6893488e+19 -1.7066867
0 2.995193 -0
2.2258537 1.0842022e-19 -1.7473688
3.6893488e+19 3.0623777 3.6893488e+19
2.4361246 0 -1.8176488
-1.0842022e-19 2.9953134 3.6893488e+19
2.2259696 -2 -1.8043724
3.6893488e+19 3.0196447 3.6893488e+19
2.3764632 -0 -1.8523917
0 2.9964645 2
2.2270756 1.0842022e-19 -1.860605
-3.6893488e+19 3.0193124 -3.6893488e+19
2.3759992 0 -1.8940718
2 2.9979007 1.0842022e-19
2.2284558 -2 -1.8961433
-1.0842022e-19 2.9367335 -1.0842022e-19
2.3048716 -2 -1.8915772
-3.6893488e+19 2.8997617 0
2.2790627 1.0842022e-19 -1.9022638
2 2.78003 -1.0842022e-19
2.0887825 3.6893488e+19 -1.8692048
3.6893488e+19 2.6643395 -3.6893488e+19
2.0916977 -1.0842022e-19 -1.8192236
-3.6893488e+19 2.7007802 2
2.0226789 3.6893488e+19 -1.8470668
-3.6893488e+19 2.6590323 -2
2.087321 3.6893488e+19 -1.8401157
2 2.6318939 -1.0842022e-19
1.9810091 -1.0842022e-19 -1.8347585
0 2.6005905 -3.6893488e+19
2.039125 -3.6893488e+19 -1.8294334
-2 2.5843759 -0
1.9522654 -3.6893488e+19 -1.8276167
-0 2.5587881 3.6893488e+19
2.0046515 -1.0842022e-19 -1.8227414
0 2.5478547 -3.6893488e+19
1.9301734 3.6893488e+19 -1.8223879
0 2.5238473 -3.6893488e+19
1.9758365 -2 -1.8160625
-2 2.5154226 -1.0842022e-19
1.9105552 2 -1.8159767
-3.6893488e+19 2.4898157 3.6893488e+19
1.9519708 1.0842022e-19 -1.8099288
-1.0842022e-19 2.4798152 -0
1.8951211 -2 -1.8112639
1.0842022e-19 2.4483118 3.6893488e+19
1.934857 2 -1.8071417
-3.6893488e+19 3.1243417 2
2.3597224 3.6893488e+19 2.6007211
-3.6893488e+19 3.1179473 -1.0842022e-19
2.3535776 3.6893488e+19 2.5838561
-0 3.1084762 -2
2.5002422 -3.6893488e+19 2.5724957
-0 3.1167276 1.0842022e-19
2.3524055 -3.6893488e+19 2.571943
-1.0842022e-19 3.1075461 3.6893488e+19
2.4991863 -0 2.5610569
-1.0842022e-19 3.1243801 -2
2.3597591 -0 2.5676651
2 3.1094282 0
2.5009069 -2 2.5520678
-1.0842022e-19 3.1054697 3.6893488e+19
2.3415873 -3.6893488e+19 2.5308268
-2 3.1008172 1.0842022e-19
2.4897919 -0 2.5241783
-1.0842022e-19 3.098386 -1.0842022e-19
2.3347802 3.6893488e+19 2.5150828
-3.6893488e+19 3.0991604 -0
2.4874787 -2 2.5126486
2 3.0976763 -0
2.3340981 2 2.5044441
-0 3.0985725 1.0842022e-19
2.4866579 -3.6893488e+19 2.502013
2 3.0966446 -2
2.535871 -1.0842022e-19 2.4939857
2 3.1032126 1.0842022e-19
2.4273195 -1.0842022e-19 2.4883251
0 3.0970881 2
2.5362368 2 2.4742746
3.6893488e+19 3.0968194 2
2.5360153 1.0842022e-19 2.4536319
-3.6893488e+19 3.0972283 0
2.5363526 -2 2.4339082
3.6893488e+19 3.0999053 -3.6893488e+19
2.4233181 -2 2.4230232
2 3.096076 -2
2.5354021 -0 2.412324
-1.0842022e-19 3.1140575 1.0842022e-19
2.4404399 2 2.4191601
-1.0842022e-19 3.0951765 -1.0842022e-19
2.5346603 1.0842022e-19 2.3911974
-3.6893488e+19 3.114471 2
2.4409401 3.6893488e+19 2.3986852
-3.6893488e+19 3.0928619 -2
2.5327516 1.0842022e-19 2.3686962
-0 3.040637 -3.6893488e+19
2.351615 0 2.3012416
2 3.0884304 0
2.5290971 -1.0842022e-19 2.3443415
1.0842022e-19 3.1261656 -2
2.4550881 -2 2.3683467
-3.6893488e+19 3.0522642 -3.6893488e+19
2.2904596 -3.6893488e+19 2.2861488
-1.0842022e-19 3.060853 3.6893488e+19
2.433996 2 2.2876761
-2 3.0401995 0
2.2788663 0 2.2582138
3.6893488e+19 3.0620108 -2
2.4356122 -1.0842022e-19 2.2708702
3.6893488e+19 3.0403543 2
2.2790148 -3.6893488e+19 2.2337081
2 3.0616844 1.0842022e-19
2.4351566 0 2.2527516
-2 3.0404019 -2
2.2790606 1.0842022e-19 2.2008421
-2 3.0611579 1.0842022e-19
2.4344218 -2 2.2190955
3.6893488e+19 3.1077135 -0
2.3437433 2 2.2574029
-1.0842022e-19 3.0557694 -3.6893488e+19
2.4268985 2 2.1760721
0 2.9869051 0
2.2178895 -1.0842022e-19 2.0728183
-2 3.0555766 -0
2.4266293 2 2.140974
3.6893488e+19 2.9887195 2
2.2196331 3.6893488e+19 2.046397
-1.0842022e-19 2.9882829 0
2.2192137 -2 2.0185668
2 3.0554218 -1.0842022e-19
2.4264131 -0 2.07125
1.0842022e-19 3.0147989 -0
2.436749 -1.0842022e-19 2.0150089
-0 3.0461028 -3.6893488e+19
2.3582275 0 2.0267751
-0 3.0135913 1.0842022e-19
2.4347575 -1.0842022e-19 1.9836845
-2 3.0476034 -1.0842022e-19
2.360043 -2 1.9945041
3.6893488e+19 3.0129204 -0
2.4336507 -2 1.9530672
0 3.0046701 -0
2.3081019 -0 1.9304413
-2 3.0117161 3.6893488e+19
2.4316647 -3.6893488e+19 1.9222718
0 3.0002027 1.0842022e-19
2.3026972 0 1.899003
-3.6893488e+19 3.0116303 -1.0842022e-19
2.4315231 -1.0842022e-19 1.8923825
2 3.0025771 0
2.3055699 -3.6893488e+19 1.8687919
1.0842022e-19 3.0144079 -0
2.4361041 -1.0842022e-19 1.8525051
-0 3.0027778 0
2.3058128 -3.6893488e+19 1.8119109
3.6893488e+19 3.0145724 -3.6893488e+19
2.4363754 0 1.7923602
-3.6893488e+19 3.0017614 0
2.3045833 -3.6893488e+19 1.7543432
-3.6893488e+19 3.0122144 -0
2.4324865 3.6893488e+19 1.7122476
1.0842022e-19 3.004595 -1.0842022e-19
2.3080111 -2 1.6466894
0 3.0007253 3.6893488e+19
2.2318668 -2 1.550065
-3.6893488e+19 3.0149941 -3.6893488e+19
2.3699703 -3.6893488e+19 1.3828665
0 3.001132 1.0842022e-19
2.2326486 0 -1.3264819
-0 3.0151453 3.6893488e+19
2.3701813 2 -1.5486718
3.6893488e+19 3.0019608 3.6893488e+19
2.2342415 -0 -1.6384809
2 3.0148218 -0
2.3697295 -3.6893488e+19 -1.7066867
0 2.995193 -0
2.2258537 1.0842022e-19 -1.7473688
-1.0842022e-19 3.0146084 -0
2.3694317 -0 -1.7881886
-1.0842022e-19 2.9953134 3.6893488e+19
2.2259696 -2 -1.8043724
3.6893488e+19 3.0196447 3.6893488e+19
2.3764632 -0 -1.8523917
0 2.9964645 2
2.2270756 1.0842022e-19 -1.860605
-3.6893488e+19 3.0193124 -3.6893488e+19
2.3759992 0 -1.8940718
2 2.9979007 1.0842022e-19
2.2284558 -2 -1.8961433
-1.0842022e-19 2.9367335 -1.0842022e-19
2.3048716 -2 -1.8915772
-3.6893488e+19 2.8997617 0
2.2790627 1.0842022e-19 -1.9022638
2 2.78003 -1.0842022e-19
2.0887825 3.6893488e+19 -1.8692048
3.6893488e+19 2.6643395 -3.6893488e+19
2.0916977 -1.0842022e-19 -1.8192236
-3.6893488e+19 2.7007802 2
2.0226789 3.6893488e+19 -1.8470668
-3.6893488e+19 2.6590323 -2
2.087321 3.6893488e+19 -1.8401157
2 2.6318939 -1.0842022e-19
1.9810091 -1.0842022e-19 -1.8347585
0 2.6005905 -3.6893488e+19
2.039125 -3.6893488e+19 -1.8294334
-2 2.5843759 -0
1.9522654 -3.6893488e+19 -1.8276167
-0 2.5587881 3.6893488e+19
2.0046515 -1.0842022e-19 -1.8227414
0 2.5478547 -3.6893488e+19
1.9301734 3.6893488e+19 -1.8223879
0 2.5238473 -3.6893488e+19
1.9758365 -2 -1.8160625
-2 2.5154226 -1.0842022e-19
1.9105552 2 -1.8159767
-3.6893488e+19 2.4898157 3.6893488e+19
1.9519708 1.0842022e-19 -1.8099288
-1.0842022e-19 2.4798152 -0
1.8951211 -2 -1.8112639
1.0842022e-19 2.4483118 3.6893488e+19
1.934857 2 -1.8071417
-0 3.1210725 1.0842022e-19
2.3486953 -1.0842022e-19 2.5975499
0 3.118274 -0
2.3460653 -2 2.5840483
3.6893488e+19 3.1098416 -1.0842022e-19
2.4946244 2 2.5735774
0 3.1076784 -1.0842022e-19
2.4916508 -2 2.5610306
2 3.1067908 2
2.3352747 3.6893488e+19 2.5526462
-1.0842022e-19 3.1104386 0
2.3387027 0 2.5451863
2 3.1056414 0
2.3341947 -2 2.530875
-2 3.0982544 -0
2.4786973 1.0842022e-19 2.522052
1.0842022e-19 3.0985556 1.0842022e-19
2.3275361 0 2.5151293
3.6893488e+19 3.0992887 -2
2.4801188 1.0842022e-19 2.5126259
-2 3.0976927 -3.6893488e+19
2.3267252 1.0842022e-19 2.5043771
-0 3.0968306 1.0842022e-19
2.5322382 -1.0842022e-19 2.4939857
1.0842022e-19 3.1042349 1.0842022e-19
2.4209666 -0 2.4895463
-3.6893488e+19 3.0958848 1.0842022e-19
2.5314686 0 2.4723773
1.0842022e-19 3.0960984 -2
2.5316422 2 2.452446
1.0842022e-19 3.0968094 3.6893488e+19
2.5322208 3.6893488e+19 2.4331522
3.6893488e+19 3.1044755 -0
2.4212525 -2 2.4283803
2 3.0947769 1.0842022e-19
2.5305669 -0 2.4105558
1.0842022e-19 3.1136804 2
2.4321914 -3.6893488e+19 2.4185612
2 3.0953314 0
2.5310183 0 2.3911631
-0 3.1148286 0
2.4335561 -2 2.3989196
0 3.0914977 -0
2.5278983 0 2.3670321
3.6893488e+19 3.0999868 -3.6893488e+19
2.4159181 -0 2.3626144
-2 3.0887334 2
2.5256491 0 2.3444653
0 3.0991862 -2
2.4149666 -2 2.3417938
0 3.1052227 -1.0842022e-19
2.333801 3.6893488e+19 2.336179
-1.0842022e-19 3.1552746 1.0842022e-19
2.5285375 -2 2.3748875
0 3.1013095 -0
2.3301239 2 2.3124907
2 3.1520038 1.0842022e-19
2.5262895 -0 2.3488388
3.6893488e+19 3.1021271 0
2.3308923 -2 2.2932172
1.0842022e-19 3.0623162 -1.0842022e-19
2.4292977 1.0842022e-19 2.253149
2 3.1037316 0
2.3324001 2 2.2744944
-3.6893488e+19 3.1544957 0
2.5280023 -3.6893488e+19 2.3047664
2 3.0400622 2
2.2725701 0 2.1673152
3.6893488e+19 3.1537964 -3.6893488e+19
2.5275214 1.0842022e-19 2.2812059
1.0842022e-19 3.0965321 0
2.3256347 0 2.2093592
-1.0842022e-19 3.1055164 0
2.4886794 -2 2.2046638
3.6893488e+19 3.0980842 -1.0842022e-19
2.3270931 -1.0842022e-19 2.1720786
0 3.0436494 -1.0842022e-19
2.4036391 2 2.0921185
-3.6893488e+19 3.0974841 -2
2.3265293 2 2.1321299
-2 3.0476923 1.0842022e-19
2.4091966 3.6893488e+19 2.062978
3.6893488e+19 3.1083488 -2
2.5416112 -0 2.1084409
-1.0842022e-19 3.1196334 -1.0842022e-19
2.439266 1.0842022e-19 2.0953705
3.6893488e+19 3.0141609 -3.6893488e+19
2.429929 -0 1.9840639
3.6893488e+19 3.1053257 2
2.4222629 -3.6893488e+19 2.0418127
-1.0842022e-19 3.1066318 2
2.5402141 -2 2.0252976
1.0842022e-19 3.1010578 -3.6893488e+19
2.4171908 1.0842022e-19 1.9986372
3.6893488e+19 3.1092803 1.0842022e-19
2.5423694 -2 1.9863656
3.6893488e+19 3.100693 -2
2.4167573 -1.0842022e-19 1.958766
-1.0842022e-19 3.0120156 -3.6893488e+19
2.4264376 -3.6893488e+19 1.8925157
-3.6893488e+19 3.0012548 0
2.2985871 -0 1.8674207
-0 3.0518658 0
2.4912951 3.6893488e+19 1.8797979
2 3.00229 2
2.2998171 3.6893488e+19 1.8114769
-0 3.0501688 3.6893488e+19
2.488533 -0 1.8147755
1.0842022e-19 3.0015514 3.6893488e+19
2.2989392 3.6893488e+19 1.7541845
-2 3.0479972 1.0842022e-19
2.4849989 -3.6893488e+19 1.7410823
-0 3.0035512 0
2.301316 2 1.6460308
2 3.0532544 -0
2.2849667 0 1.586677
-1.0842022e-19 3.0518572 0
2.4149215 -2 1.4012808
1.0842022e-19 3.0498755 0
2.2817917 -1.0842022e-19 -1.3655137
1.0842022e-19 3.0579829 0
2.4233415 3.6893488e+19 -1.5766392
-1.0842022e-19 3.05092 2
2.2827733 2 -1.6653382
3.6893488e+19 3.0605206 1.0842022e-19
2.4268298 1.0842022e-19 -1.7422438
0 2.9980159 2
2.2179832 2 -1.7487016
-1.0842022e-19 3.0610414 -0
2.4275455 -3.6893488e+19 -1.8167375
2 2.9959021 1.0842022e-19
2.215997 0 -1.8045298
3.6893488e+19 3.0199518 -1.0842022e-19
2.3710654 -3.6893488e+19 -1.8525474
-3.6893488e+19 2.9960604 -1.0842022e-19
2.2161458 -2 -1.86034
-0 3.0200195 1.0842022e-19
2.3711586 -0 -1.8943845
3.6893488e+19 2.9963808 1.0842022e-19
2.2164469 2 -1.8956519
-0 2.9368701 2
2.3002524 3.6893488e+19 -1.8915573
-0 2.9963667 -2
2.2164335 0 -1.9235617
1.0842022e-19 2.9019122 1.0842022e-19
2.2762265 2 -1.9030133
-0 2.9036462 -1.0842022e-19
2.3284726 0 -1.9160732
0 2.7782264 0
2.0806394 -0 -1.8675365
-3.6893488e+19 2.7045362 2
2.0200815 -1.0842022e-19 -1.8488292
-1.0842022e-19 2.6591296 -0
2.0829349 -0 -1.8400514
3.6893488e+19 2.6324139 -1.0842022e-19
1.977227 1.0842022e-19 -1.8349618
-1.0842022e-19 2.6004119 -2
2.0351524 0 -1.8292199
-3.6893488e+19 2.5846305 -3.6893488e+19
1.9488345 3.6893488e+19 -1.8276914
-0 2.5583432 -2
2.0009184 3.6893488e+19 -1.8223506
-1.0842022e-19 2.5488341 -1.0842022e-19
1.9275646 -3.6893488e+19 -1.8229593
-0 2.526191 -3.6893488e+19
1.9747542 2 -1.8175944
3.6893488e+19 2.5162659 1.0842022e-19
1.9082129 -1.0842022e-19 -1.8165082
2 2.4903226 -2
1.9495033 2 -1.8100208
3.6893488e+19 2.4802499 0
1.8926802 1.0842022e-19 -1.8113595
-1.0842022e-19 2.4492836 -3.6893488e+19
1.9328053 3.6893488e+19 -1.8074386
1.0842022e-19 2.3888099 2
1.8076814 0 -1.8028574
2 2.3366814 -1.0842022e-19
1.7831889 -1.0842022e-19 -1.7981925
1.0842022e-19 2.2949955 3.6893488e+19
1.763603 -0 -1.7936149
2 2.262001 -2
1.7462012 -1.0842022e-19 -1.7897947
-1.0842022e-19 2.2131915 1.0842022e-19
1.8134643 -3.6893488e+19 -1.7861713
2 2.1759107 -3.6893488e+19
1.7982953 2 -1.7857015
-2 2.1435382 -0
1.7851236 0 -1.7850988
-1.0842022e-19 2.1122212 1.0842022e-19
1.7723813 1.0842022e-19 -1.7831057
-0 3.1210725 1.0842022e-19
2.3486953 -1.0842022e-19 2.5975499
0 3.118274 -0
2.3460653 -2 2.5840483
3.6893488e+19 3.1098416 -1.0842022e-19
2.4946244 2 2.5735774
0 3.1076784 -1.0842022e-19
2.4916508 -2 2.5610306
2 3.1067908 2
2.3352747 3.6893488e+19 2.5526462
-1.0842022e-19 3.1104386 0
2.3387027 0 2.5451863
2 3.1056414 0
2.3341947 -2 2.530875
-2 3.0982544 -0
2.4786973 1.0842022e-19 2.522052
1.0842022e-19 3.0985556 1.0842022e-19
2.3275361 0 2.5151293
3.6893488e+19 3.0992887 -2
2.4801188 1.0842022e-19 2.5126259
-2 3.0976927 -3.6893488e+19
2.3267252 1.0842022e-19 2.5043771
-0 3.0968306 1.0842022e-19
2.5322382 -1.0842022e-19 2.4939857
1.0842022e-19 3.1042349 1.0842022e-19
2.4209666 -0 2.4895463
-3.6893488e+19 3.0958848 1.0842022e-19
2.5314686 0 2.4723773
1.0842022e-19 3.0960984 -2
2.5316422 2 2.452446
1.0842022e-19 3.0968094 3.6893488e+19
2.5322208 3.6893488e+19 2.4331522
3.6893488e+19 3.1044755 -0
2.4212525 -2 2.4283803
2 3.0947769 1.0842022e-19
2.5305669 -0 2.4105558
1.0842022e-19 3.1136804 2
2.4321914 -3.6893488e+19 2.4185612
2 3.0953314 0
2.5310183 0 2.3911631
-0 3.1148286 0
2.4335561 -2 2.3989196
0 3.0914977 -0
2.5278983 0 2.3670321
1.0842022e-19 3.0404446 2
2.3451593 -1.0842022e-19 2.3009238
-2 3.0887334 2
2.5256491 0 2.3444653
0 3.0991862 -2
2.4149666 -2 2.3417938
1.0842022e-19 3.0532832 1.0842022e-19
2.2849939 -1.0842022e-19 2.287024
-1.0842022e-19 3.1552746 1.0842022e-19
2.5285375 -2 2.3748875
-1.0842022e-19 3.0496063 -0
2.2815387 1.0842022e-19 2.2665007
-2 3.10129 2
2.4828699 -1.0842022e-19 2.304832
0 3.0415561 1.0842022e-19
2.2739739 2 2.2355592
1.0842022e-19 3.0623162 -1.0842022e-19
2.4292977 1.0842022e-19 2.253149
0 3.0407705 -3.6893488e+19
2.2732356 1.0842022e-19 2.2012737
-0 3.1166222 1.0842022e-19
2.5019724 2 2.2762308
2 3.0400622 2
2.2725701 0 2.1673152
-1.0842022e-19 3.0572584 3.6893488e+19
2.4223456 -2 2.1779525
-0 2.9858811 0
2.2065804 0 2.0720394
1.0842022e-19 3.0568514 3.6893488e+19
2.4217861 -3.6893488e+19 2.1424267
3.6893488e+19 2.9901714 -1.0842022e-19
2.2106118 -3.6893488e+19 2.0471849
0 3.0436494 -1.0842022e-19
2.4036391 2 2.0921185
0 2.9842238 -1.0842022e-19
2.2050228 -1.0842022e-19 2.0162513
-2 3.0476923 1.0842022e-19
2.4091966 3.6893488e+19 2.062978
3.6893488e+19 3.1083488 -2
2.5416112 -0 2.1084409
-3.6893488e+19 3.0442131 -2
2.3496377 0 2.0249009
3.6893488e+19 3.0141609 -3.6893488e+19
2.429929 -0 1.9840639
-3.6893488e+19 3.0472572 -3.6893488e+19
2.3532553 -2 1.9941238
-2 3.0127249 -3.6893488e+19
2.427592 0 1.9528075
-2 2.9985464 1.0842022e-19
2.296232 3.6893488e+19 1.9265481
-1.0842022e-19 3.0107551 0
2.4243863 -3.6893488e+19 1.9215472
-0 2.9998603 -1.0842022e-19
2.2970126 -3.6893488e+19 1.8987823
-1.0842022e-19 3.0120156 -3.6893488e+19
2.4264376 -3.6893488e+19 1.8925157
-3.6893488e+19 3.0012548 0
2.2985871 -0 1.8674207
0 3.0118253 0
2.4261279 -0 1.8501621
2 3.00229 2
2.2998171 3.6893488e+19 1.8114769
0 3.0138571 -2
2.4294345 2 1.7918181
1.0842022e-19 3.0015514 3.6893488e+19
2.2989392 3.6893488e+19 1.7541845
2 3.0133045 -0
2.4285352 1.0842022e-19 1.7130156
-0 3.0035512 0
2.301316 2 1.6460308
3.6893488e+19 2.9975097 -1.0842022e-19
2.2175076 -1.0842022e-19 1.5486352
-1.0842022e-19 3.0518572 0
2.4149215 -2 1.4012808
1.0842022e-19 2.9983234 -0
2.2182722 1.0842022e-19 -1.324839
2 3.0142493 -1.0842022e-19
2.3632269 3.6893488e+19 -1.5480064
-0 2.9997334 2
2.2195973 -0 -1.6372873
-0 3.0144491 -3.6893488e+19
2.3635015 3.6893488e+19 -1.7063024
0 2.9980159 2
2.2179832 2 -1.7487016
0 3.0190396 0
2.3698115 1.0842022e-19 -1.7908461
2 2.9959021 1.0842022e-19
2.215997 0 -1.8045298
3.6893488e+19 3.0199518 -1.0842022e-19
2.3710654 -3.6893488e+19 -1.8525474
-3.6893488e+19 2.9960604 -1.0842022e-19
2.2161458 -2 -1.86034
1.0842022e-19 2.9630227 1.0842022e-19
2.3182266 -1.0842022e-19 -1.8725868
2 2.9167316 1.0842022e-19
2.1416008 1.0842022e-19 -1.8695613
-0 2.9368701 2
2.3002524 3.6893488e+19 -1.8915573
-0 2.9963667 -2
2.2164335 0 -1.9235617
1.0842022e-19 2.9019122 1.0842022e-19
2.2762265 2 -1.9030133
1.0842022e-19 2.8223543 0
2.2623203 2 -1.882627
0 2.7782264 0
2.0806394 -0 -1.8675365
-3.6893488e+19 2.7045362 2
2.0200815 -1.0842022e-19 -1.8488292
-1.0842022e-19 2.6591296 -0
2.0829349 -0 -1.8400514
3.6893488e+19 2.6324139 -1.0842022e-19
1.977227 1.0842022e-19 -1.8349618
-1.0842022e-19 2.6004119 -2
2.0351524 0 -1.8292199
-3.6893488e+19 2.5846305 -3.6893488e+19
1.9488345 3.6893488e+19 -1.8276914
-0 2.5583432 -2
2.0009184 3.6893488e+19 -1.8223506
-1.0842022e-19 2.5488341 -1.0842022e-19
1.9275646 -3.6893488e+19 -1.8229593
-0 2.526191 -3.6893488e+19
1.9747542 2 -1.8175944
3.6893488e+19 2.5162659 1.0842022e-19
1.9082129 -1.0842022e-19 -1.8165082
2 2.4903226 -2
1.9495033 2 -1.8100208
3.6893488e+19 2.4802499 0
1.8926802 1.0842022e-19 -1.8113595
-1.0842022e-19 2.4492836 -3.6893488e+19
1.9328053 3.6893488e+19 -1.8074386
1.0842022e-19 2.3888099 2
1.8076814 0 -1.8028574
2 2.3366814 -1.0842022e-19
1.7831889 -1.0842022e-19 -1.7981925
1.0842022e-19 2.2949955 3.6893488e+19
1.763603 -0 -1.7936149
2 2.262001 -2
1.7462012 -1.0842022e-19 -1.7897947
-1.0842022e-19 2.2131915 1.0842022e-19
1.8134643 -3.6893488e+19 -1.7861713
2 2.1759107 -3.6893488e+19
1.7982953 2 -1.7857015
-2 2.1435382 -0
1.7851236 0 -1.7850988
-1.0842022e-19 2.1122212 1.0842022e-19
1.7723813 1.0842022e-19 -1.7831057
-0 3.1175568 -1.0842022e-19
2.3375814 -3.6893488e+19 2.5941522
0 3.1111498 0
2.4886308 3.6893488e+19 2.5853391
2 3.1147819 -1.0842022e-19
2.3350327 -2 2.58078
0 3.1098521 -2
2.4868748 2 2.5734422
2 3.1065652 1.0842022e-19
2.3274863 -3.6893488e+19 2.5523627
0 3.1059325 3.6893488e+19
2.326905 0 2.5310194
-3.6893488e+19 3.0989547 -3.6893488e+19
2.472131 -3.6893488e+19 2.5224771
0 3.0990813 2
2.4723022 1.0842022e-19 2.5123527
0 3.0960882 -2
2.3178635 -1.0842022e-19 2.5031259
1.0842022e-19 3.0970144 3.6893488e+19
2.5286014 -1.0842022e-19 2.4939857
-3.6893488e+19 3.1049201 2
2.4141786 -1.0842022e-19 2.4903042
0 3.0956149 -1.0842022e-19
2.5274777 -2 2.4717584
2 3.1591351 -2
2.4774451 -1.0842022e-19 2.5207465
3.6893488e+19 3.0948296 2
2.5268474 1.0842022e-19 2.4505486
3.6893488e+19 3.1017597 -0
2.4104903 2 2.4452252
-0 3.0968719 -1.0842022e-19
2.528487 0 2.433001
1.0842022e-19 3.1046124 0
2.4138193 -2 2.4283803
-1.0842022e-19 3.0950201 0
2.5270004 1.0842022e-19 2.4106281
0 3.1137595 -0
2.4244936 3.6893488e+19 2.4184909
1.0842022e-19 3.0955751 -1.0842022e-19
2.5274458 1.0842022e-19 2.3912318
-0 3.0949895 1.0842022e-19
2.5269759 2 2.3705888
0 3.0991404 -3.6893488e+19
2.4074335 -2 2.3615978
-0 3.0910108 1.0842022e-19
2.5237815 3.6893488e+19 2.3465974
2 3.1004567 -3.6893488e+19
2.4089696 1.0842022e-19 2.3429053
2 3.1069958 -3.6893488e+19
2.3278816 -2 2.3377542
-3.6893488e+19 3.1555169 -1.0842022e-19
2.5243294 1.0842022e-19 2.3749442
-0 3.1018484 -3.6893488e+19
2.323154 -1.0842022e-19 2.3128748
-1.0842022e-19 3.1524284 1.0842022e-19
2.5222402 1.0842022e-19 2.3490515
2 3.1019564 -1.0842022e-19
2.3232532 2 2.2929859
1.0842022e-19 3.0986345 0
2.4716978 3.6893488e+19 2.2824607
-1.0842022e-19 3.1032829 2
2.3244717 2 2.2740629
3.6893488e+19 3.155014 -0
2.5239892 -3.6893488e+19 2.3050206
0 3.0399032 2
2.2662606 -0 2.1669593
1.0842022e-19 3.1542532 -2
2.5234745 -2 2.2813981
-0 3.1029496 1.0842022e-19
2.3241656 0 2.2177238
3.6893488e+19 3.1059825 2
2.4816396 -2 2.2050564
1.0842022e-19 3.0993357 0
2.3208463 -0 2.1734672
0 3.0546603 -0
2.4122012 0 2.1047883
1.0842022e-19 3.0981476 3.6893488e+19
2.3197551 1.0842022e-19 2.1327429
1.0842022e-19 3.1064005 -2
2.4822049 3.6893488e+19 2.1245332
-2 3.1084468 -0
2.53778 -2 2.1083491
3.6893488e+19 3.1209493 -2
2.4328837 -2 2.0964661
2 3.108989 -3.6893488e+19
2.5382152 -3.6893488e+19 2.0679193
2 3.1089218 -3.6893488e+19
2.418848 -2 2.0446522
2 3.1074328 -1.0842022e-19
2.5369658 -1.0842022e-19 2.0257699
0 3.1023054 2
2.4111271 1.0842022e-19 1.9994246
2 3.1100523 -1.0842022e-19
2.5390689 2 1.9867481
2 3.1018481 2
2.4105935 0 1.9593729
2 3.0121851 1.0842022e-19
2.4209921 3.6893488e+19 1.8925323
0 3.0017538 -3.6893488e+19
2.293787 -1.0842022e-19 1.8678082
3.6893488e+19 3.051842 2
2.4846694 0 1.879719
-1.0842022e-19 3.0014598 -2
2.2934442 1.0842022e-19 1.8107917
-3.6893488e+19 3.0536973 -0
2.4876487 0 1.8169048
-3.6893488e+19 3.0036581 3.6893488e+19
2.2960095 -3.6893488e+19 1.7552161
3.6893488e+19 3.0132601 3.6893488e+19
2.4227183 -0 1.7128669
0 3.0874774 3.6893488e+19
2.3938234 -1.0842022e-19 1.6942923
3.6893488e+19 3.0504594 -2
2.2759559 1.0842022e-19 1.5846622
-2 3.0539949 2
2.4113011 0 1.4022841
1.0842022e-19 3.050153 3.6893488e+19
2.2756746 -0 -1.3656631
-0 3.0567031 -1.0842022e-19
2.4149652 -1.0842022e-19 -1.5757116
1.0842022e-19 3.0500183 3.6893488e+19
2.2755508 -3.6893488e+19 -1.6647924
-1.0842022e-19 3.0593345 -2
2.4185255 2 -1.7412107
-0 3.0481305 -0
2.2738171 1.0842022e-19 -1.7738366
2 3.0227642 -1.0842022e-19
2.3690462 2 -1.793067
2 2.9970462 -0
2.2065105 3.6893488e+19 -1.8048892
1.0842022e-19 3.0216126 -1.0842022e-19
2.3674881 0 -1.8538451
2 2.9973907 -1.0842022e-19
2.2068269 2 -1.8608993
-1.0842022e-19 3.0160751 -2
2.3599961 -1.0842022e-19 -1.8922118
-2 2.9974005 -2
2.206836 -3.6893488e+19 -1.8959067
-0 2.9325087 -0
2.2925892 3.6893488e+19 -1.8900815
2 2.9900043 2
2.200043 2 -1.9212848
-2 2.903569 -1.0842022e-19
2.2730117 2 -1.9035755
-1.0842022e-19 2.9034317 -1.0842022e-19
2.3238962 2 -1.915897
-0 2.7816067 1.0842022e-19
2.0786245 -2 -1.8703886
2 2.7325659 -2
2.1374292 -0 -1.8509641
0 2.7028599 -3.6893488e+19
2.014235 -1.0842022e-19 -1.8479176
-0 2.6649723 -2
2.0831616 -2 -1.843007
-0 2.6331785 0
1.9735775 0 -1.8353004
0 2.6007199 2
2.0315764 3.6893488e+19 -1.8292911
-3.6893488e+19 2.5831561 2
1.9443904 0 -1.8267206
3.6893488e+19 2.5592396 -3.6893488e+19
1.9982738 2 -1.8228196
-1.0842022e-19 2.5495658 -3.6893488e+19
1.924791 -2 -1.8233675
1.0842022e-19 2.526948 1.0842022e-19
1.9723485 0 -1.81802
-0 2.5162454 -2
1.9053491 3.6893488e+19 -1.8164196
-3.6893488e+19 2.4913144 1.0842022e-19
1.9472266 -2 -1.8102969
2 2.481174 0
1.890378 0 -1.8116461
1.0842022e-19 2.4526925 -2
1.9317226 -0 -1.8087255
-0 3.1175568 -1.0842022e-19
2.3375814 -3.6893488e+19 2.5941522
0 3.1111498 0
2.4886308 3.6893488e+19 2.5853391
2 3.1147819 -1.0842022e-19
2.3350327 -2 2.58078
0 3.1098521 -2
2.4868748 2 2.5734422
2 3.1065652 1.0842022e-19
2.3274863 -3.6893488e+19 2.5523627
0 3.1059325 3.6893488e+19
2.326905 0 2.5310194
-3.6893488e+19 3.0989547 -3.6893488e+19
2.472131 -3.6893488e+19 2.5224771
0 3.0990813 2
2.4723022 1.0842022e-19 2.5123527
0 3.0960882 -2
2.3178635 -1.0842022e-19 2.5031259
1.0842022e-19 3.0970144 3.6893488e+19
2.5286014 -1.0842022e-19 2.4939857
-3.6893488e+19 3.1049201 2
2.4141786 -1.0842022e-19 2.4903042
0 3.0956149 -1.0842022e-19
2.5274777 -2 2.4717584
2 3.1591351 -2
2.4774451 -1.0842022e-19 2.5207465
3.6893488e+19 3.0948296 2
2.5268474 1.0842022e-19 2.4505486
3.6893488e+19 3.1017597 -0
2.4104903 2 2.4452252
-0 3.0968719 -1.0842022e-19
2.528487 0 2.433001
1.0842022e-19 3.1046124 0
2.4138193 -2 2.4283803
-1.0842022e-19 3.0950201 0
2.5270004 1.0842022e-19 2.4106281
0 3.1137595 -0
2.4244936 3.6893488e+19 2.4184909
1.0842022e-19 3.0955751 -1.0842022e-19
2.5274458 1.0842022e-19 2.3912318
-0 3.0949895 1.0842022e-19
2.5269759 2 2.3705888
-1.0842022e-19 3.0405259 3.6893488e+19
2.3390329 2 2.3008921
-0 3.0910108 1.0842022e-19
2.5237815 3.6893488e+19 2.3465974
2 3.1004567 -3.6893488e+19
2.4089696 1.0842022e-19 2.3429053
-3.6893488e+19 3.053807 1.0842022e-19
2.2790308 -1.0842022e-19 2.2874324
3.6893488e+19 3.1006868 -2
2.4744744 -3.6893488e+19 2.3242476
-0 3.1018484 -3.6893488e+19
2.323154 -1.0842022e-19 2.3128748
-0 3.1010487 -2
2.4749641 -1.0842022e-19 2.3044865
1.0842022e-19 3.0391126 -2
2.2655344 1.0842022e-19 2.2313433
1.0842022e-19 3.0986345 0
2.4716978 3.6893488e+19 2.2824607
-1.0842022e-19 3.0387266 2
2.2651801 -3.6893488e+19 2.1979651
3.6893488e+19 3.0631871 2
2.423738 -3.6893488e+19 2.2217295
0 3.0399032 2
2.2662606 -0 2.1669593
-3.6893488e+19 3.0539572 -3.6893488e+19
2.4112501 2 2.1731658
0 3.0409739 0
2.2672441 0 2.1355944
-3.6893488e+19 3.0538552 -2
2.4111121 0 2.1384218
1.0842022e-19 3.0993357 0
2.3208463 -0 2.1734672
0 3.0546603 -0
2.4122012 0 2.1047883
-1.0842022e-19 2.9864154 2
2.1967468 -3.6893488e+19 2.017375
-3.6893488e+19 3.0430901 -1.0842022e-19
2.3965471 0 2.058002
-2 3.1084468 -0
2.53778 -2 2.1083491
-2 3.0441723 0
2.3432882 2 2.0247567
-1.0842022e-19 3.0159528 -1.0842022e-19
2.427042 -3.6893488e+19 1.9855269
-2 3.0003371 -1.0842022e-19
2.292134 -1.0842022e-19 1.9555112
-3.6893488e+19 3.0112114 3.6893488e+19
2.4194288 0 1.9515325
2 2.9989243 1.0842022e-19
2.2911129 -3.6893488e+19 1.9266137
-1.0842022e-19 3.0121484 3.6893488e+19
2.4209332 2 1.9223726
-2 3.0000265 1.0842022e-19
2.2917717 -3.6893488e+19 1.8987823
2 3.0121851 1.0842022e-19
2.4209921 3.6893488e+19 1.8925323
0 3.0017538 -3.6893488e+19
2.293787 -1.0842022e-19 1.8678082
-3.6893488e+19 3.0118413 -2
2.4204402 1.0842022e-19 1.8500569
-1.0842022e-19 3.0014598 -2
2.2934442 1.0842022e-19 1.8107917
2 3.0130472 3.6893488e+19
2.4223764 -1.0842022e-19 1.791218
-3.6893488e+19 3.0036581 3.6893488e+19
2.2960095 -3.6893488e+19 1.7552161
3.6893488e+19 3.0132601 3.6893488e+19
2.4227183 -0 1.7128669
3.6893488e+19 3.0029998 -2
2.2952411 2 1.6456569
-0 2.994184 -2
2.2038817 -3.6893488e+19 1.5474221
0 3.015079 1.0842022e-19
2.3586483 -0 1.3827894
-0 2.9967985 -0
2.2062831 0 -1.3241669
-1.0842022e-19 3.0141208 3.6893488e+19
2.357352 1.0842022e-19 -1.5478451
-0 2.9975882 3.6893488e+19
2.2070084 -2 -1.6366563
3.6893488e+19 3.0148754 1.0842022e-19
2.3583729 -0 -1.7065426
-3.6893488e+19 2.9970498 -3.6893488e+19
2.2065139 2 -1.7481437
2 3.0227642 -1.0842022e-19
2.3690462 2 -1.793067
2 2.9970462 -0
2.2065105 3.6893488e+19 -1.8048892
1.0842022e-19 3.0216126 -1.0842022e-19
2.3674881 0 -1.8538451
2 2.9973907 -1.0842022e-19
2.2068269 2 -1.8608993
-2 2.9607658 -3.6893488e+19
2.3117049 -2 -1.8712701
-2 2.9974005 -2
2.206836 -3.6893488e+19 -1.8959067
-0 2.9325087 -0
2.2925892 3.6893488e+19 -1.8900815
2 2.8980703 0
2.1156065 0 -1.8891486
-2 2.903569 -1.0842022e-19
2.2730117 2 -1.9035755
2 2.8201382 3.6893488e+19
2.2570238 -3.6893488e+19 -1.8816454
-0 2.7816067 1.0842022e-19
2.0786245 -2 -1.8703886
2 2.7325659 -2
2.1374292 -0 -1.8509641
0 2.7028599 -3.6893488e+19
2.014235 -1.0842022e-19 -1.8479176
-0 2.6649723 -2
2.0831616 -2 -1.843007
-0 2.6331785 0
1.9735775 0 -1.8353004
0 2.6007199 2
2.0315764 3.6893488e+19 -1.8292911
-3.6893488e+19 2.5831561 2
1.9443904 0 -1.8267206
3.6893488e+19 2.5592396 -3.6893488e+19
1.9982738 2 -1.8228196
-1.0842022e-19 2.5495658 -3.6893488e+19
1.924791 -2 -1.8233675
1.0842022e-19 2.526948 1.0842022e-19
1.9723485 0 -1.81802
-0 2.5162454 -2
1.9053491 3.6893488e+19 -1.8164196
-3.6893488e+19 2.4913144 1.0842022e-19
1.9472266 -2 -1.8102969
2 2.481174 0
1.890378 0 -1.8116461
1.0842022e-19 2.4526925 -2
1.9317226 -0 -1.8087255
2 3.1117909 -0
2.3251183 2 2.5886595
-0 3.111959 -2
2.4824467 -3.6893488e+19 2.5859525
-3.6893488e+19 3.1139438 -2
2.3270531 -2 2.5799286
1.0842022e-19 3.1099696 -2
2.479795 -2 2.573415
-2 3.1204031 -0
2.4937017 3.6893488e+19 2.57182
-3.6893488e+19 3.1060259 1.0842022e-19
2.3199379 -2 2.5518217
-0 3.1181099 -2
2.4906452 1.0842022e-19 2.558959
-1.0842022e-19 3.1073618 -3.6893488e+19
2.3211381 0 2.5424962
2 3.1037152 -3.6893488e+19
2.3178611 -0 2.5291913
1.0842022e-19 3.0994613 1.0842022e-19
2.4657888 -3.6893488e+19 2.5227606
-1.0842022e-19 3.0981333 -2
2.4640188 1.0842022e-19 2.511533
2 3.0932815 -2
2.308485 -1.0842022e-19 2.5010035
-2 3.0973647 -2
2.5253506 -2 2.4942434
-0 3.0990388 1.0842022e-19
2.4003458 -1.0842022e-19 2.4820089
-1.0842022e-19 3.0958438 1.0842022e-19
2.5241451 -2 2.4718409
1.0842022e-19 3.157784 3.6893488e+19
2.467726 3.6893488e+19 2.519757
-1.0842022e-19 3.0949976 -3.6893488e+19
2.5234742 1.0842022e-19 2.4505486
-0 3.1019452 0
2.4036794 -1.0842022e-19 2.4453025
3.6893488e+19 3.0967987 -1.0842022e-19
2.5249019 -0 2.4326985
1.0842022e-19 3.1047378 2
2.4068823 -2 2.4283803
-3.6893488e+19 3.0952489 -1.0842022e-19
2.5236735 0 2.4107003
-3.6893488e+19 3.1139185 3.6893488e+19
2.4174128 1.0842022e-19 2.4185262
-1.0842022e-19 3.0965633 3.6893488e+19
2.5247154 1.0842022e-19 2.3921595
3.6893488e+19 3.0954921 -1.0842022e-19
2.5238662 -2 2.3709476
-0 3.102915 0
2.4047918 1.0842022e-19 2.3653781
-2 3.0910554 -3.6893488e+19
2.5203493 0 2.3464739
3.6893488e+19 3.1005192 -2
2.4020436 2 2.3428452
1.0842022e-19 3.1062622 -3.6893488e+19
2.3201499 1.0842022e-19 2.3369668
-2 3.1002793 2
2.4668794 -2 2.3237381
-1.0842022e-19 3.1038907 -1.0842022e-19
2.3180189 3.6893488e+19 2.3146036
1.0842022e-19 3.1004879 -0
2.4671571 0 2.3038754
2 3.1013436 1.0842022e-19
2.3157301 3.6893488e+19 2.2923946
-1.0842022e-19 3.1052494 0
2.4735038 2 2.2877021
0 3.10063 3.6893488e+19
2.3150887 2 2.2719293
-2 3.1024187 0
2.4697309 2 2.2653017
-1.0842022e-19 3.0389318 0
2.2596447 1.0842022e-19 2.1654472
0 3.1042857 1.0842022e-19
2.3183739 1.0842022e-19 2.2193639
-0 3.1054833 -1.0842022e-19
2.4738154 2 2.204232
1.0842022e-19 3.101043 -3.6893488e+19
2.3154597 -0 2.1754186
-2 3.0530634 -3.6893488e+19
2.4039462 -1.0842022e-19 2.1027839
-1.0842022e-19 3.1025507 2
2.3168149 -1.0842022e-19 2.137476
1.0842022e-19 3.1073158 -0
2.4762578 -0 2.1253409
3.6893488e+19 3.1072755 -0
2.5332067 -0 2.1070039
0 3.1211114 1.0842022e-19
2.4256628 -1.0842022e-19 2.0964949
-3.6893488e+19 3.1068683 0
2.5328841 -3.6893488e+19 2.0658872
2 3.1092958 -1.0842022e-19
2.4121103 3.6893488e+19 2.0448551
-3.6893488e+19 3.1082807 -3.6893488e+19
2.5340035 3.6893488e+19 2.0262895
-1.0842022e-19 3.1024299 -3.6893488e+19
2.4042351 1.0842022e-19 1.9994246
-1.0842022e-19 3.0120006 0
2.4153678 -0 1.9221914
-1.0842022e-19 3.1032708 3.6893488e+19
2.4051998 -1.0842022e-19 1.9601451
-1.0842022e-19 3.0130482 0
2.4170287 0 1.8929319
0 3.0507891 -1.0842022e-19
2.3450034 -0 1.8949993
-3.6893488e+19 3.0141447 -1.0842022e-19
2.418767 -0 1.851926
-0 3.0482774 -0
2.3421226 -2 1.845305
-0 3.0132368 -2
2.4173274 3.6893488e+19 1.7912568
-2 3.0481629 3.6893488e+19
2.3419914 1.0842022e-19 1.7780088
3.6893488e+19 3.0136337 2
2.4179568 0 1.7130651
1.0842022e-19 3.0032749 3.6893488e+19
2.2905049 3.6893488e+19 1.6457638
-0 2.9961224 -0
2.1958334 0 1.5480504
-0 3.0065875 -1.0842022e-19
2.3419995 -0 1.3784829
3.6893488e+19 3.0514164 -3.6893488e+19
2.2708635 -0 -1.366609
-0 3.0601273 0
2.4133615 -0 -1.5778692
-3.6893488e+19 3.047524 2
2.2673659 1.0842022e-19 -1.6633772
2 3.0594616 2
2.4124742 2 -1.7412107
-2 3.0489895 0
2.268683 2 -1.774224
-0 3.0221364 -3.6893488e+19
2.3627243 -3.6893488e+19 -1.7926114
-3.6893488e+19 3.0514958 -1.0842022e-19
2.2709351 -2 -1.8431721
-1.0842022e-19 3.0225868 -2
2.3633246 -1.0842022e-19 -1.8545717
0 3.0002234 -1.0842022e-19
2.1997194 0 -1.8622829
-2 3.0166156 0
2.355366 -2 -1.8924422
-2 3.0010347 0
2.2011781 1.0842022e-19 -1.8972355
-0 2.9312694 0
2.2874146 -1.0842022e-19 -1.8896228
3.6893488e+19 2.8992357 -3.6893488e+19
2.1087675 3.6893488e+19 -1.8895172
2 2.9038579 1.0842022e-19
2.2691464 2 -1.9036224
3.6893488e+19 2.8269072 1.0842022e-19
2.2591343 -3.6893488e+19 -1.8843634
-0 2.7791734 1.0842022e-19
2.0702105 3.6893488e+19 -1.8681823
0 2.7343926 2
2.1339705 3.6893488e+19 -1.8517089
-0 2.7015378 3.6893488e+19
2.0089557 -3.6893488e+19 -1.8471882
-1.0842022e-19 2.6641958 0
2.0783267 -3.6893488e+19 -1.8424929
1.0842022e-19 2.6324499 0
1.969334 -2 -1.8348262
-0 2.6004016 -2
2.0277579 1.0842022e-19 -1.8290063
-3.6893488e+19 2.5825336 3.6893488e+19
1.9407072 0 -1.8262725
-1.0842022e-19 2.5595126 3.6893488e+19
1.995346 -3.6893488e+19 -1.8228977
-3.6893488e+19 2.5476985 1.0842022e-19
1.9207294 1.0842022e-19 -1.8220614
3.6893488e+19 2.5267165 2
1.9693489 1.0842022e-19 -1.8177646
-3.6893488e+19 2.5156 1.0842022e-19
1.902321 2 -1.8158882
-3.6893488e+19 2.4949727 1.0842022e-19
1.9461787 2 -1.8115857
2 2.4806051 3.6893488e+19
1.8878129 1.0842022e-19 -1.8113595
2 2.4502289 3.6893488e+19
1.9284447 1.0842022e-19 -1.8076366
-3.6893488e+19 2.3900235 0
1.8002447 -2 -1.8033087
1.0842022e-19 2.3356452 2
1.7758114 -1.0842022e-19 -1.797559
-1.0842022e-19 2.2927074 -2
1.7565187 -0 -1.7922097
1.0842022e-19 2.2609262 2
1.7344778 -2 -1.7890232
-2 2.2136629 3.6893488e+19
1.8087692 -3.6893488e+19 -1.7861713
-0 2.1748972 -0
1.7934047 2 -1.7851561
-1.0842022e-19 2.1420147 -0
1.780372 -2 -1.7843168
1.0842022e-19 2.1121104 1.0842022e-19
1.7685196 -2 -1.7828965
2 3.1117909 -0
2.3251183 2 2.5886595
-0 3.111959 -2
2.4824467 -3.6893488e+19 2.5859525
-3.6893488e+19 3.1139438 -2
2.3270531 -2 2.5799286
1.0842022e-19 3.1099696 -2
2.479795 -2 2.573415
-2 3.1204031 -0
2.4937017 3.6893488e+19 2.57182
-3.6893488e+19 3.1060259 1.0842022e-19
2.3199379 -2 2.5518217
-0 3.1181099 -2
2.4906452 1.0842022e-19 2.558959
-1.0842022e-19 3.1073618 -3.6893488e+19
2.3211381 0 2.5424962
2 3.1037152 -3.6893488e+19
2.3178611 -0 2.5291913
1.0842022e-19 3.0994613 1.0842022e-19
2.4657888 -3.6893488e+19 2.5227606
-1.0842022e-19 3.0981333 -2
2.4640188 1.0842022e-19 2.511533
2 3.0932815 -2
2.308485 -1.0842022e-19 2.5010035
-2 3.0973647 -2
2.5253506 -2 2.4942434
-0 3.0990388 1.0842022e-19
2.4003458 -1.0842022e-19 2.4820089
-1.0842022e-19 3.0958438 1.0842022e-19
2.5241451 -2 2.4718409
-3.6893488e+19 3.0985913 -1.0842022e-19
2.3998325 0 2.4612002
-1.0842022e-19 3.0949976 -3.6893488e+19
2.5234742 1.0842022e-19 2.4505486
-0 3.1019452 0
2.4036794 -1.0842022e-19 2.4453025
3.6893488e+19 3.0967987 -1.0842022e-19
2.5249019 -0 2.4326985
1.0842022e-19 3.1047378 2
2.4068823 -2 2.4283803
-3.6893488e+19 3.0952489 -1.0842022e-19
2.5236735 0 2.4107003
-3.6893488e+19 3.1139185 3.6893488e+19
2.4174128 1.0842022e-19 2.4185262
-1.0842022e-19 3.0965633 3.6893488e+19
2.5247154 1.0842022e-19 2.3921595
3.6893488e+19 3.0954921 -1.0842022e-19
2.5238662 -2 2.3709476
-0 3.0405366 1.0842022e-19
2.3332441 -2 2.3007967
-2 3.0571384 2
2.486928 -2 2.3120179
-3.6893488e+19 3.0395606 -2
2.3321245 2 2.2832212
1.0842022e-19 3.0473838 1.0842022e-19
2.2672398 2 2.2812772
-2 3.1002793 2
2.4668794 -2 2.3237381
-0 3.0484843 -0
2.2682288 1.0842022e-19 2.2653482
1.0842022e-19 3.1004879 -0
2.4671571 0 2.3038754
2 3.0382352 -3.6893488e+19
2.2590184 0 2.2297494
1.0842022e-19 3.0632281 -3.6893488e+19
2.4174943 1.0842022e-19 2.2536707
1.0842022e-19 3.0389614 -3.6893488e+19
2.259671 -0 2.198205
-2 3.1024187 0
2.4697309 2 2.2653017
-1.0842022e-19 3.0389318 0
2.2596447 1.0842022e-19 2.1654472
-3.6893488e+19 3.0403736 2
2.2609403 3.6893488e+19 2.1346922
-2 3.0523512 -1.0842022e-19
2.402997 2 2.1363406
0 2.976212 0
2.1779413 -3.6893488e+19 2.0385535
-2 3.0530634 -3.6893488e+19
2.4039462 -1.0842022e-19 2.1027839
2 2.9833283 -2
2.1843362 0 2.0156045
-1.0842022e-19 3.0450869 1.0842022e-19
2.3933146 2 2.059973
-0 3.0141397 -1.0842022e-19
2.4187589 -0 2.0139389
0 3.1211114 1.0842022e-19
2.4256628 -1.0842022e-19 2.0964949
-2 3.0147357 3.6893488e+19
2.419704 3.6893488e+19 1.9843348
1.0842022e-19 3.005338 2
2.2928712 2 1.9595424
-3.6893488e+19 3.0116143 1.0842022e-19
2.4147556 -1.0842022e-19 1.9517449
-2 2.9972463 -1.0842022e-19
2.2851694 -0 1.9259576
-1.0842022e-19 3.0120006 0
2.4153678 -0 1.9221914
-1.0842022e-19 2.9996736 3.6893488e+19
2.2865615 -1.0842022e-19 1.8986168
-1.0842022e-19 3.0130482 0
2.4170287 0 1.8929319
-1.0842022e-19 3.002121 -0
2.2891815 1.0842022e-19 1.8680766
-3.6893488e+19 3.0141447 -1.0842022e-19
2.418767 -0 1.851926
-0 3.0024147 3.6893488e+19
2.2895184 1.0842022e-19 1.8114313
-0 3.0132368 -2
2.4173274 3.6893488e+19 1.7912568
0 3.0026035 2
2.2897348 -0 1.7546289
3.6893488e+19 3.0136337 2
2.4179568 0 1.7130651
1.0842022e-19 3.0032749 3.6893488e+19
2.2905049 3.6893488e+19 1.6457638
-0 2.9961224 -0
2.1958334 0 1.5480504
-0 3.0065875 -1.0842022e-19
2.3419995 -0 1.3784829
-0 2.9953837 -1.0842022e-19
2.1951697 -1.0842022e-19 -1.3235445
-0 3.0140443 -2
2.3519385 2 -1.5477241
-2 2.9982853 2
2.1977773 2 -1.6368098
-3.6893488e+19 3.0152614 -0
2.3535609 3.6893488e+19 -1.7067589
1.0842022e-19 2.9994857 2
2.1988559 2 -1.7492905
-0 3.0221364 -3.6893488e+19
2.3627243 -3.6893488e+19 -1.7926114
-2 2.9981155 3.6893488e+19
2.1976247 3.6893488e+19 -1.8052262
-1.0842022e-19 3.0225868 -2
2.3633246 -1.0842022e-19 -1.8545717
0 3.0002234 -1.0842022e-19
2.1997194 0 -1.8622829
-2 2.9585519 3.6893488e+19
2.3055966 0 -1.8699863
-0 2.9007123 2
2.1100945 1.0842022e-19 -1.8600235
-0 2.9312694 0
2.2874146 -1.0842022e-19 -1.8896228
3.6893488e+19 2.8992357 -3.6893488e+19
2.1087675 3.6893488e+19 -1.8895172
2 2.9038579 1.0842022e-19
2.2691464 2 -1.9036224
3.6893488e+19 2.8269072 1.0842022e-19
2.2591343 -3.6893488e+19 -1.8843634
-0 2.7791734 1.0842022e-19
2.0702105 3.6893488e+19 -1.8681823
0 2.7343926 2
2.1339705 3.6893488e+19 -1.8517089
-0 2.7015378 3.6893488e+19
2.0089557 -3.6893488e+19 -1.8471882
-1.0842022e-19 2.6641958 0
2.0783267 -3.6893488e+19 -1.8424929
1.0842022e-19 2.6324499 0
1.969334 -2 -1.8348262
-0 2.6004016 -2
2.0277579 1.0842022e-19 -1.8290063
-3.6893488e+19 2.5825336 3.6893488e+19
1.9407072 0 -1.8262725
-1.0842022e-19 2.5595126 3.6893488e+19
1.995346 -3.6893488e+19 -1.8228977
-3.6893488e+19 2.5476985 1.0842022e-19
1.9207294 1.0842022e-19 -1.8220614
3.6893488e+19 2.5267165 2
1.9693489 1.0842022e-19 -1.8177646
-3.6893488e+19 2.5156 1.0842022e-19
1.902321 2 -1.8158882
-3.6893488e+19 2.4949727 1.0842022e-19
1.9461787 2 -1.8115857
2 2.4806051 3.6893488e+19
1.8878129 1.0842022e-19 -1.8113595
2 2.4502289 3.6893488e+19
1.9284447 1.0842022e-19 -1.8076366
-3.6893488e+19 2.3900235 0
1.8002447 -2 -1.8033087
1.0842022e-19 2.3356452 2
1.7758114 -1.0842022e-19 -1.797559
-1.0842022e-19 2.2927074 -2
1.7565187 -0 -1.7922097
1.0842022e-19 2.2609262 2
1.7344778 -2 -1.7890232
-2 2.2136629 3.6893488e+19
1.8087692 -3.6893488e+19 -1.7861713
-0 2.1748972 -0
1.7934047 2 -1.7851561
-1.0842022e-19 2.1420147 -0
1.780372 -2 -1.7843168
1.0842022e-19 2.1121104 1.0842022e-19
1.7685196 -2 -1.7828965
-0 3.1116843 -2
2.3173461 -3.6893488e+19 2.5884612
0 3.1109285 0
2.3166831 -3.6893488e+19 2.5770998
3.6893488e+19 3.1094933 0
2.4714174 1.0842022e-19 2.5728474
-2 3.1198096 2
2.4849458 3.6893488e+19 2.5711653
3.6893488e+19 3.1062512 2
2.3125792 0 2.5519249
-1.0842022e-19 3.1173635 -1.0842022e-19
2.4817379 2 2.5581989
-1.0842022e-19 3.1066134 2
2.312897 -2 2.5417986
-0 3.1122899 1.0842022e-19
2.4750848 -3.6893488e+19 2.543283
0 3.1040316 1.0842022e-19
2.3106315 -2 2.5293596
-2 3.0970688 1.0842022e-19
2.4551249 0 2.5207763
2 3.0914426 2
2.2995858 2 2.5094922
-0 3.0976777 -3.6893488e+19
2.4559231 0 2.5110776
1.0842022e-19 3.0930452 1.0842022e-19
2.300992 -3.6893488e+19 2.5007577
0 3.1002133 3.6893488e+19
2.4592481 -2 2.502758
-2 3.0958822 -2
2.5204091 1.0842022e-19 2.4918804
-1.0842022e-19 3.0976436 -0
2.3913097 0 2.4799037
-0 3.0961735 -3.6893488e+19
2.5206368 -3.6893488e+19 2.4720471
1.0842022e-19 3.1593711 -2
2.4607904 2 2.5207062
0 3.0918446 -0
2.5172524 -0 2.4462004
2 3.1022291 0
2.3964713 -1.0842022e-19 2.4454958
3.6893488e+19 3.0953405 1.0842022e-19
2.5199857 -1.0842022e-19 2.4306569
-1.0842022e-19 3.1044106 -1.0842022e-19
2.3989267 -0 2.4278262
0 3.0961556 -3.6893488e+19
2.5206227 1.0842022e-19 2.4115663
-0 3.0976839 -0
2.5218177 -0 2.3932245
0 3.096005 -2
2.520505 2 2.3713067
2 3.1035683 3.6893488e+19
2.3979785 2 2.3659182
-0 3.0911705 -2
2.5167255 -2 2.3464119
2 3.1022165 2
2.396457 3.6893488e+19 2.344377
3.6893488e+19 3.0479639 -3.6893488e+19
2.2614369 0 2.281744
-2 3.1013074 -0
2.3082414 3.6893488e+19 2.3122163
-0 3.1101761 -3.6893488e+19
2.4723127 1.0842022e-19 2.31214
0 3.098356 3.6893488e+19
2.3056517 -3.6893488e+19 2.2898238
0 3.1034088 2
2.4634385 -3.6893488e+19 2.2860873
-1.0842022e-19 3.1000516 1.0842022e-19
2.3071396 0 2.2714019
-3.6893488e+19 3.1029091 -3.6893488e+19
2.4627833 3.6893488e+19 2.2655559
3.6893488e+19 3.039542 2
2.2540476 3.6893488e+19 2.1662033
0 3.1018693 -3.6893488e+19
2.4614196 -2 2.239455
-2 3.1080728 0
2.3141775 -3.6893488e+19 2.2242432
3.6893488e+19 3.1051455 -0
2.4657159 1.0842022e-19 2.2036037
0 2.978395 1.0842022e-19
2.1697495 3.6893488e+19 2.0397921
1.0842022e-19 3.1050858 3.6893488e+19
2.4656377 -1.0842022e-19 2.163162
2 3.104389 -1.0842022e-19
2.310945 -2 2.1393828
2 3.106178 -2
2.4670699 3.6893488e+19 2.1239839
-1.0842022e-19 3.1080108 3.6893488e+19
2.5298913 -2 2.1075542
2 3.1197357 -3.6893488e+19
2.4161766 -2 2.095082
3.6893488e+19 3.108155 1.0842022e-19
2.530004 0 2.0668628
-0 3.1081007 -0
2.4030802 0 2.0437651
2 3.1086495 -0
2.5303905 -1.0842022e-19 2.0264311
2 3.1023448 -3.6893488e+19
2.3966012 -2 1.9992714
-2 3.0853462 3.6893488e+19
2.5121722 0 1.9702818
3.6893488e+19 3.1018252 2
2.3960166 -2 1.9592073
-1.0842022e-19 3.0153909 0
2.414963 3.6893488e+19 1.8941305
-0 3.0533755 -1.0842022e-19
2.3414812 3.6893488e+19 1.8961917
-3.6893488e+19 3.0132692 2
2.4116457 -3.6893488e+19 1.8510572
-3.6893488e+19 3.051018 0
2.3388278 3.6893488e+19 1.8472465
1.0842022e-19 3.0131273 -0
2.4114234 3.6893488e+19 1.7911019
0 3.0505328 -0
2.3382814 -2 1.7791674
-0 3.0169284 -1.0842022e-19
2.417367 -1.0842022e-19 1.7156166
2 3.0512395 0
2.339077 -1.0842022e-19 1.6733036
3.6893488e+19 3.0518417 0
2.2648396 -0 1.585507
-1.0842022e-19 3.0066061 -0
2.3364975 0 1.3784367
-2 3.0525291 0
2.2654428 3.6893488e+19 -1.3674304
-3.6893488e+19 3.0212822 -0
2.3557429 3.6893488e+19 -1.552382
2 3.0504684 0
2.2636347 2 -1.664946
-3.6893488e+19 3.0217903 -3.6893488e+19
2.3564091 -3.6893488e+19 -1.711756
-1.0842022e-19 3.0483 3.6893488e+19
2.2617321 1.0842022e-19 -1.7738366
-0 3.022686 1.0842022e-19
2.3575838 1.0842022e-19 -1.7928772
-1.0842022e-19 3.0477016 0
2.2612071 0 -1.8403639
-1.0842022e-19 3.0218725 0
2.3565171 -1.0842022e-19 -1.853871
0 2.9987915 -3.6893488e+19
2.1876454 0 -1.8614292
3.6893488e+19 3.0137415 -3.6893488e+19
2.3458543 -0 -1.8908457
2 2.9986148 -3.6893488e+19
2.1874905 1.0842022e-19 -1.8961798
-2 2.9197469 3.6893488e+19
2.2752151 3.6893488e+19 -1.8858336
-2 2.8984828 3.6893488e+19
