# .PCD v0.7 - Point Cloud Data file format
VERSION 0.7
FIELDS x y z
SIZE 4 4 4
TYPE F F F
COUNT 1 1 1
WIDTH 1708
HEIGHT 1
VIEWPOINT 0 0 0 1 0 0 0
POINTS 1708
DATA ascii
-0 2.1557984 1.0842022e-19
1.9736946 -1.0842022e-19 -1.7823312
-2 2.1203475 -3.6893488e+19
1.9541523 2 -1.7807481
-0 2.0978863 0
1.9417708 2 -1.7827848
-3.6893488e+19 3.0378399 -2
2.7570987 -0 2.525691
3.6893488e+19 3.0701809 2
2.7859857 -1.0842022e-19 2.546438
-0 3.0765905 2
2.8344734 -2 2.5548406
3.6893488e+19 3.0370679 2
2.7564092 0 2.5066347
-3.6893488e+19 3.0755553 -3.6893488e+19
2.8334131 -3.6893488e+19 2.5432518
1.0842022e-19 3.0711772 -1.0842022e-19
2.7868755 -2 2.5269263
1.0842022e-19 3.084496 2
2.8425696 0 2.5404193
-1.0842022e-19 3.1538348 -1.0842022e-19
2.8607054 0 2.5854015
3.6893488e+19 3.0357149 0
2.7926111 -1.0842022e-19 2.4775889
3.6893488e+19 3.1559868 -0
2.8626275 2 2.5743628
0 3.0375023 -1.0842022e-19
2.7944415 -0 2.461962
2 3.0284641 -2
2.807004 3.6893488e+19 2.4456198
3.6893488e+19 3.0361328 0
2.7768357 -3.6893488e+19 2.4363286
-2 3.0291212 -1.0842022e-19
2.8077285 1.0842022e-19 2.4283717
-0 3.0360518 1.0842022e-19
2.7767572 1.0842022e-19 2.4179819
-2 3.0290089 -0
2.8076048 -2 2.4099531
-2 3.0302076 -2
2.8089263 -2 2.3934274
-1.0842022e-19 3.0373473 -2
2.7780106 -2 2.3833904
3.6893488e+19 3.0307448 2
2.8095186 -1.0842022e-19 2.3759022
2 3.0380032 0
2.7786453 -2 2.3660381
1.0842022e-19 3.0993025 3.6893488e+19
2.8851027 -0 2.4449961
3.6893488e+19 3.0591338 2
2.7990892 -2 2.3733721
2 3.1004746 3.6893488e+19
2.886395 -2 2.4237607
-2 3.0990102 2
2.8376701 -1.0842022e-19 2.3995323
3.6893488e+19 3.0354505 1.0842022e-19
2.7761755 0 2.3088119
-0 3.0283208 1.0842022e-19
2.7471926 2 2.2882307
1.0842022e-19 3.0439727 -3.6893488e+19
2.8010681 -1.0842022e-19 2.3029661
-2 3.0303299 -3.6893488e+19
2.7503908 -0 2.2729626
0 3.0772767 2
2.835176 2 2.3165321
-2 3.0490444 -2
2.7671065 -3.6893488e+19 2.2727067
1.0842022e-19 3.0319324 -3.6893488e+19
2.7887371 -0 2.2548187
-3.6893488e+19 3.0892985 0
2.8030617 3.6893488e+19 2.2884846
-2 3.0325661 -1.0842022e-19
2.7893863 -0 2.2250447
3.6893488e+19 3.0304158 -1.0842022e-19
2.787184 1.0842022e-19 2.1860023
3.6893488e+19 3.0280755 -1.0842022e-19
2.7467542 2 2.1543725
0 3.1370254 0
2.8963668 -1.0842022e-19 2.2764676
-1.0842022e-19 3.1335959 3.6893488e+19
2.8928547 -2 2.249685
0 3.017761 1.0842022e-19
2.7742238 -3.6893488e+19 2.065078
2 3.0137532 -2
2.7907853 -3.6893488e+19 2.0485795
1.0842022e-19 3.0057828 0
2.7449436 1.0842022e-19 2.0157917
3.6893488e+19 3.0065646 -2
2.78286 1.0842022e-19 2.0076568
-1.0842022e-19 3.0027623 2
2.739099 -3.6893488e+19 1.9812372
-0 3.0091989 2
2.7857645 1.0842022e-19 1.9771996
3.6893488e+19 3.0861175 -3.6893488e+19
2.825196 -0 2.0157559
-2 3.0131621 2
2.790134 -0 1.947087
-3.6893488e+19 3.0030315 -0
2.73962 2 1.9186558
1.0842022e-19 3.1324017 -3.6893488e+19
2.9215941 3.6893488e+19 1.9876205
-1.0842022e-19 3.0048349 3.6893488e+19
2.7431095 1.0842022e-19 1.8882494
2 3.011673 -1.0842022e-19
2.788492 1.0842022e-19 1.8792394
-2 3.007189 -3.6893488e+19
2.7476647 1.0842022e-19 1.8402671
-2 3.0149171 -2
2.7920687 3.6893488e+19 1.8191719
-0 3.0106003 -2
2.7521327 1.0842022e-19 1.778524
0 3.002579 0
2.778466 -3.6893488e+19 1.7415332
2 3.0027196 1.0842022e-19
2.7390163 3.6893488e+19 1.6724777
1.0842022e-19 2.9830101 -1.0842022e-19
2.6814246 3.6893488e+19 1.5819979
-1.0842022e-19 2.9929407 -0
2.7524192 -0 1.4362607
1.0842022e-19 2.9794807 -0
2.6782722 -1.0842022e-19 -1.2305954
2 2.978919 2
2.7404785 3.6893488e+19 -1.5245506
-1.0842022e-19 2.981977 -2
2.6805019 -2 -1.6322304
1.0842022e-19 2.9740534 -0
2.7354953 3.6893488e+19 -1.6928426
-3.6893488e+19 2.9853055 0
2.6834753 1.0842022e-19 -1.7508681
-2 2.966718 -0
2.727983 3.6893488e+19 -1.7784213
0 2.983304 -3.6893488e+19
2.6816871 1.0842022e-19 -1.8094013
-2 2.9258273 0
2.6861055 1.0842022e-19 -1.8183709
-3.6893488e+19 2.9319363 -3.6893488e+19
2.6358056 3.6893488e+19 -1.8426046
0 2.8705297 0
2.629473 -2 -1.839725
-1.0842022e-19 2.8605504 -3.6893488e+19
2.5720437 -1.0842022e-19 -1.8507346
2 2.8483133 1.0842022e-19
2.6067204 3.6893488e+19 -1.870558
-3.6893488e+19 2.8290362 -3.6893488e+19
2.5438952 2 -1.8712558
1.0842022e-19 2.7803016 -3.6893488e+19
2.5370669 -2 -1.8577957
-2 2.7197006 -2
2.5089202 1.0842022e-19 -1.8382344
3.6893488e+19 2.6846325 -3.6893488e+19
2.4205101 -3.6893488e+19 -1.8304533
1.0842022e-19 2.6276104 3.6893488e+19
2.416312 3.6893488e+19 -1.8205396
-2 2.6069586 -3.6893488e+19
2.34536 2 -1.8159239
-3.6893488e+19 2.5638695 3.6893488e+19
2.3460383 -2 -1.8075943
-3.6893488e+19 2.5517869 1.0842022e-19
2.2919812 3.6893488e+19 -1.8051848
-1.0842022e-19 2.5226645 0
2.3006103 -3.6893488e+19 -1.8010634
-3.6893488e+19 2.5139334 -3.6893488e+19
2.2553575 2 -1.7990185
-3.6893488e+19 2.4841468 -3.6893488e+19
2.2668836 2 -1.7968122
3.6893488e+19 2.4815974 2
2.2159491 -0 -1.7987715
0 2.439369 -2
2.2344 2 -1.7950021
0 2.4297519 -2
2.1657879 -3.6893488e+19 -1.7934731
2 2.4020348 0
2.1932397 0 -1.7934586
3.6893488e+19 2.3708291 3.6893488e+19
2.1588356 -1.0842022e-19 -1.7922986
-3.6893488e+19 2.3302636 1.0842022e-19
2.0449917 1.0842022e-19 -1.7883049
-0 2.2896302 -0
2.0086977 1.0842022e-19 -1.7861576
-0 2.2606096 -1.0842022e-19
1.9827766 -2 -1.7862138
-3.6893488e+19 2.2160079 3.6893488e+19
1.9581193 -2 -1.7836815
-0 2.1557984 1.0842022e-19
1.9736946 -1.0842022e-19 -1.7823312
-2 2.1203475 -3.6893488e+19
1.9541523 2 -1.7807481
-0 2.0978863 0
1.9417708 2 -1.7827848
-0 3.0938649 1.0842022e-19
2.8498917 0 2.5817752
-2 3.0707223 3.6893488e+19
2.7844543 0 2.5465932
0 3.0778189 0
2.8335643 -3.6893488e+19 2.5555778
0 3.0704036 -3.6893488e+19
2.7841713 -2 2.5361021
-2 3.0761006 -0
2.831816 1.0842022e-19 2.5433502
-2 3.1538742 2
2.8582032 2 2.5978236
3.6893488e+19 3.0846431 1.0842022e-19
2.8405082 0 2.5401585
-1.0842022e-19 3.1516399 -3.6893488e+19
2.8562214 3.6893488e+19 2.5831895
-3.6893488e+19 3.154634 0
2.8588772 0 2.5729051
-0 3.0863345 -1.0842022e-19
2.8422291 -1.0842022e-19 2.5198517
3.6893488e+19 3.0292165 0
2.8059273 3.6893488e+19 2.4461806
3.6893488e+19 3.0365503 2
2.7753875 -0 2.4364133
2 3.1933947 -0
2.985811 -1.0842022e-19 2.5897522
-0 3.1094553 1.0842022e-19
2.8454525 -0 2.5122881
-1.0842022e-19 3.0285995 -1.0842022e-19
2.8052511 2 2.4087622
-2 3.0921843 -1.0842022e-19
2.8749187 2 2.4797544
2 3.1217484 2
2.8572667 3.6893488e+19 2.4953752
-1.0842022e-19 3.0896411 0
2.8721323 0 2.4541066
-0 3.0439441 1.0842022e-19
2.7824934 -2 2.3731167
-0 3.0998604 1.0842022e-19
2.8833292 1.0842022e-19 2.4450653
-3.6893488e+19 3.1009157 -2
2.8372455 -2 2.423301
1.0842022e-19 3.1022298 -0
2.8859251 0 2.4252698
1.0842022e-19 3.0988932 -0
2.8353016 3.6893488e+19 2.3988936
0 3.0895796 2
2.8263509 3.6893488e+19 2.3669066
2 3.0894418 2
2.8010569 3.6893488e+19 2.3511178
-3.6893488e+19 3.0783188 -1.0842022e-19
2.8340731 -1.0842022e-19 2.3379107
-0 3.0306289 1.0842022e-19
2.7477896 -2 2.2729349
-3.6893488e+19 3.0778255 3.6893488e+19
2.8335712 -3.6893488e+19 2.3166389
1.0842022e-19 3.0927515 -3.6893488e+19
2.8487585 1.0842022e-19 2.3093746
1.0842022e-19 3.0886712 -1.0842022e-19
2.8003733 2 2.2876153
0 3.0922902 -2
2.848289 1.0842022e-19 2.2873409
2 3.0911398 -3.6893488e+19
2.8025627 3.6893488e+19 2.2687159
1.0842022e-19 3.0311244 -1.0842022e-19
2.7860513 -3.6893488e+19 2.1865191
-1.0842022e-19 3.0885839 3.6893488e+19
2.8002961 -1.0842022e-19 2.2417886
-1.0842022e-19 3.1374602 -3.6893488e+19
2.8942509 3.6893488e+19 2.2764082
-0 3.0513709 -1.0842022e-19
2.7672911 -2 2.1507299
-3.6893488e+19 3.1324151 2
2.8891175 -1.0842022e-19 2.2474806
0 3.0172024 1.0842022e-19
2.7718854 2 2.0640004
1.0842022e-19 3.1285841 -2
2.9148004 3.6893488e+19 2.1779559
3.6893488e+19 3.1202688 2
2.8558447 3.6893488e+19 2.1342714
-3.6893488e+19 3.1751502 -3.6893488e+19
2.9658213 1.0842022e-19 2.1763453
-1.0842022e-19 3.0954597 0
2.8320022 -0 2.0656412
3.6893488e+19 3.1659405 -3.6893488e+19
2.9557304 0 2.1140656
-2 3.0877526 3.6893488e+19
2.8245952 0 2.0167115
-2 3.1367414 -0
2.9237382 1.0842022e-19 2.0392208
-3.6893488e+19 3.0010998 -3.6893488e+19
2.7326362 -2 1.9171567
-1.0842022e-19 3.1335282 1.0842022e-19
2.9202178 3.6893488e+19 1.9879774
3.6893488e+19 3.1204751 -0
2.8560429 -1.0842022e-19 1.9507308
-1.0842022e-19 3.1312263 -0
2.9176955 2 1.9380153
0 3.1207421 3.6893488e+19
2.8562994 1.0842022e-19 1.9049593
-0 3.1268499 -0
2.9129004 -1.0842022e-19 1.8879077
0 3.1204278 -2
2.8559973 -2 1.8429494
0 3.0027514 -1.0842022e-19
2.7769301 2 1.7413501
2 3.1197574 -1.0842022e-19
2.8553531 1.0842022e-19 1.7510178
-0 3.0107551 -0
2.7125366 -1.0842022e-19 1.5982368
-2 2.9951606 0
2.7519195 -3.6893488e+19 1.4368492
-2 2.9752412 -2
2.6714997 -0 -1.22829
3.6893488e+19 2.9814544 2
2.7398925 0 -1.5251412
-0 2.9740841 3.6893488e+19
2.6704736 -1.0842022e-19 -1.6299133
3.6893488e+19 2.9725044 3.6893488e+19
2.6690724 3.6893488e+19 -1.7448101
2 2.9625533 -1.0842022e-19
2.72066 -3.6893488e+19 -1.7768488
-2 2.9725583 2
2.6691203 -2 -1.805091
-1.0842022e-19 2.9652116 3.6893488e+19
2.7233651 3.6893488e+19 -1.835973
-2 2.9764156 -2
2.6725414 0 -1.864733
-1.0842022e-19 2.9626687 -0
2.7207775 0 -1.883881
0 2.9361691 0
2.6368461 2 -1.8863798
3.6893488e+19 2.8477778 -1.0842022e-19
2.603873 0 -1.8698527
-1.0842022e-19 2.829078 2
2.5418651 -1.0842022e-19 -1.8709997
1.0842022e-19 2.784127 3.6893488e+19
2.5391066 -2 -1.8606572
1.0842022e-19 2.7260716 -2
2.5108068 -1.0842022e-19 -1.8408154
1.0842022e-19 2.6855199 3.6893488e+19
2.4185538 -1.0842022e-19 -1.8306127
1.0842022e-19 2.6268415 -1.0842022e-19
2.4128911 1.0842022e-19 -1.8198605
-0 2.6059482 1.0842022e-19
2.342082 -2 -1.8151429
3.6893488e+19 2.5623529 -0
2.3422334 1.0842022e-19 -1.8064504
1.0842022e-19 2.5523937 2
2.2906137 -3.6893488e+19 -1.8053188
-2 2.5220735 3.6893488e+19
2.2981009 -0 -1.8004289
2 2.5142674 -3.6893488e+19
2.2539725 2 -1.7990185
-2 2.4868124 0
2.2666912 3.6893488e+19 -1.7975093
1.0842022e-19 2.4786131 2
2.2099683 3.6893488e+19 -1.7974765
-1.0842022e-19 2.4402208 -0
2.2323337 3.6893488e+19 -1.7950865
0 2.4282753 0
2.1615915 0 -1.7926823
2 2.4004312 -2
2.1887374 -1.0842022e-19 -1.792545
-0 3.0938649 1.0842022e-19
2.8498917 0 2.5817752
-2 3.0707223 3.6893488e+19
2.7844543 0 2.5465932
0 3.0778189 0
2.8335643 -3.6893488e+19 2.5555778
0 3.0704036 -3.6893488e+19
2.7841713 -2 2.5361021
-2 3.0761006 -0
2.831816 1.0842022e-19 2.5433502
-2 3.1538742 2
2.8582032 2 2.5978236
3.6893488e+19 3.0846431 1.0842022e-19
2.8405082 0 2.5401585
-1.0842022e-19 3.1516399 -3.6893488e+19
2.8562214 3.6893488e+19 2.5831895
-3.6893488e+19 3.154634 0
2.8588772 0 2.5729051
-0 3.0863345 -1.0842022e-19
2.8422291 -1.0842022e-19 2.5198517
3.6893488e+19 3.0292165 0
2.8059273 3.6893488e+19 2.4461806
3.6893488e+19 3.0365503 2
2.7753875 -0 2.4364133
1.0842022e-19 3.0289562 2
2.8056419 -1.0842022e-19 2.4275017
-0 3.1094553 1.0842022e-19
2.8454525 -0 2.5122881
-1.0842022e-19 3.0285995 -1.0842022e-19
2.8052511 2 2.4087622
-2 3.0306659 -3.6893488e+19
2.8075151 3.6893488e+19 2.3935034
-0 3.0381565 -3.6893488e+19
2.776931 -1.0842022e-19 2.3839843
-3.6893488e+19 3.0310953 3.6893488e+19
2.8079858 -0 2.3758297
-0 3.0439441 1.0842022e-19
2.7824934 -2 2.3731167
1.0842022e-19 3.0331945 -3.6893488e+19
2.8102856 -3.6893488e+19 2.3602579
-2 3.0600271 -0
2.7979498 -1.0842022e-19 2.3739781
1.0842022e-19 3.1022298 -0
2.8859251 0 2.4252698
2 3.0387468 1.0842022e-19
2.7774985 0 2.3301277
-1.0842022e-19 3.036175 -1.0842022e-19
2.7750268 3.6893488e+19 2.3092046
-3.6893488e+19 3.0275393 -0
2.7423091 0 2.2870862
-0 3.0444217 -0
2.7995818 -1.0842022e-19 2.3030231
-0 3.0306289 1.0842022e-19
2.7477896 -2 2.2729349
-0 3.0442898 -3.6893488e+19
2.7994475 3.6893488e+19 2.2842476
1.0842022e-19 3.0316448 -3.6893488e+19
2.7865808 -0 2.2542183
-3.6893488e+19 3.0240133 3.6893488e+19
2.7360547 0 2.21541
-0 3.0337765 0
2.7887502 1.0842022e-19 2.2264416
2 3.0911398 -3.6893488e+19
2.8025627 3.6893488e+19 2.2687159
1.0842022e-19 3.0311244 -1.0842022e-19
2.7860513 -3.6893488e+19 2.1865191
-1.0842022e-19 3.0885839 3.6893488e+19
2.8002961 -1.0842022e-19 2.2417886
-1.0842022e-19 3.1374602 -3.6893488e+19
2.8942509 3.6893488e+19 2.2764082
-0 3.0513709 -1.0842022e-19
2.7672911 -2 2.1507299
-3.6893488e+19 3.1324151 2
2.8891175 -1.0842022e-19 2.2474806
0 3.0172024 1.0842022e-19
2.7718854 2 2.0640004
-2 3.0070486 -2
2.7816386 -3.6893488e+19 2.0405707
-3.6893488e+19 3.0108583 -0
2.7506964 -0 2.0207233
0 3.0066884 3.6893488e+19
2.7812438 1.0842022e-19 2.0074098
-1.0842022e-19 3.0029695 -0
2.7362299 2 1.9811344
-3.6893488e+19 3.0092988 -2
2.7841041 1.0842022e-19 1.9769599
1.0842022e-19 3.0037858 -2
2.7377987 -1.0842022e-19 1.9504057
-1.0842022e-19 3.0127475 1.0842022e-19
2.7878828 -0 1.9464931
-3.6893488e+19 3.0010998 -3.6893488e+19
2.7326362 -2 1.9171567
1.0842022e-19 3.0122411 -0
2.7873278 -1.0842022e-19 1.9127192
-0 3.0054388 2
2.7409761 -1.0842022e-19 1.8884019
-1.0842022e-19 3.1312263 -0
2.9176955 2 1.9380153
-3.6893488e+19 3.0103021 3.6893488e+19
2.7501619 -3.6893488e+19 1.8425974
-0 3.1268499 -0
2.9129004 -1.0842022e-19 1.8879077
-1.0842022e-19 3.0096626 2
2.7490947 0 1.7777784
0 3.0027514 -1.0842022e-19
2.7769301 2 1.7413501
0 3.0025887 -2
2.7354977 -1.0842022e-19 1.6721705
-0 3.0107551 -0
2.7125366 -1.0842022e-19 1.5982368
-2 2.9951606 0
2.7519195 -3.6893488e+19 1.4368492
-2 2.9752412 -2
2.6714997 -0 -1.22829
3.6893488e+19 2.9814544 2
2.7398925 0 -1.5251412
-0 2.9740841 3.6893488e+19
2.6704736 -1.0842022e-19 -1.6299133
3.6893488e+19 2.9725044 3.6893488e+19
2.6690724 3.6893488e+19 -1.7448101
2 2.9625533 -1.0842022e-19
2.72066 -3.6893488e+19 -1.7768488
-2 2.9725583 2
2.6691203 -2 -1.805091
-1.0842022e-19 2.9652116 3.6893488e+19
2.7233651 3.6893488e+19 -1.835973
-1.0842022e-19 2.9376948 0
2.6381993 0 -1.8452486
0 2.8716383 2
2.6281517 -3.6893488e+19 -1.8400794
2 2.8631983 -0
2.5721269 1.0842022e-19 -1.8521272
3.6893488e+19 2.8477778 -1.0842022e-19
2.603873 0 -1.8698527
-1.0842022e-19 2.829078 2
2.5418651 -1.0842022e-19 -1.8709997
1.0842022e-19 2.784127 3.6893488e+19
2.5391066 -2 -1.8606572
1.0842022e-19 2.7260716 -2
2.5108068 -1.0842022e-19 -1.8408154
1.0842022e-19 2.6855199 3.6893488e+19
2.4185538 -1.0842022e-19 -1.8306127
1.0842022e-19 2.6268415 -1.0842022e-19
2.4128911 1.0842022e-19 -1.8198605
-0 2.6059482 1.0842022e-19
2.342082 -2 -1.8151429
3.6893488e+19 2.5623529 -0
2.3422334 1.0842022e-19 -1.8064504
1.0842022e-19 2.5523937 2
2.2906137 -3.6893488e+19 -1.8053188
-2 2.5220735 3.6893488e+19
2.2981009 -0 -1.8004289
2 2.5142674 -3.6893488e+19
2.2539725 2 -1.7990185
-2 2.4868124 0
2.2666912 3.6893488e+19 -1.7975093
1.0842022e-19 2.4786131 2
2.2099683 3.6893488e+19 -1.7974765
-1.0842022e-19 2.4402208 -0
2.2323337 3.6893488e+19 -1.7950865
0 2.4282753 0
2.1615915 0 -1.7926823
2 2.4004312 -2
2.1887374 -1.0842022e-19 -1.792545
0 3.0943069 -0
2.8481491 0 2.5817752
3.6893488e+19 3.0698783 -3.6893488e+19
2.7817693 3.6893488e+19 2.5454817
2 3.0776393 -2
2.8312955 1.0842022e-19 2.5550187
2 3.070426 1.0842022e-19
2.7822518 -2 2.5358021
-1.0842022e-19 3.0752618 -3.6893488e+19
2.8288915 2 2.5422201
-0 3.1546071 -2
2.8564038 -2 2.5980649
-0 3.0855386 -2
2.839283 -2 2.5405614
-1.0842022e-19 3.1528764 -2
2.8548794 -3.6893488e+19 2.5838413
0 3.1550591 3.6893488e+19
2.856802 -3.6893488e+19 2.5728824
-3.6893488e+19 3.086849 3.6893488e+19
2.8406081 -0 2.5199177
-0 3.0299814 -3.6893488e+19
2.8049242 -0 2.4467845
1.0842022e-19 3.0370092 1.0842022e-19
2.7740417 -2 2.4365823
-0 3.1934669 1.0842022e-19
2.9829745 2 2.5893381
-0 3.0405457 2
2.7774184 3.6893488e+19 2.4234982
-0 3.0287683 -0
2.8036032 0 2.4084446
3.6893488e+19 3.0927393 0
2.8732734 1.0842022e-19 2.4798684
2 3.0393708 -2
2.7762964 -3.6893488e+19 2.3851349
-1.0842022e-19 3.0905185 3.6893488e+19
2.8708546 1.0842022e-19 2.4546504
0 3.0432122 -0
2.7799642 1.0842022e-19 2.3717365
0 3.0335593 2
2.808821 0 2.3602235
0 3.1012299 -2
2.8353605 -2 2.4231663
1.0842022e-19 3.0312433 0
2.8062987 2 2.3390939
1.0842022e-19 3.0995123 3.6893488e+19
2.8337207 1.0842022e-19 2.3991172
0 3.0631123 0
2.8410068 2 2.3573031
-3.6893488e+19 3.0942466 0
2.8286932 -2 2.3714986
2 3.0904751 -2
2.7999122 3.6893488e+19 2.3517928
-0 3.0792673 1.0842022e-19
2.8329418 1.0842022e-19 2.3384519
3.6893488e+19 3.0309432 0
2.7449458 -2 2.2729349
2 3.0448067 0
2.7980967 3.6893488e+19 2.2843814
1.0842022e-19 3.0928867 2
2.8467131 0 2.3090994
-2 3.0910144 -1.0842022e-19
2.8003874 -1.0842022e-19 2.2892814
1.0842022e-19 3.0324752 -1.0842022e-19
2.7856274 0 2.2236481
2 3.0907242 1.0842022e-19
2.8001318 3.6893488e+19 2.2680883
3.6893488e+19 3.0326247 -3.6893488e+19
2.7857785 -0 2.1882858
-2 3.0896471 -3.6893488e+19
2.7991829 1.0842022e-19 2.2427812
-2 3.1379025 -3.6893488e+19
2.8922312 2 2.2763686
0 2.9746346 1.0842022e-19
2.6680887 2 2.0652056
2 3.1350484 -2
2.8893452 -0 2.2501316
3.6893488e+19 3.0157368 -0
2.7687023 0 2.0618775
-2 3.1283135 1.0842022e-19
2.9120169 2 2.1770592
-0 3.0118225 0
2.7499859 -1.0842022e-19 2.0213945
1.0842022e-19 3.0074821 3.6893488e+19
2.7804205 -3.6893488e+19 2.0078487
1.0842022e-19 3.0952032 -3.6893488e+19
2.8296061 3.6893488e+19 2.0650244
-0 3.1668177 3.6893488e+19
2.9539511 -0 2.1143291
1.0842022e-19 3.088557 -0
2.8232603 -2 2.0170224
3.6893488e+19 3.0107803 0
2.7840128 -1.0842022e-19 1.9447525
-0 3.0019119 2
2.7310603 0 1.9174941
2 3.0100806 3.6893488e+19
2.7832506 -3.6893488e+19 1.9111556
-1.0842022e-19 3.1208682 -2
2.8541117 -2 1.9507003
-1.0842022e-19 3.1290653 -3.6893488e+19
2.9128354 3.6893488e+19 1.9366912
-2 3.1213892 1.0842022e-19
2.8546093 2 1.9050417
-1.0842022e-19 3.1235573 -2
2.9068367 3.6893488e+19 1.8865139
-1.0842022e-19 3.1209054 -2
2.8541472 -2 1.842966
3.6893488e+19 3.0018387 -3.6893488e+19
2.7742743 -0 1.7401463
0 3.120883 3.6893488e+19
2.8541257 -1.0842022e-19 1.7512481
-1.0842022e-19 2.9956853 2
2.7506084 0 1.4368073
1.0842022e-19 2.975945 3.6893488e+19
2.6692429 0 -1.2283723
0 3.0013831 1.0842022e-19
2.7541883 0 -1.5315861
-2 2.9742146 -2
2.6677186 2 -1.6298038
3.6893488e+19 3.0037117 -0
2.7565429 1.0842022e-19 -1.7058768
2 2.9730334 -0
2.6666782 3.6893488e+19 -1.7448101
-1.0842022e-19 2.9724584 1.0842022e-19
2.6661718 0 -1.8048517
-0 2.9639137 3.6893488e+19
2.7190907 -2 -1.8351144
-3.6893488e+19 2.9735186 -0
2.6671057 -2 -1.8630086
3.6893488e+19 2.9626501 1.0842022e-19
2.717813 3.6893488e+19 -1.8837037
-3.6893488e+19 2.9383721 -3.6893488e+19
2.6361463 1.0842022e-19 -1.8869154
-3.6893488e+19 2.8447134 -0
2.5985603 -0 -1.8673837
3.6893488e+19 2.8293893 3.6893488e+19
2.5401473 -1.0842022e-19 -1.870957
-3.6893488e+19 2.7858849 -3.6893488e+19
2.5390751 -1.0842022e-19 -1.861811
-1.0842022e-19 2.7231121 2
2.5076303 2 -1.8391775
-0 2.6869495 -3.6893488e+19
2.4172072 1.0842022e-19 -1.8310376
2 2.6274726 3.6893488e+19
2.4111009 0 -1.8199171
3.6893488e+19 2.6068306 -2
2.3407083 -1.0842022e-19 -1.8153832
-2 2.5613608 -0
2.3390994 3.6893488e+19 -1.8056241
1.0842022e-19 2.5525355 -2
2.2888663 3.6893488e+19 -1.8051848
-3.6893488e+19 2.5223405 1.0842022e-19
2.296603 1.0842022e-19 -1.8003584
0 2.5162756 1.0842022e-19
2.2542448 0 -1.8001283
-0 2.4874861 2
2.2654576 3.6893488e+19 -1.7975093
-3.6893488e+19 2.4785192 -0
2.2068989 -0 -1.7972337
-0 2.4417052 -3.6893488e+19
2.2310557 -1.0842022e-19 -1.7954241
-2 2.4283454 -1.0842022e-19
2.1589921 -0 -1.7925065
-1.0842022e-19 2.4014225 -3.6893488e+19
2.1871843 2 -1.7927277
1.0842022e-19 2.367945 1.0842022e-19
2.1507244 -1.0842022e-19 -1.7905293
-3.6893488e+19 2.3321562 1.0842022e-19
2.0425847 3.6893488e+19 -1.7888657
-1.0842022e-19 2.290066 0
2.0055089 2 -1.7860316
1.0842022e-19 2.2600734 2
1.9790894 2 -1.7855147
2 2.212101 2
1.9535241 2 -1.7819918
-1.0842022e-19 2.1595435 3.6893488e+19
1.9730145 -2 -1.7833354
2 2.118372 -2
1.9505947 0 -1.7794805
2 2.0993009 -1.0842022e-19
1.9402096 3.6893488e+19 -1.7829796
0 3.0943069 -0
2.8481491 0 2.5817752
3.6893488e+19 3.0698783 -3.6893488e+19
2.7817693 3.6893488e+19 2.5454817
2 3.0776393 -2
2.8312955 1.0842022e-19 2.5550187
2 3.070426 1.0842022e-19
2.7822518 -2 2.5358021
-1.0842022e-19 3.0752618 -3.6893488e+19
2.8288915 2 2.5422201
-1.0842022e-19 3.0240126 -0
2.7327359 -3.6893488e+19 2.471441
-0 3.0855386 -2
2.839283 -2 2.5405614
1.0842022e-19 3.024101 2
2.7328916 -0 2.4542646
2 3.0240064 1.0842022e-19
2.7327249 1.0842022e-19 2.4368346
-3.6893488e+19 3.086849 3.6893488e+19
2.8406081 -0 2.5199177
-0 3.0299814 -3.6893488e+19
2.8049242 -0 2.4467845
1.0842022e-19 3.0370092 1.0842022e-19
2.7740417 -2 2.4365823
-3.6893488e+19 3.0279617 -1.0842022e-19
2.8027248 -0 2.4253893
-0 3.0405457 2
2.7774184 3.6893488e+19 2.4234982
-0 3.0287683 -0
2.8036032 0 2.4084446
3.6893488e+19 3.0288301 -0
2.8036704 0 2.3903892
2 3.0393708 -2
2.7762964 -3.6893488e+19 2.3851349
0 3.0318918 2
2.8070049 -1.0842022e-19 2.3763735
0 3.0432122 -0
2.7799642 1.0842022e-19 2.3717365
0 3.0335593 2
2.808821 0 2.3602235
0 3.1012299 -2
2.8353605 -2 2.4231663
1.0842022e-19 3.0312433 0
2.8062987 2 2.3390939
3.6893488e+19 3.0390413 2
2.7759819 1.0842022e-19 2.3300638
0 3.0631123 0
2.8410068 2 2.3573031
-0 3.037894 -2
2.7748864 2 2.3106849
2 3.0260041 -1.0842022e-19
2.7362442 -1.0842022e-19 2.2851787
0 3.0447447 -3.6893488e+19
2.7980337 -1.0842022e-19 2.3029661
3.6893488e+19 3.0309432 0
2.7449458 -2 2.2729349
2 3.0448067 0
2.7980967 3.6893488e+19 2.2843814
-0 3.0319512 3.6893488e+19
2.7850976 -1.0842022e-19 2.2541683
-2 3.0235231 0
2.7318738 3.6893488e+19 2.2140577
1.0842022e-19 3.0324752 -1.0842022e-19
2.7856274 0 2.2236481
-3.6893488e+19 2.987644 2
2.6795483 3.6893488e+19 2.1336877
3.6893488e+19 3.0326247 -3.6893488e+19
2.7857785 -0 2.1882858
-2 3.0896471 -3.6893488e+19
2.7991829 1.0842022e-19 2.2427812
-2 3.1379025 -3.6893488e+19
2.8922312 2 2.2763686
0 2.9746346 1.0842022e-19
2.6680887 2 2.0652056
2 3.1350484 -2
2.8893452 -0 2.2501316
3.6893488e+19 3.0157368 -0
2.7687023 0 2.0618775
1.0842022e-19 3.0093768 2
2.7824841 0 2.0427973
-0 3.0118225 0
2.7499859 -1.0842022e-19 2.0213945
1.0842022e-19 3.0074821 3.6893488e+19
2.7804205 -3.6893488e+19 2.0078487
2 3.0023754 1.0842022e-19
2.7319453 1.0842022e-19 1.980312
-3.6893488e+19 3.0085611 3.6893488e+19
2.7815959 1.0842022e-19 1.9760015
3.6893488e+19 3.0049953 1.0842022e-19
2.7369485 -0 1.9511168
3.6893488e+19 3.0107803 0
2.7840128 -1.0842022e-19 1.9447525
-0 3.0019119 2
2.7310603 0 1.9174941
2 3.0100806 3.6893488e+19
2.7832506 -3.6893488e+19 1.9111556
-1.0842022e-19 3.0040011 -1.0842022e-19
2.73505 1.0842022e-19 1.8874562
-1.0842022e-19 3.0090933 0
2.7821755 3.6893488e+19 1.8776045
3.6893488e+19 3.0162849 -1.0842022e-19
2.7542536 -2 1.8473288
-1.0842022e-19 3.1235573 -2
2.9068367 3.6893488e+19 1.8865139
-3.6893488e+19 3.0049868 -0
2.7369323 -2 1.7748454
3.6893488e+19 3.0018387 -3.6893488e+19
2.7742743 -0 1.7401463
-0 3.0120037 1.0842022e-19
2.7501659 -3.6893488e+19 1.6783715
-1.0842022e-19 2.9956853 2
2.7506084 0 1.4368073
1.0842022e-19 2.975945 3.6893488e+19
2.6692429 0 -1.2283723
0 3.0013831 1.0842022e-19
2.7541883 0 -1.5315861
-2 2.9742146 -2
2.6677186 2 -1.6298038
3.6893488e+19 3.0037117 -0
2.7565429 1.0842022e-19 -1.7058768
2 2.9730334 -0
2.6666782 3.6893488e+19 -1.7448101
-1.0842022e-19 2.9724584 1.0842022e-19
2.6661718 0 -1.8048517
-0 2.9639137 3.6893488e+19
2.7190907 -2 -1.8351144
3.6893488e+19 2.9351547 2
2.6333122 2 -1.8437254
-2 2.8735094 1.0842022e-19
2.6276777 3.6893488e+19 -1.840885
-1.0842022e-19 2.8580601 0
2.5654025 1.0842022e-19 -1.8486637
-3.6893488e+19 2.8447134 -0
2.5985603 -0 -1.8673837
3.6893488e+19 2.8293893 3.6893488e+19
2.5401473 -1.0842022e-19 -1.870957
-3.6893488e+19 2.7858849 -3.6893488e+19
2.5390751 -1.0842022e-19 -1.861811
-1.0842022e-19 2.7231121 2
2.5076303 2 -1.8391775
-0 2.6869495 -3.6893488e+19
2.4172072 1.0842022e-19 -1.8310376
2 2.6274726 3.6893488e+19
2.4111009 0 -1.8199171
3.6893488e+19 2.6068306 -2
2.3407083 -1.0842022e-19 -1.8153832
-2 2.5613608 -0
2.3390994 3.6893488e+19 -1.8056241
1.0842022e-19 2.5525355 -2
2.2888663 3.6893488e+19 -1.8051848
-3.6893488e+19 2.5223405 1.0842022e-19
2.296603 1.0842022e-19 -1.8003584
0 2.5162756 1.0842022e-19
2.2542448 0 -1.8001283
-0 2.4874861 2
2.2654576 3.6893488e+19 -1.7975093
-3.6893488e+19 2.4785192 -0
2.2068989 -0 -1.7972337
-0 2.4417052 -3.6893488e+19
2.2310557 -1.0842022e-19 -1.7954241
-2 2.4283454 -1.0842022e-19
2.1589921 -0 -1.7925065
-1.0842022e-19 2.4014225 -3.6893488e+19
2.1871843 2 -1.7927277
1.0842022e-19 2.367945 1.0842022e-19
2.1507244 -1.0842022e-19 -1.7905293
-3.6893488e+19 2.3321562 1.0842022e-19
2.0425847 3.6893488e+19 -1.7888657
-1.0842022e-19 2.290066 0
2.0055089 2 -1.7860316
1.0842022e-19 2.2600734 2
1.9790894 2 -1.7855147
2 2.212101 2
1.9535241 2 -1.7819918
-1.0842022e-19 2.1595435 3.6893488e+19
1.9730145 -2 -1.7833354
2 2.118372 -2
1.9505947 0 -1.7794805
2 2.0993009 -1.0842022e-19
1.9402096 3.6893488e+19 -1.7829796
1.0842022e-19 3.0942936 -3.6893488e+19
2.8458738 3.6893488e+19 2.6038737
1.0842022e-19 3.0935605 -2
2.8451374 3.6893488e+19 2.5806191
2 3.0699382 -2
2.7798231 -3.6893488e+19 2.5451972
-3.6893488e+19 3.0781267 3.6893488e+19
2.829633 3.6893488e+19 2.5550694
2 3.0708787 1.0842022e-19
2.7806458 2 2.5358772
0 3.0754726 3.6893488e+19
2.8269665 -3.6893488e+19 2.5420234
-1.0842022e-19 3.0228388 0
2.7272589 -2 2.4688823
3.6893488e+19 3.083761 3.6893488e+19
2.8352931 0 2.538641
-2 3.1552527 -1.0842022e-19
2.8544407 -2 2.5854247
-3.6893488e+19 3.1124253 -2
2.864089 -1.0842022e-19 2.5517156
2 3.1553278 -1.0842022e-19
2.8545063 3.6893488e+19 2.5727255
-0 3.0294864 1.0842022e-19
2.8024898 -1.0842022e-19 2.4453609
-3.6893488e+19 3.0376174 1.0842022e-19
2.7727747 -2 2.4369628
2 3.1938269 -1.0842022e-19
2.9803562 -1.0842022e-19 2.5891309
-1.0842022e-19 3.0420225 3.6893488e+19
2.7769523 3.6893488e+19 2.4251206
-3.6893488e+19 3.0283508 -0
2.8012607 -0 2.4072535
-3.6893488e+19 3.0295255 0
2.8025322 3.6893488e+19 2.3908069
-3.6893488e+19 3.0397315 -0
2.7747796 -3.6893488e+19 2.3851349
0 3.0905952 2
2.868628 0 2.4541066
1.0842022e-19 3.1023884 -0
2.8342028 1.0842022e-19 2.4462042
-0 3.0301518 -3.6893488e+19
2.8032098 -1.0842022e-19 2.3553891
-2 3.1014719 3.6893488e+19
2.8333337 2 2.4229307
-0 3.0316162 3.6893488e+19
2.8047948 -1.0842022e-19 2.339061
2 3.0968957 -0
2.8289936 0 2.3956358
-2 3.0342417 1.0842022e-19
2.8076365 -2 2.3238971
2 3.0948162 -1.0842022e-19
2.8270214 2 2.3716497
-3.6893488e+19 3.0924873 -2
2.799545 2 2.3534656
0 3.0800352 2
2.8315501 -1.0842022e-19 2.3387935
-3.6893488e+19 3.0313516 -2
2.7421496 1.0842022e-19 2.2730179
0 3.044502 1.0842022e-19
2.7958539 -1.0842022e-19 2.2837126
-0 3.0323792 1.0842022e-19
2.7836754 -0 2.2542183
-1.0842022e-19 3.0949404 -1.0842022e-19
2.8016906 3.6893488e+19 2.2922757
1.0842022e-19 3.0897188 1.0842022e-19
2.7971237 2 2.2669902
2 3.0346117 -3.6893488e+19
2.785918 2 2.1907849
3.6893488e+19 3.0889535 -3.6893488e+19
2.7964542 -0 2.2412097
1.0842022e-19 3.197124 -2
2.9491763 -1.0842022e-19 2.3181417
3.6893488e+19 3.0911684 0
2.7983916 -2 2.2026203
3.6893488e+19 3.1354177 -3.6893488e+19
2.8871868 -0 2.2500412
-1.0842022e-19 3.0852566 2
2.793221 2 2.153754
2 3.0075889 -1.0842022e-19
2.7587712 2 2.0519159
2 3.1311288 2
2.9124978 0 2.1796257
0 3.0084565 -0
2.7402368 -0 2.0175717
1.0842022e-19 3.1287045 3.6893488e+19
2.909874 2 2.1287053
-0 3.095408 -2
2.8275826 0 2.0648189
-3.6893488e+19 3.0095055 0
2.7808645 1.0842022e-19 1.9765047
-2 3.0884995 3.6893488e+19
2.8210309 -0 2.0166447
-1.0842022e-19 3.0094213 -0
2.7807732 0 1.9434624
-2 3.0039754 -3.6893488e+19
2.7317374 2 1.9186558
-3.6893488e+19 3.0111647 -1.0842022e-19
2.78266 -2 1.9115975
0 3.0013828 -1.0842022e-19
2.7268195 0 1.8858697
3.6893488e+19 3.128808 2
2.909986 -0 1.9362993
-2 3.0118463 3.6893488e+19
2.7466669 -0 1.8433506
-2 3.1248033 2
2.9056518 3.6893488e+19 1.8867747
0 3.0050509 -2
2.733777 -2 1.7746962
0 3.0021422 0
2.7728949 -0 1.7400939
1.0842022e-19 3.0126693 -3.6893488e+19
2.7482276 -0 1.678602
3.6893488e+19 2.996731 1.0842022e-19
2.7490113 3.6893488e+19 1.4369544
-2 2.9754043 2
2.6657965 -2 -1.2278508
-2 3.0017428 -0
2.7528985 -1.0842022e-19 -1.5316033
2 2.9746456 -2
2.6651328 -1.0842022e-19 -1.6297724
3.6893488e+19 3.0053313 2
2.7565033 0 -1.7069178
-2 2.9740927 0
2.6646495 0 -1.7450765
0 3.0113358 -1.0842022e-19
2.7625353 2 -1.7961385
2 2.9726584 -2
2.6633947 3.6893488e+19 -1.804721
-0 3.0137527 -1.0842022e-19
2.7649634 2 -1.8636011
-0 2.9762957 1.0842022e-19
2.6665761 -0 -1.8641294
-3.6893488e+19 2.9600792 -3.6893488e+19
2.7121911 0 -1.8827854
-1.0842022e-19 2.9364729 -3.6893488e+19
2.6317463 1.0842022e-19 -1.8861656
-0 2.8376348 1.0842022e-19
2.5891848 3.6893488e+19 -1.8620932
1.0842022e-19 2.8287385 -1.0842022e-19
2.5375199 -0 -1.870189
-0 2.8298352 0
2.5813494 -1.0842022e-19 -1.8864282
-1.0842022e-19 2.7277381 -2
2.5085292 -3.6893488e+19 -1.8409643
-0 2.6883967 0
2.4157727 -1.0842022e-19 -1.8314625
2 2.6298757 -2
2.4111414 0 -1.8208792
2 2.6078393 -1.0842022e-19
2.3393724 -0 -1.8156836
-0 2.5621331 2
2.3378234 -2 -1.8058147
-0 2.5529127 1.0842022e-19
2.2872806 3.6893488e+19 -1.8051848
3.6893488e+19 2.5223992 3.6893488e+19
2.2948191 -1.0842022e-19 -1.8001468
-2 2.5166075 -1.0842022e-19
2.2528489 0 -1.8001283
-3.6893488e+19 2.4870837 0
2.2635868 3.6893488e+19 -1.797122
3.6893488e+19 2.4788909 -3.6893488e+19
2.2041769 -1.0842022e-19 -1.7971528
-1.0842022e-19 2.4427719 -2
2.2292144 -3.6893488e+19 -1.7955929
-2 2.4304547 3.6893488e+19
2.1582406 1.0842022e-19 -1.7931217
-3.6893488e+19 2.3991473 2
2.1819994 -3.6893488e+19 -1.79154
1.0842022e-19 3.0942936 -3.6893488e+19
2.8458738 3.6893488e+19 2.6038737
1.0842022e-19 3.0935605 -2
2.8451374 3.6893488e+19 2.5806191
2 3.0699382 -2
2.7798231 -3.6893488e+19 2.5451972
-3.6893488e+19 3.0781267 3.6893488e+19
2.829633 3.6893488e+19 2.5550694
-2 3.0250669 -2
2.7311561 -1.0842022e-19 2.4901252
0 3.0754726 3.6893488e+19
2.8269665 -3.6893488e+19 2.5420234
-1.0842022e-19 3.0228388 0
2.7272589 -2 2.4688823
3.6893488e+19 3.083761 3.6893488e+19
2.8352931 0 2.538641
0 3.0235443 -3.6893488e+19
2.7284925 -3.6893488e+19 2.452821
-3.6893488e+19 3.1124253 -2
2.864089 -1.0842022e-19 2.5517156
-3.6893488e+19 3.0244622 1.0842022e-19
2.7300987 -3.6893488e+19 2.4370587
-0 3.0294864 1.0842022e-19
2.8024898 -1.0842022e-19 2.4453609
-3.6893488e+19 3.0376174 1.0842022e-19
2.7727747 -2 2.4369628
-2 3.0281134 3.6893488e+19
2.8010037 -3.6893488e+19 2.4250164
-1.0842022e-19 3.0420225 3.6893488e+19
2.7769523 3.6893488e+19 2.4251206
-3.6893488e+19 3.0283508 -0
2.8012607 -0 2.4072535
-3.6893488e+19 3.0295255 0
2.8025322 3.6893488e+19 2.3908069
-3.6893488e+19 3.0397315 -0
2.7747796 -3.6893488e+19 2.3851349
0 3.0905952 2
2.868628 0 2.4541066
1.0842022e-19 3.0395248 -0
2.7745833 -3.6893488e+19 2.3666043
-0 3.0301518 -3.6893488e+19
2.8032098 -1.0842022e-19 2.3553891
-2 3.1014719 3.6893488e+19
2.8333337 2 2.4229307
-0 3.0316162 3.6893488e+19
2.8047948 -1.0842022e-19 2.339061
-3.6893488e+19 3.0392616 2
2.774334 2 2.3299041
-2 3.0342417 1.0842022e-19
2.8076365 -2 2.3238971
-1.0842022e-19 3.0367675 -2
2.7719684 -0 2.3090837
2 3.0273452 -0
2.7351413 -1.0842022e-19 2.2862351
0 3.0452173 -3.6893488e+19
2.7965722 1.0842022e-19 2.3030517
-3.6893488e+19 3.0313516 -2
2.7421496 1.0842022e-19 2.2730179
0 3.044502 1.0842022e-19
2.7958539 -1.0842022e-19 2.2837126
-0 3.0323792 1.0842022e-19
2.7836754 -0 2.2542183
-1.0842022e-19 3.0949404 -1.0842022e-19
2.8016906 3.6893488e+19 2.2922757
-1.0842022e-19 2.986665 0
2.6756454 2 2.1324775
2 3.0346117 -3.6893488e+19
2.785918 2 2.1907849
1.0842022e-19 2.9906681 3.6893488e+19
2.6791463 -2 2.1055367
1.0842022e-19 3.197124 -2
2.9491763 -1.0842022e-19 2.3181417
-3.6893488e+19 2.973182 0
2.6638529 0 2.06388
3.6893488e+19 3.1354177 -3.6893488e+19
2.8871868 -0 2.2500412
-1.0842022e-19 3.0852566 2
2.793221 2 2.153754
2 3.0075889 -1.0842022e-19
2.7587712 2 2.0519159
2 3.0073318 -3.6893488e+19
2.7785115 -3.6893488e+19 2.040076
0 3.0084565 -0
2.7402368 -0 2.0175717
1.0842022e-19 3.008507 -0
2.7797835 2 2.0085075
-0 3.095408 -2
2.8275826 0 2.0648189
-3.6893488e+19 3.0095055 0
2.7808645 1.0842022e-19 1.9765047
0 3.0054827 -2
2.734596 -3.6893488e+19 1.9512501
-1.0842022e-19 3.0094213 -0
2.7807732 0 1.9434624
-2 3.0039754 -3.6893488e+19
2.7317374 2 1.9186558
-3.6893488e+19 3.0111647 -1.0842022e-19
2.78266 -2 1.9115975
0 3.0013828 -1.0842022e-19
2.7268195 0 1.8858697
2 3.0099566 0
2.7813525 -1.0842022e-19 1.8778477
-2 3.0118463 3.6893488e+19
2.7466669 -0 1.8433506
3.6893488e+19 3.0028274 -3.6893488e+19
2.7736363 2 1.8095255
0 3.0050509 -2
2.733777 -2 1.7746962
0 3.0021422 0
2.7728949 -0 1.7400939
1.0842022e-19 3.0126693 -3.6893488e+19
2.7482276 -0 1.678602
3.6893488e+19 2.996731 1.0842022e-19
2.7490113 3.6893488e+19 1.4369544
-2 2.9754043 2
2.6657965 -2 -1.2278508
-2 3.0017428 -0
2.7528985 -1.0842022e-19 -1.5316033
2 2.9746456 -2
2.6651328 -1.0842022e-19 -1.6297724
3.6893488e+19 3.0053313 2
2.7565033 0 -1.7069178
-2 2.9740927 0
2.6646495 0 -1.7450765
0 3.0113358 -1.0842022e-19
2.7625353 2 -1.7961385
2 2.9726584 -2
2.6633947 3.6893488e+19 -1.804721
-1.0842022e-19 2.9635773 -3.6893488e+19
2.7157052 2 -1.8346851
-0 2.9762957 1.0842022e-19
2.6665761 -0 -1.8641294
-0 2.8717141 2
2.6234205 2 -1.839564
2 2.8568697 -2
2.562124 2 -1.8476639
-0 2.8376348 1.0842022e-19
2.5891848 3.6893488e+19 -1.8620932
1.0842022e-19 2.8287385 -1.0842022e-19
2.5375199 -0 -1.870189
-1.0842022e-19 2.7849236 3.6893488e+19
2.5362315 -3.6893488e+19 -1.8607033
-1.0842022e-19 2.7277381 -2
2.5085292 -3.6893488e+19 -1.8409643
-0 2.6883967 0
2.4157727 -1.0842022e-19 -1.8314625
2 2.6298757 -2
2.4111414 0 -1.8208792
2 2.6078393 -1.0842022e-19
2.3393724 -0 -1.8156836
-0 2.5621331 2
2.3378234 -2 -1.8058147
-0 2.5529127 1.0842022e-19
2.2872806 3.6893488e+19 -1.8051848
3.6893488e+19 2.5223992 3.6893488e+19
2.2948191 -1.0842022e-19 -1.8001468
-2 2.5166075 -1.0842022e-19
2.2528489 0 -1.8001283
-3.6893488e+19 2.4870837 0
2.2635868 3.6893488e+19 -1.797122
3.6893488e+19 2.4788909 -3.6893488e+19
2.2041769 -1.0842022e-19 -1.7971528
-1.0842022e-19 2.4427719 -2
2.2292144 -3.6893488e+19 -1.7955929
-2 2.4304547 3.6893488e+19
2.1582406 1.0842022e-19 -1.7931217
-3.6893488e+19 2.3991473 2
2.1819994 -3.6893488e+19 -1.79154
0 3.0942819 3.6893488e+19
2.8436077 -1.0842022e-19 2.6033981
-2 3.0940382 1.0842022e-19
2.8433647 -1.0842022e-19 2.5806453
-0 3.0703313 -2
2.7781713 3.6893488e+19 2.5452232
-3.6893488e+19 3.0809662 -1.0842022e-19
2.8303182 0 2.5573065
-2 3.0713291 1.0842022e-19
2.779038 -2 2.5359521
-3.6893488e+19 3.0719471 1.0842022e-19
2.7795746 -1.0842022e-19 2.5263228
-1.0842022e-19 3.084583 -1.0842022e-19
2.8339279 2 2.5389729
-1.0842022e-19 3.0239127 -0
2.7257242 -0 2.4529142
-0 3.1129558 3.6893488e+19
2.8622451 3.6893488e+19 2.5517614
-3.6893488e+19 3.0250857 -3.6893488e+19
2.7277615 2 2.4375522
0 3.106729 1.0842022e-19
2.8560305 -3.6893488e+19 2.5350964
-2 3.0281734 2
2.7991884 -2 2.4426432
2 3.0380015 -3.6893488e+19
2.7712939 1.0842022e-19 2.4370053
1.0842022e-19 3.0429978 0
2.7760005 0 2.426013
3.6893488e+19 3.0273042 3.6893488e+19
2.7982533 1.0842022e-19 2.4051495
-2 3.1094875 3.6893488e+19
2.8386331 -2 2.4999559
2 3.0300567 3.6893488e+19
2.8012137 -2 2.3909967
1.0842022e-19 3.1032751 3.6893488e+19
2.8327808 0 2.4690216
-0 3.1012573 -1.0842022e-19
2.8308802 -3.6893488e+19 2.444222
1.0842022e-19 3.0303843 1.0842022e-19
2.8015661 -0 2.3551819
2 3.101655 -2
2.8312547 3.6893488e+19 2.4226277
2 3.0327237 -0
2.8040822 0 2.3399141
-3.6893488e+19 3.0970726 2
2.8269384 2 2.3953483
2 3.0346162 1.0842022e-19
2.8061178 -0 2.3238661
3.6893488e+19 3.0968146 -1.0842022e-19
2.8266952 1.0842022e-19 2.3733416
2 3.0909996 0
2.7961195 -1.0842022e-19 2.3515286
3.6893488e+19 3.0801346 0
2.8294883 1.0842022e-19 2.3384519
-2 3.1323252 -1.0842022e-19
2.832006 0 2.3705776
3.6893488e+19 3.0762203 0
2.8255816 3.6893488e+19 2.3138573
-2 3.0946929 -2
2.7993267 -1.0842022e-19 2.3128998
2 3.0401223 -0
2.7895541 -0 2.2608471
-2 3.0969603 0
2.8012958 2 2.2936521
0 3.0700243 -1.0842022e-19
2.8193974 -2 2.2675996
1.0842022e-19 3.0899353 3.6893488e+19
2.7951951 2 2.2668557
0 3.1947773 0
2.9439063 -3.6893488e+19 2.3439672
-3.6893488e+19 3.0895402 1.0842022e-19
2.7948523 -0 2.2414992
3.6893488e+19 3.1969578 3.6893488e+19
2.9460826 -0 2.3176069
3.6893488e+19 3.0877278 2
2.7932782 0 2.1975451
3.6893488e+19 3.1341662 1.0842022e-19
2.883414 -2 2.2478058
3.6893488e+19 3.0872979 -1.0842022e-19
2.7929049 -3.6893488e+19 2.1557491
-0 3.0061131 0
2.7556117 0 2.049793
0 3.1303489 -3.6893488e+19
2.9090824 -0 2.1781414
2 3.1405895 0
2.9200969 3.6893488e+19 2.140039
-2 3.0932097 1.0842022e-19
2.8232996 -0 2.0624285
2 3.142709 -1.0842022e-19
2.9223764 1.0842022e-19 2.0922849
-2 3.0890033 -0
2.8193371 0 2.0167115
3.6893488e+19 3.1343884 2
2.9134274 3.6893488e+19 2.0362513
-2 3.0041203 3.6893488e+19
2.7287569 2 1.9185433
1.0842022e-19 3.1317658 0
2.9106066 0 1.9858869
3.6893488e+19 3.0042937 3.6893488e+19
2.7290833 -0 1.8872731
3.6893488e+19 3.1290407 -3.6893488e+19
2.9076755 -1.0842022e-19 1.9361507
-0 3.0103617 -2
2.7405152 1.0842022e-19 1.8418442
-2 3.1259384 1.0842022e-19
2.9043391 0 1.8869953
-3.6893488e+19 3.0081084 -3.6893488e+19
2.7362702 -3.6893488e+19 1.7763035
2 3.001893 -0
2.7709224 2 1.7395183
1.0842022e-19 3.0097435 0
2.7393506 1.0842022e-19 1.6763942
-3.6893488e+19 2.9270372 3.6893488e+19
2.6208334 -3.6893488e+19 1.5571747
2 2.9997873 3.6893488e+19
2.7488086 -1.0842022e-19 1.4378582
-1.0842022e-19 2.9768069 0
2.6640527 2 -1.2282625
-1.0842022e-19 3.0044777 -1.0842022e-19
2.7539794 -2 -1.5330973
-1.0842022e-19 2.9768498 3.6893488e+19
2.6640899 2 -1.6302265
3.6893488e+19 3.0046597 -2
2.7541609 3.6893488e+19 -1.7061031
3.6893488e+19 2.9763536 0
2.6636591 -1.0842022e-19 -1.7459644
-0 3.0097215 3.6893488e+19
2.759213 -3.6893488e+19 -1.7948586
3.6893488e+19 2.9744015 -1.0842022e-19
2.6619637 1.0842022e-19 -1.8051782
2 3.0115271 2
2.7610149 2 -1.8612777
3.6893488e+19 2.9742033 0
2.6617918 2 -1.8628075
-3.6893488e+19 2.9639804 1.0842022e-19
2.7130721 -2 -1.8837359
-0 2.9385753 -3.6893488e+19
2.6308527 3.6893488e+19 -1.8866655
1.0842022e-19 2.8401453 -0
2.5894792 -3.6893488e+19 -1.8635432
-0 2.828999 -3.6893488e+19
2.5356982 -1.0842022e-19 -1.8701036
-2 2.8264132 -2
2.575774 -1.0842022e-19 -1.884836
2 2.7312722 3.6893488e+19
2.5088151 -0 -1.8422549
-1.0842022e-19 2.6899557 -2
2.414433 -3.6893488e+19 -1.8319405
1.0842022e-19 2.6305225 0
2.4092693 -2 -1.8209357
1.0842022e-19 2.6085081 1.0842022e-19
2.3377104 2 -1.8158038
2 2.5629039 3.6893488e+19
2.3365424 1.0842022e-19 -1.8060055
2 2.5527236 -1.0842022e-19
2.285162 -1.0842022e-19 -1.8048496
-3.6893488e+19 2.5236626 0
2.2943368 3.6893488e+19 -1.8007109
1.0842022e-19 2.5169377 -3.6893488e+19
2.251452 0 -1.8001283
-0 2.4875526 -0
2.2621925 -1.0842022e-19 -1.7970445
2 2.4808364 3.6893488e+19
2.2029421 2 -1.7976384
-0 2.43279 1.0842022e-19
2.1576831 -3.6893488e+19 -1.7938247
-1.0842022e-19 2.4005885 -1.0842022e-19
2.1808512 2 -1.7919055
1.0842022e-19 2.3733716 1.0842022e-19
2.1515782 -3.6893488e+19 -1.7924951
2 2.3301835 -3.6893488e+19
2.0367267 0 -1.7875198
3.6893488e+19 2.2923236 -1.0842022e-19
2.0038497 1.0842022e-19 -1.7869136
0 2.2615781 2
1.9771508 -3.6893488e+19 -1.7860739
-0 2.2199583 -0
1.9540527 1.0842022e-19 -1.784296
3.6893488e+19 2.1581011 -3.6893488e+19
1.9694656 -1.0842022e-19 -1.7823312
1.0842022e-19 2.127213 3.6893488e+19
1.9528549 -0 -1.7827402
-1.0842022e-19 2.1037476 -1.0842022e-19
1.9402359 -3.6893488e+19 -1.7845379
0 3.0942819 3.6893488e+19
2.8436077 -1.0842022e-19 2.6033981
-2 3.0940382 1.0842022e-19
2.8433647 -1.0842022e-19 2.5806453
-0 3.0703313 -2
2.7781713 3.6893488e+19 2.5452232
-3.6893488e+19 3.0809662 -1.0842022e-19
2.8303182 0 2.5573065
2 3.0240047 2
2.725884 2 2.4876759
-3.6893488e+19 3.0205345 -0
2.7198572 -0 2.4643924
-1.0842022e-19 3.084583 -1.0842022e-19
2.8339279 2 2.5389729
-1.0842022e-19 3.0239127 -0
2.7257242 -0 2.4529142
-0 3.1129558 3.6893488e+19
2.8622451 3.6893488e+19 2.5517614
-3.6893488e+19 3.0250857 -3.6893488e+19
2.7277615 2 2.4375522
0 3.106729 1.0842022e-19
2.8560305 -3.6893488e+19 2.5350964
-2 3.0281734 2
2.7991884 -2 2.4426432
2 3.0380015 -3.6893488e+19
2.7712939 1.0842022e-19 2.4370053
1.0842022e-19 3.0429978 0
2.7760005 0 2.426013
3.6893488e+19 3.0273042 3.6893488e+19
2.7982533 1.0842022e-19 2.4051495
3.6893488e+19 3.0563967 0
2.7886221 3.6893488e+19 2.42612
2 3.0300567 3.6893488e+19
2.8012137 -2 2.3909967
2 3.0400903 -1.0842022e-19
2.7732615 -3.6893488e+19 2.3851349
-1.0842022e-19 3.0403309 3.6893488e+19
2.7734883 0 2.3671708
1.0842022e-19 3.0303843 1.0842022e-19
2.8015661 -0 2.3551819
2 3.101655 -2
2.8312547 3.6893488e+19 2.4226277
2 3.0327237 -0
2.8040822 0 2.3399141
-2 3.0381336 1.0842022e-19
2.7714186 1.0842022e-19 2.3282113
2 3.0346162 1.0842022e-19
2.8061178 -0 2.3238661
3.6893488e+19 3.0968146 -1.0842022e-19
2.8266952 1.0842022e-19 2.3733416
-1.0842022e-19 2.9937789 -3.6893488e+19
2.6787908 1.0842022e-19 2.2545128
0 3.046299 -0
2.7957187 3.6893488e+19 2.3037636
-0 2.9962251 -0
2.6809151 -0 2.2309775
-2 3.0444989 0
2.7939224 0 2.2833383
3.6893488e+19 2.9955711 3.6893488e+19
2.6803472 3.6893488e+19 2.1998615
2 3.0401223 -0
2.7895541 -0 2.2608471
-2 3.0969603 0
2.8012958 2 2.2936521
0 3.0700243 -1.0842022e-19
2.8193974 -2 2.2675996
-3.6893488e+19 2.9948716 0
2.67974 -2 2.1384838
0 3.1947773 0
2.9439063 -3.6893488e+19 2.3439672
3.6893488e+19 2.9674037 -1.0842022e-19
2.6558869 -1.0842022e-19 2.0882933
3.6893488e+19 3.1969578 3.6893488e+19
2.9460826 -0 2.3176069
3.6893488e+19 2.9714355 0
2.6593883 -0 2.0623648
-2 3.0084162 3.6893488e+19
2.7579103 -3.6893488e+19 2.0848579
3.6893488e+19 3.0872979 -1.0842022e-19
2.7929049 -3.6893488e+19 2.1557491
-0 3.0061131 0
2.7556117 0 2.049793
3.6893488e+19 3.0068989 -1.0842022e-19
2.7763064 -1.0842022e-19 2.0391793
-0 3.0082402 -3.6893488e+19
2.7777491 -3.6893488e+19 2.0078762
1.0842022e-19 3.0045276 1.0842022e-19
2.7295239 -1.0842022e-19 1.9816998
-2 3.0110819 -1.0842022e-19
2.7808056 2 1.977559
-3.6893488e+19 3.0066743 -3.6893488e+19
2.7335684 2 1.951939
2 3.0100081 -2
2.7796504 3.6893488e+19 1.9436262
-2 3.0041203 3.6893488e+19
2.7287569 2 1.9185433
0 3.0086458 -3.6893488e+19
2.7781851 -2 1.9098129
3.6893488e+19 3.0042937 3.6893488e+19
2.7290833 -0 1.8872731
2 3.0112319 -1.0842022e-19
2.7809668 0 1.8782936
-0 3.0103617 -2
2.7405152 1.0842022e-19 1.8418442
-0 3.0022216 -3.6893488e+19
2.7712758 1.0842022e-19 1.8088236
-3.6893488e+19 3.0081084 -3.6893488e+19
2.7362702 -3.6893488e+19 1.7763035
2 3.001893 -0
2.7709224 2 1.7395183
1.0842022e-19 3.0097435 0
2.7393506 1.0842022e-19 1.6763942
-3.6893488e+19 2.9270372 3.6893488e+19
2.6208334 -3.6893488e+19 1.5571747
2 2.9997873 3.6893488e+19
2.7488086 -1.0842022e-19 1.4378582
-2 2.9269304 3.6893488e+19
2.6207407 0 -1.2043852
-1.0842022e-19 3.0044777 -1.0842022e-19
2.7539794 -2 -1.5330973
-1.0842022e-19 2.9768498 3.6893488e+19
2.6640899 2 -1.6302265
3.6893488e+19 3.0046597 -2
2.7541609 3.6893488e+19 -1.7061031
3.6893488e+19 2.9763536 0
2.6636591 -1.0842022e-19 -1.7459644
-0 3.0097215 3.6893488e+19
2.759213 -3.6893488e+19 -1.7948586
3.6893488e+19 2.9744015 -1.0842022e-19
2.6619637 1.0842022e-19 -1.8051782
-2 2.9612782 1.0842022e-19
2.7103751 2 -1.8333719
3.6893488e+19 2.9742033 0
2.6617918 2 -1.8628075
-3.6893488e+19 2.8740461 -2
2.6233137 0 -1.8406273
1.0842022e-19 2.8567615 -3.6893488e+19
2.5598066 -1.0842022e-19 -1.8473425
1.0842022e-19 2.8401453 -0
2.5894792 -3.6893488e+19 -1.8635432
-0 2.828999 -3.6893488e+19
2.5356982 -1.0842022e-19 -1.8701036
-2 2.8264132 -2
2.575774 -1.0842022e-19 -1.884836
2 2.7312722 3.6893488e+19
2.5088151 -0 -1.8422549
-1.0842022e-19 2.6899557 -2
2.414433 -3.6893488e+19 -1.8319405
1.0842022e-19 2.6305225 0
2.4092693 -2 -1.8209357
1.0842022e-19 2.6085081 1.0842022e-19
2.3377104 2 -1.8158038
2 2.5629039 3.6893488e+19
2.3365424 1.0842022e-19 -1.8060055
2 2.5527236 -1.0842022e-19
2.285162 -1.0842022e-19 -1.8048496
-3.6893488e+19 2.5236626 0
2.2943368 3.6893488e+19 -1.8007109
1.0842022e-19 2.5169377 -3.6893488e+19
2.251452 0 -1.8001283
-0 2.4875526 -0
2.2621925 -1.0842022e-19 -1.7970445
2 2.4808364 3.6893488e+19
2.2029421 2 -1.7976384
-0 2.43279 1.0842022e-19
2.1576831 -3.6893488e+19 -1.7938247
-1.0842022e-19 2.4005885 -1.0842022e-19
2.1808512 2 -1.7919055
1.0842022e-19 2.3733716 1.0842022e-19
2.1515782 -3.6893488e+19 -1.7924951
2 2.3301835 -3.6893488e+19
2.0367267 0 -1.7875198
3.6893488e+19 2.2923236 -1.0842022e-19
2.0038497 1.0842022e-19 -1.7869136
0 2.2615781 2
1.9771508 -3.6893488e+19 -1.7860739
-0 2.2199583 -0
1.9540527 1.0842022e-19 -1.784296
3.6893488e+19 2.1581011 -3.6893488e+19
1.9694656 -1.0842022e-19 -1.7823312
1.0842022e-19 2.127213 3.6893488e+19
1.9528549 -0 -1.7827402
-1.0842022e-19 2.1037476 -1.0842022e-19
1.9402359 -3.6893488e+19 -1.7845379
-2 3.0976231 -2
2.8446708 -3.6893488e+19 2.6063633
2 3.0944321 0
2.841507 1.0842022e-19 2.5805929
2 3.0706666 -1.0842022e-19
2.776468 -3.6893488e+19 2.5451972
3.6893488e+19 3.0816445 -1.0842022e-19
2.8288279 -1.0842022e-19 2.5575352
-3.6893488e+19 3.0717216 2
2.7773778 -0 2.5359771
1.0842022e-19 3.0714958 1.0842022e-19
2.7771831 3.6893488e+19 2.5256228
1.0842022e-19 3.0262816 1.0842022e-19
2.7264018 -1.0842022e-19 2.4563136
-1.0842022e-19 3.1138968 0
2.8608065 0 2.55215
0 3.0267529 -2
2.7272143 -1.0842022e-19 2.4397051
-1.0842022e-19 3.0319307 -1.0842022e-19
2.8013279 -1.0842022e-19 2.4479923
-2 3.0387185 0
2.7701237 -1.0842022e-19 2.4375548
-3.6893488e+19 3.0407326 1.0842022e-19
2.7720082 2 2.4222002
-2 3.0279114 -3.6893488e+19
2.7970321 2 2.405467
-0 3.1073294 -2
2.8343155 1.0842022e-19 2.4963439
0 3.0317307 2
2.8011141 -3.6893488e+19 2.3927817
-2 3.1036255 -1.0842022e-19
2.8308504 -3.6893488e+19 2.46891
0 3.1011572 -0
2.8285408 3.6893488e+19 2.4435496
3.6893488e+19 3.0320339 1.0842022e-19
2.8014383 -3.6893488e+19 2.3567703
-3.6893488e+19 3.1020033 -3.6893488e+19
2.8293326 -2 2.4225266
1.0842022e-19 3.0310991 0
2.8004391 2 2.3374865
-1.0842022e-19 3.096854 -1.0842022e-19
2.8245149 1.0842022e-19 2.3946137
-1.0842022e-19 3.034934 2
2.804538 -0 2.3237729
-3.6893488e+19 3.097466 -0
2.8250875 -2 2.3735831
-0 3.0914717 0
2.7944057 -3.6893488e+19 2.3516166
-1.0842022e-19 3.0808153 3.6893488e+19
2.8280058 2 2.3387082
-3.6893488e+19 2.9999821 3.6893488e+19
2.6810682 3.6893488e+19 2.2340703
-3.6893488e+19 3.0464139 1.0842022e-19
2.7938967 3.6893488e+19 2.2848094
-2 3.0928004 1.0842022e-19
2.7955513 3.6893488e+19 2.3108294
-0 3.0423112 -3.6893488e+19
2.7898285 0 2.2624731
3.6893488e+19 3.0965827 2
2.7988122 -2 2.293
2 3.0934675 3.6893488e+19
2.8405504 1.0842022e-19 2.2868288
-1.0842022e-19 3.0922928 -0
2.7951136 3.6893488e+19 2.2684021
3.6893488e+19 3.0948267 0
2.8418982 -3.6893488e+19 2.2663236
0 3.0885813 -1.0842022e-19
2.7919135 -3.6893488e+19 2.2395556
3.6893488e+19 2.971684 -0
2.6566703 1.0842022e-19 2.0621755
-0 3.1228268 -3.6893488e+19
2.8696604 -3.6893488e+19 2.2324831
-1.0842022e-19 3.0866497 -3.6893488e+19
2.7902482 -0 2.1545107
2 3.1845546 -1.0842022e-19
2.9308639 2 2.2540026
-3.6893488e+19 3.1306081 -0
2.9067945 -1.0842022e-19 2.1778321
-2 3.1325796 3.6893488e+19
2.9089017 -1.0842022e-19 2.1315043
-2 3.0965719 0
2.8242512 -2 2.0651014
2 3.1283948 2
2.904429 0 2.0793459
-3.6893488e+19 3.0893638 2
2.8175073 -1.0842022e-19 2.0166669
-1.0842022e-19 3.13234 0
2.9086456 3.6893488e+19 2.0343263
-3.6893488e+19 3.0059321 -3.6893488e+19
2.7288978 -2 1.9195364
2 3.1302364 -0
2.9063971 0 1.9846122
-1.0842022e-19 3.0048611 0
2.7268939 1.0842022e-19 1.8874104
0 3.1300418 1.0842022e-19
2.9061892 -0 1.9363804
1.0842022e-19 3.0073712 0
2.7315905 -3.6893488e+19 1.83909
1.0842022e-19 3.1277895 3.6893488e+19
2.9037819 -1.0842022e-19 1.8874766
2 3.010011 1.0842022e-19
2.7365301 0 1.7772316
-1.0842022e-19 3.0021918 -1.0842022e-19
2.7695429 0 1.739466
1.0842022e-19 3.0106008 1.0842022e-19
2.7376337 0 1.676759
3.6893488e+19 2.9274068 -2
2.6184959 -1.0842022e-19 1.5571258
-1.0842022e-19 3.0024312 -1.0842022e-19
2.7502873 -3.6893488e+19 1.4395188
1.0842022e-19 2.9285052 -0
2.6194429 3.6893488e+19 -1.2049066
-2 3.0047255 0
2.7525623 -0 -1.5330452
2 2.9811785 3.6893488e+19
2.6648562 2 -1.6312598
-3.6893488e+19 3.0054674 -1.0842022e-19
2.7532978 2 -1.7064878
0 2.9778121 -0
2.6619537 2 -1.746438
-1.0842022e-19 3.0116837 0
2.7594614 -1.0842022e-19 -1.7959191
-2 2.9759722 -2
2.6603675 0 -1.80557
-3.6893488e+19 3.0136871 -3.6893488e+19
2.7614477 2 -1.8629192
-0 2.97738 -1.0842022e-19
2.6615813 -0 -1.8641294
