# .PCD v0.7 - Point Cloud Data file format
VERSION 0.7
FIELDS x y z
SIZE 4 4 4
TYPE F F F
COUNT 1 1 1
WIDTH 1728
HEIGHT 1
VIEWPOINT 0 0 0 1 0 0 0
POINTS 1728
DATA ascii
-2 3.1303127 2
2.5752299 -1.0842022e-19 2.4893136
1.0842022e-19 3.1187317 3.6893488e+19
2.6484535 1.0842022e-19 2.4478705
3.6893488e+19 3.1327736 0
2.5773344 -3.6893488e+19 2.4478321
3.6893488e+19 3.0468214 -3.6893488e+19
2.5707467 -1.0842022e-19 2.3430271
2 3.1351748 2
2.5793877 -2 2.4282501
-1.0842022e-19 3.1310534 -0
2.6617684 -0 2.4179544
1.0842022e-19 3.1247404 -3.6893488e+19
2.5704644 -2 2.394901
3.6893488e+19 3.0509019 3.6893488e+19
2.5751562 0 2.3123684
-3.6893488e+19 3.0542221 0
2.4430673 1.0842022e-19 2.2923977
2 3.049547 0
2.534734 -1.0842022e-19 2.2824323
1.0842022e-19 3.0555656 -1.0842022e-19
2.4450235 -2 2.2761381
-0 3.0495675 -3.6893488e+19
2.5347533 -1.0842022e-19 2.2650695
-1.0842022e-19 3.01913 -0
2.3919592 1.0842022e-19 2.2055554
2 3.0541713 -2
2.5391295 -0 2.2515168
-1.0842022e-19 3.0191882 -3.6893488e+19
2.3920438 0 2.144042
1.0842022e-19 3.0586574 2
2.5433939 3.6893488e+19 2.1890614
-2 3.0185232 2
2.3910756 -1.0842022e-19 2.112401
3.6893488e+19 3.0479858 -3.6893488e+19
2.5332499 3.6893488e+19 2.139487
-0 3.017967 1.0842022e-19
2.3902655 2 2.0810757
-0 3.0482953 -2
2.5335441 3.6893488e+19 2.1054931
-0 3.0112319 3.6893488e+19
2.3804564 1.0842022e-19 2.0429857
3.6893488e+19 3.1665461 -2
2.6459472 3.6893488e+19 2.198432
-0 3.0373168 -1.0842022e-19
2.5604761 -2 2.0450544
-1.0842022e-19 3.2428153 -0
2.671438 2 2.2214096
3.6893488e+19 3.0393317 -2
2.5626533 1.0842022e-19 2.0135844
-0 3.0413339 -2
2.564817 2 1.9816563
-0 3.0246408 3.6893488e+19
2.4697261 -1.0842022e-19 1.9498947
3.6893488e+19 3.0362096 1.0842022e-19
2.5592797 -3.6893488e+19 1.9444453
-3.6893488e+19 3.029361 0
2.4777994 -3.6893488e+19 1.9214101
3.6893488e+19 3.034023 -3.6893488e+19
2.5569167 3.6893488e+19 1.9101019
-3.6893488e+19 3.0297632 3.6893488e+19
2.4784873 -0 1.8897138
2 3.0360136 -2
2.5590677 1.0842022e-19 1.878145
0 3.0308855 3.6893488e+19
2.4804063 -1.0842022e-19 1.8414204
-2 3.0362716 -0
2.5593467 -3.6893488e+19 1.8153414
-3.6893488e+19 3.0218191 1.0842022e-19
2.4649003 -0 1.7724096
-3.6893488e+19 3.1985068 -2
2.734659 1.0842022e-19 1.819535
-2 3.020041 3.6893488e+19
2.461859 -0 1.6696556
-3.6893488e+19 3.0276191 2
2.4043229 -1.0842022e-19 1.5958401
3.6893488e+19 3.0161498 0
2.5029883 1.0842022e-19 1.4340116
-2 3.0266712 3.6893488e+19
2.4029422 -1.0842022e-19 -1.2469802
-0 3.0174251 -1.0842022e-19
2.5042005 -0 -1.527799
0 3.0384071 -2
2.4200339 1.0842022e-19 -1.6468688
-0 3.0097797 -3.6893488e+19
2.4938664 2 -1.6933631
-3.6893488e+19 3.0022323 3.6893488e+19
2.3673496 -3.6893488e+19 -1.7428565
-1.0842022e-19 3.0108776 -1.0842022e-19
2.4959538 -0 -1.7819135
-0 3.0028458 1.0842022e-19
2.368243 2 -1.804068
2 3.0073428 2
2.4892337 1.0842022e-19 -1.8388268
0 2.9840288 -0
2.352468 3.6893488e+19 -1.8513123
-0 2.9165523 -0
2.3959532 -1.0842022e-19 -1.8458471
2 2.8968451 3.6893488e+19
2.2889812 -3.6893488e+19 -1.8555906
3.6893488e+19 2.8971877 -3.6893488e+19
2.3775461 -1.0842022e-19 -1.8780891
3.6893488e+19 2.8583407 -0
2.2609425 2 -1.8739014
3.6893488e+19 2.8765388 -2
2.3579183 0 -1.8930513
-2 2.7919121 -0
2.3154418 -3.6893488e+19 -1.8654346
1.0842022e-19 2.7634776 -1.0842022e-19
2.200633 2 -1.8543025
2 2.7140913 0
2.2507498 2 -1.8430083
1.0842022e-19 2.6801095 -3.6893488e+19
2.1178141 -0 -1.8367705
-0 2.6295955 -0
2.160193 0 -1.8253263
2 2.6002769 1.0842022e-19
2.0495443 1.0842022e-19 -1.8175189
2 2.5742867 2
2.100426 -1.0842022e-19 -1.8149539
0 2.5490272 3.6893488e+19
2.0057173 1.0842022e-19 -1.8064913
-0 2.521452 -2
1.982136 3.6893488e+19 -1.8053274
2 2.4453814 3.6893488e+19
1.9906408 -1.0842022e-19 -1.7813276
2 2.4919293 3.6893488e+19
1.9603401 -3.6893488e+19 -1.8025252
-0 2.454 3.6893488e+19
1.9952974 2 -1.7975695
-2 2.448781 -2
1.9418907 1.0842022e-19 -1.7998574
1.0842022e-19 3.1366582 -1.0842022e-19
2.5273731 -2 2.6165695
-2 3.1380072 3.6893488e+19
2.6145208 2 2.6160705
-1.0842022e-19 3.1363773 -3.6893488e+19
2.5271716 3.6893488e+19 2.6047816
0 3.1378765 -3.6893488e+19
2.6143978 2 2.6042709
-2 3.0534992 1.0842022e-19
2.4354367 -0 2.5196571
2 3.1434946 -3.6893488e+19
2.6196759 -0 2.5975914
0 3.055068 -1.0842022e-19
2.4376872 -2 2.5120099
-0 3.100378 -1.0842022e-19
2.5791693 -1.0842022e-19 2.5490193
-1.0842022e-19 3.0580416 3.6893488e+19
2.4419537 0 2.50546
0 3.0544035 -0
2.5359776 -2 2.5007024
-0 3.05808 1.0842022e-19
2.4420087 2 2.4928286
-2 3.0552096 -0
2.5367351 -1.0842022e-19 2.4845695
2 3.0568633 3.6893488e+19
2.440263 3.6893488e+19 2.4728451
-3.6893488e+19 3.0572283 1.0842022e-19
2.5386317 -2 2.4695437
-1.0842022e-19 3.0531762 0
2.4349732 0 2.4493937
3.6893488e+19 3.1061041 -2
2.5845487 2 2.5115805
2 3.1339328 -1.0842022e-19
2.5741148 1.0842022e-19 2.5193231
-1.0842022e-19 3.0746992 -0
2.5972183 0 2.4517329
-0 3.1334474 0
2.5737052 -0 2.5077453
2 3.1350858 1.0842022e-19
2.5750883 -3.6893488e+19 2.4951785
3.6893488e+19 3.1180956 -3.6893488e+19
2.6436243 1.0842022e-19 2.4467828
1.0842022e-19 3.1372247 3.6893488e+19
2.5768938 -3.6893488e+19 2.4527872
0 3.0450275 -1.0842022e-19
2.5654886 0 2.3407137
-3.6893488e+19 3.1380858 2
2.577621 -1.0842022e-19 2.4312465
0 3.1317115 1.0842022e-19
2.6581845 1.0842022e-19 2.418381
-2 3.1250098 1.0842022e-19
2.5665822 -1.0842022e-19 2.3949649
-1.0842022e-19 3.0507846 -3.6893488e+19
2.571645 2 2.3120265
1.0842022e-19 3.1237895 0
2.565552 -0 2.3720424
-1.0842022e-19 3.1157651 2
2.5123854 2 2.351382
-0 3.0545382 -2
2.5361042 -0 2.2869606
1.0842022e-19 3.0568416 -1.0842022e-19
2.4402318 2 2.2771599
-1.0842022e-19 3.1651778 1.0842022e-19
2.6400468 -3.6893488e+19 2.3671386
0 3.0187988 2
2.3856511 3.6893488e+19 2.2047789
-3.6893488e+19 3.0516355 0
2.5333774 0 2.2485313
-2 3.0189259 0
2.3858337 3.6893488e+19 2.1742151
-3.6893488e+19 3.0551109 -2
2.5366423 -2 2.218992
0 3.1120493 -2
2.5097196 1.0842022e-19 2.2648611
-0 3.1207397 1.0842022e-19
2.5982985 -3.6893488e+19 2.2635229
-0 3.1157928 3.6893488e+19
2.5124052 1.0842022e-19 2.2434428
3.6893488e+19 3.1713266 -2
2.6458232 -1.0842022e-19 2.2751801
3.6893488e+19 3.0190449 -0
2.3860042 1.0842022e-19 2.0822499
-1.0842022e-19 3.0493298 1.0842022e-19
2.5312111 3.6893488e+19 2.1065049
2 3.0135345 0
2.3780985 3.6893488e+19 2.045428
-1.0842022e-19 3.168565 1.0842022e-19
2.643229 -2 2.2003262
2 3.0378208 -0
2.5577822 -1.0842022e-19 2.0453637
-3.6893488e+19 3.0245357 2
2.4635246 -1.0842022e-19 2.0124648
0 3.0370038 -0
2.5569084 -1.0842022e-19 2.0112791
3.6893488e+19 3.2084479 -0
2.740243 -0 2.1142812
-3.6893488e+19 3.1597471 -3.6893488e+19
2.5959072 0 2.0480645
-3.6893488e+19 3.0347221 -3.6893488e+19
2.5544686 -1.0842022e-19 1.9432985
-3.6893488e+19 3.0511191 -2
2.5042038 -3.6893488e+19 1.9346575
-0 3.0338311 2
2.5535159 0 1.909881
0 3.0508239 -3.6893488e+19
2.5039544 -0 1.9001477
2 3.0340726 1.0842022e-19
2.5537741 -2 1.8771856
-3.6893488e+19 3.030648 -1.0842022e-19
2.550112 -3.6893488e+19 1.8114707
-2 3.0219095 -0
2.4590905 3.6893488e+19 1.7723764
-3.6893488e+19 3.0292013 -3.6893488e+19
2.5485649 -2 1.7420304
3.6893488e+19 3.0204668 2
2.4566545 0 1.6698284
1.0842022e-19 3.0310421 1.0842022e-19
2.4032168 0 1.598457
-2 3.0191743 3.6893488e+19
2.5028811 2 1.4359875
-3.6893488e+19 3.0290785 -3.6893488e+19
2.4003997 3.6893488e+19 -1.2490112
0 3.0137882 2
2.4956417 2 -1.5256276
-2 3.0397124 1.0842022e-19
2.4156566 -2 -1.6474637
2 3.0300486 0
2.513097 1.0842022e-19 -1.7083207
0 3.0405817 0
2.4169035 -0 -1.7648238
-0 3.0117998 -1.0842022e-19
2.4919057 -3.6893488e+19 -1.7823706
-0 3.040729 3.6893488e+19
2.417115 -0 -1.8307997
3.6893488e+19 3.0069549 -2
2.4828024 -3.6893488e+19 -1.8383721
2 3.0411084 -1.0842022e-19
2.417659 -3.6893488e+19 -1.8860459
-0 3.0082109 0
2.4851625 -3.6893488e+19 -1.886813
2 2.8966644 -0
2.2845511 -2 -1.8553764
0 2.893239 3.6893488e+19
2.3694358 0 -1.8767371
-0 2.8926837 -2
2.2816956 -3.6893488e+19 -1.8863132
-0 2.8765898 -3.6893488e+19
2.3537943 2 -1.892982
-0 2.7929623 3.6893488e+19
2.3132803 1.0842022e-19 -1.8661296
2 2.7619145 -2
2.1922147 1.0842022e-19 -1.8528153
-1.0842022e-19 2.713454 0
2.2455964 0 -1.8425555
-1.0842022e-19 2.6818142 1.0842022e-19
2.1145363 0 -1.8374915
-0 2.6311889 -2
2.1576257 -0 -1.8260254
0 2.5983977 0
2.0441163 -1.0842022e-19 -1.8163793
1.0842022e-19 2.572829 0
2.0952184 -2 -1.8139668
-2 2.5493157 1.0842022e-19
2.0026815 -3.6893488e+19 -1.8065652
-3.6893488e+19 2.5335331 0
2.0531974 2 -1.8074245
-1.0842022e-19 2.5225785 -2
1.9801099 -3.6893488e+19 -1.8059748
-2 2.4926908 2
1.9579641 3.6893488e+19 -1.802701
-0 2.4605734 -3.6893488e+19
1.9962579 2 -1.7999448
3.6893488e+19 2.4485443 0
1.9393299 2 -1.7996677
-2 2.4242153 -3.6893488e+19
1.9768181 0 -1.7984912
1.0842022e-19 2.3677602 -2
1.8819082 -1.0842022e-19 -1.7936885
0 2.3232055 3.6893488e+19
1.8568547 -2 -1.7918277
-3.6893488e+19 2.2867839 -1.0842022e-19
1.8307275 -0 -1.7895695
1.0842022e-19 2.2545817 -1.0842022e-19
1.8076267 1.0842022e-19 -1.7858322
0 2.2128885 -2
1.8724957 -1.0842022e-19 -1.7876872
3.6893488e+19 2.1704185 1.0842022e-19
1.8497881 2 -1.7852757
0 2.1399238 0
1.8334832 1.0842022e-19 -1.7853172
3.6893488e+19 2.1099882 3.6893488e+19
1.8174773 0 -1.7838403
3.6893488e+19 3.0549111 1.0842022e-19
2.4374623 -1.0842022e-19 2.5390697
-2 3.1380072 3.6893488e+19
2.6145208 2 2.6160705
2 3.0538394 -2
2.4359245 3.6893488e+19 2.5289931
0 3.1378765 -3.6893488e+19
2.6143978 2 2.6042709
-2 3.0534992 1.0842022e-19
2.4354367 -0 2.5196571
2 3.1434946 -3.6893488e+19
2.6196759 -0 2.5975914
0 3.055068 -1.0842022e-19
2.4376872 -2 2.5120099
-1.0842022e-19 3.052809 -3.6893488e+19
2.5344796 -0 2.5084231
-1.0842022e-19 3.0580416 3.6893488e+19
2.4419537 0 2.50546
0 3.0544035 -0
2.5359776 -2 2.5007024
-0 3.05808 1.0842022e-19
2.4420087 2 2.4928286
-2 3.0552096 -0
2.5367351 -1.0842022e-19 2.4845695
2 3.0568633 3.6893488e+19
2.440263 3.6893488e+19 2.4728451
-3.6893488e+19 3.0572283 1.0842022e-19
2.5386317 -2 2.4695437
-1.0842022e-19 3.0531762 0
2.4349732 0 2.4493937
2 3.0570204 2
2.5384362 0 2.451051
2 3.060642 1.0842022e-19
2.512243 -3.6893488e+19 2.4358213
-1.0842022e-19 3.0746992 -0
2.5972183 0 2.4517329
1.0842022e-19 3.0637517 -3.6893488e+19
2.514868 0 2.4217947
2 3.1350858 1.0842022e-19
2.5750883 -3.6893488e+19 2.4951785
3.6893488e+19 3.1180956 -3.6893488e+19
2.6436243 1.0842022e-19 2.4467828
1.0842022e-19 3.1372247 3.6893488e+19
2.5768938 -3.6893488e+19 2.4527872
0 3.0450275 -1.0842022e-19
2.5654886 0 2.3407137
-3.6893488e+19 3.1380858 2
2.577621 -1.0842022e-19 2.4312465
0 3.1317115 1.0842022e-19
2.6581845 1.0842022e-19 2.418381
-2 3.1250098 1.0842022e-19
2.5665822 -1.0842022e-19 2.3949649
-1.0842022e-19 3.0507846 -3.6893488e+19
2.571645 2 2.3120265
1.0842022e-19 3.1237895 0
2.565552 -0 2.3720424
-3.6893488e+19 3.0474017 3.6893488e+19
2.4266884 0 2.285707
-0 3.0545382 -2
2.5361042 -0 2.2869606
1.0842022e-19 3.0568416 -1.0842022e-19
2.4402318 2 2.2771599
-0 3.0506303 -3.6893488e+19
2.5324328 0 2.2658453
0 3.0187988 2
2.3856511 3.6893488e+19 2.2047789
-3.6893488e+19 3.0516355 0
2.5333774 0 2.2485313
-2 3.0189259 0
2.3858337 3.6893488e+19 2.1742151
-3.6893488e+19 3.0551109 -2
2.5366423 -2 2.218992
-1.0842022e-19 3.0206637 3.6893488e+19
2.3883269 0 2.1460142
-0 3.1207397 1.0842022e-19
2.5982985 -3.6893488e+19 2.2635229
1.0842022e-19 3.0194783 3.6893488e+19
2.386626 3.6893488e+19 2.1135175
0 3.0496566 -0
2.531518 -3.6893488e+19 2.141428
3.6893488e+19 3.0190449 -0
2.3860042 1.0842022e-19 2.0822499
-1.0842022e-19 3.0493298 1.0842022e-19
2.5312111 3.6893488e+19 2.1065049
2 3.0135345 0
2.3780985 3.6893488e+19 2.045428
0 3.0475006 0
2.5294926 1.0842022e-19 2.0700753
2 3.0378208 -0
2.5577822 -1.0842022e-19 2.0453637
-3.6893488e+19 3.0245357 2
2.4635246 -1.0842022e-19 2.0124648
0 3.0370038 -0
2.5569084 -1.0842022e-19 2.0112791
1.0842022e-19 3.0352974 3.6893488e+19
2.5550838 1.0842022e-19 1.9766964
-2 3.0245495 0
2.4635479 -0 1.9497169
-3.6893488e+19 3.0347221 -3.6893488e+19
2.5544686 -1.0842022e-19 1.9432985
-1.0842022e-19 3.0228252 3.6893488e+19
2.4606366 2 1.9173067
-0 3.0338311 2
2.5535159 0 1.909881
-0 3.0223398 -1.0842022e-19
2.4598169 -3.6893488e+19 1.8859307
2 3.0340726 1.0842022e-19
2.5537741 -2 1.8771856
-3.6893488e+19 3.030648 -1.0842022e-19
2.550112 -3.6893488e+19 1.8114707
-2 3.0219095 -0
2.4590905 3.6893488e+19 1.7723764
-3.6893488e+19 3.0292013 -3.6893488e+19
2.5485649 -2 1.7420304
3.6893488e+19 3.0204668 2
2.4566545 0 1.6698284
1.0842022e-19 3.0310421 1.0842022e-19
2.4032168 0 1.598457
-2 3.0191743 3.6893488e+19
2.5028811 2 1.4359875
-3.6893488e+19 3.0290785 -3.6893488e+19
2.4003997 3.6893488e+19 -1.2490112
0 3.0137882 2
2.4956417 2 -1.5256276
0 3.0022182 0
2.3618627 1.0842022e-19 -1.6283791
-1.0842022e-19 3.0104275 -2
2.4893272 -1.0842022e-19 -1.6937251
-0 3.0023828 -2
2.3620987 2 -1.7428862
-0 3.0117998 -1.0842022e-19
2.4919057 -3.6893488e+19 -1.7823706
-2 3.0021353 -2
2.3617437 -2 -1.8034801
3.6893488e+19 3.0069549 -2
2.4828024 -3.6893488e+19 -1.8383721
2 2.9899771 -0
2.35149 0 -1.853985
-1.0842022e-19 2.9140131 -2
2.3889525 1.0842022e-19 -1.844365
2 2.8966644 -0
2.2845511 -2 -1.8553764
0 2.893239 3.6893488e+19
2.3694358 0 -1.8767371
-3.6893488e+19 2.8579574 2
2.2567844 -2 -1.8735173
-0 2.8765898 -3.6893488e+19
2.3537943 2 -1.892982
-0 2.7929623 3.6893488e+19
2.3132803 1.0842022e-19 -1.8661296
2 2.7619145 -2
2.1922147 1.0842022e-19 -1.8528153
-1.0842022e-19 2.713454 0
2.2455964 0 -1.8425555
-1.0842022e-19 2.6818142 1.0842022e-19
2.1145363 0 -1.8374915
-0 2.6311889 -2
2.1576257 -0 -1.8260254
0 2.5983977 0
2.0441163 -1.0842022e-19 -1.8163793
1.0842022e-19 2.572829 0
2.0952184 -2 -1.8139668
-2 2.5493157 1.0842022e-19
2.0026815 -3.6893488e+19 -1.8065652
-3.6893488e+19 2.5335331 0
2.0531974 2 -1.8074245
-1.0842022e-19 2.5225785 -2
1.9801099 -3.6893488e+19 -1.8059748
-2 2.4926908 2
1.9579641 3.6893488e+19 -1.802701
-0 2.4605734 -3.6893488e+19
1.9962579 2 -1.7999448
3.6893488e+19 2.4485443 0
1.9393299 2 -1.7996677
-2 2.4242153 -3.6893488e+19
1.9768181 0 -1.7984912
1.0842022e-19 2.3677602 -2
1.8819082 -1.0842022e-19 -1.7936885
0 2.3232055 3.6893488e+19
1.8568547 -2 -1.7918277
-3.6893488e+19 2.2867839 -1.0842022e-19
1.8307275 -0 -1.7895695
1.0842022e-19 2.2545817 -1.0842022e-19
1.8076267 1.0842022e-19 -1.7858322
0 2.2128885 -2
1.8724957 -1.0842022e-19 -1.7876872
3.6893488e+19 2.1704185 1.0842022e-19
1.8497881 2 -1.7852757
0 2.1399238 0
1.8334832 1.0842022e-19 -1.7853172
3.6893488e+19 2.1099882 3.6893488e+19
1.8174773 0 -1.7838403
-2 3.1357298 2
2.5225313 -0 2.6155188
-3.6893488e+19 3.1348627 0
2.6073079 3.6893488e+19 2.6128814
2 3.1357174 1.0842022e-19
2.5225224 0 2.6040103
0 3.1376982 -2
2.6099401 -0 2.6038911
2 3.053611 3.6893488e+19
2.429023 -0 2.5196304
0 3.1443608 -3.6893488e+19
2.6161256 -1.0842022e-19 2.5981431
-0 3.053705 -0
2.4291558 3.6893488e+19 2.5107176
2 3.1019042 -3.6893488e+19
2.5767088 -3.6893488e+19 2.5501378
0 3.0924988 2
2.483974 -0 2.5339026
-2 3.0565598 1.0842022e-19
2.5346112 3.6893488e+19 2.5023239
-0 3.0950308 -2
2.4875519 -2 2.52584
-0 3.0545897 -0
2.5327821 2 2.4832892
-0 3.0599394 -2
2.4379654 1.0842022e-19 2.4773622
-3.6893488e+19 3.0573268 -3.6893488e+19
2.5353231 -0 2.4694066
0 3.0499575 1.0842022e-19
2.4238603 -1.0842022e-19 2.4444149
-2 3.1060226 -0
2.5805326 -1.0842022e-19 2.5113604
1.0842022e-19 3.0519216 -0
2.5694685 1.0842022e-19 2.4376824
-2 3.1355309 -2
2.5712404 -2 2.5202954
-3.6893488e+19 3.1335375 1.0842022e-19
2.5695796 2 2.5076642
3.6893488e+19 3.1352372 -3.6893488e+19
2.5709956 1.0842022e-19 2.495101
-3.6893488e+19 3.0792866 2
2.5243754 2 2.403991
2 3.1194286 3.6893488e+19
2.6408989 -0 2.4480879
-3.6893488e+19 3.1376193 2
2.5729806 -1.0842022e-19 2.4529996
-0 3.1351168 -3.6893488e+19
2.6574988 1.0842022e-19 2.4444437
1.0842022e-19 3.1314387 -3.6893488e+19
2.6536069 -1.0842022e-19 2.4177904
-3.6893488e+19 3.1259747 0
2.563278 -3.6893488e+19 2.3957634
1.0842022e-19 3.1244204 3.6893488e+19
2.5619826 -0 2.3724654
-3.6893488e+19 3.1133687 1.0842022e-19
2.5067325 1.0842022e-19 2.348917
-3.6893488e+19 3.1664109 1.0842022e-19
2.6365974 -1.0842022e-19 2.3921359
0 3.055578 -3.6893488e+19
2.4318023 -0 2.2758896
-0 3.1677022 0
2.6377962 -3.6893488e+19 2.3691447
3.6893488e+19 3.0181897 -3.6893488e+19
2.3789701 -3.6893488e+19 2.2035365
-3.6893488e+19 3.1151676 0
2.5080035 3.6893488e+19 2.2878809
0 3.1624691 0
2.6329377 -3.6893488e+19 2.3168128
-0 3.1120651 -1.0842022e-19
2.5058112 1.0842022e-19 2.2647491
0 3.1198752 0
2.5933933 0 2.2627475
-2 3.1130807 -1.0842022e-19
2.5065289 -3.6893488e+19 2.2395556
1.0842022e-19 3.1723435 -3.6893488e+19
2.6421049 -0 2.2756753
0 3.0171454 1.0842022e-19
2.3774946 1.0842022e-19 2.0797501
2 3.0485721 3.6893488e+19
2.5271952 -0 2.1053846
1.0842022e-19 3.1696787 -1.0842022e-19
2.5465171 2 2.2202494
-1.0842022e-19 3.1690037 2
2.6390045 -1.0842022e-19 2.2005222
0 3.2189701 -1.0842022e-19
2.7462254 -2 2.2309246
-1.0842022e-19 3.0250533 2
2.4583719 3.6893488e+19 2.012815
-3.6893488e+19 3.2212424 -0
2.74863 -3.6893488e+19 2.1787052
-1.0842022e-19 3.0249143 -2
2.4581401 3.6893488e+19 1.9812629
0 3.2063539 2
2.7328761 -0 2.1123643
-0 3.024884 -3.6893488e+19
2.4580896 -2 1.9498502
-3.6893488e+19 3.0364904 -2
2.5531406 -1.0842022e-19 1.9443634
-3.6893488e+19 3.0495422 -2
2.4991822 -0 1.9335895
2 3.2032633 1.0842022e-19
2.7296059 -2 2.0051432
0 3.0514176 0
2.5011537 0 1.9003613
1.0842022e-19 3.0351467 3.6893488e+19
2.5517187 -2 1.8775774
1.0842022e-19 3.0233669 -0
2.4555614 -0 1.8353944
-0 3.1642585 -0
2.6883342 2 1.8875268
-2 3.0754371 -0
2.5211678 -3.6893488e+19 1.8012916
-1.0842022e-19 3.0296378 0
2.5458899 -2 1.7422397
-0 3.0209215 -3.6893488e+19
2.4514861 2 1.6700203
-0 3.295929 2
2.6681678 -0 1.7351837
-1.0842022e-19 3.009233 3.6893488e+19
2.4813457 3.6893488e+19 1.4290087
0 3.2964423 -2
2.6688929 -0 -1.3821902
3.6893488e+19 3.0097795 -1.0842022e-19
2.4823601 2 -1.5232477
-3.6893488e+19 3.0383091 1.0842022e-19
2.4074006 1.0842022e-19 -1.646681
3.6893488e+19 3.0101609 -2
2.4830685 -3.6893488e+19 -1.6934083
2 3.0396712 0
2.4093251 -0 -1.7643206
2 3.0141821 2
2.490535 3.6893488e+19 -1.7837054
-0 3.0028992 -1.0842022e-19
2.3573637 -0 -1.8039373
-1.0842022e-19 3.0059559 -1.0842022e-19
2.4752607 -2 -1.8374125
0 3.0344155 0
2.4018984 -2 -1.882856
-2 3.0085516 -3.6893488e+19
2.4800804 -1.0842022e-19 -1.8869097
-0 2.8959885 -3.6893488e+19
2.2797792 3.6893488e+19 -1.8548765
3.6893488e+19 2.8949399 3.6893488e+19
2.3666635 -3.6893488e+19 -1.8772073
-2 2.8887472 1.0842022e-19
2.2746632 -0 -1.8848838
1.0842022e-19 2.8736582 0
2.3469055 1.0842022e-19 -1.891782
-3.6893488e+19 2.7894251 1.0842022e-19
2.306246 -3.6893488e+19 -1.8630521
0 2.7638917 -3.6893488e+19
2.1897709 3.6893488e+19 -1.8544087
-2 2.7153459 0
2.2423909 0 -1.8432913
-3.6893488e+19 2.6770434 -1.0842022e-19
2.1058304 -1.0842022e-19 -1.8350283
1.0842022e-19 2.6315756 2
2.1537519 -0 -1.8260889
-2 2.598345 0
2.0402558 1.0842022e-19 -1.8162453
2 2.5706434 3.6893488e+19
2.0892785 1.0842022e-19 -1.8125566
2 2.5514331 3.6893488e+19
2.0011666 1.0842022e-19 -1.807749
-0 2.5332491 2
2.049711 1.0842022e-19 -1.8071147
3.6893488e+19 2.5230944 0
1.9775537 -2 -1.8062177
-0 2.5044308 -0
2.0192177 -1.0842022e-19 -1.8033587
1.0842022e-19 2.4927182 -2
1.9552766 1.0842022e-19 -1.8026131
0 2.461617 2
1.9942225 2 -1.8002188
-0 2.4485474 -2
1.9368742 -2 -1.7995728
-2 3.1357298 2
2.5225313 -0 2.6155188
-3.6893488e+19 3.1348627 0
2.6073079 3.6893488e+19 2.6128814
2 3.1357174 1.0842022e-19
2.5225224 0 2.6040103
0 3.1376982 -2
2.6099401 -0 2.6038911
2 3.053611 3.6893488e+19
2.429023 -0 2.5196304
0 3.1443608 -3.6893488e+19
2.6161256 -1.0842022e-19 2.5981431
-0 3.053705 -0
2.4291558 3.6893488e+19 2.5107176
0 3.0531437 2
2.5314395 -1.0842022e-19 2.5085502
0 3.0573413 -3.6893488e+19
2.434294 -2 2.50476
-2 3.0565598 1.0842022e-19
2.5346112 3.6893488e+19 2.5023239
-1.0842022e-19 3.0551138 -0
2.4311466 3.6893488e+19 2.4878559
-0 3.0545897 -0
2.5327821 2 2.4832892
-0 3.0599394 -2
2.4379654 1.0842022e-19 2.4773622
-3.6893488e+19 3.0573268 -3.6893488e+19
2.5353231 -0 2.4694066
0 3.0499575 1.0842022e-19
2.4238603 -1.0842022e-19 2.4444149
0 3.0578079 -1.0842022e-19
2.5357697 -0 2.4519308
1.0842022e-19 3.0519216 -0
2.5694685 1.0842022e-19 2.4376824
-3.6893488e+19 3.060662 -3.6893488e+19
2.5088565 1.0842022e-19 2.4356101
2 3.0612376 -2
2.509336 -3.6893488e+19 2.4181845
1.0842022e-19 3.0774834 -2
2.5228727 -0 2.4208765
-3.6893488e+19 3.0792866 2
2.5243754 2 2.403991
2 3.1194286 3.6893488e+19
2.6408989 -0 2.4480879
-3.6893488e+19 3.1376193 2
2.5729806 -1.0842022e-19 2.4529996
-0 3.1351168 -3.6893488e+19
2.6574988 1.0842022e-19 2.4444437
1.0842022e-19 3.1314387 -3.6893488e+19
2.6536069 -1.0842022e-19 2.4177904
-3.6893488e+19 3.1259747 0
2.563278 -3.6893488e+19 2.3957634
1.0842022e-19 3.1244204 3.6893488e+19
2.5619826 -0 2.3724654
0 3.0472658 -1.0842022e-19
2.4200566 2 2.2854428
-1.0842022e-19 3.0597754 3.6893488e+19
2.5375965 0 2.2917168
0 3.055578 -3.6893488e+19
2.4318023 -0 2.2758896
1.0842022e-19 3.0497856 -3.6893488e+19
2.5283217 -1.0842022e-19 2.2649357
3.6893488e+19 3.0181897 -3.6893488e+19
2.3789701 -3.6893488e+19 2.2035365
-1.0842022e-19 3.0184696 1.0842022e-19
2.3793659 -2 2.1732974
3.6893488e+19 3.052449 2
2.5307946 -3.6893488e+19 2.2146153
2 3.0178173 -0
2.378444 -3.6893488e+19 2.1416662
-2 3.0511527 -3.6893488e+19
2.5295911 -1.0842022e-19 2.1778586
3.6893488e+19 3.0180707 -2
2.3788021 3.6893488e+19 2.11145
3.6893488e+19 3.0496581 3.6893488e+19
2.5282035 -3.6893488e+19 2.1411903
0 3.0171454 1.0842022e-19
2.3774946 1.0842022e-19 2.0797501
2 3.0485721 3.6893488e+19
2.5271952 -0 2.1053846
-0 3.0172496 2
2.3776419 -2 2.0494528
0 3.0461338 3.6893488e+19
2.5249314 -2 2.0684094
-0 3.036725 -0
2.5533888 -3.6893488e+19 2.044034
-1.0842022e-19 3.0250533 2
2.4583719 3.6893488e+19 2.012815
-2 3.037415 0
2.5541191 3.6893488e+19 2.0114713
-1.0842022e-19 3.0249143 -2
2.4581401 3.6893488e+19 1.9812629
1.0842022e-19 3.036613 -3.6893488e+19
2.5532701 1.0842022e-19 1.9775829
-0 3.024884 -3.6893488e+19
2.4580896 -2 1.9498502
-3.6893488e+19 3.0364904 -2
2.5531406 -1.0842022e-19 1.9443634
1.0842022e-19 3.0209272 2
2.4514956 1.0842022e-19 1.9160513
3.6893488e+19 3.0334253 1.0842022e-19
2.5498974 -0 1.909541
-2 3.0217252 0
2.4528258 -3.6893488e+19 1.8855493
1.0842022e-19 3.0351467 3.6893488e+19
2.5517187 -2 1.8775774
1.0842022e-19 3.0233669 -0
2.4555614 -0 1.8353944
-0 3.1642585 -0
2.6883342 2 1.8875268
2 3.0245981 2
2.4576132 -1.0842022e-19 1.7737517
-1.0842022e-19 3.0296378 0
2.5458899 -2 1.7422397
-0 3.0209215 -3.6893488e+19
2.4514861 2 1.6700203
-2 3.0273266 2
2.3918815 -2 1.5953999
-1.0842022e-19 3.009233 3.6893488e+19
2.4813457 3.6893488e+19 1.4290087
-0 3.0366254 3.6893488e+19
2.4050212 1.0842022e-19 -1.2528127
3.6893488e+19 3.0097795 -1.0842022e-19
2.4823601 2 -1.5232477
1.0842022e-19 3.0015051 0
2.3553939 1.0842022e-19 -1.6279564
3.6893488e+19 3.0101609 -2
2.4830685 -3.6893488e+19 -1.6934083
1.0842022e-19 3.0026238 0
2.3569746 3.6893488e+19 -1.7430046
2 3.0141821 2
2.490535 3.6893488e+19 -1.7837054
-0 3.0028992 -1.0842022e-19
2.3573637 -0 -1.8039373
-1.0842022e-19 3.0059559 -1.0842022e-19
2.4752607 -2 -1.8374125
-0 2.9790089 1.0842022e-19
2.3384361 -3.6893488e+19 -1.8487545
-1.0842022e-19 2.9150579 1.0842022e-19
2.3853412 0 -1.8447839
-0 2.8959885 -3.6893488e+19
2.2797792 3.6893488e+19 -1.8548765
3.6893488e+19 2.8949399 3.6893488e+19
2.3666635 -3.6893488e+19 -1.8772073
-3.6893488e+19 2.8575711 3.6893488e+19
2.2526362 1.0842022e-19 -1.8731333
1.0842022e-19 2.8736582 0
2.3469055 1.0842022e-19 -1.891782
-3.6893488e+19 2.7894251 1.0842022e-19
2.306246 -3.6893488e+19 -1.8630521
0 2.7638917 -3.6893488e+19
2.1897709 3.6893488e+19 -1.8544087
-2 2.7153459 0
2.2423909 0 -1.8432913
-3.6893488e+19 2.6770434 -1.0842022e-19
2.1058304 -1.0842022e-19 -1.8350283
1.0842022e-19 2.6315756 2
2.1537519 -0 -1.8260889
-2 2.598345 0
2.0402558 1.0842022e-19 -1.8162453
2 2.5706434 3.6893488e+19
2.0892785 1.0842022e-19 -1.8125566
2 2.5514331 3.6893488e+19
2.0011666 1.0842022e-19 -1.807749
-0 2.5332491 2
2.049711 1.0842022e-19 -1.8071147
3.6893488e+19 2.5230944 0
1.9775537 -2 -1.8062177
-0 2.5044308 -0
2.0192177 -1.0842022e-19 -1.8033587
1.0842022e-19 2.4927182 -2
1.9552766 1.0842022e-19 -1.8026131
0 2.461617 2
1.9942225 2 -1.8002188
-0 2.4485474 -2
1.9368742 -2 -1.7995728
-0 3.1374364 -2
2.5195463 3.6893488e+19 2.6169672
1.0842022e-19 3.1397169 -0
2.607507 -0 2.6055186
-0 3.1880157 -3.6893488e+19
2.5547352 -3.6893488e+19 2.6388135
3.6893488e+19 3.144927 -1.0842022e-19
2.6122866 -3.6893488e+19 2.5984321
-3.6893488e+19 3.0922205 -2
2.4761779 3.6893488e+19 2.5436466
-1.0842022e-19 3.1019979 -0
2.5729055 -0 2.5500362
0 3.0923245 2
2.4763224 -0 2.5336277
-0 3.0567753 0
2.5314207 3.6893488e+19 2.5023484
1.0842022e-19 3.0953708 -3.6893488e+19
2.480561 1.0842022e-19 2.525985
3.6893488e+19 3.0545948 -3.6893488e+19
2.5294201 -1.0842022e-19 2.4830046
-1.0842022e-19 3.05621 3.6893488e+19
2.4260716 -0 2.4714015
0 3.2362893 0
2.6960979 3.6893488e+19 2.6211507
2 3.05058 -0
2.4182377 -1.0842022e-19 2.4451325
-1.0842022e-19 3.1063881 -0
2.5769329 -3.6893488e+19 2.5114703
-1.0842022e-19 3.135499 1.0842022e-19
2.5669954 -0 2.5201263
-3.6893488e+19 3.1343801 2
2.5660753 -0 2.50809
2 3.1359 -3.6893488e+19
2.5673249 -3.6893488e+19 2.4956834
-1.0842022e-19 3.0770438 -2
2.5189276 -0 2.4010215
3.6893488e+19 3.1207905 -1.0842022e-19
2.6381795 1.0842022e-19 2.4494295
-1.0842022e-19 3.1377995 3.6893488e+19
2.568887 1.0842022e-19 2.4529643
-3.6893488e+19 3.1357419 2
2.6538324 1.0842022e-19 2.4448581
2 3.125741 -2
2.5589712 -0 2.4170725
3.6893488e+19 3.131762 -2
2.6496656 -2 2.417856
-3.6893488e+19 3.126786 3.6893488e+19
2.5598307 1.0842022e-19 2.3964024
-3.6893488e+19 3.1251705 -0
2.5585022 2 2.3730092
-1.0842022e-19 3.1128633 3.6893488e+19
2.5024505 3.6893488e+19 2.3482714
-0 3.1681156 2
2.6335588 2 2.393503
-2 3.1079822 0
2.4981093 3.6893488e+19 2.3230541
3.6893488e+19 3.1708927 -0
2.6361063 1.0842022e-19 2.3717394
-3.6893488e+19 3.1124461 0
2.5021603 2 2.3063262
-2 3.1748652 -1.0842022e-19
2.6397505 -2 2.3506727
-3.6893488e+19 3.1112599 -3.6893488e+19
2.5013349 1.0842022e-19 2.2846694
-2 3.1205339 0
2.5899098 -3.6893488e+19 2.2844307
-1.0842022e-19 3.110913 3.6893488e+19
2.5010936 0 2.2637854
-3.6893488e+19 3.1200686 -0
2.5894828 -0 2.2627258
-1.0842022e-19 3.110425 2
2.5007541 -0 2.2357514
1.0842022e-19 3.1723866 3.6893488e+19
2.6374767 -3.6893488e+19 2.2755365
2 3.1778257 -1.0842022e-19
2.5476458 0 2.2639213
-3.6893488e+19 3.0510311 -1.0842022e-19
2.5261512 -1.0842022e-19 2.1080949
-1.0842022e-19 3.1679366 0
2.540766 2 2.2180822
-0 3.1659749 3.6893488e+19
2.6315949 -3.6893488e+19 2.1969948
1.0842022e-19 3.2209535 -1.0842022e-19
2.7430398 0 2.2326255
1.0842022e-19 3.1477392 -2
2.5770602 -2 2.1298356
-0 3.0367382 -0
2.5501854 3.6893488e+19 2.0106754
-0 3.1466382 -1.0842022e-19
2.5761549 0 2.0834782
0 3.0350897 -2
2.5484595 0 1.9762172
2 3.0190091 2
2.4424117 3.6893488e+19 1.9454728
1.0842022e-19 3.1726472 -2
2.6924682 -3.6893488e+19 2.0365379
2 3.0209825 -0
2.445657 -0 1.915995
2 3.0345275 3.6893488e+19
2.5478711 -2 1.9100509
-3.6893488e+19 3.0227599 1.0842022e-19
2.4485805 -1.0842022e-19 1.8859917
-0 3.0349205 0
2.5482826 -3.6893488e+19 1.8773882
-0 3.0236683 3.6893488e+19
2.4500742 -2 1.835512
2 3.1641517 -2
2.6835742 -1.0842022e-19 1.8873963
-3.6893488e+19 3.076685 3.6893488e+19
2.5186327 0 1.8018717
1.0842022e-19 3.0316145 3.6893488e+19
2.5448215 1.0842022e-19 1.7437837
-1.0842022e-19 3.0200279 2
2.4440873 -2 1.6693676
1.0842022e-19 3.2969272 1.0842022e-19
2.6631551 -2 1.7358685
2 3.0087199 -3.6893488e+19
2.4746737 0 1.4285463
-0 3.2966247 0
2.6627343 2 -1.3822109
-1.0842022e-19 3.0163026 3.6893488e+19
2.4885859 1.0842022e-19 -1.5268784
1.0842022e-19 3.0315456 -1.0842022e-19
2.3917525 -2 -1.6431739
1.0842022e-19 3.013212 2
2.4829154 2 -1.6955581
2 3.0323546 0
2.3928783 3.6893488e+19 -1.7607392
-2 3.0137024 3.6893488e+19
2.4838154 -0 -1.7833214
-3.6893488e+19 3.0046775 -2
2.3543675 2 -1.8051128
-0 3.0005691 -0
2.4597197 -0 -1.8328162
-1.0842022e-19 2.9807065 -2
2.3344359 -1.0842022e-19 -1.8494443
-1.0842022e-19 2.9167705 -2
2.3823247 1.0842022e-19 -1.8455572
3.6893488e+19 2.884048 1.0842022e-19
2.267189 -3.6893488e+19 -1.8478423
-3.6893488e+19 2.9097881 3.6893488e+19
2.3759196 -3.6893488e+19 -1.88191
2 2.8588431 -2
2.2493069 2 -1.8739014
-3.6893488e+19 2.8720586 -0
2.3413084 -2 -1.8910897
1.0842022e-19 2.7925239 1.0842022e-19
2.3062425 -3.6893488e+19 -1.8654346
-3.6893488e+19 2.7631178 2
2.182723 -2 -1.8536119
-1.0842022e-19 2.7095098 1.0842022e-19
2.2310598 1.0842022e-19 -1.8404049
0 2.6771533 1.0842022e-19
2.1012475 -1.0842022e-19 -1.8349682
-2 2.6320803 -2
2.1499989 -3.6893488e+19 -1.826216
-2 2.5990229 0
2.0370011 3.6893488e+19 -1.8165134
2 2.5701411 -1.0842022e-19
2.0851548 2 -1.8121336
-0 2.5520852 3.6893488e+19
1.9984043 -3.6893488e+19 -1.8080449
-0 2.5335653 3.6893488e+19
2.0468638 -3.6893488e+19 -1.8071921
-0 2.5221443 1.0842022e-19
1.973784 2 -1.8054893
3.6893488e+19 2.5058115 0
2.0178084 3.6893488e+19 -1.8042028
3.6893488e+19 2.4929857 3.6893488e+19
1.9526907 1.0842022e-19 -1.8026131
1.0842022e-19 2.4621766 2
1.9919257 -1.0842022e-19 -1.8003101
1.0842022e-19 2.448791 0
1.9345201 -2 -1.7995728
-3.6893488e+19 2.4238417 -0
1.9718595 -2 -1.798098
0 2.3666327 1.0842022e-19
1.8775364 3.6893488e+19 -1.7930156
2 2.3215504 -1.0842022e-19
1.8487083 -2 -1.7908196
-3.6893488e+19 2.2850988 2
1.8233484 2 -1.788451
2 2.2596853 -0
1.8056676 0 -1.7889044
-2 2.2092392 0
1.8653883 3.6893488e+19 -1.7861809
-0 2.1710024 -1.0842022e-19
1.8453732 2 -1.7852757
-3.6893488e+19 2.1357207 0
1.8269051 3.6893488e+19 -1.7833692
3.6893488e+19 2.1218421 -0
1.8196403 -3.6893488e+19 -1.788843
-0 3.1374364 -2
2.5195463 3.6893488e+19 2.6169672
1.0842022e-19 3.1397169 -0
2.607507 -0 2.6055186
0 3.0551343 2
2.4245746 -2 2.5208585
3.6893488e+19 3.144927 -1.0842022e-19
2.6122866 -3.6893488e+19 2.5984321
3.6893488e+19 3.0538447 -1.0842022e-19
2.4227803 3.6893488e+19 2.5107176
-0 3.0538938 -3.6893488e+19
2.5287771 3.6893488e+19 2.5090332
-1.0842022e-19 3.0559139 1.0842022e-19
2.4256597 -0 2.5034604
-0 3.0567753 0
2.5314207 3.6893488e+19 2.5023484
-2 3.0560093 -3.6893488e+19
2.4257922 -1.0842022e-19 2.4890628
3.6893488e+19 3.0545948 -3.6893488e+19
2.5294201 -1.0842022e-19 2.4830046
-1.0842022e-19 3.05621 3.6893488e+19
2.4260716 -0 2.4714015
0 3.0559559 -1.0842022e-19
2.5306687 -3.6893488e+19 2.4670296
2 3.05058 -0
2.4182377 -1.0842022e-19 2.4451325
3.6893488e+19 3.0591636 0
2.5336115 -0 2.4536467
0 3.0549781 -0
2.500783 1.0842022e-19 2.4274077
1.0842022e-19 3.0594735 0
2.5044796 -2 2.4155886
0 3.0778427 -2
2.5195844 1.0842022e-19 2.4211097
-1.0842022e-19 3.0770438 -2
2.5189276 -0 2.4010215
3.6893488e+19 3.1207905 -1.0842022e-19
2.6381795 1.0842022e-19 2.4494295
3.6893488e+19 3.0620153 -3.6893488e+19
2.5065696 3.6893488e+19 2.3644454
-3.6893488e+19 3.1357419 2
2.6538324 1.0842022e-19 2.4448581
2 3.125741 -2
2.5589712 -0 2.4170725
3.6893488e+19 3.131762 -2
2.6496656 -2 2.417856
-3.6893488e+19 3.126786 3.6893488e+19
2.5598307 1.0842022e-19 2.3964024
-3.6893488e+19 3.1251705 -0
2.5585022 2 2.3730092
2 3.0457208 -1.0842022e-19
2.4114764 -2 2.2838287
2 3.0576026 0
2.5321796 -3.6893488e+19 2.2894952
3.6893488e+19 3.06141 2
2.4333069 1.0842022e-19 2.2810259
-2 3.0518143 0
2.5268698 1.0842022e-19 2.2665675
-2 3.0185273 1.0842022e-19
2.3736386 -1.0842022e-19 2.2038989
-1.0842022e-19 3.0528214 -2
2.5277934 -0 2.249882
-2 3.0198801 0
2.3755209 2 2.1753259
1.0842022e-19 3.0530567 -2
2.5280092 -3.6893488e+19 2.2152672
2 3.0195656 1.0842022e-19
2.3750832 0 2.144042
3.6893488e+19 3.0529435 1.0842022e-19
2.5279055 0 2.1801424
-0 3.0206792 -3.6893488e+19
2.3766327 0 2.1147995
-3.6893488e+19 3.0500519 1.0842022e-19
2.5252531 0 2.1414678
2 3.0187111 1.0842022e-19
2.3738942 -1.0842022e-19 2.0815301
-3.6893488e+19 3.0510311 -1.0842022e-19
2.5261512 -1.0842022e-19 2.1080949
-1.0842022e-19 3.0165431 2
2.3708777 0 2.0485241
-2 3.0395653 2
2.5156331 1.0842022e-19 2.0611589
-2 3.0363195 3.6893488e+19
2.5497472 -3.6893488e+19 2.0434155
-0 3.0238276 0
2.4503362 3.6893488e+19 2.0115018
-0 3.0367382 -0
2.5501854 3.6893488e+19 2.0106754
2 3.0206311 -0
2.4450791 3.6893488e+19 1.9775362
0 3.0350897 -2
2.5484595 0 1.9762172
2 3.0190091 2
2.4424117 3.6893488e+19 1.9454728
-2 3.0364769 3.6893488e+19
2.549912 1.0842022e-19 1.9442201
2 3.0209825 -0
2.445657 -0 1.915995
2 3.0345275 3.6893488e+19
2.5478711 -2 1.9100509
-3.6893488e+19 3.0227599 1.0842022e-19
2.4485805 -1.0842022e-19 1.8859917
-0 3.0349205 0
2.5482826 -3.6893488e+19 1.8773882
-0 3.0236683 3.6893488e+19
2.4500742 -2 1.835512
-0 3.0355113 2
2.5489011 3.6893488e+19 1.8144389
1.0842022e-19 3.0271957 -0
2.4558752 -2 1.7750773
1.0842022e-19 3.0316145 3.6893488e+19
2.5448215 1.0842022e-19 1.7437837
-1.0842022e-19 3.0200279 2
2.4440873 -2 1.6693676
-3.6893488e+19 3.0289011 -3.6893488e+19
2.388073 0 1.5965494
2 3.0087199 -3.6893488e+19
2.4746737 0 1.4285463
1.0842022e-19 3.0018132 0
2.3503819 -3.6893488e+19 -1.224475
-1.0842022e-19 3.0163026 3.6893488e+19
2.4885859 1.0842022e-19 -1.5268784
0 3.0017748 -1.0842022e-19
2.3503282 -2 -1.6280346
1.0842022e-19 3.013212 2
2.4829154 2 -1.6955581
-2 3.0022781 1.0842022e-19
2.3510289 1.0842022e-19 -1.7425606
-2 3.0137024 3.6893488e+19
2.4838154 -0 -1.7833214
-3.6893488e+19 3.0046775 -2
2.3543675 2 -1.8051128
-0 3.0005691 -0
2.4597197 -0 -1.8328162
-1.0842022e-19 2.9807065 -2
2.3344359 -1.0842022e-19 -1.8494443
-1.0842022e-19 2.9167705 -2
2.3823247 1.0842022e-19 -1.8455572
3.6893488e+19 2.884048 1.0842022e-19
2.267189 -3.6893488e+19 -1.8478423
-3.6893488e+19 2.9097881 3.6893488e+19
2.3759196 -3.6893488e+19 -1.88191
2 2.8588431 -2
2.2493069 2 -1.8739014
-3.6893488e+19 2.8720586 -0
2.3413084 -2 -1.8910897
1.0842022e-19 2.7925239 1.0842022e-19
2.3062425 -3.6893488e+19 -1.8654346
-3.6893488e+19 2.7631178 2
2.182723 -2 -1.8536119
-1.0842022e-19 2.7095098 1.0842022e-19
2.2310598 1.0842022e-19 -1.8404049
0 2.6771533 1.0842022e-19
2.1012475 -1.0842022e-19 -1.8349682
-2 2.6320803 -2
2.1499989 -3.6893488e+19 -1.826216
-2 2.5990229 0
2.0370011 3.6893488e+19 -1.8165134
2 2.5701411 -1.0842022e-19
2.0851548 2 -1.8121336
-0 2.5520852 3.6893488e+19
1.9984043 -3.6893488e+19 -1.8080449
-0 2.5335653 3.6893488e+19
2.0468638 -3.6893488e+19 -1.8071921
-0 2.5221443 1.0842022e-19
1.973784 2 -1.8054893
3.6893488e+19 2.5058115 0
2.0178084 3.6893488e+19 -1.8042028
3.6893488e+19 2.4929857 3.6893488e+19
1.9526907 1.0842022e-19 -1.8026131
1.0842022e-19 2.4621766 2
1.9919257 -1.0842022e-19 -1.8003101
1.0842022e-19 2.448791 0
1.9345201 -2 -1.7995728
-3.6893488e+19 2.4238417 -0
1.9718595 -2 -1.798098
0 2.3666327 1.0842022e-19
1.8775364 3.6893488e+19 -1.7930156
2 2.3215504 -1.0842022e-19
1.8487083 -2 -1.7908196
-3.6893488e+19 2.2850988 2
1.8233484 2 -1.788451
2 2.2596853 -0
1.8056676 0 -1.7889044
-2 2.2092392 0
1.8653883 3.6893488e+19 -1.7861809
-0 2.1710024 -1.0842022e-19
1.8453732 2 -1.7852757
-3.6893488e+19 2.1357207 0
1.8269051 3.6893488e+19 -1.7833692
3.6893488e+19 2.1218421 -0
1.8196403 -3.6893488e+19 -1.788843
-2 3.1378818 -2
2.5156646 3.6893488e+19 2.6172228
3.6893488e+19 3.261622 1.0842022e-19
2.7242222 -1.0842022e-19 2.7427657
3.6893488e+19 3.1121242 3.6893488e+19
2.4960461 0 2.5820534
1.0842022e-19 3.1420326 0
2.6053038 3.6893488e+19 2.6074173
-3.6893488e+19 3.1868298 2
2.5491898 -2 2.6375854
-0 3.1446865 -1.0842022e-19
2.6077089 -1.0842022e-19 2.5980117
-2 3.0928276 -3.6893488e+19
2.4696131 -0 2.5440342
2 3.1043272 -2
2.5711308 -0 2.551841
-3.6893488e+19 3.0925095 -1.0842022e-19
2.4691775 3.6893488e+19 2.5336528
-2 3.1042936 -0
2.5711005 -1.0842022e-19 2.5412619
2 3.0944996 -2
2.4719033 -1.0842022e-19 2.5251641
-3.6893488e+19 3.1793664 -3.6893488e+19
2.5440779 1.0842022e-19 2.580349
1.0842022e-19 3.2392769 2
2.6934373 1.0842022e-19 2.6232078
-1.0842022e-19 3.1826506 2
2.5463274 1.0842022e-19 2.5702138
-2 3.0595884 -1.0842022e-19
2.5305836 -1.0842022e-19 2.4539986
-3.6893488e+19 3.137094 2
2.5640755 1.0842022e-19 2.5210989
-3.6893488e+19 3.0539811 3.6893488e+19
2.564831 2 2.4220343
-3.6893488e+19 3.1349487 -1.0842022e-19
2.5623348 2 2.5083334
2 3.0545688 -2
2.5654395 0 2.4048319
1.0842022e-19 3.1371658 -3.6893488e+19
2.5641334 -1.0842022e-19 2.4970429
-0 3.0532284 2
2.5640514 1.0842022e-19 2.385148
-0 3.1208043 -2
2.6340392 -0 2.4491394
2 3.1380074 1.0842022e-19
2.5648165 1.0842022e-19 2.4529643
-3.6893488e+19 3.1331291 2
2.6468041 2 2.4415431
-3.6893488e+19 3.1272168 -3.6893488e+19
2.5560613 3.6893488e+19 2.4184866
3.6893488e+19 3.1327126 3.6893488e+19
2.6463726 2 2.4186106
1.0842022e-19 3.1269274 2
2.5558264 1.0842022e-19 2.3963385
-3.6893488e+19 3.1298444 -0
2.6434021 1.0842022e-19 2.3932261
-3.6893488e+19 3.1446159 1.0842022e-19
2.5701785 0 2.3921325
3.6893488e+19 3.1143124 -0
2.4990435 -3.6893488e+19 2.3495038
-0 3.1018426 3.6893488e+19
2.5688791 -2 2.3309331
-1.0842022e-19 3.1088178 -3.6893488e+19
2.4915168 -0 2.3236616
-2 3.1038425 -2
2.5706916 -2 2.3123326
1.0842022e-19 3.1093936 2
2.4923055 3.6893488e+19 2.3036087
3.6893488e+19 3.1733 -0
2.6336417 -2 2.3491719
-3.6893488e+19 3.1116688 -0
2.4954224 3.6893488e+19 2.2848625
2 3.1199667 1.0842022e-19
2.5853052 2 2.2838256
2 3.1104016 2
2.4936864 0 2.2632923
0 3.1205027 3.6893488e+19
2.5857909 1.0842022e-19 2.2628767
-1.0842022e-19 3.1105268 -3.6893488e+19
2.4938579 -1.0842022e-19 2.2356687
-3.6893488e+19 3.1688111 -3.6893488e+19
2.6295733 2 2.273041
1.0842022e-19 3.171109 0
2.5384223 -2 2.25966
2 3.1584547 0
2.6201873 2 2.2355912
-2 3.168556 -0
2.5366738 2 2.2185638
1.0842022e-19 3.03983 3.6893488e+19
2.5126762 1.0842022e-19 2.0612569
-2 3.0350356 0
2.5452094 -3.6893488e+19 2.0419004
0 3.1481969 0
2.5730839 -3.6893488e+19 2.130069
2 3.0306511 1.0842022e-19
2.5406682 1.0842022e-19 2.0049675
-0 3.147646 3.6893488e+19
2.5726368 -2 2.0841463
2 3.0313864 1.0842022e-19
2.5414298 0 1.9731262
2 3.112716 2
2.5442958 -1.0842022e-19 2.0134227
-0 3.1726336 -3.6893488e+19
2.6877184 0 2.0363333
-2 3.0211582 2
2.4400179 -2 1.9160137
1.0842022e-19 3.0318496 3.6893488e+19
2.5419095 3.6893488e+19 1.9084363
0 3.1484463 -2
2.5732861 1.0842022e-19 1.9485495
-2 3.035357 1.0842022e-19
2.5455422 -2 1.8774964
-3.6893488e+19 3.1477864 -1.0842022e-19
2.5727508 -3.6893488e+19 1.9029113
0 3.1591718 0
2.6737761 3.6893488e+19 1.8856516
-1.0842022e-19 3.1488526 -3.6893488e+19
2.5736158 -0 1.8408284
-2 3.0314136 -3.6893488e+19
2.5414579 -0 1.7434435
2 3.1483378 -3.6893488e+19
2.5731981 -0 1.7497126
-3.6893488e+19 3.0084174 -1.0842022e-19
2.4684136 0 1.428231
-3.6893488e+19 3.0031283 0
2.3467412 -1.0842022e-19 -1.2255454
1.0842022e-19 3.0007184 -2
2.3434396 1.0842022e-19 -1.6274397
-0 3.0109618 3.6893488e+19
2.4730256 2 -1.6937704
-1.0842022e-19 3.0032239 0
2.3468721 -3.6893488e+19 -1.7433597
0 3.0121539 -1.0842022e-19
2.4751861 3.6893488e+19 -1.7822975
-2 3.0061479 -2
2.3508773 1.0842022e-19 -1.8060707
-1.0842022e-19 3.0000792 3.6893488e+19
2.4532995 -2 -1.8322859
-2 2.9769831 -0
2.3266912 -3.6893488e+19 -1.847605
-0 2.9123287 -3.6893488e+19
2.3736982 3.6893488e+19 -1.8430761
-1.0842022e-19 2.9542203 2
2.3111007 1.0842022e-19 -1.8817202
0 2.9083281 -0
2.3700724 -0 -1.8813614
-2 2.8569129 2
2.2389076 -3.6893488e+19 -1.8724505
0 2.8722205 2
2.3373477 1.0842022e-19 -1.8910667
-3.6893488e+19 2.790971 -2
2.3013566 0 -1.8639953
-1.0842022e-19 2.7636259 0
2.1777949 2 -1.8539307
-1.0842022e-19 2.7134483 1.0842022e-19
2.22999 0 -1.8421028
-1.0842022e-19 2.6839855 2
2.1021216 -1.0842022e-19 -1.8382124
-3.6893488e+19 2.631496 -2
2.1451125 -3.6893488e+19 -1.8257711
-3.6893488e+19 2.6000655 -1.0842022e-19
2.0340316 -0 -1.8169826
-1.0842022e-19 2.5703597 0
2.0817943 2 -1.8121336
-2 2.5534687 2
1.9962246 3.6893488e+19 -1.8087848
0 2.5331559 -2
2.0432622 -3.6893488e+19 -1.8068048
-3.6893488e+19 2.5200922 2
1.9691441 2 -1.8040324
-3.6893488e+19 2.5067096 -1.0842022e-19
2.0158722 0 -1.8047093
-2 2.4908092 3.6893488e+19
1.9491132 0 -1.8017343
-1.0842022e-19 2.4622512 0
1.9893751 2 -1.8002188
-3.6893488e+19 2.4490314 -0
1.9321647 -2 -1.7995728
-2 3.1378818 -2
2.5156646 3.6893488e+19 2.6172228
3.6893488e+19 3.261622 1.0842022e-19
2.7242222 -1.0842022e-19 2.7427657
3.6893488e+19 3.1121242 3.6893488e+19
2.4960461 0 2.5820534
1.0842022e-19 3.1420326 0
2.6053038 3.6893488e+19 2.6074173
-0 3.0551219 2
2.417963 -2 2.520725
0 3.125438 -3.6893488e+19
2.5902636 -0 2.5810394
-3.6893488e+19 3.0526562 1.0842022e-19
2.4145856 2 2.5095804
2 3.1043272 -2
2.5711308 -0 2.551841
1.0842022e-19 3.0553584 -2
2.4182868 3.6893488e+19 2.5028856
-2 3.1042936 -0
2.5711005 -1.0842022e-19 2.5412619
2 3.0562387 2
2.4194927 1.0842022e-19 2.4892077
1.0842022e-19 3.0538068 -3.6893488e+19
2.4161613 -3.6893488e+19 2.4674897
1.0842022e-19 3.2392769 2
2.6934373 1.0842022e-19 2.6232078
-1.0842022e-19 3.0505948 3.6893488e+19
2.4117618 0 2.4449532
-2 3.0595884 -1.0842022e-19
2.5305836 -1.0842022e-19 2.4539986
2 3.0547793 -1.0842022e-19
2.4945757 1.0842022e-19 2.4269004
-3.6893488e+19 3.0539811 3.6893488e+19
2.564831 2 2.4220343
-1.0842022e-19 3.0602739 -3.6893488e+19
2.5017459 3.6893488e+19 2.4164405
2 3.0545688 -2
2.5654395 0 2.4048319
1.0842022e-19 3.1371658 -3.6893488e+19
2.5641334 -1.0842022e-19 2.4970429
-0 3.0532284 2
2.5640514 1.0842022e-19 2.385148
-0 3.1208043 -2
2.6340392 -0 2.4491394
-2 3.0573013 -1.0842022e-19
2.4986684 -3.6893488e+19 2.358747
-3.6893488e+19 3.1331291 2
2.6468041 2 2.4415431
-3.6893488e+19 3.1272168 -3.6893488e+19
2.5560613 3.6893488e+19 2.4184866
3.6893488e+19 3.1327126 3.6893488e+19
2.6463726 2 2.4186106
1.0842022e-19 3.1269274 2
2.5558264 1.0842022e-19 2.3963385
-3.6893488e+19 3.1298444 -0
2.6434021 1.0842022e-19 2.3932261
-3.6893488e+19 3.1446159 1.0842022e-19
2.5701785 0 2.3921325
1.0842022e-19 3.0464971 -1.0842022e-19
2.4061484 -0 2.284445
1.0842022e-19 3.0582712 -1.0842022e-19
2.5293896 0 2.2899511
-1.0842022e-19 3.1088178 -3.6893488e+19
2.4915168 -0 2.3236616
-1.0842022e-19 3.0540252 -1.0842022e-19
2.5255415 -2 2.2683594
-0 3.0181894 -1.0842022e-19
2.367372 1.0842022e-19 2.2031226
3.6893488e+19 3.0513954 -2
2.5231581 2 2.2472305
-0 3.0188067 0
2.3682177 -0 2.1734424
0 3.0543609 1.0842022e-19
2.5258458 -0 2.21699
1.0842022e-19 3.0189514 0
2.3684158 -3.6893488e+19 2.142966
-1.0842022e-19 3.0528817 0
2.5245054 1.0842022e-19 2.1797976
-1.0842022e-19 3.1105268 -3.6893488e+19
2.4938579 -1.0842022e-19 2.2356687
-3.6893488e+19 3.1688111 -3.6893488e+19
2.6295733 2 2.273041
1.0842022e-19 3.171109 0
2.5384223 -2 2.25966
2 3.1584547 0
2.6201873 2 2.2355912
-2 3.168556 -0
2.5366738 2 2.2185638
1.0842022e-19 3.03983 3.6893488e+19
2.5126762 1.0842022e-19 2.0612569
-2 3.0350356 0
2.5452094 -3.6893488e+19 2.0419004
-0 3.0303643 -0
2.4549568 -2 2.0176008
2 3.0306511 1.0842022e-19
2.5406682 1.0842022e-19 2.0049675
-2 3.0205925 -1.0842022e-19
2.4390998 -1.0842022e-19 1.9773819
2 3.0313864 1.0842022e-19
2.5414298 0 1.9731262
-3.6893488e+19 3.0197039 -3.6893488e+19
2.4376578 -0 1.9458728
-1.0842022e-19 3.0361285 -0
2.5463412 0 1.9438515
-2 3.0211582 2
2.4400179 -2 1.9160137
1.0842022e-19 3.0318496 3.6893488e+19
2.5419095 3.6893488e+19 1.9084363
0 3.1484463 -2
2.5732861 1.0842022e-19 1.9485495
-2 3.035357 1.0842022e-19
2.5455422 -2 1.8774964
1.0842022e-19 3.0244274 2
2.4453228 0 1.8359829
1.0842022e-19 3.0367045 2
2.5469377 1.0842022e-19 1.8151008
-2 3.0305288 -2
2.4552238 -3.6893488e+19 1.7768006
-2 3.0314136 -3.6893488e+19
2.5414579 -0 1.7434435
2 3.0200808 3.6893488e+19
2.4382694 -1.0842022e-19 1.66931
-3.6893488e+19 3.0084174 -1.0842022e-19
2.4684136 0 1.428231
-3.6893488e+19 3.0031283 0
2.3467412 -1.0842022e-19 -1.2255454
1.0842022e-19 3.0007184 -2
2.3434396 1.0842022e-19 -1.6274397
-0 3.0109618 3.6893488e+19
2.4730256 2 -1.6937704
-1.0842022e-19 3.0032239 0
2.3468721 -3.6893488e+19 -1.7433597
0 3.0121539 -1.0842022e-19
2.4751861 3.6893488e+19 -1.7822975
-2 3.0061479 -2
2.3508773 1.0842022e-19 -1.8060707
-1.0842022e-19 3.0000792 3.6893488e+19
2.4532995 -2 -1.8322859
-2 2.9769831 -0
2.3266912 -3.6893488e+19 -1.847605
-0 2.9123287 -3.6893488e+19
2.3736982 3.6893488e+19 -1.8430761
-2 2.8861918 1.0842022e-19
2.2645073 -2 -1.848985
0 2.9083281 -0
2.3700724 -0 -1.8813614
-2 2.8569129 2
2.2389076 -3.6893488e+19 -1.8724505
0 2.8722205 2
2.3373477 1.0842022e-19 -1.8910667
-3.6893488e+19 2.790971 -2
2.3013566 0 -1.8639953
-1.0842022e-19 2.7636259 0
2.1777949 2 -1.8539307
-1.0842022e-19 2.7134483 1.0842022e-19
2.22999 0 -1.8421028
-1.0842022e-19 2.6839855 2
2.1021216 -1.0842022e-19 -1.8382124
-3.6893488e+19 2.631496 -2
2.1451125 -3.6893488e+19 -1.8257711
-3.6893488e+19 2.6000655 -1.0842022e-19
2.0340316 -0 -1.8169826
-1.0842022e-19 2.5703597 0
2.0817943 2 -1.8121336
-2 2.5534687 2
1.9962246 3.6893488e+19 -1.8087848
0 2.5331559 -2
2.0432622 -3.6893488e+19 -1.8068048
-3.6893488e+19 2.5200922 2
1.9691441 2 -1.8040324
-3.6893488e+19 2.5067096 -1.0842022e-19
2.0158722 0 -1.8047093
-2 2.4908092 3.6893488e+19
1.9491132 0 -1.8017343
-1.0842022e-19 2.4622512 0
1.9893751 2 -1.8002188
-3.6893488e+19 2.4490314 -0
1.9321647 -2 -1.7995728
-0 3.1378746 -0
2.511472 -1.0842022e-19 2.6170523
-1.0842022e-19 3.2633815 0
2.7216036 -0 2.7457869
-0 3.2580364 -3.6893488e+19
2.7120326 2 2.7202275
3.6893488e+19 3.1869042 -2
2.5445235 -2 2.6374786
-2 3.1251528 1.0842022e-19
2.5858691 1.0842022e-19 2.5805929
-2 3.093312 0
2.4628637 -3.6893488e+19 2.5443184
3.6893488e+19 3.1043873 2
2.5672779 3.6893488e+19 2.5517139
1.0842022e-19 3.0903978 -2
2.4589343 -3.6893488e+19 2.5317781
2 3.1012738 -0
2.5644903 2 2.5386088
2 3.0922041 1.0842022e-19
2.4613698 -1.0842022e-19 2.5232089
-0 3.1127148 -2
2.5747333 2 2.5372419
-1.0842022e-19 3.179255 2
2.5393672 -0 2.580116
2 3.1822371 -3.6893488e+19
2.5413773 -2 2.5697651
-0 3.0596514 -0
2.5272264 -1.0842022e-19 2.4538226
2 3.1315002 3.6893488e+19
2.5553708 0 2.51704
2 3.0531716 -1.0842022e-19
2.5606 -0 2.4206259
3.6893488e+19 3.1358478 -1.0842022e-19
2.5588508 -2 2.5087998
1.0842022e-19 3.0547447 2
2.5622118 3.6893488e+19 2.4047921
-1.0842022e-19 3.1373098 2
2.5600212 -3.6893488e+19 2.4969652
-0 3.0536427 3.6893488e+19
2.5610828 2 2.3854139
0 3.0568469 -2
2.4912293 -3.6893488e+19 2.3758554
1.0842022e-19 3.0554883 -2
2.5629735 1.0842022e-19 2.3697751
-0 3.1343601 0
2.5576601 0 2.4484694
0 3.057802 3.6893488e+19
2.5653439 0 2.3544915
-2 3.1274467 -0
2.5521262 -1.0842022e-19 2.4185202
-2 3.1335714 0
2.6429701 0 2.4192667
-0 3.1234188 -1.0842022e-19
2.548902 -0 2.3924417
3.6893488e+19 3.1306119 -0
2.6399379 -3.6893488e+19 2.3937542
0 3.1126387 2
2.4889202 -3.6893488e+19 2.347743
-2 3.1037169 -3.6893488e+19
2.5666776 -1.0842022e-19 2.3324995
-1.0842022e-19 3.0493472 -0
2.4035888 3.6893488e+19 2.2698975
-1.0842022e-19 3.1036575 -3.6893488e+19
2.5666244 2 2.311985
-0 3.0536368 1.0842022e-19
2.5218418 -0 2.2503161
-1.0842022e-19 3.1127195 0
2.4890294 -0 2.2855628
3.6893488e+19 3.1201854 -0
2.5814216 2 2.2838256
-1.0842022e-19 3.1106236 -2
2.4862034 0 2.2633371
-2 3.1189897 1.0842022e-19
2.5803514 -0 2.2616487
1.0842022e-19 3.0415289 -2
2.3930478 -1.0842022e-19 2.1425459
1.0842022e-19 3.157814 -2
2.6151099 -2 2.2345431
-0 3.0388448 -2
2.5085986 -0 2.0600157
-3.6893488e+19 3.0353189 -1.0842022e-19
2.54231 0 2.0419934
-2 3.1484685 -1.0842022e-19
2.568953 -3.6893488e+19 2.1301274
3.6893488e+19 3.0283923 2
2.5352137 -3.6893488e+19 2.0027444
-3.6893488e+19 3.1497228 -3.6893488e+19
2.569957 -1.0842022e-19 2.0857141
3.6893488e+19 3.0314858 1.0842022e-19
2.538383 0 1.9730543
0 3.1037548 -1.0842022e-19
2.5331619 1.0842022e-19 2.006779
-1.0842022e-19 3.1704087 -2
2.6807098 -3.6893488e+19 2.0346334
-1.0842022e-19 3.0198624 -2
2.4320214 2 1.9151331
-0 3.0276833 -0
2.5344872 -3.6893488e+19 1.9059888
0 3.1490858 3.6893488e+19
2.569447 -0 1.948763
-3.6893488e+19 3.1672792 3.6893488e+19
2.6775038 -2 1.9363128
3.6893488e+19 3.1482112 -1.0842022e-19
2.568747 0 1.9029938
3.6893488e+19 3.1573598 -0
2.6673412 3.6893488e+19 1.8849597
0 3.1488185 1.0842022e-19
2.5692332 -0 1.8406959
2 3.0253077 1.0842022e-19
2.5320535 2 1.7380005
2 3.1489468 -3.6893488e+19
2.5693357 1.0842022e-19 1.7499622
0 3.0087533 1.0842022e-19
2.4633162 1.0842022e-19 1.4283571
3.6893488e+19 3.0376313 1.0842022e-19
2.3877931 -0 -1.2530872
-2 3.0103374 0
2.4661529 -0 -1.5232998
-0 3.0065615 -0
2.3459039 -3.6893488e+19 -1.6303517
