# .PCD v0.7 - Point Cloud Data file format
VERSION 0.7
FIELDS x y z
SIZE 4 4 4
TYPE F F F
COUNT 1 1 1
WIDTH 1716
HEIGHT 1
VIEWPOINT 0 0 0 1 0 0 0
POINTS 1716
DATA ascii
1.9865164 -0 -1.8748569
1.0842022e-19 2.6857967 -0
1.8587993 3.6893488e+19 -1.85853
3.6893488e+19 2.6435359 2
1.9401177 1.0842022e-19 -1.8480444
2 2.608218 -0
1.8171793 3.6893488e+19 -1.8370813
1.0842022e-19 2.5839436 -0
1.9113286 3.6893488e+19 -1.8331324
0 2.5622773 -3.6893488e+19
1.7925327 1.0842022e-19 -1.8274395
1.0842022e-19 2.5451739 3.6893488e+19
1.8925989 -3.6893488e+19 -1.8256568
0 2.5268092 0
1.7735046 -0 -1.8200303
3.6893488e+19 2.5101426 -0
1.8756752 -2 -1.8165704
2 2.4968963 3.6893488e+19
1.7582892 -2 -1.8140495
-0 2.4764686 1.0842022e-19
1.8551826 -3.6893488e+19 -1.8139415
0 2.4563546 -1.0842022e-19
1.7448283 -2 -1.8115035
-3.6893488e+19 3.3405969 -1.0842022e-19
2.4898651 2 2.774678
0 3.2537549 -0
2.0458455 3.6893488e+19 2.650553
-2 3.2405367 -1.0842022e-19
2.3527582 3.6893488e+19 2.6313295
-0 3.250247 -1.0842022e-19
2.0417559 2 2.6305261
1.0842022e-19 3.2915819 3.6893488e+19
2.4193687 0 2.6864209
0 3.2901001 -0
2.4172375 3.6893488e+19 2.6674151
0 3.2955225 -3.6893488e+19
2.5355344 -1.0842022e-19 2.6509333
-3.6893488e+19 3.2236283 3.6893488e+19
2.2540956 0 2.5628817
1.0842022e-19 3.2989416 2
2.3207567 -0 2.6278234
1.0842022e-19 3.2612624 -0
2.5024323 1.0842022e-19 2.5743375
-3.6893488e+19 3.2570064 -1.0842022e-19
2.2757614 3.6893488e+19 2.5601153
3.6893488e+19 3.2624114 0
2.5035427 -1.0842022e-19 2.5606906
0 3.2998629 1.0842022e-19
2.3217452 -0 2.5947034
-1.0842022e-19 3.2620592 1.0842022e-19
2.5032024 -0 2.5452487
-3.6893488e+19 3.3021014 2
2.3241472 2 2.5800629
-2 3.3016543 2
2.3236675 -3.6893488e+19 2.5624149
-3.6893488e+19 3.2749653 -3.6893488e+19
2.5156722 -1.0842022e-19 2.528353
3.6893488e+19 3.2753789 -0
2.2954745 -1.0842022e-19 2.5195687
-2 3.2095993 3.6893488e+19
2.0179169 0 2.4361835
-2 3.2203338 -3.6893488e+19
2.3382297 -3.6893488e+19 2.4345222
-3.6893488e+19 3.2081678 -0
2.0170825 -0 2.4089155
3.6893488e+19 3.2316539 -3.6893488e+19
2.3463702 -2 2.4176781
-3.6893488e+19 3.2146938 -1.0842022e-19
2.0208867 -3.6893488e+19 2.3885024
2 3.2314165 3.6893488e+19
2.3461995 2 2.3902192
0 3.2167616 -3.6893488e+19
2.0220919 -3.6893488e+19 2.3639202
-1.0842022e-19 3.2303488 -0
2.3454318 -0 2.3622048
-2 3.1520004 3.6893488e+19
1.9843405 2 2.2907941
-3.6893488e+19 3.2293801 -3.6893488e+19
2.3447351 -3.6893488e+19 2.3344102
3.6893488e+19 3.1498787 -2
1.9831036 -0 2.2667775
-1.0842022e-19 3.2933178 0
2.4218657 0 2.3761578
-3.6893488e+19 3.1516893 0
1.9841592 -3.6893488e+19 2.2408476
-1.0842022e-19 3.1501043 -3.6893488e+19
2.2877257 -0 2.2180309
-2 3.1500552 -3.6893488e+19
1.9832065 1.0842022e-19 2.1939676
2 3.1497698 -2
2.2874851 2 2.1726508
-3.6893488e+19 3.228596 -0
2.2567606 2 2.2013848
2 3.1455786 -0
2.3822091 -0 2.1026649
-0 3.2267878 -1.0842022e-19
2.2557905 -0 2.1462116
-3.6893488e+19 3.1444819 -0
2.3811495 2 2.0572445
-1.0842022e-19 3.232306 -2
2.2587509 0 2.0967605
-3.6893488e+19 3.1420324 -2
2.3787827 -3.6893488e+19 2.0111995
-1.0842022e-19 3.2316661 -2
2.2584076 0 2.0423584
1.0842022e-19 3.1455157 2
2.3821483 1.0842022e-19 1.9690255
-0 3.13919 -1.0842022e-19
2.1675909 1.0842022e-19 1.9426738
-0 3.1433058 0
2.3800132 1.0842022e-19 1.923568
3.6893488e+19 3.2335567 0
2.2594221 -3.6893488e+19 1.9352894
0 3.1382844 2
2.3751614 3.6893488e+19 1.8777082
-2 3.1449623 -1.0842022e-19
2.1737845 -2 1.8393511
3.6893488e+19 3.138113 -3.6893488e+19
2.3749957 3.6893488e+19 1.7930624
-3.6893488e+19 3.1448746 0
2.1736906 2 1.7509941
1.0842022e-19 3.1198406 -0
1.9655933 3.6893488e+19 1.6530856
3.6893488e+19 3.1650434 -0
2.2984688 -3.6893488e+19 1.5337718
3.6893488e+19 3.1177247 -2
1.9643599 -0 -1.1916404
0 3.1554246 -2
2.2915516 -0 -1.5830926
2 3.160383 -1.0842022e-19
2.2951174 1.0842022e-19 -1.7695892
-2 3.1141264 -1.0842022e-19
1.9622624 -3.6893488e+19 -1.7935046
0 3.1616488 2
2.2960277 0 -1.8622445
-0 3.1198571 3.6893488e+19
1.965603 0 -1.876868
-3.6893488e+19 3.1634228 -3.6893488e+19
2.2973034 -3.6893488e+19 -1.9154575
0 3.1235077 -0
1.967731 0 -1.9198381
1.0842022e-19 3.1634967 3.6893488e+19
2.2973566 -3.6893488e+19 -1.9618263
0 3.118556 -1.0842022e-19
1.9648445 2 -1.9587675
3.6893488e+19 3.0416031 -2
2.1693993 -0 -1.9320827
-2 3.0407023 3.6893488e+19
1.9194609 -1.0842022e-19 -1.9471593
-0 3.0315676 -3.6893488e+19
2.1549656 -1.0842022e-19 -1.9574019
-2 2.8661654 -1.0842022e-19
1.9464431 3.6893488e+19 -1.9051367
0 2.8065948 2
2.0462327 2 -1.8891847
-2 2.7729599 -1.0842022e-19
1.8964396 -2 -1.8809543
1.0842022e-19 2.7395792 2
1.9865164 -0 -1.8748569
1.0842022e-19 2.6857967 -0
1.8587993 3.6893488e+19 -1.85853
3.6893488e+19 2.6435359 2
1.9401177 1.0842022e-19 -1.8480444
2 2.608218 -0
1.8171793 3.6893488e+19 -1.8370813
1.0842022e-19 2.5839436 -0
1.9113286 3.6893488e+19 -1.8331324
0 2.5622773 -3.6893488e+19
1.7925327 1.0842022e-19 -1.8274395
1.0842022e-19 2.5451739 3.6893488e+19
1.8925989 -3.6893488e+19 -1.8256568
0 2.5268092 0
1.7735046 -0 -1.8200303
3.6893488e+19 2.5101426 -0
1.8756752 -2 -1.8165704
2 2.4968963 3.6893488e+19
1.7582892 -2 -1.8140495
-0 2.4764686 1.0842022e-19
1.8551826 -3.6893488e+19 -1.8139415
0 2.4563546 -1.0842022e-19
1.7448283 -2 -1.8115035
-1.0842022e-19 3.2723029 3.6893488e+19
2.044594 3.6893488e+19 2.6955976
-3.6893488e+19 3.3409965 -2
2.4760215 0 2.7749364
-1.0842022e-19 3.2741091 -1.0842022e-19
2.0465481 2 2.6826427
-1.0842022e-19 3.3400903 2
2.4747565 0 2.7643154
0 3.3311453 3.6893488e+19
2.4622693 0 2.7455218
3.6893488e+19 3.3290086 2
2.4592867 1.0842022e-19 2.7232895
2 3.2956581 1.0842022e-19
2.5293753 1.0842022e-19 2.6680877
1.0842022e-19 3.2948499 -1.0842022e-19
2.5286114 3.6893488e+19 2.6498957
-0 3.336828 -0
2.3472157 1.0842022e-19 2.6949444
-2 3.294729 1.0842022e-19
2.5284975 -1.0842022e-19 2.6327331
2 3.2988391 -0
2.3080552 1.0842022e-19 2.6276288
-2 3.2923999 1.0842022e-19
2.5262966 3.6893488e+19 2.6128788
0 3.2573593 -2
2.265296 -2 2.5604873
3.6893488e+19 3.2932289 2
2.5270798 -3.6893488e+19 2.5970693
0 3.3405545 1.0842022e-19
2.3510571 -0 2.6414125
-0 3.3386617 -2
2.3491058 2 2.6199431
-0 3.2733915 0
2.2818229 1.0842022e-19 2.5330951
2 3.2744665 2
2.5093508 2 2.527761
2 3.2747145 -3.6893488e+19
2.2831864 -3.6893488e+19 2.5188718
2 3.2684965 0
2.0404761 -0 2.5047934
-2 3.2216802 -1.0842022e-19
2.329226 -0 2.4356649
-1.0842022e-19 3.2076824 -3.6893488e+19
1.9975744 3.6893488e+19 2.4084446
-1.0842022e-19 3.3010378 -3.6893488e+19
2.4202402 -0 2.5109918
2 3.2104189 1.0842022e-19
1.9990548 -1.0842022e-19 2.3848929
3.6893488e+19 3.2329221 -2
2.3370726 -3.6893488e+19 2.3913486
-3.6893488e+19 3.2166178 1.0842022e-19
2.002408 0 2.363775
-3.6893488e+19 3.232754 0
2.3369555 0 2.363934
1.0842022e-19 3.2270639 0
2.0080585 -3.6893488e+19 2.3450606
3.6893488e+19 3.2924247 -3.6893488e+19
2.4082165 -3.6893488e+19 2.4078896
-3.6893488e+19 3.2155876 -2
2.0018506 3.6893488e+19 2.3105865
-2 3.2992201 2
2.4177029 0 2.3836379
-0 3.1521001 -0
1.9675083 0 2.2413044
-1.0842022e-19 3.2882171 0
2.402343 0 2.3370702
1.0842022e-19 3.213809 0
2.0008886 1.0842022e-19 2.2573359
0 3.2896147 2
2.4042938 -1.0842022e-19 2.3061197
-2 3.2663004 0
2.5016346 -0 2.2673466
3.6893488e+19 3.2267485 2
2.2414513 2 2.1995647
3.6893488e+19 3.2667816 -0
2.502089 -1.0842022e-19 2.2255316
-2 3.2250948 -2
2.2397466 2 2.1447368
3.6893488e+19 3.266289 2
2.5016236 -3.6893488e+19 2.1646714
-1.0842022e-19 3.2708218 3.6893488e+19
2.5059068 -1.0842022e-19 2.1107681
3.6893488e+19 3.227885 2
2.2426229 1.0842022e-19 2.0400133
3.6893488e+19 3.1458876 -2
2.3740847 -0 1.9691628
3.6893488e+19 3.2324257 -1.0842022e-19
2.2473035 -2 1.9887902
-2 3.2680509 -1.0842022e-19
2.5032885 -3.6893488e+19 1.9865106
1.0842022e-19 3.2334843 3.6893488e+19
2.2483947 -3.6893488e+19 1.9352297
-2 3.1405468 -2
2.3690381 -0 1.8784121
0 3.1416318 0
2.1537097 3.6893488e+19 1.8375069
0 3.1391966 0
2.3677623 -1.0842022e-19 1.7934788
3.6893488e+19 3.1435707 2
2.1557083 3.6893488e+19 1.7505563
1.0842022e-19 3.1192501 -3.6893488e+19
1.9497386 -2 1.652827
-0 3.1543059 0
2.2821999 2 1.5296284
2 3.141495 -3.6893488e+19
1.9617716 -0 -1.2040095
-2 3.1498837 0
2.2791133 -1.0842022e-19 -1.580201
-3.6893488e+19 3.15061 1.0842022e-19
2.2796202 1.0842022e-19 -1.7661132
2 3.1144724 -1.0842022e-19
1.9471543 0 -1.7936492
-2 3.1614017 -2
2.2871525 1.0842022e-19 -1.8620472
2 3.196049 1.0842022e-19
1.9912816 0 -1.9029891
-1.0842022e-19 3.1591618 0
2.2855892 3.6893488e+19 -1.9137142
-3.6893488e+19 3.1467381 -2
1.9646078 0 -1.9303846
2 3.1635616 3.6893488e+19
2.28866 1.0842022e-19 -1.9618105
0 3.1537042 -1.0842022e-19
1.9683759 2 -1.9786561
3.6893488e+19 3.0423863 0
2.1581631 3.6893488e+19 -1.9325293
-0 3.0411348 2
1.9074838 3.6893488e+19 -1.9474344
-3.6893488e+19 3.0318506 -2
2.1434555 -0 -1.9575622
1.0842022e-19 3.0311387 -3.6893488e+19
2.2656553 -0 -1.9735162
-0 2.8552043 -1.0842022e-19
1.9330794 1.0842022e-19 -1.9004668
3.6893488e+19 2.8037782 -0
2.0370481 1.0842022e-19 -1.8878629
-0 2.7736297 -3.6893488e+19
1.8910341 -3.6893488e+19 -1.8812529
2 2.7424581 3.6893488e+19
1.9826684 -1.0842022e-19 -1.8756237
3.6893488e+19 2.6857474 -2
1.8495928 0 -1.8584634
-0 2.6398203 2
1.9341758 -3.6893488e+19 -1.8458693
0 2.6085286 1.0842022e-19
1.8097928 -3.6893488e+19 -1.8372285
2 2.5844195 3.6893488e+19
1.9080009 0 -1.8333638
2 2.5622067 -1.0842022e-19
1.7859175 1.0842022e-19 -1.827359
-2 2.5439055 3.6893488e+19
1.8888596 1.0842022e-19 -1.8247322
-3.6893488e+19 2.5272295 -3.6893488e+19
1.7678896 3.6893488e+19 -1.8202929
2 2.5104713 -3.6893488e+19
1.8711263 -2 -1.8167524
-0 2.4962368 -1.0842022e-19
1.7528851 1.0842022e-19 -1.8137661
1.0842022e-19 2.4771121 1.0842022e-19
1.850418 1.0842022e-19 -1.8141375
0 2.4556887 -2
1.7348709 -0 -1.8111993
-1.0842022e-19 2.410424 -1.0842022e-19
1.597011 -3.6893488e+19 -1.809827
3.6893488e+19 2.3574383 -0
1.5683494 -0 -1.8061967
3.6893488e+19 2.308279 -1.0842022e-19
1.5417576 2 -1.7987865
-3.6893488e+19 2.2757928 0
1.5241849 -2 -1.7961997
0 2.2518852 0
1.738013 -2 -1.7968733
1.0842022e-19 2.2036946 3.6893488e+19
1.714354 -1.0842022e-19 -1.7929252
0 2.167906 2
1.6974453 1.0842022e-19 -1.7918413
1.0842022e-19 2.1259136 2
1.6776054 -2 -1.7860774
-1.0842022e-19 3.2723029 3.6893488e+19
2.044594 3.6893488e+19 2.6955976
-3.6893488e+19 3.3409965 -2
2.4760215 0 2.7749364
-1.0842022e-19 3.2741091 -1.0842022e-19
2.0465481 2 2.6826427
-2 3.2367995 3.6893488e+19
2.3397791 -0 2.6283364
-0 3.2887573 0
2.4030972 0 2.6820931
3.6893488e+19 3.2897537 -1.0842022e-19
2.4044878 2 2.66682
2 3.2956581 1.0842022e-19
2.5293753 1.0842022e-19 2.6680877
-2 3.2780025 -2
2.512692 0 2.6270463
-0 3.2242639 1.0842022e-19
2.2388902 3.6893488e+19 2.5632474
-2 3.294729 1.0842022e-19
2.5284975 -1.0842022e-19 2.6327331
2 3.2988391 -0
2.3080552 1.0842022e-19 2.6276288
-2 3.2923999 1.0842022e-19
2.5262966 3.6893488e+19 2.6128788
0 3.2573593 -2
2.265296 -2 2.5604873
3.6893488e+19 3.2932289 2
2.5270798 -3.6893488e+19 2.5970693
-0 3.2995749 -3.6893488e+19
2.3088136 3.6893488e+19 2.5943131
-0 3.3386617 -2
2.3491058 2 2.6199431
-0 3.2733915 0
2.2818229 1.0842022e-19 2.5330951
2 3.2744665 2
2.5093508 2 2.527761
2 3.2747145 -3.6893488e+19
2.2831864 -3.6893488e+19 2.5188718
1.0842022e-19 3.2088354 1.0842022e-19
1.9981982 3.6893488e+19 2.4354181
-2 3.2216802 -1.0842022e-19
2.329226 -0 2.4356649
-1.0842022e-19 3.2076824 -3.6893488e+19
1.9975744 3.6893488e+19 2.4084446
-2 3.2284539 1.0842022e-19
2.3339541 -2 2.4148068
2 3.2104189 1.0842022e-19
1.9990548 -1.0842022e-19 2.3848929
3.6893488e+19 3.2329221 -2
2.3370726 -3.6893488e+19 2.3913486
-3.6893488e+19 3.152365 -3.6893488e+19
1.9676516 1.0842022e-19 2.3136835
-3.6893488e+19 3.232754 0
2.3369555 0 2.363934
-1.0842022e-19 3.1511354 3.6893488e+19
1.9669865 -2 2.2901416
2 3.2335856 2
2.3375359 -1.0842022e-19 2.3372655
-3.6893488e+19 3.151067 1.0842022e-19
1.9669496 -1.0842022e-19 2.2675457
-2 3.2992201 2
2.4177029 0 2.3836379
-0 3.1521001 -0
1.9675083 0 2.2413044
-1.0842022e-19 3.2882171 0
2.402343 0 2.3370702
0 3.1471634 -3.6893488e+19
1.9648378 -2 2.1907175
-1.0842022e-19 3.1501732 2
2.2793152 -0 2.1729791
-2 3.2663004 0
2.5016346 -0 2.2673466
-2 3.1834755 3.6893488e+19
2.1968439 -2 2.1587591
0 3.1427898 0
2.3711576 2 2.100069
0 3.1853869 -2
2.1988139 -1.0842022e-19 2.1117449
-0 3.1416607 2
2.3700907 2 2.0549517
1.0842022e-19 3.1422794 0
2.3706753 3.6893488e+19 2.0112822
3.6893488e+19 3.227885 2
2.2426229 1.0842022e-19 2.0400133
3.6893488e+19 3.1458876 -2
2.3740847 -0 1.9691628
-2 3.1406908 1.0842022e-19
2.1527398 -1.0842022e-19 1.9433835
-3.6893488e+19 3.1441114 -0
2.3724065 0 1.9238691
-0 3.1419814 -2
2.1540699 3.6893488e+19 1.9001737
-2 3.1405468 -2
2.3690381 -0 1.8784121
0 3.1416318 0
2.1537097 3.6893488e+19 1.8375069
0 3.1391966 0
2.3677623 -1.0842022e-19 1.7934788
3.6893488e+19 3.1435707 2
2.1557083 3.6893488e+19 1.7505563
1.0842022e-19 3.1192501 -3.6893488e+19
1.9497386 -2 1.652827
-0 3.1543059 0
2.2821999 2 1.5296284
1.0842022e-19 3.1206944 -3.6893488e+19
1.9505199 -3.6893488e+19 -1.1931702
-2 3.1498837 0
2.2791133 -1.0842022e-19 -1.580201
-3.6893488e+19 3.15061 1.0842022e-19
2.2796202 1.0842022e-19 -1.7661132
2 3.1144724 -1.0842022e-19
1.9471543 0 -1.7936492
-2 3.1614017 -2
2.2871525 1.0842022e-19 -1.8620472
1.0842022e-19 3.1173308 -3.6893488e+19
1.9487004 1.0842022e-19 -1.8759898
-1.0842022e-19 3.1591618 0
2.2855892 3.6893488e+19 -1.9137142
-0 3.1240416 -0
1.9523306 2 -1.9200652
2 3.1635616 3.6893488e+19
2.28866 1.0842022e-19 -1.9618105
2 3.1244578 1.0842022e-19
1.9525558 -1.0842022e-19 -1.9620911
3.6893488e+19 3.0423863 0
2.1581631 3.6893488e+19 -1.9325293
-0 3.0411348 2
1.9074838 3.6893488e+19 -1.9474344
-3.6893488e+19 3.0318506 -2
2.1434555 -0 -1.9575622
1.0842022e-19 3.0311387 -3.6893488e+19
2.2656553 -0 -1.9735162
-0 2.8552043 -1.0842022e-19
1.9330794 1.0842022e-19 -1.9004668
3.6893488e+19 2.8037782 -0
2.0370481 1.0842022e-19 -1.8878629
-0 2.7736297 -3.6893488e+19
1.8910341 -3.6893488e+19 -1.8812529
2 2.7424581 3.6893488e+19
1.9826684 -1.0842022e-19 -1.8756237
3.6893488e+19 2.6857474 -2
1.8495928 0 -1.8584634
-0 2.6398203 2
1.9341758 -3.6893488e+19 -1.8458693
0 2.6085286 1.0842022e-19
1.8097928 -3.6893488e+19 -1.8372285
2 2.5844195 3.6893488e+19
1.9080009 0 -1.8333638
2 2.5622067 -1.0842022e-19
1.7859175 1.0842022e-19 -1.827359
-2 2.5439055 3.6893488e+19
1.8888596 1.0842022e-19 -1.8247322
-3.6893488e+19 2.5272295 -3.6893488e+19
1.7678896 3.6893488e+19 -1.8202929
2 2.5104713 -3.6893488e+19
1.8711263 -2 -1.8167524
-0 2.4962368 -1.0842022e-19
1.7528851 1.0842022e-19 -1.8137661
1.0842022e-19 2.4771121 1.0842022e-19
1.850418 1.0842022e-19 -1.8141375
0 2.4556887 -2
1.7348709 -0 -1.8111993
-1.0842022e-19 2.410424 -1.0842022e-19
1.597011 -3.6893488e+19 -1.809827
3.6893488e+19 2.3574383 -0
1.5683494 -0 -1.8061967
3.6893488e+19 2.308279 -1.0842022e-19
1.5417576 2 -1.7987865
-3.6893488e+19 2.2757928 0
1.5241849 -2 -1.7961997
0 2.2518852 0
1.738013 -2 -1.7968733
1.0842022e-19 2.2036946 3.6893488e+19
1.714354 -1.0842022e-19 -1.7929252
0 2.167906 2
1.6974453 1.0842022e-19 -1.7918413
1.0842022e-19 2.1259136 2
1.6776054 -2 -1.7860774
2 3.2755525 1.0842022e-19
2.0249646 2 2.7169187
-2 3.2722189 -0
2.0216382 2 2.6954224
-0 3.2301955 -3.6893488e+19
2.3250222 -2 2.6370814
-3.6893488e+19 3.2335157 0
2.3272698 2 2.6256998
-1.0842022e-19 3.25247 1.0842022e-19
2.0019314 2 2.6338384
-1.0842022e-19 3.3299646 3.6893488e+19
2.446676 3.6893488e+19 2.743644
0 3.329236 -1.0842022e-19
2.4456894 -1.0842022e-19 2.7235098
-1.0842022e-19 3.2957945 1.0842022e-19
2.5232148 1.0842022e-19 2.6681526
-3.6893488e+19 3.2947869 0
2.5222843 -3.6893488e+19 2.649688
3.6893488e+19 3.3373146 3.6893488e+19
2.3335094 0 2.6955135
0 3.2948041 -2
2.5222998 2 2.6327133
0 3.2923822 1.0842022e-19
2.5200629 -0 2.6127455
-3.6893488e+19 3.2572012 -0
2.2542999 -1.0842022e-19 2.5602455
2 3.2920594 -2
2.5197647 2 2.5955794
-0 3.3401785 0
2.3363411 1.0842022e-19 2.6409159
3.6893488e+19 3.2930586 -3.6893488e+19
2.5206876 -1.0842022e-19 2.5799696
2 3.3395522 -0
2.3357217 -2 2.6208544
1.0842022e-19 3.2203488 -0
2.4344442 2 2.5013485
3.6893488e+19 3.2741327 -3.6893488e+19
2.2710402 -0 2.5338156
-0 3.2740014 1.0842022e-19
2.2709105 -0 2.5181296
1.0842022e-19 3.2685349 -2
2.0179617 2 2.5048082
-1.0842022e-19 3.2247562 2
2.3213408 -3.6893488e+19 2.4384072
-1.0842022e-19 3.2090251 -0
1.9790229 1.0842022e-19 2.4096081
-2 3.2963998 1.0842022e-19
2.4012392 -0 2.5069129
-1.0842022e-19 3.2101164 -1.0842022e-19
1.9795673 -0 2.3846073
1.0842022e-19 3.2323494 3.6893488e+19
2.3264802 -2 2.3907964
2 3.2128961 3.6893488e+19
1.9809542 0 2.3608427
2 3.2329559 3.6893488e+19
2.3268907 0 2.3640041
-2 3.1540937 2
1.9516158 1.0842022e-19 2.2922566
3.6893488e+19 3.2923665 0
2.3957791 1.0842022e-19 2.4077168
1.0842022e-19 3.2185845 3.6893488e+19
1.9837923 3.6893488e+19 2.3125589
-1.0842022e-19 3.2937779 2
2.3976898 2 2.3765755
-1.0842022e-19 3.216634 3.6893488e+19
1.9828192 -2 2.285053
-1.0842022e-19 3.2885771 3.6893488e+19
2.3906493 0 2.3374152
3.6893488e+19 3.2116673 -0
1.9803411 -1.0842022e-19 2.2561257
-3.6893488e+19 3.2898972 2
2.3924365 -1.0842022e-19 2.3063495
1.0842022e-19 3.2661653 -1.0842022e-19
2.4916945 -1.0842022e-19 2.2671289
3.6893488e+19 3.2264225 -0
2.2210481 -0 2.199183
2 3.2675762 2
2.4943011 -3.6893488e+19 2.2268019
-2 3.2242701 -2
2.21892 -2 2.1439862
-1.0842022e-19 3.2664325 2
2.4921885 -2 2.164768
-3.6893488e+19 3.2270472 -0
2.2216659 0 2.0928638
-2 3.2709823 -0
2.5002966 -3.6893488e+19 2.1108713
0 3.2261252 2
2.2207541 1.0842022e-19 2.0388975
-3.6893488e+19 3.2701385 -0
2.4990346 -2 2.049005
-1.0842022e-19 3.226208 -3.6893488e+19
2.2208359 -2 1.9856735
-0 3.2668297 -2
2.4929221 0 1.9853611
0 3.1427011 3.6893488e+19
2.1382711 -0 1.9004245
-3.6893488e+19 3.1409147 1.0842022e-19
2.361074 0 1.8784938
0 3.1420164 -1.0842022e-19
2.3620913 2 1.7946476
2 3.1455696 0
2.1411073 3.6893488e+19 1.7511731
3.6893488e+19 3.1208119 -1.0842022e-19
1.9350103 0 1.6534605
-2 3.1526532 -2
2.2725375 1.0842022e-19 1.5289617
-0 3.1430275 -3.6893488e+19
1.9460944 -1.0842022e-19 -1.2047907
3.6893488e+19 3.1501608 -1.0842022e-19
2.2708504 -2 -1.5802969
-2 3.109565 -1.0842022e-19
1.9293989 1.0842022e-19 -1.6721951
0 3.1524441 -1.0842022e-19
2.2723958 2 -1.7667272
0 3.1112554 -3.6893488e+19
1.9302422 3.6893488e+19 -1.7921463
-3.6893488e+19 3.1586301 -3.6893488e+19
2.276583 -2 -1.8603971
3.6893488e+19 3.1171746 2
1.9331956 0 -1.8759255
1.0842022e-19 3.1579778 -0
2.2761414 -1.0842022e-19 -1.9132036
-2 3.1418388 -3.6893488e+19
1.9455013 -0 -1.9281418
1.0842022e-19 3.1599512 -2
2.277477 -2 -1.959914
1.0842022e-19 3.1503985 -0
1.949772 1.0842022e-19 -1.9767644
-3.6893488e+19 3.1612501 -3.6893488e+19
2.2783563 1.0842022e-19 -2.0066752
3.6893488e+19 3.0412221 0
1.8953004 3.6893488e+19 -1.9474767
-0 3.0326607 0
2.1326404 3.6893488e+19 -1.9581119
1.0842022e-19 3.0311007 2
2.2596426 -0 -1.9734176
2 2.8563845 0
1.9261822 0 -1.9009417
-2 2.8113718 -2
2.0376029 3.6893488e+19 -1.8912659
-2 2.7730522 2
1.884986 -2 -1.8809543
2 2.7423611 -3.6893488e+19
1.977388 -0 -1.8755605
1.0842022e-19 2.6842012 0
1.8396516 -3.6893488e+19 -1.8575964
-1.0842022e-19 2.6398158 -2
1.9300294 1.0842022e-19 -1.8457992
-1.0842022e-19 2.6058505 -1.0842022e-19
1.8009181 -2 -1.8356085
-1.0842022e-19 2.5848932 -1.0842022e-19
1.9046644 -1.0842022e-19 -1.833595
3.6893488e+19 2.5627558 3.6893488e+19
1.7796139 2 -1.8276813
-1.0842022e-19 2.5425107 -0
1.8850908 1.0842022e-19 -1.8237234
2 2.5272756 0
1.7620739 3.6893488e+19 -1.8202929
1.0842022e-19 2.5104275 -3.6893488e+19
1.8655474 3.6893488e+19 -1.8166615
1.0842022e-19 2.4960706 -1.0842022e-19
1.7452372 -1.0842022e-19 -1.8136716
-1.0842022e-19 2.4775052 -1.0842022e-19
1.8455272 -1.0842022e-19 -1.8142353
-0 2.4572535 -1.0842022e-19
1.7260476 0 -1.8118079
2 3.2755525 1.0842022e-19
2.0249646 2 2.7169187
-2 3.2722189 -0
2.0216382 2 2.6954224
-0 3.2301955 -3.6893488e+19
2.3250222 -2 2.6370814
-3.6893488e+19 3.2335157 0
2.3272698 2 2.6256998
-1.0842022e-19 3.25247 1.0842022e-19
2.0019314 2 2.6338384
-1.0842022e-19 3.3299646 3.6893488e+19
2.446676 3.6893488e+19 2.743644
0 3.329236 -1.0842022e-19
2.4456894 -1.0842022e-19 2.7235098
-1.0842022e-19 3.2812555 1.0842022e-19
2.5097857 -2 2.6475992
1.0842022e-19 3.2777357 -2
2.5065343 -3.6893488e+19 2.6265688
-3.6893488e+19 3.2255118 1.0842022e-19
2.2201478 -1.0842022e-19 2.5640197
0 3.2948041 -2
2.5222998 2 2.6327133
0 3.2923822 1.0842022e-19
2.5200629 -0 2.6127455
-3.6893488e+19 3.2572012 -0
2.2542999 -1.0842022e-19 2.5602455
2 3.2920594 -2
2.5197647 2 2.5955794
-2 3.2996089 -2
2.2962291 0 2.5942955
3.6893488e+19 3.2930586 -3.6893488e+19
2.5206876 -1.0842022e-19 2.5799696
2 3.3395522 -0
2.3357217 -2 2.6208544
1.0842022e-19 3.2203488 -0
2.4344442 2 2.5013485
3.6893488e+19 3.2741327 -3.6893488e+19
2.2710402 -0 2.5338156
-0 3.2740014 1.0842022e-19
2.2709105 -0 2.5181296
-0 3.2089984 -0
1.9790095 1.0842022e-19 2.4355359
-1.0842022e-19 3.2247562 2
2.3213408 -3.6893488e+19 2.4384072
-1.0842022e-19 3.2090251 -0
1.9790229 1.0842022e-19 2.4096081
-2 3.2963998 1.0842022e-19
2.4012392 -0 2.5069129
-1.0842022e-19 3.2101164 -1.0842022e-19
1.9795673 -0 2.3846073
1.0842022e-19 3.2323494 3.6893488e+19
2.3264802 -2 2.3907964
-2 3.1542957 3.6893488e+19
1.9517165 -0 2.3151617
2 3.2329559 3.6893488e+19
2.3268907 0 2.3640041
-2 3.1540937 2
1.9516158 1.0842022e-19 2.2922566
3.6893488e+19 3.2923665 0
2.3957791 1.0842022e-19 2.4077168
-1.0842022e-19 3.1531868 1.0842022e-19
1.9511633 2 2.2689369
-0 3.2870889 3.6893488e+19
2.3886347 -2 2.368001
-3.6893488e+19 3.1518228 -1.0842022e-19
1.9504827 1.0842022e-19 2.2409239
-1.0842022e-19 3.2885771 3.6893488e+19
2.3906493 0 2.3374152
-1.0842022e-19 3.1419311 -3.6893488e+19
1.9455473 2 2.1848745
-3.6893488e+19 3.2898972 2
2.3924365 -1.0842022e-19 2.3063495
1.0842022e-19 3.1784732 1.0842022e-19
2.3957653 -1.0842022e-19 2.1800246
3.6893488e+19 3.2264225 -0
2.2210481 -0 2.199183
2 3.2675762 2
2.4943011 -3.6893488e+19 2.2268019
-2 3.2242701 -2
2.21892 -2 2.1439862
-2 3.1412225 -0
2.3613582 1.0842022e-19 2.0545173
-3.6893488e+19 3.2270472 -0
2.2216659 0 2.0928638
-0 3.1428337 3.6893488e+19
2.3628464 1.0842022e-19 2.0115714
-2 3.1840792 3.6893488e+19
2.1791825 -1.0842022e-19 2.0133853
-1.0842022e-19 3.1444886 -1.0842022e-19
2.3643749 -1.0842022e-19 1.9683214
-1.0842022e-19 3.226208 -3.6893488e+19
2.2208359 -2 1.9856735
-2 3.1451321 -2
2.3649693 -0 1.924266
0 3.1427011 3.6893488e+19
2.1382711 -0 1.9004245
-3.6893488e+19 3.1409147 1.0842022e-19
2.361074 0 1.8784938
0 3.1420164 -1.0842022e-19
2.3620913 2 1.7946476
2 3.1455696 0
2.1411073 3.6893488e+19 1.7511731
3.6893488e+19 3.1208119 -1.0842022e-19
1.9350103 0 1.6534605
-2 3.1526532 -2
2.2725375 1.0842022e-19 1.5289617
1.0842022e-19 3.1224751 -0
1.9358401 3.6893488e+19 -1.1940817
3.6893488e+19 3.1501608 -1.0842022e-19
2.2708504 -2 -1.5802969
-2 3.109565 -1.0842022e-19
1.9293989 1.0842022e-19 -1.6721951
0 3.1524441 -1.0842022e-19
2.2723958 2 -1.7667272
0 3.1112554 -3.6893488e+19
1.9302422 3.6893488e+19 -1.7921463
-3.6893488e+19 3.1586301 -3.6893488e+19
2.276583 -2 -1.8603971
3.6893488e+19 3.1171746 2
1.9331956 0 -1.8759255
1.0842022e-19 3.1579778 -0
2.2761414 -1.0842022e-19 -1.9132036
1.0842022e-19 3.122731 2
1.9359678 1.0842022e-19 -1.9194548
1.0842022e-19 3.1599512 -2
2.277477 -2 -1.959914
-3.6893488e+19 3.1254573 -1.0842022e-19
1.9373281 -3.6893488e+19 -1.9626391
-3.6893488e+19 3.0432611 -2
2.1469901 -3.6893488e+19 -1.9330342
3.6893488e+19 3.0412221 0
1.8953004 3.6893488e+19 -1.9474767
-0 3.0326607 0
2.1326404 3.6893488e+19 -1.9581119
1.0842022e-19 3.0311007 2
2.2596426 -0 -1.9734176
2 2.8563845 0
1.9261822 0 -1.9009417
-2 2.8113718 -2
2.0376029 3.6893488e+19 -1.8912659
-2 2.7730522 2
1.884986 -2 -1.8809543
2 2.7423611 -3.6893488e+19
1.977388 -0 -1.8755605
1.0842022e-19 2.6842012 0
1.8396516 -3.6893488e+19 -1.8575964
-1.0842022e-19 2.6398158 -2
1.9300294 1.0842022e-19 -1.8457992
-1.0842022e-19 2.6058505 -1.0842022e-19
1.8009181 -2 -1.8356085
-1.0842022e-19 2.5848932 -1.0842022e-19
1.9046644 -1.0842022e-19 -1.833595
3.6893488e+19 2.5627558 3.6893488e+19
1.7796139 2 -1.8276813
-1.0842022e-19 2.5425107 -0
1.8850908 1.0842022e-19 -1.8237234
2 2.5272756 0
1.7620739 3.6893488e+19 -1.8202929
1.0842022e-19 2.5104275 -3.6893488e+19
1.8655474 3.6893488e+19 -1.8166615
1.0842022e-19 2.4960706 -1.0842022e-19
1.7452372 -1.0842022e-19 -1.8136716
-1.0842022e-19 2.4775052 -1.0842022e-19
1.8455272 -1.0842022e-19 -1.8142353
-0 2.4572535 -1.0842022e-19
1.7260476 0 -1.8118079
2 3.2746572 -3.6893488e+19
2.0010169 -2 2.7153652
3.6893488e+19 3.2730973 2
1.9995914 -2 2.6968243
-1.0842022e-19 3.3056192 2
2.4008155 3.6893488e+19 2.7426066
-2 3.2331626 0
2.3168306 -1.0842022e-19 2.6253433
0 3.2533185 3.6893488e+19
1.9815149 -1.0842022e-19 2.635098
3.6893488e+19 3.3287048 -0
2.4310918 -1.0842022e-19 2.7416518
1.0842022e-19 3.329078 -1.0842022e-19
2.431581 -2 2.7231791
-3.6893488e+19 3.2946136 -0
2.5158668 3.6893488e+19 2.6663587
-1.0842022e-19 3.2294564 0
2.2038701 3.6893488e+19 2.5803483
3.6893488e+19 3.2949059 -0
2.5161304 0 2.6497297
0 3.3377991 -3.6893488e+19
2.319772 -2 2.6960824
3.6893488e+19 3.2948616 -1.0842022e-19
2.5160904 2 2.6326735
-3.6893488e+19 3.2924695 0
2.513932 -0 2.6127455
-1.0842022e-19 3.2923925 2
2.5138624 -1.0842022e-19 2.59587
-0 3.3013549 -1.0842022e-19
2.2852728 -2 2.5962467
0 3.2930849 -0
2.514487 2 2.5799005
3.6893488e+19 3.222121 -1.0842022e-19
2.4260538 0 2.5022202
-0 3.2736657 -0
2.2590613 1.0842022e-19 2.5332873
0 3.2739365 3.6893488e+19
2.2593176 -2 2.5180235
-3.6893488e+19 3.2092204 1.0842022e-19
1.9598473 -3.6893488e+19 2.4357123
-0 3.300396 0
2.3939652 2 2.5273361
2 3.2094958 1.0842022e-19
1.9599731 -1.0842022e-19 2.4099958
3.6893488e+19 3.296155 1.0842022e-19
2.3884032 0 2.5066447
-1.0842022e-19 3.2098417 -0
1.9601312 3.6893488e+19 2.3843477
-3.6893488e+19 3.2943408 -2
2.386024 0 2.4768426
1.0842022e-19 3.1416116 0
1.9289525 -3.6893488e+19 2.3052499
-3.6893488e+19 3.2947733 -1.0842022e-19
2.3865912 0 2.4442449
-0 3.2171242 3.6893488e+19
1.963459 0 2.3378162
-3.6893488e+19 3.2932215 3.6893488e+19
2.3845561 2 2.4088199
-3.6893488e+19 3.2171891 3.6893488e+19
1.9634887 -0 2.3116038
3.6893488e+19 3.293097 1.0842022e-19
2.3843927 0 2.3756206
-0 3.2164526 -3.6893488e+19
1.9631521 2 2.28492
1.0842022e-19 3.2906127 0
2.3811345 2 2.339721
-1.0842022e-19 3.2119527 -0
1.9610958 -2 2.256264
-3.6893488e+19 3.2921205 -3.6893488e+19
2.383112 1.0842022e-19 2.3086317
1.0842022e-19 3.2656715 3.6893488e+19
2.4794972 -1.0842022e-19 2.2665536
-3.6893488e+19 3.2235084 -1.0842022e-19
2.1982393 1.0842022e-19 2.1963649
-0 3.2745395 3.6893488e+19
2.4955027 -1.0842022e-19 2.2390637
-0 3.2251241 -1.0842022e-19
2.1997688 0 2.1446333
-1.0842022e-19 3.2739873 -0
2.4945061 3.6893488e+19 2.1764014
2 3.2267802 -2
2.2013364 -3.6893488e+19 2.0926173
2 3.2720873 0
2.4910769 1.0842022e-19 2.1122346
-2 3.2266681 2
2.2012305 -3.6893488e+19 2.039181
1.0842022e-19 3.2697539 -3.6893488e+19
2.4868653 1.0842022e-19 2.04849
-2 3.2257533 1.0842022e-19
2.2003646 -0 1.9854113
0 3.2690825 1.0842022e-19
2.4856536 1.0842022e-19 1.9872772
3.6893488e+19 3.2236612 0
2.198384 -1.0842022e-19 1.9314076
-0 3.146589 -3.6893488e+19
2.3578918 -3.6893488e+19 1.8803198
-1.0842022e-19 3.2262862 -1.0842022e-19
2.2008688 3.6893488e+19 1.8791791
-1.0842022e-19 3.2699974 3.6893488e+19
2.4873049 3.6893488e+19 1.8586164
-0 3.1438541 3.6893488e+19
2.1228359 -1.0842022e-19 1.7506061
-0 3.1234024 1.0842022e-19
1.9206315 -0 1.6545204
0 3.1501563 -3.6893488e+19
2.2623994 2 1.5279734
1.0842022e-19 3.1455262 -2
1.9307412 2 -1.2060765
-3.6893488e+19 3.149812 -1.0842022e-19
2.2621739 -1.0842022e-19 -1.5800732
3.6893488e+19 3.1108115 3.6893488e+19
1.9148779 -2 -1.6727784
1.0842022e-19 3.1526566 -3.6893488e+19
2.264039 2 -1.7667711
-1.0842022e-19 3.1105652 -0
1.9147654 3.6893488e+19 -1.791814
-1.0842022e-19 3.1556988 3.6893488e+19
2.2660341 1.0842022e-19 -1.8586575
-3.6893488e+19 3.1204512 -2
1.9192829 3.6893488e+19 -1.8770393
-0 3.1581602 2
2.2676482 -3.6893488e+19 -1.9132409
1.0842022e-19 3.1212614 -1.0842022e-19
1.9196531 -1.0842022e-19 -1.9187734
2 3.1470895 -0
1.9314556 1.0842022e-19 -1.9748728
2 3.1606865 2
2.2693048 -1.0842022e-19 -2.0062673
0 3.0415258 0
1.8832169 0 -1.9476672
2 3.0330336 2
2.1211946 3.6893488e+19 -1.9583409
-3.6893488e+19 3.0308435 1.0842022e-19
2.2534404 -0 -1.9731466
2 2.864229 2
1.9223958 3.6893488e+19 -1.9042397
-3.6893488e+19 2.8079305 -0
2.0278842 -3.6893488e+19 -1.8896627
-3.6893488e+19 2.7718499 1.0842022e-19
1.8786713 3.6893488e+19 -1.880357
-1.0842022e-19 2.743252 -2
1.9725615 1.0842022e-19 -1.8757502
2 2.6851416 -2
1.8309599 -1.0842022e-19 -1.8580632
3.6893488e+19 2.6417911 3.6893488e+19
1.9267811 -1.0842022e-19 -1.8468516
2 2.6056581 -2
1.793339 2 -1.8354613
3.6893488e+19 2.5851173 -0
1.9012091 -0 -1.8336722
3.6893488e+19 2.5628054 -0
1.7730561 2 -1.8276813
0 2.5421033 1.0842022e-19
1.8818007 -0 -1.8233871
-1.0842022e-19 2.5273194 -2
1.75626 3.6893488e+19 -1.8202929
0 2.5103817 -3.6893488e+19
1.8599749 -2 -1.8165704
-3.6893488e+19 2.4963975 3.6893488e+19
1.7349535 1.0842022e-19 -1.8137661
-2 2.478637 1.0842022e-19
1.8409671 3.6893488e+19 -1.8146272
-0 2.4573259 3.6893488e+19
1.7164602 0 -1.8118079
-3.6893488e+19 2.411236 0
1.5629202 -2 -1.8101624
-0 2.3560092 1.0842022e-19
1.5376835 0 -1.8054428
-0 2.3117938 -0
1.5174786 3.6893488e+19 -1.8007392
-3.6893488e+19 2.2770727 -0
1.5016123 2 -1.7969661
0 2.2522826 2
1.7276661 0 -1.7970405
2 2.2054353 2
1.7054981 -0 -1.7934675
-0 2.1652348 -3.6893488e+19
1.6873591 0 -1.7906746
3.6893488e+19 2.1271131 3.6893488e+19
1.6701581 1.0842022e-19 -1.7864937
2 3.2746572 -3.6893488e+19
2.0010169 -2 2.7153652
3.6893488e+19 3.2730973 2
1.9995914 -2 2.6968243
0 3.2329876 2
2.3167157 0 2.6392472
-2 3.2331626 0
2.3168306 -1.0842022e-19 2.6253433
0 3.2533185 3.6893488e+19
1.9815149 -1.0842022e-19 2.635098
3.6893488e+19 3.3287048 -0
2.4310918 -1.0842022e-19 2.7416518
1.0842022e-19 3.329078 -1.0842022e-19
2.431581 -2 2.7231791
1.0842022e-19 3.2787247 -1.0842022e-19
2.501528 0 2.6439037
-1.0842022e-19 3.2294564 0
2.2038701 3.6893488e+19 2.5803483
-0 3.2780178 1.0842022e-19
2.5008903 -0 2.6268387
0 3.2267878 -2
2.2013435 1.0842022e-19 2.5648124
3.6893488e+19 3.2948616 -1.0842022e-19
2.5160904 2 2.6326735
-3.6893488e+19 3.2924695 0
2.513932 -0 2.6127455
-1.0842022e-19 3.2923925 2
2.5138624 -1.0842022e-19 2.59587
-0 3.3013549 -1.0842022e-19
2.2852728 -2 2.5962467
-1.0842022e-19 3.2245328 -2
2.4282303 2 2.5170705
3.6893488e+19 3.222121 -1.0842022e-19
2.4260538 0 2.5022202
-0 3.2736657 -0
2.2590613 1.0842022e-19 2.5332873
0 3.2739365 3.6893488e+19
2.2593176 -2 2.5180235
-3.6893488e+19 3.2092204 1.0842022e-19
1.9598473 -3.6893488e+19 2.4357123
-3.6893488e+19 3.2257571 0
2.3119745 -0 2.4392357
2 3.2094958 1.0842022e-19
1.9599731 -1.0842022e-19 2.4099958
3.6893488e+19 3.296155 1.0842022e-19
2.3884032 0 2.5066447
-1.0842022e-19 3.2098417 -0
1.9601312 3.6893488e+19 2.3843477
-3.6893488e+19 3.2943408 -2
2.386024 0 2.4768426
1.0842022e-19 3.1416116 0
1.9289525 -3.6893488e+19 2.3052499
-3.6893488e+19 3.2947733 -1.0842022e-19
2.3865912 0 2.4442449
-2 3.1426456 2
1.929425 0 2.2839546
-0 3.2729132 -3.6893488e+19
2.3579218 2 2.3805053
-3.6893488e+19 3.2171891 3.6893488e+19
1.9634887 -0 2.3116038
3.6893488e+19 3.293097 1.0842022e-19
2.3843927 0 2.3756206
-1.0842022e-19 3.1436939 -1.0842022e-19
1.929904 3.6893488e+19 2.2309546
1.0842022e-19 3.2906127 0
2.3811345 2 2.339721
-3.6893488e+19 3.1449533 3.6893488e+19
1.9304795 -1.0842022e-19 2.1881936
-3.6893488e+19 3.2921205 -3.6893488e+19
2.383112 1.0842022e-19 2.3086317
2 3.1764939 -2
2.3848786 -2 2.1779101
-3.6893488e+19 3.2235084 -1.0842022e-19
2.1982393 1.0842022e-19 2.1963649
3.6893488e+19 3.1770408 0
2.3853724 -2 2.1303644
-0 3.2251241 -1.0842022e-19
2.1997688 0 2.1446333
-1.0842022e-19 3.2739873 -0
2.4945061 3.6893488e+19 2.1764014
-1.0842022e-19 3.1420448 -0
2.1211231 0 2.0317261
-1.0842022e-19 3.1423306 -2
2.354049 -1.0842022e-19 2.0111582
-2 3.1417837 0
2.1208761 -3.6893488e+19 1.9876841
3.6893488e+19 3.1434584 0
2.3550668 3.6893488e+19 1.9676862
-2 3.2257533 1.0842022e-19
2.2003646 -0 1.9854113
-2 3.1449709 3.6893488e+19
2.3564317 2 1.9241428
3.6893488e+19 3.1430128 -1.0842022e-19
2.1220393 0 1.9005201
-0 3.146589 -3.6893488e+19
2.3578918 -3.6893488e+19 1.8803198
0 3.1421642 2
2.1212361 -0 1.8377268
-2 3.1478157 0
2.358999 -1.0842022e-19 1.7971058
-0 3.1438541 3.6893488e+19
2.1228359 -1.0842022e-19 1.7506061
-0 3.1234024 1.0842022e-19
1.9206315 -0 1.6545204
0 3.1501563 -3.6893488e+19
2.2623994 2 1.5279734
1.0842022e-19 3.1455262 -2
1.9307412 2 -1.2060765
-3.6893488e+19 3.149812 -1.0842022e-19
2.2621739 -1.0842022e-19 -1.5800732
3.6893488e+19 3.1108115 3.6893488e+19
1.9148779 -2 -1.6727784
1.0842022e-19 3.1526566 -3.6893488e+19
2.264039 2 -1.7667711
-1.0842022e-19 3.1105652 -0
1.9147654 3.6893488e+19 -1.791814
-1.0842022e-19 3.1556988 3.6893488e+19
2.2660341 1.0842022e-19 -1.8586575
-3.6893488e+19 3.1204512 -2
1.9192829 3.6893488e+19 -1.8770393
-0 3.1581602 2
2.2676482 -3.6893488e+19 -1.9132409
1.0842022e-19 3.1212614 -1.0842022e-19
1.9196531 -1.0842022e-19 -1.9187734
-2 3.1252682 -1.0842022e-19
1.9214841 -2 -1.9625154
3.6893488e+19 3.043263 -3.6893488e+19
2.1346102 1.0842022e-19 -1.9329954
0 3.0415258 0
1.8832169 0 -1.9476672
2 3.0330336 2
2.1211946 3.6893488e+19 -1.9583409
-3.6893488e+19 3.0308435 1.0842022e-19
2.2534404 -0 -1.9731466
2 2.864229 2
1.9223958 3.6893488e+19 -1.9042397
-3.6893488e+19 2.8079305 -0
2.0278842 -3.6893488e+19 -1.8896627
-3.6893488e+19 2.7718499 1.0842022e-19
1.8786713 3.6893488e+19 -1.880357
-1.0842022e-19 2.743252 -2
1.9725615 1.0842022e-19 -1.8757502
2 2.6851416 -2
1.8309599 -1.0842022e-19 -1.8580632
3.6893488e+19 2.6417911 3.6893488e+19
1.9267811 -1.0842022e-19 -1.8468516
2 2.6056581 -2
1.793339 2 -1.8354613
3.6893488e+19 2.5851173 -0
1.9012091 -0 -1.8336722
3.6893488e+19 2.5628054 -0
1.7730561 2 -1.8276813
0 2.5421033 1.0842022e-19
1.8818007 -0 -1.8233871
-1.0842022e-19 2.5273194 -2
1.75626 3.6893488e+19 -1.8202929
0 2.5103817 -3.6893488e+19
1.8599749 -2 -1.8165704
-3.6893488e+19 2.4963975 3.6893488e+19
1.7349535 1.0842022e-19 -1.8137661
-2 2.478637 1.0842022e-19
1.8409671 3.6893488e+19 -1.8146272
-0 2.4573259 3.6893488e+19
1.7164602 0 -1.8118079
-3.6893488e+19 2.411236 0
1.5629202 -2 -1.8101624
-0 2.3560092 1.0842022e-19
1.5376835 0 -1.8054428
-0 2.3117938 -0
1.5174786 3.6893488e+19 -1.8007392
-3.6893488e+19 2.2770727 -0
1.5016123 2 -1.7969661
0 2.2522826 2
1.7276661 0 -1.7970405
2 2.2054353 2
1.7054981 -0 -1.7934675
-0 2.1652348 -3.6893488e+19
1.6873591 0 -1.7906746
3.6893488e+19 2.1271131 3.6893488e+19
1.6701581 1.0842022e-19 -1.7864937
-0 3.3032558 -2
2.3849103 -1.0842022e-19 2.7386937
2 3.2521827 -1.0842022e-19
1.9593014 2 2.6479414
0 3.2323475 3.6893488e+19
2.3061121 -2 2.6246307
2 3.2534747 -1.0842022e-19
1.9603736 2 2.635308
2 3.328315 2
2.4167171 -0 2.7409649
-0 3.3288715 1.0842022e-19
2.4174235 -2 2.7227824
-1.0842022e-19 3.2946386 -3.6893488e+19
2.5096319 -2 2.6662722
-2 3.2295599 -1.0842022e-19
2.1837814 2 2.5803695
-1.0842022e-19 3.2955587 3.6893488e+19
2.5104427 -1.0842022e-19 2.6504974
1.0842022e-19 3.3377426 -1.0842022e-19
2.3055017 0 2.6959403
-2 3.2950857 1.0842022e-19
2.510026 3.6893488e+19 2.6328526
-0 3.2925551 1.0842022e-19
2.507796 -0 2.6127455
2 3.2918634 -0
2.5071864 1.0842022e-19 2.5951433
-0 3.3033154 2
2.2743611 1.0842022e-19 2.5984466
3.6893488e+19 3.2942779 3.6893488e+19
2.5093141 1.0842022e-19 2.5811467
-3.6893488e+19 3.2904313 -2
2.5059245 0 2.5602224
1.0842022e-19 3.2903695 -3.6893488e+19
2.5058699 -3.6893488e+19 2.543591
0 3.208602 -3.6893488e+19
1.9403104 -0 2.4350944
0 3.3015583 0
2.3827558 -1.0842022e-19 2.5283501
3.6893488e+19 3.2140615 3.6893488e+19
1.9425761 -1.0842022e-19 2.4140401
-0 3.2960472 -2
2.3757608 0 2.5064971
-0 3.217083 -0
1.9438299 0 2.3903723
0 3.2941089 0
2.3733006 -1.0842022e-19 2.4763656
1.0842022e-19 3.2115352 -3.6893488e+19
1.9415276 3.6893488e+19 2.3597279
-2 3.309227 -2
2.3924894 0 2.465929
-1.0842022e-19 3.1408069 0
1.912177 1.0842022e-19 2.2826047
-2 3.2943387 -0
2.3735924 3.6893488e+19 2.4102907
-2 3.2156971 2
1.9432548 3.6893488e+19 2.3105865
2 3.3150051 -1.0842022e-19
2.3998232 -2 2.4036114
0 3.2180123 3.6893488e+19
1.9442155 2 2.2858522
2 3.2913888 2
2.369848 2 2.3405561
-3.6893488e+19 3.208838 1.0842022e-19
1.9404085 -0 2.254518
1.0842022e-19 3.2936745 -0
2.3727491 -1.0842022e-19 2.3102076
2 3.2660437 -2
2.4688687 -1.0842022e-19 2.266849
0 3.1421015 0
2.1046717 2 2.1195683
3.6893488e+19 3.1754909 3.6893488e+19
2.3749373 -2 2.1288731
-1.0842022e-19 3.1412244 -2
2.1038783 0 2.0748978
2 3.2657835 1.0842022e-19
2.4684105 -2 2.1635129
-1.0842022e-19 3.2255745 1.0842022e-19
2.1801765 -1.0842022e-19 2.0916991
-1.0842022e-19 3.271034 -2
2.4776638 -0 2.1107268
1.0842022e-19 3.2262106 0
2.1807518 -0 2.0388596
1.0842022e-19 3.271354 0
2.4782276 -3.6893488e+19 2.0501726
3.6893488e+19 3.2242975 2
2.1790214 -1.0842022e-19 1.9846553
-2 3.2697666 2
2.4754303 -2 1.9878109
2 3.224544 3.6893488e+19
2.1792443 -1.0842022e-19 1.9317181
1.0842022e-19 3.1437237 -3.6893488e+19
2.3469443 2 1.8793405
-3.6893488e+19 3.2259529 -3.6893488e+19
2.1805186 -3.6893488e+19 1.8790691
3.6893488e+19 3.2688961 0
2.473896 2 1.8575954
-1.0842022e-19 3.1440387 0
2.1064241 -0 1.7506459
3.6893488e+19 3.1222732 1.0842022e-19
1.9044858 -0 1.6540421
-3.6893488e+19 3.1483092 2
2.252779 -2 1.5272352
-0 3.1228745 2
1.9047353 2 -1.1942607
-2 3.2413585 -1.0842022e-19
2.3118308 -2 -1.6259881
-2 3.1264877 -0
1.9062347 1.0842022e-19 -1.6802723
3.6893488e+19 3.2619269 -1.0842022e-19
2.3324533 3.6893488e+19 -1.8094044
3.6893488e+19 3.1121528 -3.6893488e+19
1.900286 3.6893488e+19 -1.7925365
-3.6893488e+19 3.2628815 2
2.3336651 0 -1.9013716
0 3.1916876 2
1.9332913 -3.6893488e+19 -1.9014575
3.6893488e+19 3.1543226 -1.0842022e-19
2.2565951 0 -1.911672
-3.6893488e+19 3.1607585 -1.0842022e-19
1.9204564 -0 -1.9367154
1.0842022e-19 3.1525924 0
2.2554972 1.0842022e-19 -1.9560574
-2 3.1451509 -3.6893488e+19
1.9139795 2 -1.9737591
-1.0842022e-19 3.0441031 3.6893488e+19
2.1232934 -3.6893488e+19 -1.9334809
-3.6893488e+19 3.0410159 -3.6893488e+19
1.8665314 2 -1.9473075
1.0842022e-19 3.0328445 -2
2.1090031 -0 -1.9581577
-3.6893488e+19 3.0315771 2
2.2462449 -2 -1.973664
-3.6893488e+19 2.8635364 -3.6893488e+19
1.9144167 -0 -1.903923
3.6893488e+19 2.8095093 0
2.0227358 0 -1.8903378
-0 2.7732615 -2
1.8721762 -2 -1.881014
-2 2.7435203 3.6893488e+19
1.967442 2 -1.8757818
-1.0842022e-19 2.6884451 2
1.8232957 -3.6893488e+19 -1.859797
-0 2.6420295 -0
1.9227258 1.0842022e-19 -1.8469218
1.0842022e-19 2.6074545 2
1.786666 -0 -1.8364922
3.6893488e+19 2.5845959 -0
1.8974209 1.0842022e-19 -1.8332866
3.6893488e+19 2.5643456 -2
1.7671691 -1.0842022e-19 -1.8286483
3.6893488e+19 2.5418172 -1.0842022e-19
1.8785728 -3.6893488e+19 -1.8231349
-2 2.5269885 2
1.7502737 -0 -1.8200303
3.6893488e+19 2.510334 -2
1.8544031 3.6893488e+19 -1.8164794
-1.0842022e-19 2.4974668 -2
1.7249894 2 -1.814144
3.6893488e+19 2.4795189 3.6893488e+19
1.8362731 2 -1.814921
-3.6893488e+19 2.4586368 1.0842022e-19
1.7074279 -2 -1.8123149
-1.0842022e-19 3.2319901 -0
2.3058853 2 2.6383612
2 3.2521827 -1.0842022e-19
1.9593014 2 2.6479414
0 3.2323475 3.6893488e+19
2.3061121 -2 2.6246307
2 3.2534747 -1.0842022e-19
1.9603736 2 2.635308
2 3.328315 2
2.4167171 -0 2.7409649
-0 3.3288715 1.0842022e-19
2.4174235 -2 2.7227824
-3.6893488e+19 3.2790048 0
2.4917116 3.6893488e+19 2.6441846
-2 3.2295599 -1.0842022e-19
2.1837814 2 2.5803695
-3.6893488e+19 3.2783287 -3.6893488e+19
2.4905198 1.0842022e-19 2.6271501
0 3.2252593 -2
2.1798911 3.6893488e+19 2.5637555
-2 3.2950857 1.0842022e-19
2.510026 3.6893488e+19 2.6328526
-0 3.2925551 1.0842022e-19
2.507796 -0 2.6127455
2 3.2918634 -0
2.5071864 1.0842022e-19 2.5951433
-0 3.3033154 2
2.2743611 1.0842022e-19 2.5984466
3.6893488e+19 3.2245178 -1.0842022e-19
2.4181392 2 2.516984
0 3.224045 -3.6893488e+19
2.4177225 -0 2.5031738
-2 3.2276156 1.0842022e-19
2.4208691 2 2.4829149
0 3.208602 -3.6893488e+19
1.9403104 -0 2.4350944
2 3.2283337 -0
2.3035648 -2 2.4415209
3.6893488e+19 3.2140615 3.6893488e+19
1.9425761 -1.0842022e-19 2.4140401
-0 3.2960472 -2
2.3757608 0 2.5064971
-0 3.217083 -0
1.9438299 0 2.3903723
0 3.2941089 0
2.3733006 -1.0842022e-19 2.4763656
-0 3.141484 -3.6893488e+19
1.9124578 -2 2.3051288
2 3.2952235 1.0842022e-19
2.3747153 1.0842022e-19 2.444829
-1.0842022e-19 3.1408069 0
1.912177 1.0842022e-19 2.2826047
-2 3.2943387 -0
2.3735924 3.6893488e+19 2.4102907
3.6893488e+19 3.1410437 -3.6893488e+19
1.9122751 2 2.260798
0 3.1831942 -0
2.2749178 -3.6893488e+19 2.2775226
-0 3.1405449 -2
1.9120681 -3.6893488e+19 2.2270734
-3.6893488e+19 3.1842012 -2
2.275557 0 2.2537332
-3.6893488e+19 3.1445763 -2
1.9137411 3.6893488e+19 2.1877441
1.0842022e-19 3.2936745 -0
2.3727491 -1.0842022e-19 2.3102076
-3.6893488e+19 3.1675658 1.0842022e-19
2.367954 -0 2.1688302
0 3.1421015 0
2.1046717 2 2.1195683
3.6893488e+19 3.1754909 3.6893488e+19
2.3749373 -2 2.1288731
-1.0842022e-19 3.1412244 -2
2.1038783 0 2.0748978
-1.0842022e-19 3.1569669 -2
2.3586142 -3.6893488e+19 2.0665848
1.0842022e-19 3.141855 -3.6893488e+19
2.1044486 -0 2.0315468
1.0842022e-19 3.1427248 -2
2.3460641 2 2.0113442
2 3.143558 1.0842022e-19
2.1059892 2 1.9887244
-3.6893488e+19 3.1416175 1.0842022e-19
2.3450887 1.0842022e-19 1.9666045
3.6893488e+19 3.1460536 1.0842022e-19
2.1082466 2 1.9459447
-0 3.1446207 2
2.3477349 0 1.9239376
1.0842022e-19 3.146909 2
2.1090202 -3.6893488e+19 1.9019891
1.0842022e-19 3.1437237 -3.6893488e+19
2.3469443 2 1.8793405
0 3.1431596 3.6893488e+19
2.1056287 3.6893488e+19 1.8382344
3.6893488e+19 3.1471245 3.6893488e+19
2.3499413 -3.6893488e+19 1.7967565
-1.0842022e-19 3.1440387 0
2.1064241 -0 1.7506459
3.6893488e+19 3.1222732 1.0842022e-19
1.9044858 -0 1.6540421
-3.6893488e+19 3.1483092 2
2.252779 -2 1.5272352
-0 3.1228745 2
1.9047353 2 -1.1942607
-2 3.2413585 -1.0842022e-19
2.3118308 -2 -1.6259881
-2 3.1264877 -0
1.9062347 1.0842022e-19 -1.6802723
1.0842022e-19 3.1522121 -2
2.2552557 -0 -1.7665846
3.6893488e+19 3.1121528 -3.6893488e+19
1.900286 3.6893488e+19 -1.7925365
-0 3.1528256 -3.6893488e+19
2.255645 3.6893488e+19 -1.8569536
0 3.1193848 -2
1.9032871 0 -1.8766645
3.6893488e+19 3.1543226 -1.0842022e-19
2.2565951 0 -1.911672
2 3.1226931 -0
1.90466 -3.6893488e+19 -1.9194121
1.0842022e-19 3.1525924 0
2.2554972 1.0842022e-19 -1.9560574
-2 3.1451509 -3.6893488e+19
1.9139795 2 -1.9737591
-1.0842022e-19 3.0441031 3.6893488e+19
2.1232934 -3.6893488e+19 -1.9334809
-3.6893488e+19 3.0410159 -3.6893488e+19
1.8665314 2 -1.9473075
1.0842022e-19 3.0328445 -2
2.1090031 -0 -1.9581577
-3.6893488e+19 3.0315771 2
2.2462449 -2 -1.973664
-3.6893488e+19 2.8635364 -3.6893488e+19
1.9144167 -0 -1.903923
3.6893488e+19 2.8095093 0
2.0227358 0 -1.8903378
-0 2.7732615 -2
1.8721762 -2 -1.881014
-2 2.7435203 3.6893488e+19
1.967442 2 -1.8757818
-1.0842022e-19 2.6884451 2
1.8232957 -3.6893488e+19 -1.859797
-0 2.6420295 -0
1.9227258 1.0842022e-19 -1.8469218
1.0842022e-19 2.6074545 2
1.786666 -0 -1.8364922
3.6893488e+19 2.5845959 -0
1.8974209 1.0842022e-19 -1.8332866
3.6893488e+19 2.5643456 -2
1.7671691 -1.0842022e-19 -1.8286483
3.6893488e+19 2.5418172 -1.0842022e-19
1.8785728 -3.6893488e+19 -1.8231349
-2 2.5269885 2
1.7502737 -0 -1.8200303
3.6893488e+19 2.510334 -2
1.8544031 3.6893488e+19 -1.8164794
-1.0842022e-19 2.4974668 -2
1.7249894 2 -1.814144
3.6893488e+19 2.4795189 3.6893488e+19
1.8362731 2 -1.814921
-3.6893488e+19 2.4586368 1.0842022e-19
1.7074279 -2 -1.8123149
-1.0842022e-19 3.2355793 -0
2.2981443 -1.0842022e-19 2.6553209
-3.6893488e+19 3.3033164 2
2.3724711 -1.0842022e-19 2.7386937
-0 3.3311582 2
2.4066606 -0 2.7571533
0 3.3283961 3.6893488e+19
2.4032686 -0 2.7409878
-1.0842022e-19 3.2949197 -1.0842022e-19
2.5037599 1.0842022e-19 2.6665533
0 3.2258761 -3.6893488e+19
2.1608713 -3.6893488e+19 2.577785
-3.6893488e+19 3.295779 -3.6893488e+19
2.5044992 1.0842022e-19 2.6506844
-3.6893488e+19 3.2249877 -1.0842022e-19
2.1601045 -2 2.5635319
0 3.2961345 0
2.5048051 0 2.6341059
-1.0842022e-19 3.2946346 -0
2.5035145 -2 2.5983231
-3.6893488e+19 3.3030031 -2
2.2616129 -3.6893488e+19 2.5980384
1.0842022e-19 3.2244041 -1.0842022e-19
2.4081948 -0 2.5168455
3.6893488e+19 3.2537975 3.6893488e+19
2.1882577 -1.0842022e-19 2.5270691
-3.6893488e+19 3.2253168 0
2.4089804 -2 2.5037823
-2 3.2927625 -0
2.5019038 -0 2.5459282
-3.6893488e+19 3.2081964 3.6893488e+19
1.9213377 2 2.4346824
2 3.3010149 -1.0842022e-19
2.3696446 2 2.5277932
-2 3.2145565 -2
1.9237159 3.6893488e+19 2.4144557
-2 3.3021936 3.6893488e+19
2.3710923 3.6893488e+19 2.51177
0 3.1407053 -1.0842022e-19
1.8961 -0 2.3265176
2 3.2947257 2
2.3619215 -3.6893488e+19 2.4772692
-3.6893488e+19 3.2098851 -1.0842022e-19
1.9219692 -1.0842022e-19 2.3584192
1.0842022e-19 3.3092735 0
2.3797863 0 2.4659057
2 3.2102175 -2
1.9220934 0 2.3327765
-3.6893488e+19 3.2937922 -0
2.3607755 1.0842022e-19 2.4094472
-0 3.2163804 -2
1.9243979 1.0842022e-19 2.3110225
-0 3.293932 -1.0842022e-19
2.3609469 2 2.3765357
0 3.232091 -3.6893488e+19
1.9302727 -2 2.2944324
-2 3.2910895 -2
2.3574564 -3.6893488e+19 2.3401384
0 3.2082438 -1.0842022e-19
1.9213554 3.6893488e+19 2.2541723
0 3.2901733 -2
2.3563311 -2 2.306448
-2 3.1659458 -3.6893488e+19
2.3578951 -1.0842022e-19 2.1670887
2 3.1412225 -1.0842022e-19
2.0877814 3.6893488e+19 2.1186876
-1.0842022e-19 3.2905803 -3.6893488e+19
2.500026 -2 2.2586715
-3.6893488e+19 3.2233937 0
2.1587284 2 2.1430807
0 3.2702336 1.0842022e-19
2.4650381 -3.6893488e+19 2.1703191
-1.0842022e-19 3.2253301 2
2.1604002 3.6893488e+19 2.0914752
1.0842022e-19 3.2711873 -3.6893488e+19
2.4666791 -1.0842022e-19 2.1108301
1.0842022e-19 3.2271199 3.6893488e+19
2.1619453 1.0842022e-19 2.0393703
-3.6893488e+19 3.27056 3.6893488e+19
2.4656 -3.6893488e+19 2.049211
-2 3.2254562 1.0842022e-19
2.1605091 -0 1.9851953
3.6893488e+19 3.2691431 -0
2.4631615 3.6893488e+19 1.987195
-0 3.2281363 3.6893488e+19
2.162823 -1.0842022e-19 1.9330678
-3.6893488e+19 3.1437092 -0
2.338762 0 1.8792998
3.6893488e+19 3.2251155 0
2.1602149 -3.6893488e+19 1.8788238
-0 3.2697322 0
2.4641755 -2 1.8582536
-3.6893488e+19 3.142503 -1.0842022e-19
2.0888872 3.6893488e+19 1.7501385
0 3.1521318 -0
1.9003729 2 1.6663867
-2 3.1534989 -0
2.2454946 -2 1.5291878
-0 3.1999707 -0
1.9182618 -0 -1.2344116
-0 3.2434821 -1.0842022e-19
2.3029966 0 -1.6265074
0 3.2028949 -3.6893488e+19
1.9193552 3.6893488e+19 -1.7168443
-1.0842022e-19 3.2608576 -0
2.3203318 -0 -1.8086149
1.0842022e-19 3.2007048 0
1.9185363 2 -1.8334886
0 3.2626383 -1.0842022e-19
2.3225183 -1.0842022e-19 -1.9012011
-3.6893488e+19 3.1951511 -0
1.9164596 2 -1.9026357
3.6893488e+19 3.1525657 -1.0842022e-19
2.2443485 -3.6893488e+19 -1.9109372
-1.0842022e-19 3.1631267 1.0842022e-19
1.9044844 0 -1.93778
1.0842022e-19 3.153981 -1.0842022e-19
2.2460864 0 -1.9567268
-1.0842022e-19 3.0474513 -0
1.8474575 -2 -1.9184247
0 3.0448782 -3.6893488e+19
2.1121087 -2 -1.9339275
-3.6893488e+19 3.0407534 -1.0842022e-19
1.8424484 -1.0842022e-19 -1.947117
2 3.0330567 -0
2.0975921 1.0842022e-19 -1.9582722
-2 3.0315316 -1.0842022e-19
2.2344806 -3.6893488e+19 -1.9735655
-0 2.8640242 -3.6893488e+19
1.9071492 -2 -1.9041077
3.6893488e+19 2.8125737 3.6893488e+19
2.01895 1.0842022e-19 -1.8916878
-0 2.7738609 3.6893488e+19
1.8614516 -0 -1.8812828
-3.6893488e+19 2.7466347 1.0842022e-19
1.9636616 -3.6893488e+19 -1.8765402
0 2.6895037 1.0842022e-19
1.8147337 1.0842022e-19 -1.8603306
3.6893488e+19 2.642139 2
1.9187055 1.0842022e-19 -1.8469218
3.6893488e+19 2.6075051 -3.6893488e+19
1.7793349 -0 -1.8364922
-3.6893488e+19 2.5846891 1.0842022e-19
1.8939896 1.0842022e-19 -1.8332866
-1.0842022e-19 2.5640168 3.6893488e+19
1.7605611 -1.0842022e-19 -1.8284066
-3.6893488e+19 2.5407839 -3.6893488e+19
1.8751006 3.6893488e+19 -1.8223784
-2 2.5271521 -0
1.7392932 -2 -1.8201178
0 2.5113969 -1.0842022e-19
1.8499155 -2 -1.8172075
-0 2.499774 2
1.7157525 1.0842022e-19 -1.8149943
0 2.4799001 2
1.8314619 -3.6893488e+19 -1.8150189
-3.6893488e+19 2.4596951 3.6893488e+19
1.6984504 -1.0842022e-19 -1.8127205
-0 2.4083111 3.6893488e+19
1.5276836 2 -1.8088207
-3.6893488e+19 2.3508501 2
1.5061967 2 -1.802804
3.6893488e+19 2.3105984 -3.6893488e+19
