# .PCD v0.7 - Point Cloud Data file format
VERSION 0.7
FIELDS x y z
SIZE 4 4 4
TYPE F F F
COUNT 1 1 1
WIDTH 1714
HEIGHT 1
VIEWPOINT 0 0 0 1 0 0 0
POINTS 1714
DATA ascii
2 2.3903062 -0
2.2344217 1.0842022e-19 -1.8129563
1.0842022e-19 2.3896315 -0
2.2012205 -2 -1.8155706
-2 3.0828154 2
2.9342895 -1.0842022e-19 2.5917325
0 3.0518982 -2
2.8496192 3.6893488e+19 2.5449131
1.0842022e-19 3.0535016 -3.6893488e+19
2.851476 -0 2.5362771
-1.0842022e-19 3.0643008 2
2.8639824 1.0842022e-19 2.5359304
2 3.0280657 2
2.8628466 -2 2.5065827
2 3.065309 3.6893488e+19
2.86515 -3.6893488e+19 2.5263073
2 3.0258603 0
2.8599689 -2 2.490068
-0 3.072715 -1.0842022e-19
2.8737266 2 2.5220404
-2 3.0276539 2
2.8623095 3.6893488e+19 2.474149
1.0842022e-19 3.0376155 0
2.9008741 1.0842022e-19 2.4913034
1.0842022e-19 3.038516 3.6893488e+19
2.9021292 0 2.4726503
-0 3.0934677 0
2.9262891 -0 2.5158575
1.0842022e-19 3.0381382 1.0842022e-19
2.9016025 -2 2.4519172
-0 3.0820231 1.0842022e-19
2.9120848 2 2.4916441
-1.0842022e-19 3.039037 3.6893488e+19
2.9028554 3.6893488e+19 2.4331918
3.6893488e+19 3.0835083 1.0842022e-19
2.913928 3.6893488e+19 2.4714341
-0 3.0337081 -2
2.8954279 -3.6893488e+19 2.4054871
2 3.0323827 3.6893488e+19
2.8504744 3.6893488e+19 2.3802309
0 3.0998089 -2
2.9875581 1.0842022e-19 2.4756939
1.0842022e-19 3.0877786 -1.0842022e-19
2.9192278 -1.0842022e-19 2.4322228
-3.6893488e+19 3.0380981 2
2.901547 -1.0842022e-19 2.3718321
-0 3.0319965 1.0842022e-19
2.8499951 -2 2.3420091
2 3.0322165 3.6893488e+19
2.8502681 -0 2.3234639
2 3.0500686 0
2.8475006 2 2.3278763
-3.6893488e+19 3.0291798 -2
2.8643005 -0 2.3057857
1.0842022e-19 3.0090239 3.6893488e+19
2.7999678 -3.6893488e+19 2.2661142
-3.6893488e+19 3.0081103 -1.0842022e-19
2.836807 2 2.2653103
2 3.0083575 -2
2.799196 1.0842022e-19 2.2471719
3.6893488e+19 3.0081415 0
2.8368478 -1.0842022e-19 2.2459297
-2 3.0086462 -1.0842022e-19
2.7995305 3.6893488e+19 2.2140577
-0 3.0084465 1.0842022e-19
2.8372457 -1.0842022e-19 2.2117753
-2 3.0094883 0
2.8005059 3.6893488e+19 2.181828
-2 3.0056622 -3.6893488e+19
2.8336124 3.6893488e+19 2.1724727
2 2.9866793 3.6893488e+19
2.7818043 -3.6893488e+19 2.123359
3.6893488e+19 3.0079496 -0
2.8365972 -2 2.1416657
-3.6893488e+19 2.9888365 -2
2.7830534 -0 2.0933096
3.6893488e+19 3.0103834 -2
2.8397729 -1.0842022e-19 2.1104801
3.6893488e+19 3.0104597 -0
2.8016305 -1.0842022e-19 2.0820985
1.0842022e-19 3.0920172 -2
2.9462965 2 2.1777251
1.0842022e-19 3.0050485 -1.0842022e-19
2.8554826 0 2.0581963
1.0842022e-19 2.9988875 -0
2.8476708 2 2.0173988
-0 2.9947126 -3.6893488e+19
2.8070018 -0 1.9897444
-3.6893488e+19 2.9929681 3.6893488e+19
2.8059194 -0 1.9564719
-3.6893488e+19 3.0029919 -3.6893488e+19
2.8526163 0 1.9522477
0 2.9963994 0
2.8080487 1.0842022e-19 1.9252701
1.0842022e-19 3.0084136 -0
2.8601727 0 1.9214042
0 2.9985342 -1.0842022e-19
2.8093734 -1.0842022e-19 1.893268
-1.0842022e-19 2.9478202 2
2.7779021 0 1.8235542
-2 3.0084596 3.6893488e+19
2.8602371 -3.6893488e+19 1.8272139
-3.6893488e+19 2.9984853 -3.6893488e+19
2.8093431 3.6893488e+19 1.7805622
-0 3.0061309 0
2.8569915 -0 1.7557236
2 2.9452686 -2
2.7763186 1.0842022e-19 1.660978
2 2.9622736 -0
2.7676725 0 1.5840278
0 2.9974244 -0
2.8245432 0 1.4497558
-3.6893488e+19 2.9707196 1.0842022e-19
2.7725632 1.0842022e-19 -1.2388564
1.0842022e-19 2.9998815 -1.0842022e-19
2.8261464 -3.6893488e+19 -1.540897
0 3.006392 2
2.7969198 3.6893488e+19 -1.6484344
2 2.991689 3.6893488e+19
2.8208013 0 -1.712575
-0 2.974508 -2
2.7747567 3.6893488e+19 -1.7548491
1.0842022e-19 2.9943597 0
2.8225439 -1.0842022e-19 -1.7977109
-1.0842022e-19 2.9799631 1.0842022e-19
2.7779155 1.0842022e-19 -1.8182175
-2 2.9926624 -1.0842022e-19
2.8214364 2 -1.8627677
0 2.981771 -1.0842022e-19
2.7789621 1.0842022e-19 -1.8780425
-3.6893488e+19 2.9900525 3.6893488e+19
2.8197336 -3.6893488e+19 -1.90091
2 2.8925407 -3.6893488e+19
2.7561121 2 -1.8970566
-1.0842022e-19 2.8883157 -1.0842022e-19
2.6996968 0 -1.9033178
2 2.866698 3.6893488e+19
2.7285025 0 -1.9118356
2 2.8695569 -3.6893488e+19
2.7575412 3.6893488e+19 -1.9290851
2 2.7813797 -3.6893488e+19
2.5992293 3.6893488e+19 -1.8909172
-3.6893488e+19 2.7005119 1.0842022e-19
2.5639584 1.0842022e-19 -1.874023
3.6893488e+19 2.6682451 -2
2.5095487 -3.6893488e+19 -1.8620027
3.6893488e+19 2.6131241 1.0842022e-19
2.5030584 -0 -1.8504941
-2 2.5987537 -0
2.4328496 -1.0842022e-19 -1.8456057
1.0842022e-19 2.5557694 0
2.4261768 3.6893488e+19 -1.8357544
1.0842022e-19 2.5500708 -2
2.3724275 -3.6893488e+19 -1.8346064
1.0842022e-19 2.5177805 -1.0842022e-19
2.3732283 -1.0842022e-19 -1.8278747
-1.0842022e-19 2.5164557 -0
2.3307068 3.6893488e+19 -1.8287182
-1.0842022e-19 2.4766023 -1.0842022e-19
2.3321404 -3.6893488e+19 -1.8218445
2 2.4729257 -1.0842022e-19
2.2934816 -2 -1.8214202
2 2.4332128 -1.0842022e-19
2.3019025 3.6893488e+19 -1.8187639
0 2.430119 -1.0842022e-19
2.2669172 -1.0842022e-19 -1.8178741
-0 2.389653 -0
2.2715461 -2 -1.8126457
2 2.3903062 -0
2.2344217 1.0842022e-19 -1.8129563
1.0842022e-19 2.3896315 -0
2.2012205 -2 -1.8155706
2 3.2629774 2
3.0912023 -1.0842022e-19 2.7879105
-0 3.2642293 -1.0842022e-19
3.0928266 3.6893488e+19 2.770848
3.6893488e+19 3.0525393 1.0842022e-19
2.8482542 2 2.545094
-3.6893488e+19 3.0539064 1.0842022e-19
2.849828 -3.6893488e+19 2.536227
3.6893488e+19 3.0647752 0
2.862339 1.0842022e-19 2.5359304
-1.0842022e-19 3.2690017 1.0842022e-19
3.0990188 -0 2.7455955
2 3.0657318 0
2.86344 -0 2.5262609
1.0842022e-19 3.0750952 3.6893488e+19
2.9217975 2 2.5382767
-3.6893488e+19 3.0734951 0
2.8723767 1.0842022e-19 2.5222871
-3.6893488e+19 3.0747602 3.6893488e+19
2.9213631 3.6893488e+19 2.5268252
-1.0842022e-19 3.0675869 -0
2.940187 -1.0842022e-19 2.5207582
-0 3.0676885 -2
2.9403276 1.0842022e-19 2.5097485
-0 3.0945482 0
2.9251406 -2 2.516263
-0 3.0355425 -0
2.8957722 0 2.4470341
-2 3.0832696 0
2.9112239 -2 2.4926927
1.0842022e-19 3.0838637 2
2.9119568 -1.0842022e-19 2.4711742
3.6893488e+19 3.0353143 -3.6893488e+19
2.8520513 -2 2.3835578
2 3.0988419 -0
2.9835074 -1.0842022e-19 2.4735184
0 3.0863485 -3.6893488e+19
2.9150226 -3.6893488e+19 2.4296978
3.6893488e+19 3.0991216 -1.0842022e-19
2.9838951 3.6893488e+19 2.4497743
1.0842022e-19 3.0386779 -0
2.8562016 3.6893488e+19 2.3495469
2 3.0340459 3.6893488e+19
2.8504863 -0 2.3250349
-3.6893488e+19 3.0506558 0
2.8460863 -1.0842022e-19 2.328023
1.0842022e-19 3.0310874 -3.6893488e+19
2.8646991 3.6893488e+19 2.3073521
-0 3.0545573 2
2.8505771 3.6893488e+19 2.3124228
3.6893488e+19 3.0090187 -0
2.836066 -1.0842022e-19 2.2657917
-3.6893488e+19 3.0556748 -3.6893488e+19
2.8518634 2 2.2936704
-3.6893488e+19 3.0093892 -0
2.8365469 -0 2.2474806
2 3.0587738 2
2.8554306 3.6893488e+19 2.2765801
-1.0842022e-19 3.2212834 -1.0842022e-19
3.0557353 2 2.4203143
-0 3.0594606 -3.6893488e+19
2.8562212 -1.0842022e-19 2.2571065
-1.0842022e-19 3.008265 -0
2.8350883 3.6893488e+19 2.176049
0 3.0607541 0
2.8577101 -2 2.2260752
-0 3.0092247 -1.0842022e-19
2.8363333 -2 2.1429334
0 3.0912054 -3.6893488e+19
2.9426997 1.0842022e-19 2.2215695
-1.0842022e-19 3.0649471 1.0842022e-19
2.8625369 1.0842022e-19 2.1509676
0 3.092442 -1.0842022e-19
2.9443042 2 2.1775291
-0 3.0828807 3.6893488e+19
2.9613848 2 2.1515179
-0 3.0912249 -1.0842022e-19
2.9210398 2 2.1250498
0 3.0842476 -2
2.963279 2 2.107657
0 3.0908246 2
2.9205458 -1.0842022e-19 2.0798028
2 3.079339 -0
2.9564757 -2 2.0575891
-0 3.090965 -1.0842022e-19
2.9207191 2 2.0351543
-0 3.0790305 2
2.9560483 1.0842022e-19 2.0125575
-2 3.0898399 1.0842022e-19
2.9193311 0 1.9895958
-1.0842022e-19 3.0859704 1.0842022e-19
2.9656672 1.0842022e-19 1.9724431
-1.0842022e-19 3.0905585 0
2.9202178 -3.6893488e+19 1.9454223
2 3.0062423 -1.0842022e-19
2.855161 0 1.8848468
-0 3.0895858 -0
2.9190173 0 1.9003221
-2 3.0142193 2
2.8662176 -3.6893488e+19 1.8313452
1.0842022e-19 3.0890484 -2
2.918354 0 1.8362716
1.0842022e-19 3.0059288 -2
2.8547263 -3.6893488e+19 1.7553834
-2 2.943223 3.6893488e+19
2.773448 -1.0842022e-19 1.6599796
0 2.9612923 -1.0842022e-19
2.7654974 3.6893488e+19 1.5832696
1.0842022e-19 2.9989522 0
2.8236849 3.6893488e+19 1.450029
2 2.9636841 -2
2.7668741 -1.0842022e-19 -1.2349317
1.0842022e-19 3.0001824 -2
2.8246012 -3.6893488e+19 -1.5407754
1.0842022e-19 2.9703867 1.0842022e-19
2.7707319 -1.0842022e-19 -1.6359565
-3.6893488e+19 2.9991839 0
2.8238354 -2 -1.7154487
-0 3.0620317 2
2.8591809 3.6893488e+19 -1.7955176
-3.6893488e+19 2.9917929 3.6893488e+19
2.8190405 1.0842022e-19 -1.7965225
-2 3.0617211 -2
2.8588233 0 -1.8752997
-3.6893488e+19 2.9931335 1.0842022e-19
2.8199103 1.0842022e-19 -1.8625909
-2 3.0601501 0
2.8570151 -2 -1.9146116
-1.0842022e-19 2.9913578 2
2.8187582 1.0842022e-19 -1.9010551
-1.0842022e-19 2.9878571 -0
2.780787 3.6893488e+19 -1.9108921
-3.6893488e+19 2.960114 1.0842022e-19
2.7984896 2 -1.9220787
-2 2.8659599 2
2.724818 -3.6893488e+19 -1.9112355
-1.0842022e-19 2.8693562 3.6893488e+19
2.7559705 1.0842022e-19 -1.9286633
0 2.8620405 -2
2.6967242 3.6893488e+19 -1.9310199
3.6893488e+19 2.6998947 -3.6893488e+19
2.561785 -0 -1.8732306
2 2.6675413 -2
2.5076034 3.6893488e+19 -1.8612218
3.6893488e+19 2.6125536 1.0842022e-19
2.5012562 0 -1.8497316
0 2.6023962 -3.6893488e+19
2.434824 -2 -1.8475497
0 2.5561202 2
2.4242935 -0 -1.8356134
0 2.551405 -1.0842022e-19
2.3719056 0 -1.8351984
0 2.5197012 3.6893488e+19
2.3738155 -3.6893488e+19 -1.8289591
-3.6893488e+19 2.5172048 -1.0842022e-19
2.329706 2 -1.828961
-2 2.4770589 1.0842022e-19
2.3306105 -3.6893488e+19 -1.8216757
3.6893488e+19 2.4734788 -3.6893488e+19
2.2921143 -1.0842022e-19 -1.8213323
3.6893488e+19 2.4299076 -2
2.2979336 -1.0842022e-19 -1.8169367
0 2.4320858 2
2.2665768 3.6893488e+19 -1.8184431
-2 2.3889296 2
2.2695353 -3.6893488e+19 -1.8119576
-0 2.3900909 -3.6893488e+19
2.2313359 -0 -1.8125492
3.6893488e+19 2.3897886 -0
2.1986871 3.6893488e+19 -1.8153602
0 2.3556883 2
2.1594341 -2 -1.8102882
-1.0842022e-19 2.305011 -3.6893488e+19
2.1010993 -0 -1.803798
-1.0842022e-19 2.2677538 2
2.0582125 -2 -1.7994968
2 2.2295911 -3.6893488e+19
2.0260293 3.6893488e+19 -1.7970458
-2 2.1563776 -1.0842022e-19
2.0316269 -1.0842022e-19 -1.7928758
-0 2.117789 1.0842022e-19
2.0048845 2 -1.7898033
3.6893488e+19 2.0958486 1.0842022e-19
1.9896793 -0 -1.792135
2 3.2629774 2
3.0912023 -1.0842022e-19 2.7879105
-0 3.2642293 -1.0842022e-19
3.0928266 3.6893488e+19 2.770848
3.6893488e+19 3.0525393 1.0842022e-19
2.8482542 2 2.545094
-3.6893488e+19 3.0539064 1.0842022e-19
2.849828 -3.6893488e+19 2.536227
3.6893488e+19 3.0647752 0
2.862339 1.0842022e-19 2.5359304
-1.0842022e-19 3.2690017 1.0842022e-19
3.0990188 -0 2.7455955
2 3.0657318 0
2.86344 -0 2.5262609
2 3.026278 -2
2.8584592 3.6893488e+19 2.4899766
-3.6893488e+19 3.0734951 0
2.8723767 1.0842022e-19 2.5222871
0 3.0267844 1.0842022e-19
2.8591163 -1.0842022e-19 2.4718611
3.6893488e+19 3.0381634 0
2.899405 0 2.4913466
0 3.0372419 -1.0842022e-19
2.8981276 1.0842022e-19 2.4697094
-0 3.0945482 0
2.9251406 -2 2.516263
-0 3.0355425 -0
2.8957722 0 2.4470341
-2 3.0832696 0
2.9112239 -2 2.4926927
1.0842022e-19 3.0838637 2
2.9119568 -1.0842022e-19 2.4711742
3.6893488e+19 3.0353143 -3.6893488e+19
2.8520513 -2 2.3835578
2 3.0988419 -0
2.9835074 -1.0842022e-19 2.4735184
0 3.0863485 -3.6893488e+19
2.9150226 -3.6893488e+19 2.4296978
3.6893488e+19 3.0389273 -3.6893488e+19
2.9004636 -1.0842022e-19 2.3722258
1.0842022e-19 3.0386779 -0
2.8562016 3.6893488e+19 2.3495469
2 3.0340459 3.6893488e+19
2.8504863 -0 2.3250349
-3.6893488e+19 3.0506558 0
2.8460863 -1.0842022e-19 2.328023
1.0842022e-19 3.0310874 -3.6893488e+19
2.8646991 3.6893488e+19 2.3073521
-0 3.0545573 2
2.8505771 3.6893488e+19 2.3124228
3.6893488e+19 3.0090187 -0
2.836066 -1.0842022e-19 2.2657917
-0 3.0096095 3.6893488e+19
2.7988374 -0 2.2488282
-3.6893488e+19 3.0093892 -0
2.8365469 -0 2.2474806
-2 3.0084975 0
2.7975576 2 2.2130919
-2 3.0085206 -1.0842022e-19
2.8354199 -1.0842022e-19 2.2111235
-0 3.0089359 -0
2.7980621 2 2.1802592
-1.0842022e-19 3.008265 -0
2.8350883 3.6893488e+19 2.176049
2 3.0096049 2
2.7988322 -0 2.1477149
-0 3.0092247 -1.0842022e-19
2.8363333 -2 2.1429334
-2 3.010617 1.0842022e-19
2.83814 0 2.1101911
-1.0842022e-19 3.0649471 1.0842022e-19
2.8625369 1.0842022e-19 2.1509676
0 3.092442 -1.0842022e-19
2.9443042 2 2.1775291
-1.0842022e-19 3.0060759 -2
2.8549304 2 2.0588765
3.6893488e+19 2.9939425 -1.0842022e-19
2.8047395 -0 2.0214529
-0 3.0064111 3.6893488e+19
2.8553951 1.0842022e-19 2.0243692
1.0842022e-19 2.9956193 -0
2.805774 -3.6893488e+19 1.9897958
-1.0842022e-19 3.0007563 -0
2.8475573 2 1.9841962
3.6893488e+19 2.9935532 1.0842022e-19
2.8044994 -3.6893488e+19 1.956383
3.6893488e+19 3.0022969 -1.0842022e-19
2.8496926 -0 1.9513261
2 2.9955547 3.6893488e+19
2.8057342 -1.0842022e-19 1.9246892
-1.0842022e-19 3.0859704 1.0842022e-19
2.9656672 1.0842022e-19 1.9724431
-2 2.9980645 2
2.8072827 -0 1.8929019
2 3.0062423 -1.0842022e-19
2.855161 0 1.8848468
-0 3.0895858 -0
2.9190173 0 1.9003221
-2 3.0142193 2
2.8662176 -3.6893488e+19 1.8313452
1.0842022e-19 2.9954627 1.0842022e-19
2.8056774 2 1.7793691
1.0842022e-19 3.0059288 -2
2.8547263 -3.6893488e+19 1.7553834
-2 2.943223 3.6893488e+19
2.773448 -1.0842022e-19 1.6599796
0 2.9612923 -1.0842022e-19
2.7654974 3.6893488e+19 1.5832696
1.0842022e-19 2.9989522 0
2.8236849 3.6893488e+19 1.450029
2 2.9636841 -2
2.7668741 -1.0842022e-19 -1.2349317
1.0842022e-19 3.0001824 -2
2.8246012 -3.6893488e+19 -1.5407754
1.0842022e-19 2.9703867 1.0842022e-19
2.7707319 -1.0842022e-19 -1.6359565
-3.6893488e+19 2.9991839 0
2.8238354 -2 -1.7154487
0 2.9766326 -2
2.7743266 1.0842022e-19 -1.7552339
-3.6893488e+19 2.9917929 3.6893488e+19
2.8190405 1.0842022e-19 -1.7965225
-0 2.981879 1.0842022e-19
2.7773464 -1.0842022e-19 -1.8186964
-3.6893488e+19 2.9931335 1.0842022e-19
2.8199103 1.0842022e-19 -1.8625909
-2 2.9838517 2
2.7784817 -1.0842022e-19 -1.8784016
-1.0842022e-19 2.9913578 2
2.8187582 1.0842022e-19 -1.9010551
-1.0842022e-19 2.9878571 -0
2.780787 3.6893488e+19 -1.9108921
-3.6893488e+19 2.8906934 0
2.7534544 3.6893488e+19 -1.896116
-2 2.8659599 2
2.724818 -3.6893488e+19 -1.9112355
-1.0842022e-19 2.8693562 3.6893488e+19
2.7559705 1.0842022e-19 -1.9286633
-1.0842022e-19 2.7830033 -3.6893488e+19
2.5991998 -1.0842022e-19 -1.8915014
3.6893488e+19 2.6998947 -3.6893488e+19
2.561785 -0 -1.8732306
2 2.6675413 -2
2.5076034 3.6893488e+19 -1.8612218
3.6893488e+19 2.6125536 1.0842022e-19
2.5012562 0 -1.8497316
0 2.6023962 -3.6893488e+19
2.434824 -2 -1.8475497
0 2.5561202 2
2.4242935 -0 -1.8356134
0 2.551405 -1.0842022e-19
2.3719056 0 -1.8351984
0 2.5197012 3.6893488e+19
2.3738155 -3.6893488e+19 -1.8289591
-3.6893488e+19 2.5172048 -1.0842022e-19
2.329706 2 -1.828961
-2 2.4770589 1.0842022e-19
2.3306105 -3.6893488e+19 -1.8216757
3.6893488e+19 2.4734788 -3.6893488e+19
2.2921143 -1.0842022e-19 -1.8213323
3.6893488e+19 2.4299076 -2
2.2979336 -1.0842022e-19 -1.8169367
0 2.4320858 2
2.2665768 3.6893488e+19 -1.8184431
-2 2.3889296 2
2.2695353 -3.6893488e+19 -1.8119576
-0 2.3900909 -3.6893488e+19
2.2313359 -0 -1.8125492
3.6893488e+19 2.3897886 -0
2.1986871 3.6893488e+19 -1.8153602
0 2.3556883 2
2.1594341 -2 -1.8102882
-1.0842022e-19 2.305011 -3.6893488e+19
2.1010993 -0 -1.803798
-1.0842022e-19 2.2677538 2
2.0582125 -2 -1.7994968
2 2.2295911 -3.6893488e+19
2.0260293 3.6893488e+19 -1.7970458
-2 2.1563776 -1.0842022e-19
2.0316269 -1.0842022e-19 -1.7928758
-0 2.117789 1.0842022e-19
2.0048845 2 -1.7898033
3.6893488e+19 2.0958486 1.0842022e-19
1.9896793 -0 -1.792135
-1.0842022e-19 3.2635086 -2
3.0898957 -1.0842022e-19 2.7879944
1.0842022e-19 3.2646091 2
3.0913153 -3.6893488e+19 2.7707691
-0 3.0530827 1.0842022e-19
2.8467286 -0 2.5451715
3.6893488e+19 3.0522728 -1.0842022e-19
2.8458018 1.0842022e-19 2.5342526
2 3.2693636 2
3.0974481 0 2.7454059
0 3.0721591 -2
2.8685517 3.6893488e+19 2.5314531
2 3.074805 -0
2.918961 -2 2.5375223
-3.6893488e+19 3.0729504 -1.0842022e-19
2.8694572 -0 2.5214124
0 3.0754251 2
2.9197609 3.6893488e+19 2.5269132
-1.0842022e-19 3.0673623 0
2.937372 -1.0842022e-19 2.5200679
0 3.0933716 1.0842022e-19
2.9211614 -2 2.5264683
-1.0842022e-19 3.0682497 -0
2.9385948 2 2.5097277
1.0842022e-19 3.0952723 -0
2.9234927 1.0842022e-19 2.5163848
-3.6893488e+19 3.0374162 1.0842022e-19
2.896102 -0 2.4491382
-0 3.1200352 -1.0842022e-19
3.0049813 0 2.5262804
3.6893488e+19 3.1226122 -2
3.006757 0 2.5153034
-0 3.086822 3.6893488e+19
2.9131281 1.0842022e-19 2.4295969
2 3.0392313 0
2.8986032 3.6893488e+19 2.3719306
0 3.0387561 1.0842022e-19
2.8541729 0 2.3490679
2 3.0342484 2
2.848644 3.6893488e+19 2.3247328
1.0842022e-19 3.0381596 0
2.8296564 3.6893488e+19 2.3139079
-2 3.080337 2
2.9260969 -0 2.3605804
1.0842022e-19 3.0564802 -2
2.850615 -2 2.3139138
-2 3.0795486 -2
2.9250798 1.0842022e-19 2.3375826
2 3.0084157 -2
2.795629 2 2.2457743
-3.6893488e+19 3.0337727 -0
2.8660343 -1.0842022e-19 2.2716532
-1.0842022e-19 3.0587881 2
2.8532555 -1.0842022e-19 2.2761695
3.6893488e+19 3.2205031 0
3.0534475 1.0842022e-19 2.4188943
-3.6893488e+19 3.0620153 -2
2.8569474 -2 2.2588322
1.0842022e-19 3.0351112 1.0842022e-19
2.8677607 -3.6893488e+19 2.2195241
-1.0842022e-19 3.0100029 -2
2.7974448 -0 2.1477149
-1.0842022e-19 3.0691385 0
2.8650966 2 2.1969011
0 3.0921094 1.0842022e-19
2.9412818 1.0842022e-19 2.2220032
-0 3.0668101 -0
2.8624327 -2 2.1527219
-1.0842022e-19 3.038054 -2
2.8715565 2 2.1090069
-2 3.0832386 -3.6893488e+19
2.9592516 2 2.1512086
-1.0842022e-19 3.0922112 3.6893488e+19
2.9197383 -2 2.1255167
2 3.0047264 1.0842022e-19
2.8510504 -1.0842022e-19 2.022064
-0 3.0908792 -0
2.9181044 3.6893488e+19 2.0793145
0 3.0786364 -0
2.952909 1.0842022e-19 2.0563672
2 3.0883319 -2
2.9149799 3.6893488e+19 2.0324879
-3.6893488e+19 3.0019143 -2
2.8471749 -0 1.9506503
-0 3.0918627 0
2.9193108 0 1.9906263
-2 3.0008743 1.0842022e-19
2.8457417 1.0842022e-19 1.9157956
2 3.0904527 -3.6893488e+19
2.9175811 -2 1.9450409
1.0842022e-19 2.9993863 -2
2.8441136 0 1.8811581
-1.0842022e-19 3.0906765 1.0842022e-19
2.917856 -2 1.9005574
-1.0842022e-19 3.0883536 -3.6893488e+19
2.9150066 0 1.8354928
1.0842022e-19 3.0064528 1.0842022e-19
2.8534296 3.6893488e+19 1.7554096
2 2.9571109 2
2.780334 3.6893488e+19 1.6647216
-2 2.9518001 -2
2.758431 2 1.5786718
2 3.0003011 -3.6893488e+19
2.8228595 2 1.4503443
-3.6893488e+19 3.0378053 0
2.8292513 -3.6893488e+19 -1.2705972
-0 2.999969 -3.6893488e+19
2.8224511 -0 -1.5403585
3.6893488e+19 3.0379052 -2
2.8293653 3.6893488e+19 -1.6661726
-3.6893488e+19 2.9962127 0
2.8200288 -1.0842022e-19 -1.7137969
-0 3.0637035 0
2.8588789 -3.6893488e+19 -1.7961687
-1.0842022e-19 2.9893346 0
2.8155928 3.6893488e+19 -1.7953706
0 3.0623348 -2
2.8573127 -1.0842022e-19 -1.8753541
2 2.9876852 0
2.8145289 -0 -1.8595604
2 2.9852443 1.0842022e-19
2.7775612 0 -1.8785741
-3.6893488e+19 2.9815502 -1.0842022e-19
2.8105721 2 -1.8977846
1.0842022e-19 2.9846473 -3.6893488e+19
2.7772195 -1.0842022e-19 -1.9095888
-0 2.9565008 -0
2.7944167 0 -1.9204328
2 2.8669598 0
2.723336 0 -1.9113971
-1.0842022e-19 2.8676224 2
2.7533188 3.6893488e+19 -1.9274968
1.0842022e-19 2.8627419 1.0842022e-19
2.6949201 -3.6893488e+19 -1.931073
2 2.697026 0
2.5580337 1.0842022e-19 -1.8711932
-0 2.6688657 -3.6893488e+19
2.5068791 1.0842022e-19 -1.8615823
-3.6893488e+19 2.6137366 -3.6893488e+19
2.5006411 -1.0842022e-19 -1.8500493
3.6893488e+19 2.602869 2
2.4328105 -0 -1.8474827
1.0842022e-19 2.5589442 -2
2.4257703 0 -1.8371646
0 2.5532818 -1.0842022e-19
2.3719893 -0 -1.8361602
-1.0842022e-19 2.5193782 2
2.3712428 -0 -1.8283395
3.6893488e+19 2.5177503 -1.0842022e-19
2.3284082 1.0842022e-19 -1.829042
3.6893488e+19 2.4777348 2
2.3291943 -1.0842022e-19 -1.8215913
3.6893488e+19 2.4757431 0
2.2917607 1.0842022e-19 -1.8219476
-2 2.4325464 -1.0842022e-19
2.2980561 -2 -1.8177589
2 2.4332201 1.0842022e-19
2.2656825 2 -1.8186327
0 2.3886237 -0
2.2677901 0 -1.8114662
-1.0842022e-19 2.3924282 -2
2.2313316 -1.0842022e-19 -1.8133633
-2 2.3906019 3.6893488e+19
2.196851 0 -1.8154655
-1.0842022e-19 3.2635086 -2
3.0898957 -1.0842022e-19 2.7879944
1.0842022e-19 3.2646091 2
3.0913153 -3.6893488e+19 2.7707691
-0 3.0530827 1.0842022e-19
2.8467286 -0 2.5451715
3.6893488e+19 3.0522728 -1.0842022e-19
2.8458018 1.0842022e-19 2.5342526
2 3.2693636 2
3.0974481 0 2.7454059
-1.0842022e-19 3.057101 2
2.8513255 2 2.5182979
3.6893488e+19 3.0272977 2
2.8576822 -0 2.4909365
-3.6893488e+19 3.0729504 -1.0842022e-19
2.8694572 -0 2.5214124
-3.6893488e+19 3.0275729 3.6893488e+19
2.8580372 0 2.4723892
-3.6893488e+19 3.0381632 -2
2.8971312 3.6893488e+19 2.4904406
0 3.0933716 1.0842022e-19
2.9211614 -2 2.5264683
0 3.036732 -0
2.8951585 2 2.4680111
1.0842022e-19 3.0952723 -0
2.9234927 1.0842022e-19 2.5163848
-3.6893488e+19 3.0374162 1.0842022e-19
2.896102 -0 2.4491382
-0 3.1200352 -1.0842022e-19
3.0049813 0 2.5262804
3.6893488e+19 3.1226122 -2
3.006757 0 2.5153034
-0 3.086822 3.6893488e+19
2.9131281 1.0842022e-19 2.4295969
2 3.0392313 0
2.8986032 3.6893488e+19 2.3719306
0 3.0387561 1.0842022e-19
2.8541729 0 2.3490679
2 3.0342484 2
2.848644 3.6893488e+19 2.3247328
1.0842022e-19 3.0381596 0
2.8296564 3.6893488e+19 2.3139079
1.0842022e-19 3.0332692 3.6893488e+19
2.8653846 -2 2.3092031
3.6893488e+19 3.0379047 3.6893488e+19
2.8293648 2 2.294888
-1.0842022e-19 3.0302508 1.0842022e-19
2.8614914 2 2.2870829
2 3.0084157 -2
2.795629 2 2.2457743
-3.6893488e+19 3.0337727 -0
2.8660343 -1.0842022e-19 2.2716532
-0 3.0098388 -0
2.7972572 -3.6893488e+19 2.214782
1.0842022e-19 3.0353246 3.6893488e+19
2.8680358 -0 2.2540276
-1.0842022e-19 3.0104675 -0
2.7979765 3.6893488e+19 2.1821418
1.0842022e-19 3.0351112 1.0842022e-19
2.8677607 -3.6893488e+19 2.2195241
-1.0842022e-19 3.0100029 -2
2.7974448 -0 2.1477149
-1.0842022e-19 3.0691385 0
2.8650966 2 2.1969011
0 3.0921094 1.0842022e-19
2.9412818 1.0842022e-19 2.2220032
-0 3.0668101 -0
2.8624327 -2 2.1527219
-1.0842022e-19 3.0034885 -2
2.8269711 -0 2.0659273
3.6893488e+19 3.0048537 1.0842022e-19
2.8512259 -0 2.0568357
-1.0842022e-19 2.9958713 1.0842022e-19
2.8041048 -3.6893488e+19 2.0220656
2 3.0047264 1.0842022e-19
2.8510504 -1.0842022e-19 2.022064
-2 2.9945714 -1.0842022e-19
2.8033075 -1.0842022e-19 1.9888963
0 3.0786364 -0
2.952909 1.0842022e-19 2.0563672
1.0842022e-19 2.9951096 -0
2.8036375 3.6893488e+19 1.9566941
-3.6893488e+19 3.0019143 -2
2.8471749 -0 1.9506503
2 2.9906723 -3.6893488e+19
2.8009162 2 1.9226843
-2 3.0008743 1.0842022e-19
2.8457417 1.0842022e-19 1.9157956
2 3.0904527 -3.6893488e+19
2.9175811 -2 1.9450409
1.0842022e-19 2.9993863 -2
2.8441136 0 1.8811581
2 2.9983914 2
2.8056502 0 1.8452574
0 2.9998462 2
2.8065424 3.6893488e+19 1.7804793
1.0842022e-19 3.0064528 1.0842022e-19
2.8534296 3.6893488e+19 1.7554096
2 2.9571109 2
2.780334 3.6893488e+19 1.6647216
-2 2.9518001 -2
2.758431 2 1.5786718
2 3.0003011 -3.6893488e+19
2.8228595 2 1.4503443
-0 2.9597292 -2
2.7629664 -3.6893488e+19 -1.2325714
-0 2.999969 -3.6893488e+19
2.8224511 -0 -1.5403585
3.6893488e+19 3.0379052 -2
2.8293653 3.6893488e+19 -1.6661726
-3.6893488e+19 2.9962127 0
2.8200288 -1.0842022e-19 -1.7137969
-0 3.0637035 0
2.8588789 -3.6893488e+19 -1.7961687
-1.0842022e-19 2.9893346 0
2.8155928 3.6893488e+19 -1.7953706
3.6893488e+19 2.9857094 1.0842022e-19
2.7778273 2 -1.8199372
2 2.9876852 0
2.8145289 -0 -1.8595604
2 2.9852443 1.0842022e-19
2.7775612 0 -1.8785741
-3.6893488e+19 2.9815502 -1.0842022e-19
2.8105721 2 -1.8977846
1.0842022e-19 2.9846473 -3.6893488e+19
2.7772195 -1.0842022e-19 -1.9095888
-3.6893488e+19 2.8900042 -3.6893488e+19
2.7515302 -2 -1.8956065
2 2.8669598 0
2.723336 0 -1.9113971
-1.0842022e-19 2.8676224 2
2.7533188 3.6893488e+19 -1.9274968
3.6893488e+19 2.7851179 -1.0842022e-19
2.5997105 0 -1.8923248
2 2.697026 0
2.5580337 1.0842022e-19 -1.8711932
-0 2.6688657 -3.6893488e+19
2.5068791 1.0842022e-19 -1.8615823
-3.6893488e+19 2.6137366 -3.6893488e+19
2.5006411 -1.0842022e-19 -1.8500493
3.6893488e+19 2.602869 2
2.4328105 -0 -1.8474827
1.0842022e-19 2.5589442 -2
2.4257703 0 -1.8371646
0 2.5532818 -1.0842022e-19
2.3719893 -0 -1.8361602
-1.0842022e-19 2.5193782 2
2.3712428 -0 -1.8283395
3.6893488e+19 2.5177503 -1.0842022e-19
2.3284082 1.0842022e-19 -1.829042
3.6893488e+19 2.4777348 2
2.3291943 -1.0842022e-19 -1.8215913
3.6893488e+19 2.4757431 0
2.2917607 1.0842022e-19 -1.8219476
-2 2.4325464 -1.0842022e-19
2.2980561 -2 -1.8177589
2 2.4332201 1.0842022e-19
2.2656825 2 -1.8186327
0 2.3886237 -0
2.2677901 0 -1.8114662
-1.0842022e-19 2.3924282 -2
2.2313316 -1.0842022e-19 -1.8133633
-2 2.3906019 3.6893488e+19
2.196851 0 -1.8154655
1.0842022e-19 3.2632339 3.6893488e+19
3.0875971 2 2.7872112
-0 3.0921502 -1.0842022e-19
2.9388072 1.0842022e-19 2.6114047
3.6893488e+19 3.265054 2
3.0899315 -3.6893488e+19 2.7707691
3.6893488e+19 3.0535612 -2
2.8451738 -3.6893488e+19 2.5451972
-3.6893488e+19 3.0716965 -3.6893488e+19
2.9125755 -3.6893488e+19 2.5674999
-2 3.0530162 -2
2.8445542 3.6893488e+19 2.5345275
-3.6893488e+19 3.2710562 -3.6893488e+19
3.0976293 3.6893488e+19 2.7476821
-0 3.071625 -3.6893488e+19
2.8657138 3.6893488e+19 2.5305684
-3.6893488e+19 3.0744717 1.0842022e-19
2.9161348 3.6893488e+19 2.5367453
-3.6893488e+19 3.0718551 -0
2.8659756 -1.0842022e-19 2.5200891
0 3.0765162 -0
2.9187565 0 2.5273752
3.6893488e+19 3.0677295 -3.6893488e+19
2.9354336 -3.6893488e+19 2.5198953
2 3.0938942 -1.0842022e-19
2.9193337 0 2.5264473
-2 3.0669403 1.0842022e-19
2.9343524 2 2.5081952
0 3.0937707 -1.0842022e-19
2.919183 2 2.5148029
2 3.0384164 1.0842022e-19
2.8952615 3.6893488e+19 2.4498925
-1.0842022e-19 3.1219995 -3.6893488e+19
3.004904 1.0842022e-19 2.5272489
3.6893488e+19 3.122134 2
3.0049963 -0 2.5144875
-0 3.0936625 -1.0842022e-19
2.9190512 1.0842022e-19 2.4605031
-1.0842022e-19 3.0418856 -3.6893488e+19
2.855916 2 2.3716888
-1.0842022e-19 3.036582 3.6893488e+19
2.8927476 2 2.3678629
-0 3.0609441 3.6893488e+19
2.8791554 -2 2.3752902
3.6893488e+19 3.0432854 -2
2.9019341 3.6893488e+19 2.3563087
3.6893488e+19 3.0361331 -2
2.8489015 -2 2.326364
-1.0842022e-19 3.0637331 -0
2.8567402 3.6893488e+19 2.3412578
3.6893488e+19 3.0347385 2
2.8651769 -3.6893488e+19 2.3102853
-1.0842022e-19 3.055398 1.0842022e-19
2.8472626 0 2.31234
-1.0842022e-19 3.0318205 1.0842022e-19
2.8614347 1.0842022e-19 2.2882063
-0 3.0555191 -1.0842022e-19
2.8474002 1.0842022e-19 2.2926352
0 3.0333078 -0
2.8633418 -0 2.2707527
1.0842022e-19 3.0577073 2
2.8498883 -1.0842022e-19 2.2747931
-3.6893488e+19 3.0355422 1.0842022e-19
2.8662078 0 2.2537949
-1.0842022e-19 3.0596666 3.6893488e+19
2.8521163 -1.0842022e-19 2.2565014
2 3.0362196 0
2.8670764 2 2.2205584
1.0842022e-19 3.0584998 0
2.8507895 -3.6893488e+19 2.2211957
3.6893488e+19 3.0703187 -2
2.8642285 -2 2.1978858
-1.0842022e-19 3.0919499 -0
2.9385505 0 2.2209914
-3.6893488e+19 3.066361 -1.0842022e-19
2.8597283 0 2.1515524
3.6893488e+19 2.9881949 0
2.8130548 -1.0842022e-19 2.0537121
3.6893488e+19 3.0822423 -2
2.9553227 2 2.1492915
-1.0842022e-19 3.0933976 0
2.9187284 2 2.1262171
-3.6893488e+19 3.0058274 2
2.8506 1.0842022e-19 2.0227501
3.6893488e+19 3.0913177 -3.6893488e+19
2.9161918 2 2.0792117
-1.0842022e-19 3.0815699 -0
2.9544015 -2 2.0585475
0 3.0899658 -1.0842022e-19
2.9145434 -1.0842022e-19 2.0333989
0 3.0021095 2
2.8455045 -1.0842022e-19 1.9504455
0 3.0831039 0
2.9061763 -2 1.9840869
0 2.9948804 -1.0842022e-19
2.8017206 0 1.8915291
1.0842022e-19 2.9995105 -2
2.842278 -2 1.8809553
0 3.001328 2
2.8064613 1.0842022e-19 1.8467875
-1.0842022e-19 3.0046158 2
2.8489394 3.6893488e+19 1.8231227
0 3.0903354 -2
2.914994 0 1.8363876
-2 3.00846 -2
2.8542078 -3.6893488e+19 1.7561946
-1.0842022e-19 2.9558139 0
2.7779026 -1.0842022e-19 1.663992
1.0842022e-19 2.9529629 3.6893488e+19
2.7575278 -3.6893488e+19 1.5788919
1.0842022e-19 3.0024056 0
2.82371 3.6893488e+19 1.4516896
-3.6893488e+19 3.0372021 3.6893488e+19
2.8265724 -0 -1.2700758
1.0842022e-19 3.0010099 3.6893488e+19
2.8219199 1.0842022e-19 -1.5407581
-3.6893488e+19 3.0378726 -3.6893488e+19
2.8273346 -2 -1.6659064
-3.6893488e+19 2.9497519 -3.6893488e+19
2.788403 -2 -1.6934536
-1.0842022e-19 3.061645 -3.6893488e+19
2.8543658 2 -1.7947924
-3.6893488e+19 2.9508626 -0
2.7891154 2 -1.7817124
1.0842022e-19 3.0615239 -2
2.854228 -1.0842022e-19 -1.874685
-0 2.9884 -0
2.8131862 -3.6893488e+19 -1.8595098
3.6893488e+19 2.9889548 0
2.7779908 -0 -1.8793644
3.6893488e+19 2.9629037 -3.6893488e+19
2.7968366 -1.0842022e-19 -1.8918235
0 2.9864559 -3.6893488e+19
2.7765698 0 -1.909946
0 2.965312 -3.6893488e+19
2.7983809 -3.6893488e+19 -1.9234307
3.6893488e+19 2.8812306 -2
2.6834903 -2 -1.89984
-1.0842022e-19 2.8681023 1.0842022e-19
2.722091 -2 -1.9116278
3.6893488e+19 2.8651419 -1.0842022e-19
2.750205 0 -1.925983
0 2.8627357 2
2.6923084 2 -1.9307809
1.0842022e-19 2.7014325 0
2.5593338 -2 -1.873174
1.0842022e-19 2.6697485 2
2.505914 1.0842022e-19 -1.8617024
2 2.6149049 3.6893488e+19
2.5000427 3.6893488e+19 -1.8503671
-2 2.6034331 -2
2.4309652 -0 -1.8474827
1.0842022e-19 2.5593965 -3.6893488e+19
2.4240136 -0 -1.8370941
-2 2.5537665 -2
2.3704033 -0 -1.8361602
-0 2.5197594 2
2.369693 -1.0842022e-19 -1.828262
-1.0842022e-19 2.5187101 2
2.3276567 -3.6893488e+19 -1.8294466
-3.6893488e+19 2.4785931 -0
2.327945 -1.0842022e-19 -1.8215913
3.6893488e+19 2.4779921 -3.6893488e+19
2.291424 -2 -1.8225627
-0 2.4333236 -0
2.2969251 -2 -1.8177589
1.0842022e-19 2.4337003 -3.6893488e+19
2.26442 -2 -1.8185378
2 2.3899376 -2
2.2671957 -2 -1.811761
1.0842022e-19 2.3936927 -2
2.2300563 -1.0842022e-19 -1.8136686
0 2.3905361 -0
2.1940713 -2 -1.8151497
2 2.3595722 -3.6893488e+19
2.1588628 1.0842022e-19 -1.8117464
-3.6893488e+19 2.3072276 3.6893488e+19
2.0993431 -0 -1.804554
-3.6893488e+19 2.2720072 -3.6893488e+19
2.0592945 2 -1.801734
-1.0842022e-19 2.2233114 -0
2.0190969 -2 -1.7942808
-1.0842022e-19 2.160706 -0
2.0314269 -2 -1.7940474
-0 2.122781 0
2.0054398 0 -1.7914332
-3.6893488e+19 2.0914459 0
1.9839681 -1.0842022e-19 -1.7894078
-2 3.092509 2
2.9392676 -3.6893488e+19 2.6237073
-0 3.0921502 -1.0842022e-19
2.9388072 1.0842022e-19 2.6114047
1.0842022e-19 3.0955527 -3.6893488e+19
2.9431708 1.0842022e-19 2.6030037
3.6893488e+19 3.0535612 -2
2.8451738 -3.6893488e+19 2.5451972
-3.6893488e+19 3.0716965 -3.6893488e+19
2.9125755 -3.6893488e+19 2.5674999
-2 3.0530162 -2
2.8445542 3.6893488e+19 2.5345275
-3.6893488e+19 3.2710562 -3.6893488e+19
3.0976293 3.6893488e+19 2.7476821
1.0842022e-19 3.057559 0
2.8497198 2 2.5182979
-0 3.0282812 2
2.8568954 0 2.4918509
-3.6893488e+19 3.0718551 -0
2.8659756 -1.0842022e-19 2.5200891
0 3.0281434 2
2.8567185 1.0842022e-19 2.4725652
0 3.0387573 -0
2.8957286 2 2.4905701
2 3.0938942 -1.0842022e-19
2.9193337 0 2.5264473
-3.6893488e+19 3.0367639 3.6893488e+19
2.892997 3.6893488e+19 2.4672241
0 3.0937707 -1.0842022e-19
2.919183 2 2.5148029
2 3.0384164 1.0842022e-19
2.8952615 3.6893488e+19 2.4498925
-1.0842022e-19 3.0330763 2
2.8879433 -1.0842022e-19 2.4219499
3.6893488e+19 3.122134 2
3.0049963 -0 2.5144875
-0 3.0936625 -1.0842022e-19
2.9190512 1.0842022e-19 2.4605031
-1.0842022e-19 3.0418856 -3.6893488e+19
2.855916 2 2.3716888
-1.0842022e-19 3.036582 3.6893488e+19
2.8927476 2 2.3678629
3.6893488e+19 3.039403 3.6893488e+19
2.8528888 -1.0842022e-19 2.3492913
3.6893488e+19 3.0432854 -2
2.9019341 3.6893488e+19 2.3563087
3.6893488e+19 3.0361331 -2
2.8489015 -2 2.326364
3.6893488e+19 3.0391288 -0
2.828763 1.0842022e-19 2.3144948
3.6893488e+19 3.0347385 2
2.8651769 -3.6893488e+19 2.3102853
-3.6893488e+19 3.0391169 3.6893488e+19
2.8287497 0 2.2956889
-1.0842022e-19 3.0318205 1.0842022e-19
2.8614347 1.0842022e-19 2.2882063
-0 3.0555191 -1.0842022e-19
2.8474002 1.0842022e-19 2.2926352
0 3.0333078 -0
2.8633418 -0 2.2707527
2 3.0100911 -3.6893488e+19
2.7957447 0 2.2145407
-3.6893488e+19 3.0355422 1.0842022e-19
2.8662078 0 2.2537949
-0 3.01091 0
2.7966762 3.6893488e+19 2.1822314
-3.6893488e+19 3.0104568 -2
2.8340356 -0 2.1782033
1.0842022e-19 3.0584998 0
2.8507895 -3.6893488e+19 2.2211957
1.0842022e-19 3.010237 -1.0842022e-19
2.7959106 -2 2.1138763
-1.0842022e-19 3.0919499 -0
2.9385505 0 2.2209914
-3.6893488e+19 3.0112627 2
2.7970772 -1.0842022e-19 2.0816169
3.6893488e+19 2.9881949 0
2.8130548 -1.0842022e-19 2.0537121
-0 3.0063922 3.6893488e+19
2.8513739 -1.0842022e-19 2.0581343
0 2.9987419 0
2.804075 -0 2.0232038
-3.6893488e+19 3.0058274 2
2.8506 1.0842022e-19 2.0227501
-2 2.9981334 -1.0842022e-19
2.803704 -3.6893488e+19 1.9902327
1.0842022e-19 3.0048122 -3.6893488e+19
2.8492084 -0 1.9871194
-2 2.9989398 -0
2.8041956 1.0842022e-19 1.9579607
0 3.0021095 2
2.8455045 -1.0842022e-19 1.9504455
-3.6893488e+19 2.9930031 -0
2.8005762 -0 1.9232277
0 2.9948804 -1.0842022e-19
2.8017206 0 1.8915291
1.0842022e-19 2.9995105 -2
2.842278 -2 1.8809553
0 3.001328 2
2.8064613 1.0842022e-19 1.8467875
-1.0842022e-19 3.0046158 2
2.8489394 3.6893488e+19 1.8231227
0 3.0903354 -2
2.914994 0 1.8363876
1.0842022e-19 2.9892881 0
2.8352735 3.6893488e+19 1.7483631
-1.0842022e-19 2.9558139 0
2.7779026 -1.0842022e-19 1.663992
1.0842022e-19 2.9529629 3.6893488e+19
2.7575278 -3.6893488e+19 1.5788919
-3.6893488e+19 2.9440444 1.0842022e-19
2.7847433 2 1.4274112
-1.0842022e-19 2.9487875 -2
2.7551539 1.0842022e-19 -1.2266982
-3.6893488e+19 2.9496186 -0
2.7883177 0 -1.5234562
-3.6893488e+19 2.9568691 -2
2.7597487 -0 -1.6316512
-3.6893488e+19 2.9497519 -3.6893488e+19
2.788403 -2 -1.6934536
1.0842022e-19 2.9831817 2
2.7747085 -2 -1.7566249
-3.6893488e+19 2.9508626 -0
2.7891154 2 -1.7817124
3.6893488e+19 2.9842064 0
2.7752912 2 -1.8190447
-0 2.9884 -0
2.8131862 -3.6893488e+19 -1.8595098
3.6893488e+19 2.9889548 0
2.7779908 -0 -1.8793644
3.6893488e+19 2.9629037 -3.6893488e+19
2.7968366 -1.0842022e-19 -1.8918235
0 2.9864559 -3.6893488e+19
2.7765698 0 -1.909946
3.6893488e+19 2.8889778 -3.6893488e+19
2.7488635 -3.6893488e+19 -1.8949795
3.6893488e+19 2.8812306 -2
2.6834903 -2 -1.89984
-1.0842022e-19 2.8681023 1.0842022e-19
2.722091 -2 -1.9116278
3.6893488e+19 2.8651419 -1.0842022e-19
2.750205 0 -1.925983
-2 2.7846677 0
2.597115 -1.0842022e-19 -1.8918732
1.0842022e-19 2.7014325 0
2.5593338 -2 -1.873174
1.0842022e-19 2.6697485 2
2.505914 1.0842022e-19 -1.8617024
2 2.6149049 3.6893488e+19
2.5000427 3.6893488e+19 -1.8503671
-2 2.6034331 -2
2.4309652 -0 -1.8474827
1.0842022e-19 2.5593965 -3.6893488e+19
2.4240136 -0 -1.8370941
-2 2.5537665 -2
2.3704033 -0 -1.8361602
-0 2.5197594 2
2.369693 -1.0842022e-19 -1.828262
-1.0842022e-19 2.5187101 2
2.3276567 -3.6893488e+19 -1.8294466
-3.6893488e+19 2.4785931 -0
2.327945 -1.0842022e-19 -1.8215913
3.6893488e+19 2.4779921 -3.6893488e+19
2.291424 -2 -1.8225627
-0 2.4333236 -0
2.2969251 -2 -1.8177589
1.0842022e-19 2.4337003 -3.6893488e+19
2.26442 -2 -1.8185378
2 2.3899376 -2
2.2671957 -2 -1.811761
1.0842022e-19 2.3936927 -2
2.2300563 -1.0842022e-19 -1.8136686
0 2.3905361 -0
2.1940713 -2 -1.8151497
2 2.3595722 -3.6893488e+19
2.1588628 1.0842022e-19 -1.8117464
-3.6893488e+19 2.3072276 3.6893488e+19
2.0993431 -0 -1.804554
-3.6893488e+19 2.2720072 -3.6893488e+19
2.0592945 2 -1.801734
-1.0842022e-19 2.2233114 -0
2.0190969 -2 -1.7942808
-1.0842022e-19 2.160706 -0
2.0314269 -2 -1.7940474
-0 2.122781 0
2.0054398 0 -1.7914332
-3.6893488e+19 2.0914459 0
1.9839681 -1.0842022e-19 -1.7894078
1.0842022e-19 3.2637639 3.6893488e+19
3.0863352 0 2.7873092
3.6893488e+19 3.0936997 -0
2.9382644 2 2.6124353
-1.0842022e-19 3.0957954 2
2.9409368 -0 2.6026621
-2 3.0541973 -0
2.8437972 -2 2.5453782
-0 3.0715895 1.0842022e-19
2.9100709 2 2.5668645
-1.0842022e-19 3.0539451 -1.0842022e-19
2.8435121 2 2.5349774
2 3.2714837 1.0842022e-19
3.096179 -1.0842022e-19 2.7476346
3.6893488e+19 3.0754547 -1.0842022e-19
2.9149995 0 2.5371339
2 3.0757046 -3.6893488e+19
2.868104 -3.6893488e+19 2.5229149
-0 3.0769582 -2
2.9169166 0 2.5272872
3.6893488e+19 3.0674832 -3.6893488e+19
2.9326627 0 2.5192053
-0 3.0674047 -1.0842022e-19
2.9325559 -2 2.5081122
-1.0842022e-19 3.0704255 1.0842022e-19
2.8884239 -3.6893488e+19 2.4928575
0 3.0343933 0
2.8875682 0 2.4428258
-0 3.1226897 0
3.0039489 -2 2.5272677
1.0842022e-19 3.0462337 -1.0842022e-19
2.859098 3.6893488e+19 2.4160542
1.0842022e-19 3.0256515 1.0842022e-19
2.8756549 -0 2.3911297
2 3.0476458 -3.6893488e+19
2.8608098 -1.0842022e-19 2.3784223
1.0842022e-19 3.0371454 -3.6893488e+19
2.8913186 3.6893488e+19 2.3679285
3.6893488e+19 3.0404782 -2
2.8958607 3.6893488e+19 2.3522689
3.6893488e+19 3.0352614 -3.6893488e+19
2.8457973 1.0842022e-19 2.3248537
-2 3.0639548 1.0842022e-19
2.854825 -1.0842022e-19 2.3409936
-3.6893488e+19 3.0335391 0
2.8615515 -3.6893488e+19 2.3084626
-0 3.0566077 2
2.8465214 -3.6893488e+19 2.313113
-3.6893488e+19 3.0879903 2
2.9309843 -2 2.3450718
0 3.0554578 -3.6893488e+19
2.8452215 -1.0842022e-19 2.2921433
2 3.0879736 3.6893488e+19
2.9309628 -1.0842022e-19 2.3224568
3.6893488e+19 3.0575404 3.6893488e+19
2.8475754 1.0842022e-19 2.2742379
1.0842022e-19 3.0873365 0
2.9301505 -2 2.2993298
-1.0842022e-19 3.0626726 -3.6893488e+19
2.8533757 -2 2.2586081
-3.6893488e+19 3.0872068 2
2.9299853 1.0842022e-19 2.2767293
2 3.0607464 -2
2.8511987 -3.6893488e+19 2.2239249
3.6893488e+19 3.0872707 3.6893488e+19
2.9300666 3.6893488e+19 2.2543232
2 3.0774941 0
2.8701267 1.0842022e-19 2.2072413
2 3.0876071 3.6893488e+19
2.9304955 3.6893488e+19 2.2142334
3.6893488e+19 3.0636814 3.6893488e+19
2.8545158 0 2.147562
2 3.0873225 0
2.9301326 1.0842022e-19 2.1690047
0 3.0828102 -1.0842022e-19
2.9535501 -0 2.1492605
-0 2.9998546 3.6893488e+19
2.8029649 -2 2.0233788
-1.0842022e-19 3.008038 3.6893488e+19
2.8516517 1.0842022e-19 2.0246162
-0 3.0002899 3.6893488e+19
2.8034046 -1.0842022e-19 1.9910295
-0 3.082962 3.6893488e+19
2.9537573 2 2.0592904
-3.6893488e+19 3.0002134 -1.0842022e-19
2.8033118 3.6893488e+19 1.9582496
-2 3.0048821 2
2.8473508 -0 1.9522886
-0 3.0834196 -2
2.9041753 2 1.983937
-1.0842022e-19 3.0011289 1.0842022e-19
2.842236 -3.6893488e+19 1.9153706
-1.0842022e-19 2.9968421 2
2.8011391 0 1.8918647
-0 2.9952915 0
2.8374891 -2 1.8796177
-0 3.0012465 -2
2.804564 -2 1.8463637
2 3.0838754 2
2.9047279 -0 1.8320462
-1.0842022e-19 3.0106778 2
2.8552492 3.6893488e+19 1.7570844
-2 3.003763 0
2.8076148 -1.0842022e-19 1.6823072
-1.0842022e-19 2.9543958 -2
2.7567739 0 1.5792344
-0 2.9457881 -3.6893488e+19
2.7842205 -0 1.4278105
3.6893488e+19 3.0075645 2
2.7910938 -1.0842022e-19 -1.2549123
-1.0842022e-19 3.003274 -0
2.8229592 -1.0842022e-19 -1.5419741
-1.0842022e-19 2.9573286 0
2.7584314 1.0842022e-19 -1.6315886
0 3.0031812 -2
2.8228407 2 -1.7174401
0 3.0605836 -0
2.8510146 1.0842022e-19 -1.7939637
-2 2.9529865 -0
2.78881 0 -1.7821878
-2 3.0633183 -0
2.8541055 2 -1.8753759
-2 2.9938526 0
2.8148651 -0 -1.8617322
-2 2.9877212 3.6893488e+19
2.7756059 1.0842022e-19 -1.8788471
-2 2.952827 -3.6893488e+19
2.7887082 2 -1.8885047
-2 2.9854364 0
2.7743149 -0 -1.9093746
-0 2.961719 -1.0842022e-19
2.7943776 1.0842022e-19 -1.9218044
-3.6893488e+19 2.9895985 -3.6893488e+19
2.7766666 -1.0842022e-19 -1.9421486
0 2.8689811 0
2.7205017 -1.0842022e-19 -1.9117432
1.0842022e-19 2.8664134 0
2.7493443 1.0842022e-19 -1.9262807
2 2.8636858 -3.6893488e+19
2.6908643 -1.0842022e-19 -1.9309667
-0 2.697598 1.0842022e-19
2.554991 3.6893488e+19 -1.8706272
-1.0842022e-19 2.6691351 -3.6893488e+19
2.5040402 -1.0842022e-19 -1.8609815
2 2.61566 -2
2.4983175 -0 -1.8504306
-3.6893488e+19 2.606128 -1.0842022e-19
2.4317029 -2 -1.8488233
-1.0842022e-19 2.5614948 0
2.4245021 -3.6893488e+19 -1.8381517
-3.6893488e+19 2.5542493 2
2.3688149 -0 -1.8361602
-1.0842022e-19 2.5216832 -0
2.3702471 -2 -1.8293464
-2 2.5193503 1.0842022e-19
2.32651 -2 -1.8296084
3.6893488e+19 2.4802718 0
2.3272548 1.0842022e-19 -1.821929
3.6893488e+19 2.4791777 -2
2.2904325 0 -1.8227385
3.6893488e+19 2.4326577 1.0842022e-19
2.2948108 3.6893488e+19 -1.8171195
-1.0842022e-19 2.4348152 -1.0842022e-19
2.2635441 -1.0842022e-19 -1.8187275
-0 2.3912511 -3.6893488e+19
2.2665963 -0 -1.8120559
-0 2.393893 1.0842022e-19
2.2274821 3.6893488e+19 -1.8134651
3.6893488e+19 2.3911147 3.6893488e+19
2.1920292 -2 -1.8151497
2 3.0922086 -1.0842022e-19
2.936363 -1.0842022e-19 2.6227562
3.6893488e+19 3.0936997 -0
2.9382644 2 2.6124353
-1.0842022e-19 3.0957954 2
2.9409368 -0 2.6026621
-2 3.0541973 -0
2.8437972 -2 2.5453782
-0 3.0715895 1.0842022e-19
2.9100709 2 2.5668645
-1.0842022e-19 3.0539451 -1.0842022e-19
2.8435121 2 2.5349774
2 3.2714837 1.0842022e-19
3.096179 -1.0842022e-19 2.7476346
3.6893488e+19 3.0754547 -1.0842022e-19
2.9149995 0 2.5371339
2 3.0757046 -3.6893488e+19
2.868104 -3.6893488e+19 2.5229149
-0 3.0769582 -2
2.9169166 0 2.5272872
-3.6893488e+19 3.0397818 -1.0842022e-19
2.8949118 -3.6893488e+19 2.4914327
1.0842022e-19 3.0369709 3.6893488e+19
2.8910809 -0 2.466727
-1.0842022e-19 3.0704255 1.0842022e-19
2.8884239 -3.6893488e+19 2.4928575
0 3.0343933 0
2.8875682 0 2.4428258
-1.0842022e-19 3.0334289 -0
2.8862541 -2 2.4217219
1.0842022e-19 3.0462337 -1.0842022e-19
2.859098 3.6893488e+19 2.4160542
1.0842022e-19 3.0256515 1.0842022e-19
2.8756549 -0 2.3911297
2 3.0476458 -3.6893488e+19
2.8608098 -1.0842022e-19 2.3784223
1.0842022e-19 3.0371454 -3.6893488e+19
2.8913186 3.6893488e+19 2.3679285
3.6893488e+19 3.0404782 -2
2.8958607 3.6893488e+19 2.3522689
3.6893488e+19 3.0352614 -3.6893488e+19
2.8457973 1.0842022e-19 2.3248537
3.6893488e+19 3.0382333 -1.0842022e-19
2.8257549 0 2.3130569
-3.6893488e+19 3.0335391 0
2.8615515 -3.6893488e+19 2.3084626
-1.0842022e-19 3.0395184 -0
2.8272073 2 2.2956612
-1.0842022e-19 3.034178 1.0842022e-19
2.8623662 -1.0842022e-19 2.290132
-2 3.0200627 -1.0842022e-19
2.8052189 2 2.2582912
-0 3.0300584 0
2.8571131 3.6893488e+19 2.2672007
-1.0842022e-19 3.0194938 0
2.8045762 -0 2.2306225
-3.6893488e+19 3.0305364 0
2.8577228 -2 2.2478588
-1.0842022e-19 3.0626726 -3.6893488e+19
2.8533757 -2 2.2586081
-2 3.0117323 -2
2.8337448 -0 2.1795821
2 3.0110476 -3.6893488e+19
2.7950301 0 2.1481285
3.6893488e+19 3.0872707 3.6893488e+19
2.9300666 3.6893488e+19 2.2543232
-3.6893488e+19 3.0113549 2
2.7953777 1.0842022e-19 2.1148992
3.6893488e+19 2.9858851 -0
2.8097851 1.0842022e-19 2.0840631
-3.6893488e+19 3.0123284 -3.6893488e+19
2.7964778 -3.6893488e+19 2.0824769
-0 2.9900103 -2
2.8124151 -0 2.0543327
-2 3.0067987 -2
2.8499627 2 2.0580726
-0 2.9998546 3.6893488e+19
2.8029649 -2 2.0233788
-1.0842022e-19 3.008038 3.6893488e+19
2.8516517 1.0842022e-19 2.0246162
-0 3.0002899 3.6893488e+19
2.8034046 -1.0842022e-19 1.9910295
1.0842022e-19 3.0077438 0
2.8512506 -0 1.9894197
-3.6893488e+19 3.0002134 -1.0842022e-19
2.8033118 3.6893488e+19 1.9582496
-2 3.0048821 2
2.8473508 -0 1.9522886
2 2.9998758 1.0842022e-19
2.8029778 0 1.9253638
-1.0842022e-19 3.0011289 1.0842022e-19
2.842236 -3.6893488e+19 1.9153706
-1.0842022e-19 2.9968421 2
2.8011391 0 1.8918647
-0 2.9952915 0
2.8374891 -2 1.8796177
-0 3.0012465 -2
2.804564 -2 1.8463637
-2 3.0015755 0
2.8049631 -0 1.7810096
1.0842022e-19 2.9924347 1.0842022e-19
2.8355424 1.0842022e-19 1.7495146
-2 3.003763 0
2.8076148 -1.0842022e-19 1.6823072
-1.0842022e-19 2.9543958 -2
2.7567739 0 1.5792344
-0 2.9457881 -3.6893488e+19
2.7842205 -0 1.4278105
3.6893488e+19 3.0075645 2
2.7910938 -1.0842022e-19 -1.2549123
-2 2.9446788 3.6893488e+19
2.7835133 0 -1.5215801
-1.0842022e-19 2.9573286 0
2.7584314 1.0842022e-19 -1.6315886
-2 2.95082 0
2.7874289 -1.0842022e-19 -1.6935893
3.6893488e+19 2.9852579 -1.0842022e-19
2.7742138 -0 -1.756995
-2 2.9529865 -0
2.78881 0 -1.7821878
3.6893488e+19 2.9837816 -0
2.7733796 -0 -1.8185875
3.6893488e+19 2.9530759 3.6893488e+19
2.788867 -3.6893488e+19 -1.8421855
-2 2.9877212 3.6893488e+19
2.7756059 1.0842022e-19 -1.8788471
-2 2.952827 -3.6893488e+19
2.7887082 2 -1.8885047
-2 2.9854364 0
2.7743149 -0 -1.9093746
-0 2.8898914 2
2.7471652 -2 -1.8950775
1.0842022e-19 2.8852205 -3.6893488e+19
2.6853676 3.6893488e+19 -1.9011842
0 2.8689811 0
2.7205017 -1.0842022e-19 -1.9117432
1.0842022e-19 2.8664134 0
2.7493443 1.0842022e-19 -1.9262807
3.6893488e+19 2.7847466 -1.0842022e-19
2.5951734 1.0842022e-19 -1.8916874
-0 2.697598 1.0842022e-19
2.554991 3.6893488e+19 -1.8706272
-1.0842022e-19 2.6691351 -3.6893488e+19
2.5040402 -1.0842022e-19 -1.8609815
2 2.61566 -2
2.4983175 -0 -1.8504306
-3.6893488e+19 2.606128 -1.0842022e-19
2.4317029 -2 -1.8488233
-1.0842022e-19 2.5614948 0
2.4245021 -3.6893488e+19 -1.8381517
-3.6893488e+19 2.5542493 2
2.3688149 -0 -1.8361602
-1.0842022e-19 2.5216832 -0
2.3702471 -2 -1.8293464
-2 2.5193503 1.0842022e-19
2.32651 -2 -1.8296084
3.6893488e+19 2.4802718 0
2.3272548 1.0842022e-19 -1.821929
3.6893488e+19 2.4791777 -2
2.2904325 0 -1.8227385
3.6893488e+19 2.4326577 1.0842022e-19
2.2948108 3.6893488e+19 -1.8171195
-1.0842022e-19 2.4348152 -1.0842022e-19
2.2635441 -1.0842022e-19 -1.8187275
-0 2.3912511 -3.6893488e+19
2.2665963 -0 -1.8120559
-0 2.393893 1.0842022e-19
2.2274821 3.6893488e+19 -1.8134651
3.6893488e+19 2.3911147 3.6893488e+19
2.1920292 -2 -1.8151497
-2 3.2645111 -0
3.0853465 -3.6893488e+19 2.7876446
1.0842022e-19 3.0939622 0
2.9360743 1.0842022e-19 2.6121099
-0 3.0574901 -2
2.8454008 2 2.5584238
1.0842022e-19 3.0962932 2
2.9390295 0 2.6025834
0 3.0553656 -0
2.8430142 -3.6893488e+19 2.5460761
3.6893488e+19 3.0725636 0
2.9089453 -3.6893488e+19 2.5672965
-3.6893488e+19 3.0537522 3.6893488e+19
2.8412023 3.6893488e+19 2.5343776
3.6893488e+19 3.0811112 -2
2.9197817 -3.6893488e+19 2.5529625
-3.6893488e+19 3.0760996 3.6893488e+19
2.9134283 -0 2.5372252
0 3.0766706 -1.0842022e-19
2.9141519 -0 2.5265832
2 3.0676908 3.6893488e+19
2.9305182 3.6893488e+19 2.5189033
-3.6893488e+19 3.06375 -0
2.8780925 -2 2.5014174
3.6893488e+19 3.0686324 0
2.9317942 2 2.5086508
-3.6893488e+19 3.0691888 -1.0842022e-19
2.8846467 -1.0842022e-19 2.4901805
-3.6893488e+19 3.1210508 0
3.0014145 3.6893488e+19 2.5255587
-0 3.0467284 -3.6893488e+19
2.8575799 1.0842022e-19 2.4160914
2 3.0262694 0
2.8743861 -3.6893488e+19 2.3913109
-0 3.048408 -1.0842022e-19
2.8596041 -3.6893488e+19 2.3787925
2 3.0632541 1.0842022e-19
2.8518755 0 2.3397319
-0 3.0313361 3.6893488e+19
2.8566771 -2 2.3055577
-3.6893488e+19 3.0197704 -0
2.8030307 -2 2.2750888
-1.0842022e-19 3.0886312 -1.0842022e-19
2.9293156 2 2.3451521
-0 3.0555556 3.6893488e+19
2.8432279 -0 2.2918069
2 3.0879054 0
2.9283955 -1.0842022e-19 2.3218565
2 3.0204334 -3.6893488e+19
2.8037753 -1.0842022e-19 2.2315884
-3.6893488e+19 3.0882127 0
2.9287853 -0 2.2996092
-3.6893488e+19 3.0883725 3.6893488e+19
2.9289877 -0 2.2772248
-0 3.0622904 1.0842022e-19
2.8507931 -0 2.225579
0 3.0876739 -1.0842022e-19
2.9281018 0 2.2542045
1.0842022e-19 3.0712934 2
2.8609059 -0 2.1979237
1.0842022e-19 3.0893006 0
2.9301643 1.0842022e-19 2.2157874
3.6893488e+19 3.0643339 -2
2.8530884 0 2.1478028
-3.6893488e+19 3.0890422 -1.0842022e-19
2.9298368 -1.0842022e-19 2.1704416
-1.0842022e-19 3.0787797 -1.0842022e-19
2.9455452 1.0842022e-19 2.1437256
1.0842022e-19 3.0002155 -1.0842022e-19
2.8015285 2 2.0232623
-1.0842022e-19 3.0816002 2
2.9493675 2 2.1022782
3.6893488e+19 3.0002847 3.6893488e+19
2.8016119 -2 1.990644
-0 3.0822361 2
2.9502292 -1.0842022e-19 2.0580683
-3.6893488e+19 3.0672455 1.0842022e-19
2.8823049 3.6893488e+19 2.0136228
-2 3.0966852 0
2.96981 -0 2.0246603
-2 2.9822099 -3.6893488e+19
2.7905495 -1.0842022e-19 1.9188993
-0 3.0025837 1.0842022e-19
2.8422885 1.0842022e-19 1.9160335
2 3.0018103 -0
2.8034503 -3.6893488e+19 1.893573
0 2.9942584 3.6893488e+19
2.8348966 0 1.8791178
1.0842022e-19 3.0020719 2
2.8037655 1.0842022e-19 1.8467404
-0 2.9914942 -3.6893488e+19
2.8330235 2 1.815542
-2 3.0840552 -2
2.9025617 3.6893488e+19 1.8318307
-3.6893488e+19 3.0135469 3.6893488e+19
2.8571453 -3.6893488e+19 1.7583011
-0 3.0031471 -0
2.8050613 -2 1.6815777
3.6893488e+19 2.9524498 -1.0842022e-19
2.7541163 -0 1.5780604
-1.0842022e-19 3.0764115 3.6893488e+19
2.9138236 3.6893488e+19 1.5049789
2 3.005492 1.0842022e-19
2.7869918 3.6893488e+19 -1.2536772
0 3.0775182 -0
2.9152265 3.6893488e+19 -1.590562
0 2.9547331 2
2.7553988 1.0842022e-19 -1.6306492
2 2.9475055 1.0842022e-19
2.783673 1.0842022e-19 -1.691847
0 3.0079706 -2
2.7897758 -1.0842022e-19 -1.7651346
1.0842022e-19 2.9492538 3.6893488e+19
2.7847812 0 -1.7806337
-0 3.0084279 -2
2.7902896 -0 -1.8315181
0 2.9503994 2
2.7855074 -3.6893488e+19 -1.840544
3.6893488e+19 2.987623 -0
2.7738712 1.0842022e-19 -1.8786316
-2 2.951839 1.0842022e-19
2.7864201 3.6893488e+19 -1.8879731
-3.6893488e+19 2.9884391 2
2.7743297 -1.0842022e-19 -1.9101244
-2 2.9539418 1.0842022e-19
2.7877531 0 -1.9186301
0 2.8854616 -3.6893488e+19
2.6829853 -0 -1.9010562
-0 2.8698056 3.6893488e+19
2.7188385 0 -1.9118356
