# .PCD v0.7 - Point Cloud Data file format
VERSION 0.7
FIELDS x y z
SIZE 4 4 4
TYPE F F F
COUNT 1 1 1
WIDTH 1732
HEIGHT 1
VIEWPOINT 0 0 0 1 0 0 0
POINTS 1732
DATA ascii
2.9972486 0 2.4060082
-3.6893488e+19 3.0993218 0
3.0229993 3.6893488e+19 2.4022992
0 3.1051693 0
2.9966097 -0 2.381005
0 3.0979493 2
3.0219264 -3.6893488e+19 2.3757954
-3.6893488e+19 3.1058657 -0
2.9975836 -2 2.3572605
2 3.0929554 -3.6893488e+19
3.0180235 2 2.3458686
-3.6893488e+19 3.1059847 2
2.99775 -2 2.3329198
2 3.0930128 2
3.0180686 1.0842022e-19 2.3214278
-2 3.1023872 1.0842022e-19
2.9927199 -0 2.3053701
0 3.0922439 -1.0842022e-19
3.0174675 -1.0842022e-19 2.2962899
3.6893488e+19 3.1072426 -1.0842022e-19
2.9995086 1.0842022e-19 2.2850943
2 3.09428 0
3.0190589 2 2.2735243
1.0842022e-19 3.1055732 -2
2.9971743 2 2.2594159
-3.6893488e+19 3.0906525 -2
3.0162239 -1.0842022e-19 2.2427881
-0 3.109046 0
3.0010152 -1.0842022e-19 2.2247925
-1.0842022e-19 3.0915506 -0
3.0169258 2 2.1955111
-1.0842022e-19 3.1025198 -2
3.0432713 1.0842022e-19 2.195616
-1.0842022e-19 3.0977657 1.0842022e-19
3.0092926 -0 2.1472702
2 3.1552682 -2
3.0871542 2 2.2033074
-0 3.09074 -3.6893488e+19
3.0040541 2 2.0916963
-2 3.0825303 2
3.0266416 0 2.0735743
-0 3.0880477 -1.0842022e-19
3.0020468 1.0842022e-19 2.0418663
1.0842022e-19 3.0815985 -0
3.0258663 0 2.0244613
-3.6893488e+19 3.0813565 3.6893488e+19
2.9941161 -3.6893488e+19 1.9899107
-1.0842022e-19 3.0828588 -0
3.0269148 1.0842022e-19 1.9771513
-0 3.0807812 -2
2.993258 0 1.9434283
-1.0842022e-19 3.0787721 -0
3.023515 3.6893488e+19 1.9266154
-2 3.0810661 0
2.9936831 -3.6893488e+19 1.897499
3.6893488e+19 3.0798562 0
3.0244169 -0 1.8793198
-0 3.0793812 3.6893488e+19
2.9911704 -3.6893488e+19 1.8268206
0 3.0801318 3.6893488e+19
3.024646 -3.6893488e+19 1.7880263
-0 3.0833166 0
2.9970388 -2 1.7229247
1.0842022e-19 3.0842788 -1.0842022e-19
2.9673998 -3.6893488e+19 1.62771
-3.6893488e+19 3.0811739 0
3.0088165 1.0842022e-19 1.4012649
-1.0842022e-19 3.082566 3.6893488e+19
2.9650052 -0 -1.4660075
-2 3.0840499 2
3.0110641 3.6893488e+19 -1.6509891
-2 3.0836961 -0
3.0107875 1.0842022e-19 -1.8821988
1.0842022e-19 3.0563364 0
2.9283299 2 -1.8875259
1.0842022e-19 3.1034079 0
3.0261924 3.6893488e+19 -1.9400673
0 3.043787 3.6893488e+19
2.9107828 -2 -1.9219062
1.0842022e-19 3.0323374 -3.6893488e+19
2.9412999 -2 -1.9418441
-1.0842022e-19 3.0363984 -3.6893488e+19
2.9004519 -3.6893488e+19 -1.9566072
1.0842022e-19 3.0210214 0
2.9236128 -0 -1.9725767
1.0842022e-19 2.7802353 -2
2.6880143 2 -1.8849431
-2 2.7077751 -3.6893488e+19
2.6308362 3.6893488e+19 -1.867582
1.0842022e-19 2.6909795 0
2.5787923 -3.6893488e+19 -1.8644593
-0 2.6274014 -1.0842022e-19
2.563971 -3.6893488e+19 -1.8524475
0 2.6204853 -2
2.526232 3.6893488e+19 -1.8520412
-2 2.5746908 -1.0842022e-19
2.5201197 1.0842022e-19 -1.8443265
0 2.5675294 -0
2.4734969 -2 -1.8417683
1.0842022e-19 2.5290091 0
2.4642315 2 -1.8338021
-1.0842022e-19 2.5281985 -2
2.4148471 -1.0842022e-19 -1.8343729
3.6893488e+19 2.4971817 3.6893488e+19
2.4136198 1.0842022e-19 -1.8291763
-1.0842022e-19 2.5021784 1.0842022e-19
2.3760464 -0 -1.8324403
2 2.4406004 -1.0842022e-19
2.3665481 0 -1.8220289
1.0842022e-19 2.4449658 3.6893488e+19
2.3317645 0 -1.8236055
-0 2.4003308 -1.0842022e-19
2.3330467 -2 -1.8186595
-0 2.4037807 2
2.3010571 -1.0842022e-19 -1.8193873
-1.0842022e-19 2.3658307 2
2.3043451 -0 -1.8153646
-1.0842022e-19 2.3716021 -1.0842022e-19
2.2770648 1.0842022e-19 -1.8169516
1.0842022e-19 2.3697679 -2
2.2585108 3.6893488e+19 -1.8181965
-2 3.1682725 2
3.0751247 -3.6893488e+19 2.7338548
3.6893488e+19 3.1525035 0
3.0628674 2 2.6561503
-3.6893488e+19 3.1904082 -0
3.076576 2 2.6078479
-2 3.1857893 -3.6893488e+19
3.0731509 -3.6893488e+19 2.5885828
-3.6893488e+19 3.1655371 2
3.0938606 3.6893488e+19 2.5789046
-1.0842022e-19 3.1904488 3.6893488e+19
3.076606 0 2.5765562
1.0842022e-19 3.1623473 3.6893488e+19
3.0912209 3.6893488e+19 2.561126
-3.6893488e+19 3.1856263 -1.0842022e-19
3.07303 3.6893488e+19 2.5575373
1.0842022e-19 3.1537879 0
3.0841379 1.0842022e-19 2.539758
1.0842022e-19 3.182066 -3.6893488e+19
3.0703897 1.0842022e-19 2.5397398
-1.0842022e-19 3.1541908 -3.6893488e+19
3.0844712 3.6893488e+19 2.5251541
2 3.1567008 -1.0842022e-19
3.0865483 1.0842022e-19 2.5119019
-2 3.1984794 -0
3.0617948 -2 2.5055411
-3.6893488e+19 3.1818933 -1.0842022e-19
3.0857122 2 2.4963794
-1.0842022e-19 3.1047468 -3.6893488e+19
2.9932587 -1.0842022e-19 2.379858
1.0842022e-19 3.0924037 -0
3.0161514 -2 2.3690522
-2 3.1964107 0
3.0603566 2 2.4473431
3.6893488e+19 3.0936558 1.0842022e-19
3.0171249 2 2.3458686
2 3.2014961 -2
3.0638919 -2 2.4214728
3.6893488e+19 3.1647902 -1.0842022e-19
3.0724177 1.0842022e-19 2.3878961
-1.0842022e-19 3.203908 0
3.0655689 -0 2.3926282
2 3.09341 -1.0842022e-19
3.0169337 2 2.2966936
-1.0842022e-19 3.2038965 -1.0842022e-19
3.0655608 3.6893488e+19 2.3615675
-2 3.1686041 3.6893488e+19
3.0753825 -1.0842022e-19 2.3318956
3.6893488e+19 3.2306013 3.6893488e+19
3.0841267 1.0842022e-19 2.3499935
-1.0842022e-19 3.1787896 -0
3.0832996 2 2.3095114
-0 3.2049842 1.0842022e-19
3.0663171 -2 2.3002806
-1.0842022e-19 3.1682076 -1.0842022e-19
3.0750742 -0 2.2721944
-2 3.1563478 3.6893488e+19
3.0862563 3.6893488e+19 2.2562723
-0 3.1773343 -2
3.0668812 -1.0842022e-19 2.237216
-2 3.1464608 -0
3.0780747 2 2.1924939
-0 3.1750627 -0
3.0651968 -3.6893488e+19 2.1754265
3.6893488e+19 3.1482351 -0
3.0795429 -1.0842022e-19 2.1366684
-0 3.1874394 -1.0842022e-19
3.0743744 -1.0842022e-19 2.1269453
1.0842022e-19 3.1503761 2
3.0813146 -0 2.0806687
-2 3.1801856 -3.6893488e+19
3.0689955 -3.6893488e+19 2.0608597
1.0842022e-19 3.1467476 -0
3.0783119 0 2.0201631
-1.0842022e-19 3.2048731 0
3.0873022 -1.0842022e-19 2.015475
3.6893488e+19 3.1462269 3.6893488e+19
3.0778811 -1.0842022e-19 1.9623899
-0 3.2040515 -0
3.0866928 2 1.9518989
-3.6893488e+19 3.1431351 -1.0842022e-19
3.0753226 -2 1.9037938
-1.0842022e-19 3.0802238 -3.6893488e+19
2.9897418 0 1.8269435
-0 3.0785625 3.6893488e+19
3.0218883 3.6893488e+19 1.7868994
-1.0842022e-19 3.0795734 1.0842022e-19
2.9887774 -0 1.7199926
-3.6893488e+19 3.0847354 0
2.9654341 3.6893488e+19 1.6276513
2 3.0805922 2
3.0069704 -1.0842022e-19 1.4006913
-3.6893488e+19 3.08284 0
2.9627986 3.6893488e+19 -1.4657912
-3.6893488e+19 3.1052845 -2
3.0261638 -1.0842022e-19 -1.6602596
-0 3.1056569 -1.0842022e-19
3.0264533 0 -1.8057196
1.0842022e-19 3.0844657 3.6893488e+19
2.9650588 3.6893488e+19 -1.8338643
-3.6893488e+19 3.104507 0
3.0255597 -3.6893488e+19 -1.890157
-0 3.0877292 3.6893488e+19
2.9695966 3.6893488e+19 -1.9013429
-2 3.1041296 3.6893488e+19
3.0252662 3.6893488e+19 -1.9400673
3.6893488e+19 3.0951045 -1.0842022e-19
2.9798515 2 -1.951566
2 3.032347 0
2.9389386 -1.0842022e-19 -1.9414595
1.0842022e-19 3.0360756 -3.6893488e+19
2.8977745 -2 -1.9559979
1.0842022e-19 3.0216982 -2
2.9223838 0 -1.9726778
1.0842022e-19 2.7707524 -1.0842022e-19
2.6709135 -2 -1.880111
-0 2.7101171 1.0842022e-19
2.6307509 -3.6893488e+19 -1.8682939
-3.6893488e+19 2.6861238 2
2.5733991 1.0842022e-19 -1.8613622
-0 2.6285105 0
2.5632207 -3.6893488e+19 -1.852621
-0 2.6214075 0
2.5254099 -1.0842022e-19 -1.8521638
0 2.5738595 -0
2.5179963 2 -1.8432901
3.6893488e+19 2.5677474 0
2.4712386 -1.0842022e-19 -1.8414953
-3.6893488e+19 2.5295196 0
2.46261 3.6893488e+19 -1.8337303
2 2.5288408 0
2.4135377 3.6893488e+19 -1.8344481
-0 2.5007634 3.6893488e+19
2.4150178 -1.0842022e-19 -1.8305138
-1.0842022e-19 2.4965339 -0
2.3681948 -0 -1.8288255
-2 2.4432855 -1.0842022e-19
2.3668225 -2 -1.8227994
-0 2.4466329 1.0842022e-19
2.3311918 -2 -1.8239619
1.0842022e-19 2.4054205 -1.0842022e-19
2.3354888 -3.6893488e+19 -1.8206961
0 2.4105642 -3.6893488e+19
2.3044455 2 -1.8222686
2 2.3666263 -2
2.3033862 -0 -1.8153646
-3.6893488e+19 2.3761213 0
2.2789054 2 -1.8189082
3.6893488e+19 2.3702393 -1.0842022e-19
2.2574 -1.0842022e-19 -1.8180901
-0 2.3475201 -2
2.2332103 1.0842022e-19 -1.8181891
-2 2.2986803 2
2.1653011 -2 -1.8116239
-1.0842022e-19 2.265806 3.6893488e+19
2.1195908 -0 -1.8094683
-1.0842022e-19 2.2294009 0
2.0832922 2 -1.8079966
-3.6893488e+19 2.1539993 -1.0842022e-19
2.0843129 1.0842022e-19 -1.8043671
-3.6893488e+19 2.1181512 0
2.0546484 3.6893488e+19 -1.8021994
-0 2.0816562 2
2.0244484 -1.0842022e-19 -1.7970829
1.0842022e-19 2.053581 -2
2.0012157 2 -1.7939751
-2 3.1682725 2
3.0751247 -3.6893488e+19 2.7338548
3.6893488e+19 3.1525035 0
3.0628674 2 2.6561503
-3.6893488e+19 3.1904082 -0
3.076576 2 2.6078479
-2 3.1857893 -3.6893488e+19
3.0731509 -3.6893488e+19 2.5885828
-3.6893488e+19 3.1655371 2
3.0938606 3.6893488e+19 2.5789046
-1.0842022e-19 3.1904488 3.6893488e+19
3.076606 0 2.5765562
1.0842022e-19 3.1623473 3.6893488e+19
3.0912209 3.6893488e+19 2.561126
-3.6893488e+19 3.1856263 -1.0842022e-19
3.07303 3.6893488e+19 2.5575373
1.0842022e-19 3.1537879 0
3.0841379 1.0842022e-19 2.539758
1.0842022e-19 3.182066 -3.6893488e+19
3.0703897 1.0842022e-19 2.5397398
-1.0842022e-19 3.1541908 -3.6893488e+19
3.0844712 3.6893488e+19 2.5251541
2 3.1567008 -1.0842022e-19
3.0865483 1.0842022e-19 2.5119019
3.6893488e+19 3.106123 3.6893488e+19
2.9951723 1.0842022e-19 2.405834
0 3.1608346 0
3.0693431 2 2.4721761
-1.0842022e-19 3.1047468 -3.6893488e+19
2.9932587 -1.0842022e-19 2.379858
1.0842022e-19 3.0924037 -0
3.0161514 -2 2.3690522
2 3.1076901 -1.0842022e-19
2.9973512 -1.0842022e-19 2.3584371
3.6893488e+19 3.0936558 1.0842022e-19
3.0171249 2 2.3458686
-3.6893488e+19 3.1024973 3.6893488e+19
2.9901311 0 2.3290575
-3.6893488e+19 3.0931728 -2
3.0167494 0 2.3209224
1.0842022e-19 3.1038234 0
2.9919748 0 2.3060555
2 3.09341 -1.0842022e-19
3.0169337 2 2.2966936
0 3.1055682 1.0842022e-19
2.9944007 -2 2.2832403
0 3.0909739 0
3.0150402 -3.6893488e+19 2.2703452
0 3.2003319 -2
3.0630825 1.0842022e-19 2.32795
0 3.0916684 2
3.0155799 -2 2.2432499
-0 3.2049842 1.0842022e-19
3.0663171 -2 2.3002806
-2 3.0896382 1.0842022e-19
3.0140021 3.6893488e+19 2.1921136
1.0842022e-19 3.0917513 2
3.0328021 0 2.1810663
1.0842022e-19 3.0960126 3.6893488e+19
3.0065787 0 2.1444988
1.0842022e-19 3.0847476 3.6893488e+19
3.0270064 1.0842022e-19 2.123615
-1.0842022e-19 3.0931337 -3.6893488e+19
3.0044439 -2 2.0934274
0 3.0822675 -0
3.0249541 -0 2.0726168
2 3.0914149 -3.6893488e+19
3.0031693 2 2.0442002
1.0842022e-19 3.0838833 -1.0842022e-19
3.0262911 -2 2.0257525
0 3.0905313 -0
3.0025141 3.6893488e+19 1.996074
-0 3.0845451 1.0842022e-19
3.026839 1.0842022e-19 1.9778067
-2 3.0807734 -0
2.990557 2 1.9430475
-0 3.0821826 2
3.024884 2 1.9280603
-2 3.0810587 -1.0842022e-19
2.9909801 0 1.8972089
2 3.0809104 -1.0842022e-19
3.0238311 3.6893488e+19 1.8794516
-1.0842022e-19 3.0802238 -3.6893488e+19
2.9897418 0 1.8269435
-0 3.0785625 3.6893488e+19
3.0218883 3.6893488e+19 1.7868994
-1.0842022e-19 3.0795734 1.0842022e-19
2.9887774 -0 1.7199926
-3.6893488e+19 3.0847354 0
2.9654341 3.6893488e+19 1.6276513
2 3.0805922 2
3.0069704 -1.0842022e-19 1.4006913
-3.6893488e+19 3.08284 0
2.9627986 3.6893488e+19 -1.4657912
-3.6893488e+19 3.1052845 -2
3.0261638 -1.0842022e-19 -1.6602596
1.0842022e-19 3.0851307 -3.6893488e+19
3.010498 0 -1.7952896
1.0842022e-19 3.0844657 3.6893488e+19
2.9650588 3.6893488e+19 -1.8338643
1.0842022e-19 3.0844026 0
3.0099323 0 -1.8822086
0 3.0477128 -2
2.9139555 -0 -1.8834107
-2 3.1041296 3.6893488e+19
3.0252662 3.6893488e+19 -1.9400673
-0 3.0446057 0
2.9096355 0 -1.9220711
2 3.032347 0
2.9389386 -1.0842022e-19 -1.9414595
1.0842022e-19 3.0360756 -3.6893488e+19
2.8977745 -2 -1.9559979
1.0842022e-19 3.0216982 -2
2.9223838 0 -1.9726778
1.0842022e-19 2.7707524 -1.0842022e-19
2.6709135 -2 -1.880111
-0 2.7101171 1.0842022e-19
2.6307509 -3.6893488e+19 -1.8682939
-3.6893488e+19 2.6861238 2
2.5733991 1.0842022e-19 -1.8613622
-0 2.6285105 0
2.5632207 -3.6893488e+19 -1.852621
-0 2.6214075 0
2.5254099 -1.0842022e-19 -1.8521638
0 2.5738595 -0
2.5179963 2 -1.8432901
3.6893488e+19 2.5677474 0
2.4712386 -1.0842022e-19 -1.8414953
-3.6893488e+19 2.5295196 0
2.46261 3.6893488e+19 -1.8337303
2 2.5288408 0
2.4135377 3.6893488e+19 -1.8344481
-0 2.5007634 3.6893488e+19
2.4150178 -1.0842022e-19 -1.8305138
-1.0842022e-19 2.4965339 -0
2.3681948 -0 -1.8288255
-2 2.4432855 -1.0842022e-19
2.3668225 -2 -1.8227994
-0 2.4466329 1.0842022e-19
2.3311918 -2 -1.8239619
1.0842022e-19 2.4054205 -1.0842022e-19
2.3354888 -3.6893488e+19 -1.8206961
0 2.4105642 -3.6893488e+19
2.3044455 2 -1.8222686
2 2.3666263 -2
2.3033862 -0 -1.8153646
-3.6893488e+19 2.3761213 0
2.2789054 2 -1.8189082
3.6893488e+19 2.3702393 -1.0842022e-19
2.2574 -1.0842022e-19 -1.8180901
-0 2.3475201 -2
2.2332103 1.0842022e-19 -1.8181891
-2 2.2986803 2
2.1653011 -2 -1.8116239
-1.0842022e-19 2.265806 3.6893488e+19
2.1195908 -0 -1.8094683
-1.0842022e-19 2.2294009 0
2.0832922 2 -1.8079966
-3.6893488e+19 2.1539993 -1.0842022e-19
2.0843129 1.0842022e-19 -1.8043671
-3.6893488e+19 2.1181512 0
2.0546484 3.6893488e+19 -1.8021994
-0 2.0816562 2
2.0244484 -1.0842022e-19 -1.7970829
1.0842022e-19 2.053581 -2
2.0012157 2 -1.7939751
-0 3.1493685 -0
3.0587575 1.0842022e-19 2.6521704
-0 3.2121308 -2
3.1303842 -1.0842022e-19 2.6664021
-1.0842022e-19 3.192385 1.0842022e-19
3.0762513 3.6893488e+19 2.6245143
-3.6893488e+19 3.2149408 2
3.1326973 -3.6893488e+19 2.6516535
-1.0842022e-19 3.1916833 -2
3.0757337 -1.0842022e-19 2.6081901
-1.0842022e-19 3.2100613 3.6893488e+19
3.1286809 1.0842022e-19 2.6303823
0 3.1867578 -0
3.0721011 -3.6893488e+19 2.5886791
-0 3.1624761 1.0842022e-19
3.0895131 -3.6893488e+19 2.5757773
2 3.191874 3.6893488e+19
3.0758743 -2 2.5769794
-1.0842022e-19 3.1646473 3.6893488e+19
3.0913002 0 2.5621867
-2 3.1824858 -3.6893488e+19
3.0689507 -1.0842022e-19 2.5547299
1.0842022e-19 3.1545651 3.6893488e+19
3.0830014 -3.6893488e+19 2.5396893
2 3.1851959 -0
3.0709493 -0 2.5412745
-1.0842022e-19 3.1542273 3.6893488e+19
3.0827234 -3.6893488e+19 2.5245852
3.6893488e+19 3.1849203 0
3.0707462 -3.6893488e+19 2.5257607
1.0842022e-19 3.1556406 3.6893488e+19
3.0838866 -2 2.5106554
-0 3.1780553 0
3.0656834 -1.0842022e-19 2.5063503
-0 3.1975577 -1.0842022e-19
3.0594199 0 2.5045538
1.0842022e-19 3.1752043 2
3.0787315 0 2.4877012
0 3.198014 -0
3.0597353 1.0842022e-19 2.4788578
-3.6893488e+19 3.0928283 0
3.0150456 -2 2.3687613
-3.6893488e+19 3.1969655 -0
3.0590105 3.6893488e+19 2.4470873
-0 3.0940337 -0
3.0159774 -3.6893488e+19 2.3455472
1.0842022e-19 3.1999619 0
3.0610821 3.6893488e+19 2.4192793
3.6893488e+19 3.1735349 0
3.077441 -2 2.3952711
1.0842022e-19 3.2047067 -1.0842022e-19
3.0643623 -3.6893488e+19 2.392606
0 3.172467 -3.6893488e+19
3.0766151 -0 2.3642561
2 3.2042084 -2
3.0640178 -0 2.36116
0 3.1743345 -2
3.078059 0 2.3357573
-3.6893488e+19 3.1990731 1.0842022e-19
3.0604677 -1.0842022e-19 2.3264406
-0 3.1802275 2
3.0826151 1.0842022e-19 2.3099201
-2 3.2058616 0
3.065161 -0 2.3003144
0 3.1736953 1.0842022e-19
3.077565 1.0842022e-19 2.2752073
2 3.1625247 0
3.0895531 -0 2.2596066
1.0842022e-19 3.1786392 -3.6893488e+19
3.0661137 -2 2.2377589
2 3.1449087 -3.6893488e+19
3.075053 -3.6893488e+19 2.1898105
0 3.1770415 0
3.0649357 1.0842022e-19 2.1765809
-0 3.1487827 -2
3.0782418 -1.0842022e-19 2.1363649
-3.6893488e+19 3.181628 -0
3.0683181 2 2.1212187
-1.0842022e-19 3.1494575 2
3.0787973 -2 2.0791984
0 3.1824265 -2
3.0689068 -1.0842022e-19 2.0618749
-2 3.1471229 -0
3.0768757 3.6893488e+19 2.0198352
1.0842022e-19 3.2080419 1.0842022e-19
3.0877979 -2 2.0168076
1.0842022e-19 3.1446233 -0
3.0748181 -3.6893488e+19 1.961074
3.6893488e+19 3.0813229 -1.0842022e-19
2.9886897 0 1.8970416
-2 3.1349628 3.6893488e+19
3.0668666 3.6893488e+19 1.900272
0 3.0816934 2
2.9892361 -3.6893488e+19 1.8274499
-0 3.0793693 -2
3.021107 3.6893488e+19 1.7869469
0 3.0818717 -0
2.9894991 -3.6893488e+19 1.7210984
-1.0842022e-19 3.0839038 -2
2.9616902 -3.6893488e+19 1.6271033
0 3.0814118 -0
3.0062191 -1.0842022e-19 1.4007587
-2 3.1799407 1.0842022e-19
3.0472405 -2 -1.5141197
-1.0842022e-19 3.1074646 -0
3.026361 -2 -1.6609162
-3.6893488e+19 3.083637 -3.6893488e+19
2.9613214 3.6893488e+19 -1.7349297
0 3.1067252 -1.0842022e-19
3.0257893 2 -1.8058951
1.0842022e-19 3.0955336 0
2.9777708 3.6893488e+19 -1.8403848
-3.6893488e+19 3.1028044 3.6893488e+19
3.0227582 2 -1.8892013
0 3.1048982 2
3.0243769 3.6893488e+19 -1.9400938
-1.0842022e-19 3.095731 -1.0842022e-19
2.9780438 2 -1.951566
-3.6893488e+19 3.1042802 0
3.0238993 2 -1.9897509
-0 3.035439 0
2.8946779 -3.6893488e+19 -1.9551671
2 3.0206935 -3.6893488e+19
2.9185541 0 -1.9714049
-3.6893488e+19 2.7827606 0
2.6872129 -2 -1.8856063
-2 2.7084129 -0
2.6273241 -2 -1.8668699
-1.0842022e-19 2.6865668 2
2.5719604 -3.6893488e+19 -1.8611448
-3.6893488e+19 2.6263418 -1.0842022e-19
2.5597706 0 -1.8508288
-1.0842022e-19 2.6220264 3.6893488e+19
2.524363 -0 -1.8521025
-0 2.5747521 -0
2.5173066 0 -1.8434197
-3.6893488e+19 2.5678608 1.0842022e-19
2.4688339 -3.6893488e+19 -1.841154
-0 2.530509 -0
2.4617794 2 -1.8340173
-3.6893488e+19 2.5287788 -3.6893488e+19
2.4111891 1.0842022e-19 -1.8339969
-3.6893488e+19 2.5003433 0
2.4121203 -0 -1.8297271
-3.6893488e+19 2.4993002 1.0842022e-19
2.3682253 -2 -1.8295648
1.0842022e-19 2.4442439 3.6893488e+19
2.3656614 -2 -1.8227994
-3.6893488e+19 2.4474978 -0
2.3300219 -2 -1.8239619
1.0842022e-19 2.4011078 3.6893488e+19
2.3301556 1.0842022e-19 -1.8181968
1.0842022e-19 2.4129615 2
2.3045518 3.6893488e+19 -1.8230369
-2 2.365114 -3.6893488e+19
2.3005288 -0 -1.8141705
-3.6893488e+19 2.3732474 1.0842022e-19
2.2752635 0 -1.8170546
2 2.3713205 3.6893488e+19
2.2567132 3.6893488e+19 -1.818303
-0 3.1493685 -0
3.0587575 1.0842022e-19 2.6521704
-0 3.2121308 -2
3.1303842 -1.0842022e-19 2.6664021
-1.0842022e-19 3.192385 1.0842022e-19
3.0762513 3.6893488e+19 2.6245143
-3.6893488e+19 3.2149408 2
3.1326973 -3.6893488e+19 2.6516535
-1.0842022e-19 3.1916833 -2
3.0757337 -1.0842022e-19 2.6081901
-3.6893488e+19 3.1706526 1.0842022e-19
3.0962434 -1.0842022e-19 2.5977988
0 3.1867578 -0
3.0721011 -3.6893488e+19 2.5886791
-0 3.1624761 1.0842022e-19
3.0895131 -3.6893488e+19 2.5757773
2 3.191874 3.6893488e+19
3.0758743 -2 2.5769794
-1.0842022e-19 3.1646473 3.6893488e+19
3.0913002 0 2.5621867
-2 3.1824858 -3.6893488e+19
3.0689507 -1.0842022e-19 2.5547299
1.0842022e-19 3.1545651 3.6893488e+19
3.0830014 -3.6893488e+19 2.5396893
2 3.1851959 -0
3.0709493 -0 2.5412745
-1.0842022e-19 3.1542273 3.6893488e+19
3.0827234 -3.6893488e+19 2.5245852
3.6893488e+19 3.1849203 0
3.0707462 -3.6893488e+19 2.5257607
1.0842022e-19 3.1556406 3.6893488e+19
3.0838866 -2 2.5106554
-0 3.1780553 0
3.0656834 -1.0842022e-19 2.5063503
-0 3.1058505 -3.6893488e+19
2.9920359 0 2.4047885
0 3.0919764 0
3.0143869 2 2.3922403
0 3.198014 -0
3.0597353 1.0842022e-19 2.4788578
-3.6893488e+19 3.0928283 0
3.0150456 -2 2.3687613
-1.0842022e-19 3.1060126 3.6893488e+19
2.9922602 2 2.3561096
-0 3.0940337 -0
3.0159774 -3.6893488e+19 2.3455472
-1.0842022e-19 3.1060033 3.6893488e+19
2.9922473 -1.0842022e-19 2.3317277
-3.6893488e+19 3.0930326 -0
3.0152035 -1.0842022e-19 2.3201411
3.6893488e+19 3.1041842 -3.6893488e+19
2.9897318 0 2.3058124
3.6893488e+19 3.0929987 3.6893488e+19
3.0151772 3.6893488e+19 2.2957377
-0 3.1052914 -0
2.9912629 -3.6893488e+19 2.2825069
1.0842022e-19 3.0928493 -0
3.0150616 2 2.2712815
-0 3.1068182 3.6893488e+19
2.9933741 0 2.2593787
-3.6893488e+19 3.0901425 -3.6893488e+19
3.012969 0 2.2400525
-2 3.2058616 0
3.065161 -0 2.3003144
3.6893488e+19 3.0922277 1.0842022e-19
3.0145812 -1.0842022e-19 2.1945815
2 3.0930681 0
3.0323827 3.6893488e+19 2.1817937
-3.6893488e+19 3.0891247 -3.6893488e+19
3.0000985 -1.0842022e-19 2.1358984
-1.0842022e-19 3.0932772 2
3.0325549 2 2.1323087
0 3.1770415 0
3.0649357 1.0842022e-19 2.1765809
-0 3.1487827 -2
3.0782418 -1.0842022e-19 2.1363649
-1.0842022e-19 3.0907695 -1.0842022e-19
3.0013115 0 2.0430765
2 3.0845568 -3.6893488e+19
3.0253768 0 2.025713
-0 3.0832736 1.0842022e-19
2.9915671 3.6893488e+19 1.990364
-1.0842022e-19 3.0855336 3.6893488e+19
3.026181 1.0842022e-19 1.9779869
3.6893488e+19 3.080132 2
2.9869332 3.6893488e+19 1.9423007
-3.6893488e+19 3.0851438 -2
3.0258601 -2 1.92926
3.6893488e+19 3.0813229 -1.0842022e-19
2.9886897 0 1.8970416
0 3.0827115 -2
3.0238578 1.0842022e-19 1.8798754
0 3.0816934 2
2.9892361 -3.6893488e+19 1.8274499
-0 3.0793693 -2
3.021107 3.6893488e+19 1.7869469
0 3.0818717 -0
2.9894991 -3.6893488e+19 1.7210984
-1.0842022e-19 3.0839038 -2
2.9616902 -3.6893488e+19 1.6271033
0 3.0814118 -0
3.0062191 -1.0842022e-19 1.4007587
-2 3.0846782 0
2.9627612 -0 -1.4665897
-2 3.0819013 2
3.0065978 -0 -1.6494087
-3.6893488e+19 3.083637 -3.6893488e+19
2.9613214 3.6893488e+19 -1.7349297
2 3.0838335 2
3.0080914 1.0842022e-19 -1.7942867
1.0842022e-19 3.0955336 0
2.9777708 3.6893488e+19 -1.8403848
0 3.0859962 -3.6893488e+19
3.0097632 0 -1.8825694
0 3.1048982 2
3.0243769 3.6893488e+19 -1.9400938
-3.6893488e+19 3.0360451 3.6893488e+19
2.8955159 0 -1.9167683
1.0842022e-19 3.0304987 -3.6893488e+19
2.9337151 2 -1.9398209
-0 3.035439 0
2.8946779 -3.6893488e+19 -1.9551671
2 3.0206935 -3.6893488e+19
2.9185541 0 -1.9714049
-3.6893488e+19 2.7827606 0
2.6872129 -2 -1.8856063
-2 2.7084129 -0
2.6273241 -2 -1.8668699
-1.0842022e-19 2.6865668 2
2.5719604 -3.6893488e+19 -1.8611448
-3.6893488e+19 2.6263418 -1.0842022e-19
2.5597706 0 -1.8508288
-1.0842022e-19 2.6220264 3.6893488e+19
2.524363 -0 -1.8521025
-0 2.5747521 -0
2.5173066 0 -1.8434197
-3.6893488e+19 2.5678608 1.0842022e-19
2.4688339 -3.6893488e+19 -1.841154
-0 2.530509 -0
2.4617794 2 -1.8340173
-3.6893488e+19 2.5287788 -3.6893488e+19
2.4111891 1.0842022e-19 -1.8339969
-3.6893488e+19 2.5003433 0
2.4121203 -0 -1.8297271
-3.6893488e+19 2.4993002 1.0842022e-19
2.3682253 -2 -1.8295648
1.0842022e-19 2.4442439 3.6893488e+19
2.3656614 -2 -1.8227994
-3.6893488e+19 2.4474978 -0
2.3300219 -2 -1.8239619
1.0842022e-19 2.4011078 3.6893488e+19
2.3301556 1.0842022e-19 -1.8181968
1.0842022e-19 2.4129615 2
2.3045518 3.6893488e+19 -1.8230369
-2 2.365114 -3.6893488e+19
2.3005288 -0 -1.8141705
-3.6893488e+19 2.3732474 1.0842022e-19
2.2752635 0 -1.8170546
2 2.3713205 3.6893488e+19
2.2567132 3.6893488e+19 -1.818303
-0 3.2126336 1.0842022e-19
3.1287329 -0 2.6655135
1.0842022e-19 3.192919 1.0842022e-19
3.0748248 -0 2.623837
0 3.2144232 -0
3.1301978 2 2.6498983
0 3.1903994 -2
3.0729768 0 2.6060576
1.0842022e-19 3.2109394 -0
3.1273458 2 2.6298482
-0 3.1876769 -2
3.0709803 3.6893488e+19 2.5883389
-2 3.1636062 3.6893488e+19
3.0885968 -2 2.5755737
-2 3.1878426 -1.0842022e-19
3.0711019 -2 2.572974
0 3.1661172 -1.0842022e-19
3.0906522 -0 2.5622246
-3.6893488e+19 3.1832957 -0
3.0677674 1.0842022e-19 2.5543199
2 3.1874592 0
3.0708208 3.6893488e+19 2.5418301
-0 3.1549547 0
3.0815144 3.6893488e+19 2.5241063
-3.6893488e+19 3.1863837 2
3.0700321 -0 2.5257626
0 3.1553626 2
3.0818481 -1.0842022e-19 2.5095358
-1.0842022e-19 3.1795552 3.6893488e+19
3.0650241 -1.0842022e-19 2.5063672
-0 3.1977766 -2
3.0578094 2 2.5038259
-0 3.1655273 -3.6893488e+19
3.069483 -1.0842022e-19 2.4748816
-0 3.2008693 -3.6893488e+19
3.0599353 3.6893488e+19 2.4802513
-2 3.0933433 -3.6893488e+19
3.0139835 0 2.3679452
0 3.1973095 -2
3.0574882 2 2.4458435
-1.0842022e-19 3.0927756 2
3.0135472 3.6893488e+19 2.3429668
0 3.2049248 -0
3.0627232 1.0842022e-19 2.4223473
0 3.1765845 0
3.0779846 -3.6893488e+19 2.3965416
3.6893488e+19 3.20455 2
3.0624657 3.6893488e+19 2.3909738
-0 3.1744041 1.0842022e-19
3.0763083 0 2.3644221
-2 3.2029459 3.6893488e+19
3.061363 -0 2.3587222
2 3.1731143 -0
3.0753164 2 2.3333542
-0 3.1997514 -1.0842022e-19
3.0591669 -0 2.3255668
0 3.1791663 0
3.0799696 -0 2.3077607
-2 3.2016699 3.6893488e+19
3.0604858 2 2.2962377
2 3.174053 -0
3.0760381 0 2.2741239
-0 3.094234 -0
3.0318055 1.0842022e-19 2.1810668
1.0842022e-19 3.1792586 -2
3.0648065 1.0842022e-19 2.2360153
3.6893488e+19 3.1469369 -1.0842022e-19
3.0749505 -0 2.189666
3.6893488e+19 3.178236 -0
3.0640566 3.6893488e+19 2.1754491
3.6893488e+19 3.1487663 1.0842022e-19
3.0764482 -1.0842022e-19 2.1340618
3.6893488e+19 3.1818242 -2
3.0666881 3.6893488e+19 2.1191614
2 3.149466 -1.0842022e-19
3.0770209 1.0842022e-19 2.0770416
1.0842022e-19 3.1866024 1.0842022e-19
3.0701923 0 2.0627558
-2 3.0802276 0
2.9843602 -3.6893488e+19 1.9408349
-2 3.1458282 2
3.074043 -1.0842022e-19 1.9598261
2 3.0802112 1.0842022e-19
2.9843359 -2 1.8951168
-1.0842022e-19 3.134043 -1.0842022e-19
3.064395 3.6893488e+19 1.8981986
-2 3.081665 1.0842022e-19
2.9864686 0 1.8247385
3.6893488e+19 3.1325846 -2
3.063201 -3.6893488e+19 1.8099389
1.0842022e-19 3.1195157 2
3.0209928 1.0842022e-19 1.7405763
2 3.0825357 -1.0842022e-19
2.9571817 1.0842022e-19 1.6186851
-1.0842022e-19 3.0839767 3.6893488e+19
3.0067821 -3.6893488e+19 1.3827904
0 3.1811182 -0
3.0463581 3.6893488e+19 -1.525932
-1.0842022e-19 3.084244 2
3.0069876 -3.6893488e+19 -1.6548638
-2 3.0835552 2
2.9585836 2 -1.7389623
0 3.1003244 3.6893488e+19
3.019351 -2 -1.8047527
-0 3.1330924 -3.6893488e+19
3.0133443 -1.0842022e-19 -1.8659551
3.6893488e+19 3.1029351 -2
3.0213583 -2 -1.8902104
1.0842022e-19 3.0958893 -1.0842022e-19
2.9755406 -1.0842022e-19 -1.9056071
0 3.1027296 -1.0842022e-19
3.0212002 0 -1.9397875
0 3.0383978 -3.6893488e+19
2.8964992 -2 -1.9188091
-3.6893488e+19 3.1050074 0
3.0229518 -0 -1.9910014
-1.0842022e-19 3.0369661 0
2.8945312 -2 -1.9568596
0 3.0221648 3.6893488e+19
2.9185143 3.6893488e+19 -1.9731112
3.6893488e+19 2.7852211 -3.6893488e+19
2.6885912 3.6893488e+19 -1.8870088
-1.0842022e-19 2.7123115 2
2.6284692 1.0842022e-19 -1.8692299
0 2.6873193 2
2.5707181 2 -1.8618478
-0 2.6307356 3.6893488e+19
2.5616875 -3.6893488e+19 -1.8536549
-0 2.6225517 2
2.5232193 2 -1.852625
3.6893488e+19 2.5760393 3.6893488e+19
2.5169106 -0 -1.8443966
-0 2.5703919 -1.0842022e-19
2.4699335 -1.0842022e-19 -1.8430055
-1.0842022e-19 2.5313132 -1.0842022e-19
2.4605916 -2 -1.8346683
3.6893488e+19 2.52882 2
2.4089582 -2 -1.8341036
0 2.4998491 -0
2.409199 2 -1.8293912
0 2.4998717 -3.6893488e+19
2.3665922 -3.6893488e+19 -1.8298333
-0 2.4459817 3.6893488e+19
2.3651009 2 -1.8235444
-1.0842022e-19 2.449775 3.6893488e+19
2.3298528 2 -1.824975
3.6893488e+19 2.4029434 -2
2.3298676 -0 -1.8190231
2 2.4117587 3.6893488e+19
2.3019726 2 -1.822433
2 2.3664854 -2
2.3000214 3.6893488e+19 -1.8147997
0 2.3737731 0
2.2741151 -2 -1.8172752
1.0842022e-19 2.3717921 1.0842022e-19
2.2555764 -1.0842022e-19 -1.8185115
2 2.3479662 0
2.2283962 -2 -1.8180304
0 2.3028319 -2
2.1663437 3.6893488e+19 -1.8137888
-1.0842022e-19 2.2663641 0
2.1162069 3.6893488e+19 -1.8094119
3.6893488e+19 2.2295139 -3.6893488e+19
2.0796261 2 -1.8075805
0 2.1538415 2
2.0806029 -2 -1.8037063
-0 2.1174614 -0
2.0508206 2 -1.8012713
2 2.0827107 -0
2.022372 -1.0842022e-19 -1.797037
3.6893488e+19 2.0503533 2
1.9958829 1.0842022e-19 -1.7915949
-0 3.2126336 1.0842022e-19
3.1287329 -0 2.6655135
1.0842022e-19 3.192919 1.0842022e-19
3.0748248 -0 2.623837
0 3.2144232 -0
3.1301978 2 2.6498983
0 3.1903994 -2
3.0729768 0 2.6060576
1.0842022e-19 3.2109394 -0
3.1273458 2 2.6298482
-0 3.1876769 -2
3.0709803 3.6893488e+19 2.5883389
-2 3.1636062 3.6893488e+19
3.0885968 -2 2.5755737
-2 3.1878426 -1.0842022e-19
3.0711019 -2 2.572974
0 3.1661172 -1.0842022e-19
3.0906522 -0 2.5622246
-3.6893488e+19 3.1832957 -0
3.0677674 1.0842022e-19 2.5543199
2 3.1874592 0
3.0708208 3.6893488e+19 2.5418301
-0 3.1549547 0
3.0815144 3.6893488e+19 2.5241063
-0 3.1642859 2
3.0538261 1.0842022e-19 2.5117984
0 3.1553626 2
3.0818481 -1.0842022e-19 2.5095358
3.6893488e+19 3.1658947 -3.6893488e+19
3.0550058 0 2.496429
1.0842022e-19 3.1061034 0
2.9895835 3.6893488e+19 2.4037204
0 3.0930071 2
3.013725 -3.6893488e+19 2.3920023
-0 3.2008693 -3.6893488e+19
3.0599353 3.6893488e+19 2.4802513
-2 3.0933433 -3.6893488e+19
3.0139835 0 2.3679452
0 3.1074429 -2
2.9914248 -1.0842022e-19 2.3562713
-1.0842022e-19 3.0927756 2
3.0135472 3.6893488e+19 2.3429668
-3.6893488e+19 3.1059465 2
2.989368 -3.6893488e+19 2.330457
1.0842022e-19 3.0941391 -3.6893488e+19
3.0145953 2 2.3199027
2 3.1056623 -1.0842022e-19
2.988977 -2 2.305917
2 3.0931668 -0
3.0138478 -0 2.2946661
1.0842022e-19 3.1061044 -0
2.9895847 -3.6893488e+19 2.2820258
0 3.0945723 -3.6893488e+19
3.0149283 -1.0842022e-19 2.2714741
3.6893488e+19 3.107197 -1.0842022e-19
2.991087 -3.6893488e+19 2.2585683
1.0842022e-19 3.0941584 2
3.0146103 1.0842022e-19 2.2436011
-1.0842022e-19 3.1078107 -3.6893488e+19
2.9919307 0 2.2193563
2 3.0943947 1.0842022e-19
3.014792 0 2.1952596
-0 3.094234 -0
3.0318055 1.0842022e-19 2.1810668
-1.0842022e-19 3.086951 2
2.9942217 3.6893488e+19 2.1315029
2 3.0950229 2
3.0324514 -3.6893488e+19 2.1321635
1.0842022e-19 3.0878572 -0
2.9955506 0 2.0856586
3.6893488e+19 3.0951433 -2
3.0325499 1.0842022e-19 2.0824163
-2 3.0887473 -2
2.9968562 3.6893488e+19 2.0395911
-1.0842022e-19 3.0843742 -1.0842022e-19
3.0237339 0 2.0237513
2 3.0892186 -3.6893488e+19
2.9975474 -3.6893488e+19 1.9929959
-2 3.0802276 0
2.9843602 -3.6893488e+19 1.9408349
-0 3.0848405 -2
3.0241156 2 1.9274969
2 3.0802112 1.0842022e-19
2.9843359 -2 1.8951168
0 3.0839736 -2
3.0234058 3.6893488e+19 1.8788773
-2 3.081665 1.0842022e-19
2.9864686 0 1.8247385
2 3.0820262 2
3.0218117 -2 1.7854993
-0 3.0840356 -0
2.9899454 2 1.7174767
2 3.0825357 -1.0842022e-19
2.9571817 1.0842022e-19 1.6186851
-1.0842022e-19 3.0839767 3.6893488e+19
3.0067821 -3.6893488e+19 1.3827904
-3.6893488e+19 3.0841351 0
2.9593809 1.0842022e-19 -1.4839576
-1.0842022e-19 3.084244 2
3.0069876 -3.6893488e+19 -1.6548638
-2 3.0835552 2
2.9585836 2 -1.7389623
-0 3.082216 1.0842022e-19
3.0054283 -1.0842022e-19 -1.7954613
-1.0842022e-19 3.0873108 3.6893488e+19
2.9637468 1.0842022e-19 -1.8371598
0 3.0867114 -1.0842022e-19
3.0088844 3.6893488e+19 -1.8837652
1.0842022e-19 3.0958893 -1.0842022e-19
2.9755406 -1.0842022e-19 -1.9056071
0 3.1027296 -1.0842022e-19
3.0212002 0 -1.9397875
0 3.0383978 -3.6893488e+19
2.8964992 -2 -1.9188091
3.6893488e+19 3.0311735 0
2.9323673 -3.6893488e+19 -1.9408782
-1.0842022e-19 3.0369661 0
2.8945312 -2 -1.9568596
0 3.0221648 3.6893488e+19
2.9185143 3.6893488e+19 -1.9731112
3.6893488e+19 2.7852211 -3.6893488e+19
2.6885912 3.6893488e+19 -1.8870088
-1.0842022e-19 2.7123115 2
2.6284692 1.0842022e-19 -1.8692299
0 2.6873193 2
2.5707181 2 -1.8618478
-0 2.6307356 3.6893488e+19
2.5616875 -3.6893488e+19 -1.8536549
-0 2.6225517 2
2.5232193 2 -1.852625
3.6893488e+19 2.5760393 3.6893488e+19
2.5169106 -0 -1.8443966
-0 2.5703919 -1.0842022e-19
2.4699335 -1.0842022e-19 -1.8430055
-1.0842022e-19 2.5313132 -1.0842022e-19
2.4605916 -2 -1.8346683
3.6893488e+19 2.52882 2
2.4089582 -2 -1.8341036
0 2.4998491 -0
2.409199 2 -1.8293912
0 2.4998717 -3.6893488e+19
2.3665922 -3.6893488e+19 -1.8298333
-0 2.4459817 3.6893488e+19
2.3651009 2 -1.8235444
-1.0842022e-19 2.449775 3.6893488e+19
2.3298528 2 -1.824975
3.6893488e+19 2.4029434 -2
2.3298676 -0 -1.8190231
2 2.4117587 3.6893488e+19
2.3019726 2 -1.822433
2 2.3664854 -2
2.3000214 3.6893488e+19 -1.8147997
0 2.3737731 0
2.2741151 -2 -1.8172752
1.0842022e-19 2.3717921 1.0842022e-19
2.2555764 -1.0842022e-19 -1.8185115
2 2.3479662 0
2.2283962 -2 -1.8180304
0 2.3028319 -2
2.1663437 3.6893488e+19 -1.8137888
-1.0842022e-19 2.2663641 0
2.1162069 3.6893488e+19 -1.8094119
3.6893488e+19 2.2295139 -3.6893488e+19
2.0796261 2 -1.8075805
0 2.1538415 2
2.0806029 -2 -1.8037063
-0 2.1174614 -0
2.0508206 2 -1.8012713
2 2.0827107 -0
2.022372 -1.0842022e-19 -1.797037
3.6893488e+19 2.0503533 2
1.9958829 1.0842022e-19 -1.7915949
-0 3.2486069 -2
3.0908313 0 2.7045243
0 3.249655 3.6893488e+19
3.0915477 -0 2.6880298
2 3.2135525 3.6893488e+19
3.1274614 2 2.6654494
-0 3.1937683 3.6893488e+19
3.0736635 -0 2.623837
0 3.2142701 1.0842022e-19
3.1280458 3.6893488e+19 2.6489124
1.0842022e-19 3.1925397 -2
3.0727673 -1.0842022e-19 2.6071031
1.0842022e-19 3.2121177 -3.6893488e+19
3.1262929 -0 2.6300056
-1.0842022e-19 3.1886659 -1.0842022e-19
3.069942 -2 2.5884542
1.0842022e-19 3.1701934 -0
3.092155 -3.6893488e+19 2.5800521
-0 3.1894815 -1.0842022e-19
3.0705369 -1.0842022e-19 2.5735624
2 3.1673198 1.0842022e-19
3.0898151 -0 2.562458
2 3.1898015 2
3.0707703 -2 2.5582976
-2 3.1665316 -0
3.0891733 1.0842022e-19 2.5465879
0 3.1885734 2
3.0698745 1.0842022e-19 2.5420134
-3.6893488e+19 3.1894245 -1.0842022e-19
3.0704954 0 2.5271528
3.6893488e+19 3.1810808 -3.6893488e+19
3.0644097 1.0842022e-19 2.5067854
-0 3.201195 -1.0842022e-19
3.0584221 3.6893488e+19 2.5053048
3.6893488e+19 3.1756866 2
3.0755236 -1.0842022e-19 2.4855158
3.6893488e+19 3.2024233 2
3.0592618 -3.6893488e+19 2.4810419
-0 3.0939102 1.0842022e-19
3.012989 3.6893488e+19 2.3678131
-3.6893488e+19 3.1958804 -0
3.0547893 0 2.4436221
-1.0842022e-19 3.18647 1.0842022e-19
3.0837698 1.0842022e-19 2.4358373
3.6893488e+19 3.206898 3.6893488e+19
3.0623205 2 2.4234183
-1.0842022e-19 3.1787274 3.6893488e+19
3.0778489 -0 2.3977342
-3.6893488e+19 3.2061892 -1.0842022e-19
3.061836 -1.0842022e-19 2.3916798
1.0842022e-19 3.1765437 1.0842022e-19
3.076179 -3.6893488e+19 2.3655241
-0 3.1994145 -2
3.057205 3.6893488e+19 2.3552868
-2 3.1725543 -2
3.0731282 1.0842022e-19 2.3322451
-1.0842022e-19 3.2016659 -2
3.058744 -0 2.3263662
0 3.1810939 3.6893488e+19
3.0796585 -1.0842022e-19 2.3085227
2 3.2019155 1.0842022e-19
3.0589147 2 2.295867
0 3.1747074 2
3.0747747 -2 2.2739959
1.0842022e-19 3.1476769 1.0842022e-19
3.0738204 -0 2.2469265
-3.6893488e+19 3.1806109 -1.0842022e-19
3.0640671 0 2.2366135
3.6893488e+19 3.1471334 -2
3.0733776 -1.0842022e-19 2.1889439
0 3.1796625 -1.0842022e-19
3.0633752 -0 2.1760492
-1.0842022e-19 3.1491842 3.6893488e+19
3.0750477 2 2.1336432
0 3.1858306 -2
3.067874 -3.6893488e+19 2.1218731
-2 3.1487472 -3.6893488e+19
3.0746918 1.0842022e-19 2.0757558
-2 3.1874647 2
3.069066 -2 2.0627737
3.6893488e+19 3.1485813 -3.6893488e+19
3.0745566 1.0842022e-19 2.0182197
1.0842022e-19 3.0909307 0
2.9973173 1.0842022e-19 1.946643
2 3.1499946 -2
3.0757074 -3.6893488e+19 1.9615816
2 3.0811977 -1.0842022e-19
2.9831197 0 1.8952719
2 3.0812156 0
2.983146 -0 1.824086
0 3.0860083 -2
3.0236046 0 1.7870773
2 3.1075754 3.6893488e+19
3.0107985 1.0842022e-19 1.7323569
-0 3.0829785 -1.0842022e-19
2.9552264 2 1.6185719
-2 3.0814459 3.6893488e+19
3.0034575 -1.0842022e-19 1.3815198
3.6893488e+19 3.1828732 3.6893488e+19
3.045898 2 -1.5262746
3.6893488e+19 3.0855615 -0
3.0066047 3.6893488e+19 -1.6551623
0 3.0863218 2
2.9597971 -2 -1.7405119
-3.6893488e+19 3.1077056 -1.0842022e-19
3.0235384 -1.0842022e-19 -1.8081719
3.6893488e+19 3.0864725 -2
2.9600031 1.0842022e-19 -1.8362528
-2 3.1066973 -1.0842022e-19
3.0227673 -1.0842022e-19 -1.8914207
-1.0842022e-19 3.0897276 -1.0842022e-19
2.9644535 -3.6893488e+19 -1.9025609
1.0842022e-19 3.1030416 0
3.0199718 3.6893488e+19 -1.9395742
1.0842022e-19 3.0957761 -3.6893488e+19
2.9727223 -2 -1.9520315
3.6893488e+19 3.1048033 -1.0842022e-19
3.0213189 -1.0842022e-19 -1.9903795
2 3.037585 1.0842022e-19
2.8931675 1.0842022e-19 -1.9569339
-3.6893488e+19 3.0233567 -2
2.9180732 1.0842022e-19 -1.9736388
3.6893488e+19 2.7769673 2
2.6735952 -2 -1.882777
3.6893488e+19 2.714463 1.0842022e-19
2.6282029 0 -1.8698423
0 2.6867461 3.6893488e+19
2.5685418 -0 -1.8610846
0 2.6303897 2
2.5597436 -0 -1.852959
0 2.621351 -0
2.5208457 0 -1.8514571
1.0842022e-19 2.5767374 -1.0842022e-19
2.5160556 -0 -1.8443966
-0 2.5715101 3.6893488e+19
2.4689884 -2 -1.8433477
2 2.5322056 1.0842022e-19
2.4595888 2 -1.834884
1.0842022e-19 2.5291533 -1.0842022e-19
2.4072022 0 -1.8339529
-2 2.5004594 1.0842022e-19
2.4078884 2 -1.8293912
-2 2.4998236 -2
2.3645475 -1.0842022e-19 -1.8294216
-1.0842022e-19 2.447516 -1.0842022e-19
2.3644032 -0 -1.8238018
0 2.4518447 -3.6893488e+19
2.3295538 -1.0842022e-19 -1.8255106
2 2.403034 2
2.3281825 -0 -1.8186522
-1.0842022e-19 2.4091303 -2
2.2984002 3.6893488e+19 -1.8207973
3.6893488e+19 2.3717065 -0
2.3026731 3.6893488e+19 -1.8170924
-0 2.3754942 -1.0842022e-19
2.2738676 2 -1.817791
0 2.3728707 -0
2.2548821 3.6893488e+19 -1.8187248
-0 3.2486069 -2
3.0908313 0 2.7045243
0 3.249655 3.6893488e+19
3.0915477 -0 2.6880298
2 3.2135525 3.6893488e+19
3.1274614 2 2.6654494
-0 3.1937683 3.6893488e+19
3.0736635 -0 2.623837
0 3.2142701 1.0842022e-19
3.1280458 3.6893488e+19 2.6489124
1.0842022e-19 3.1925397 -2
3.0727673 -1.0842022e-19 2.6071031
1.0842022e-19 3.2121177 -3.6893488e+19
3.1262929 -0 2.6300056
-1.0842022e-19 3.1886659 -1.0842022e-19
3.069942 -2 2.5884542
1.0842022e-19 3.1701934 -0
3.092155 -3.6893488e+19 2.5800521
-0 3.1894815 -1.0842022e-19
3.0705369 -1.0842022e-19 2.5735624
2 3.1673198 1.0842022e-19
3.0898151 -0 2.562458
2 3.1898015 2
3.0707703 -2 2.5582976
-2 3.1665316 -0
3.0891733 1.0842022e-19 2.5465879
0 3.1885734 2
3.0698745 1.0842022e-19 2.5420134
-3.6893488e+19 3.1894245 -1.0842022e-19
3.0704954 0 2.5271528
3.6893488e+19 3.1810808 -3.6893488e+19
3.0644097 1.0842022e-19 2.5067854
-1.0842022e-19 3.1048727 1.0842022e-19
2.9851589 3.6893488e+19 2.4016035
-2 3.0936472 -3.6893488e+19
3.0127878 -3.6893488e+19 2.3919461
3.6893488e+19 3.1053839 0
2.9858577 -2 2.3778641
-0 3.0939102 1.0842022e-19
3.012989 3.6893488e+19 2.3678131
-0 3.1054931 2
2.986007 -3.6893488e+19 2.3536923
3.6893488e+19 3.0946012 1.0842022e-19
3.0135174 -0 2.3441014
1.0842022e-19 3.1068432 -3.6893488e+19
2.9878526 1.0842022e-19 2.3306952
0 3.0932984 -0
3.012521 -3.6893488e+19 2.3184807
-3.6893488e+19 3.1071751 -3.6893488e+19
2.9883065 2 2.3066673
-2 3.0950439 -0
3.0138559 -3.6893488e+19 2.2956834
0 3.1066415 0
2.987577 -3.6893488e+19 2.2819445
-0 3.0961807 -0
3.0147252 -0 2.2721941
1.0842022e-19 3.1086109 -2
2.9902692 1.0842022e-19 2.2591262
0 3.0957665 -2
3.0144083 2 2.2449124
2 3.1074758 0
2.9887176 1.0842022e-19 2.2180755
3.6893488e+19 3.0953348 2
3.0140784 -2 2.1955791
1.0842022e-19 3.1476769 1.0842022e-19
3.0738204 -0 2.2469265
-1.0842022e-19 3.0874207 -3.6893488e+19
2.9921973 1.0842022e-19 2.1313035
-2 3.1043758 -2
3.0385611 1.0842022e-19 2.141685
2 3.0862608 -1.0842022e-19
2.9905052 1.0842022e-19 2.0834332
0 3.1052017 -3.6893488e+19
3.0392334 -2 2.0913727
-0 3.0877321 -1.0842022e-19
2.9926515 3.6893488e+19 2.0381706
-0 3.0850174 1.0842022e-19
3.0227981 0 2.0236919
0 3.0898187 -1.0842022e-19
2.9956951 2 1.9929599
3.6893488e+19 3.1485813 -3.6893488e+19
3.0745566 1.0842022e-19 2.0182197
1.0842022e-19 3.0909307 0
2.9973173 1.0842022e-19 1.946643
2 3.1499946 -2
3.0757074 -3.6893488e+19 1.9615816
2 3.0811977 -1.0842022e-19
2.9831197 0 1.8952719
2 3.0812156 0
2.983146 -0 1.824086
0 3.0860083 -2
3.0236046 0 1.7870773
-0 3.0826817 0
2.9852846 1.0842022e-19 1.7161807
-0 3.0829785 -1.0842022e-19
2.9552264 2 1.6185719
-2 3.0814459 3.6893488e+19
3.0034575 -1.0842022e-19 1.3815198
-0 3.0848389 3.6893488e+19
2.9577699 2 -1.4840298
3.6893488e+19 3.0855615 -0
3.0066047 3.6893488e+19 -1.6551623
0 3.0863218 2
2.9597971 -2 -1.7405119
-1.0842022e-19 3.0850434 0
3.0062087 0 -1.7965672
3.6893488e+19 3.0864725 -2
2.9600031 1.0842022e-19 -1.8362528
-1.0842022e-19 3.0854275 -3.6893488e+19
3.0065022 3.6893488e+19 -1.8829879
-1.0842022e-19 3.0897276 -1.0842022e-19
2.9644535 -3.6893488e+19 -1.9025609
2 3.0865893 1.0842022e-19
3.0073907 -2 -1.9307398
3.6893488e+19 3.0375235 -0
2.8930833 -2 -1.9179955
0 3.0356588 1.0842022e-19
2.936888 0 -1.943534
2 3.037585 1.0842022e-19
2.8931675 1.0842022e-19 -1.9569339
-3.6893488e+19 3.0233567 -2
2.9180732 1.0842022e-19 -1.9736388
3.6893488e+19 2.7769673 2
2.6735952 -2 -1.882777
3.6893488e+19 2.714463 1.0842022e-19
2.6282029 0 -1.8698423
0 2.6867461 3.6893488e+19
2.5685418 -0 -1.8610846
0 2.6303897 2
2.5597436 -0 -1.852959
0 2.621351 -0
2.5208457 0 -1.8514571
1.0842022e-19 2.5767374 -1.0842022e-19
2.5160556 -0 -1.8443966
-0 2.5715101 3.6893488e+19
2.4689884 -2 -1.8433477
2 2.5322056 1.0842022e-19
2.4595888 2 -1.834884
1.0842022e-19 2.5291533 -1.0842022e-19
2.4072022 0 -1.8339529
-2 2.5004594 1.0842022e-19
2.4078884 2 -1.8293912
-2 2.4998236 -2
2.3645475 -1.0842022e-19 -1.8294216
-1.0842022e-19 2.447516 -1.0842022e-19
2.3644032 -0 -1.8238018
0 2.4518447 -3.6893488e+19
2.3295538 -1.0842022e-19 -1.8255106
2 2.403034 2
2.3281825 -0 -1.8186522
-1.0842022e-19 2.4091303 -2
2.2984002 3.6893488e+19 -1.8207973
3.6893488e+19 2.3717065 -0
2.3026731 3.6893488e+19 -1.8170924
-0 2.3754942 -1.0842022e-19
2.2738676 2 -1.817791
0 2.3728707 -0
2.2548821 3.6893488e+19 -1.8187248
2 3.2379744 -1.0842022e-19
3.1211336 0 2.7707658
0 3.2500665 2
3.0899558 -0 2.705102
3.6893488e+19 3.2506299 1.0842022e-19
3.0907218 2 2.688653
2 3.2137022 3.6893488e+19
3.1255677 1.0842022e-19 2.6647005
3.6893488e+19 3.194839 2
3.0726628 1.0842022e-19 2.6240258
0 3.2136538 -3.6893488e+19
3.1255283 -3.6893488e+19 2.6475363
-2 3.1932836 3.6893488e+19
3.0715346 3.6893488e+19 2.6070228
-3.6893488e+19 3.2136531 1.0842022e-19
3.1255281 0 2.6304584
-3.6893488e+19 3.1892524 2
3.0686107 3.6893488e+19 2.5882618
2 3.1701279 -3.6893488e+19
3.0902753 -3.6893488e+19 2.5792994
-3.6893488e+19 3.1919458 -0
3.0705643 2 2.5747576
2 3.1696744 3.6893488e+19
3.0899081 -0 2.5635533
-2 3.1919675 3.6893488e+19
3.07058 2 2.5592265
0 3.1662159 2
3.0871069 -0 2.5457332
-0 3.1896353 -3.6893488e+19
3.0688882 1.0842022e-19 2.5421634
1.0842022e-19 3.1902878 -3.6893488e+19
3.0693614 3.6893488e+19 2.5271685
1.0842022e-19 3.1873529 -3.6893488e+19
3.0672326 -2 2.5100255
-0 3.1048908 -1.0842022e-19
2.9824605 2 2.4009075
-2 3.177551 3.6893488e+19
3.0751781 -1.0842022e-19 2.4866693
1.0842022e-19 3.2024612 1.0842022e-19
3.0575519 0 2.4802241
-0 3.0939548 -1.0842022e-19
3.0115981 3.6893488e+19 2.3671267
-0 3.2063699 -3.6893488e+19
3.0602086 2 2.4532483
0 3.1777639 0
3.07534 2 2.4262912
-2 3.2069941 -0
3.0606329 1.0842022e-19 2.4227519
-1.0842022e-19 3.1779995 -3.6893488e+19
3.0755191 -0 2.3962665
1.0842022e-19 3.1053679 3.6893488e+19
2.983109 -1.0842022e-19 2.3045712
-2 3.1767273 -1.0842022e-19
3.0745516 -0 2.3649518
-1.0842022e-19 3.2098258 -2
3.0625577 -1.0842022e-19 2.362869
2 3.175036 -3.6893488e+19
3.0732651 -3.6893488e+19 2.3335292
0 3.2045093 0
3.058944 1.0842022e-19 2.3278348
-0 3.1811867 -3.6893488e+19
3.0779431 -0 2.3079734
0 3.2037804 -3.6893488e+19
3.0584483 2 2.2965579
-3.6893488e+19 3.1750848 1.0842022e-19
3.0733025 1.0842022e-19 2.2736924
1.0842022e-19 3.1503417 2
3.07425 -0 2.2491934
-3.6893488e+19 3.1808259 2
3.0624986 -1.0842022e-19 2.2359297
-2 3.1487792 3.6893488e+19
3.0729845 -1.0842022e-19 2.1898265
3.6893488e+19 3.1821997 3.6893488e+19
3.0634949 -3.6893488e+19 2.1777494
3.6893488e+19 3.1494279 -3.6893488e+19
3.0735097 -3.6893488e+19 2.1330614
1.0842022e-19 3.1853223 0
3.0657599 3.6893488e+19 2.1207325
1.0842022e-19 3.1501546 3.6893488e+19
3.0740983 -0 2.0762107
0 3.1878188 1.0842022e-19
3.0675707 0 2.0624311
-3.6893488e+19 3.1497455 1.0842022e-19
3.0737672 -3.6893488e+19 2.0184314
-0 3.0904176 -0
2.9938421 0 1.9459734
-0 3.0862477 2
3.0223382 -3.6893488e+19 1.927484
-0 3.1012802 3.6893488e+19
3.0345135 1.0842022e-19 1.8849788
-0 3.1176877 -2
3.0167012 3.6893488e+19 1.8455878
3.6893488e+19 3.0909488 3.6893488e+19
3.0261457 -3.6893488e+19 1.7891109
-1.0842022e-19 3.1033499 -1.0842022e-19
3.0063014 2 1.7291741
3.6893488e+19 3.0837028 -0
2.9536562 -2 1.6186662
2 3.081089 2
3.0018129 -3.6893488e+19 1.3811159
3.6893488e+19 3.1881955 -0
3.0478549 -3.6893488e+19 -1.5278612
1.0842022e-19 3.0857351 2
3.0053465 -1.0842022e-19 -1.6549327
-2 3.0882149 -2
2.9597902 -1.0842022e-19 -1.7414343
-2 3.0848677 -3.6893488e+19
3.0046868 -2 -1.7961349
-3.6893488e+19 3.1188843 0
3.0007422 0 -1.8561894
1.0842022e-19 3.0866206 0
3.0060201 -2 -1.8831944
-0 3.089818 -0
2.9619696 -2 -1.9023293
-1.0842022e-19 3.1076512 -0
3.0220151 -1.0842022e-19 -1.9416662
3.6893488e+19 3.0897291 2
2.9618487 2 -1.9481443
0 3.1054881 -0
3.0203698 -1.0842022e-19 -1.9903626
2 3.0389254 -2
2.8927829 -2 -1.9575274
-0 3.0239034 3.6893488e+19
2.9166398 1.0842022e-19 -1.9736388
-0 2.7830367 -0
2.6805327 -0 -1.8854159
0 2.7133179 -1.0842022e-19
2.6252563 2 -1.8687196
3.6893488e+19 2.6836386 -3.6893488e+19
2.5645385 1.0842022e-19 -1.8589587
-3.6893488e+19 2.6310055 -1.0842022e-19
2.558589 -0 -1.852843
2 2.6210492 2
2.5191395 -0 -1.8508424
1.0842022e-19 2.5781116 0
2.5157485 2 -1.8448513
-1.0842022e-19 2.5720222 -3.6893488e+19
2.4671559 -1.0842022e-19 -1.8432792
1.0842022e-19 2.5331941 -0
2.4587364 -3.6893488e+19 -1.8351716
-2 2.5295846 1.0842022e-19
2.4055922 -2 -1.8338774
0 2.5017676 2
2.4078298 2 -1.8300221
1.0842022e-19 2.5009935 -3.6893488e+19
2.3641148 3.6893488e+19 -1.8299156
-2 2.4482753 1.0842022e-19
2.3630731 -3.6893488e+19 -1.8237159
-1.0842022e-19 2.4529078 2
2.3285155 -1.0842022e-19 -1.8255999
-1.0842022e-19 2.4091148 -2
2.3313556 -1.0842022e-19 -1.8211563
-0 2.4123278 -0
2.2990808 -2 -1.8219519
3.6893488e+19 2.3707583 2
2.3002894 -0 -1.8161952
0 2.3762105 3.6893488e+19
2.2728832 2 -1.817791
-3.6893488e+19 2.3735368 2
2.2539046 3.6893488e+19 -1.8187248
-2 2.3508577 3.6893488e+19
2.2269778 -2 -1.8189387
3.6893488e+19 2.3020725 -1.0842022e-19
2.160656 -2 -1.8126422
0 2.2667058 1.0842022e-19
2.1125762 -3.6893488e+19 -1.8089882
-1.0842022e-19 2.2349107 -3.6893488e+19
2.0796087 -1.0842022e-19 -1.8089753
-3.6893488e+19 2.1567166 -2
2.0794132 -0 -1.8042126
-1.0842022e-19 2.1171222 2
2.0473444 -1.0842022e-19 -1.8003589
-2 2.0860379 -2
2.0221682 -0 -1.7980179
-1.0842022e-19 2.0580955 3.6893488e+19
1.9995368 3.6893488e+19 -1.7951617
2 3.2379744 -1.0842022e-19
3.1211336 0 2.7707658
0 3.2500665 2
3.0899558 -0 2.705102
3.6893488e+19 3.2506299 1.0842022e-19
3.0907218 2 2.688653
2 3.2137022 3.6893488e+19
3.1255677 1.0842022e-19 2.6647005
3.6893488e+19 3.194839 2
3.0726628 1.0842022e-19 2.6240258
-3.6893488e+19 3.1530499 -3.6893488e+19
3.0764434 3.6893488e+19 2.5955749
-2 3.1932836 3.6893488e+19
3.0715346 3.6893488e+19 2.6070228
-3.6893488e+19 3.2136531 1.0842022e-19
3.1255281 0 2.6304584
-3.6893488e+19 3.1892524 2
3.0686107 3.6893488e+19 2.5882618
2 3.1447041 -1.0842022e-19
3.0696838 -0 2.5593722
-3.6893488e+19 3.1919458 -0
3.0705643 2 2.5747576
2 3.1696744 3.6893488e+19
3.0899081 -0 2.5635533
-2 3.1919675 3.6893488e+19
3.07058 2 2.5592265
0 3.1662159 2
3.0871069 -0 2.5457332
-0 3.1896353 -3.6893488e+19
3.0688882 1.0842022e-19 2.5421634
1.0842022e-19 3.1902878 -3.6893488e+19
3.0693614 3.6893488e+19 2.5271685
1.0842022e-19 3.1873529 -3.6893488e+19
3.0672326 -2 2.5100255
-0 3.1048908 -1.0842022e-19
2.9824605 2 2.4009075
-2 3.0947793 -2
3.0122252 -2 2.3924525
0 3.1049914 -1.0842022e-19
2.9825971 1.0842022e-19 2.3767736
-0 3.0939548 -1.0842022e-19
3.0115981 3.6893488e+19 2.3671267
0 3.1058457 -1.0842022e-19
2.9837584 -2 2.3534114
3.6893488e+19 3.0943496 0
3.0118985 0 2.3431642
0 3.1065805 -0
2.9847574 2 2.3298621
0 3.0929198 -1.0842022e-19
3.0108109 -3.6893488e+19 2.3174946
1.0842022e-19 3.1053679 3.6893488e+19
2.983109 -1.0842022e-19 2.3045712
-2 3.1767273 -1.0842022e-19
3.0745516 -0 2.3649518
-2 3.1082318 1.0842022e-19
2.9870026 -0 2.2826967
-2 3.0967736 -3.6893488e+19
3.013742 0 2.2721164
2 3.1080146 0
2.9867072 3.6893488e+19 2.2582338
-0 3.0951428 -0
3.0125017 -0 2.2430339
3.6893488e+19 3.1078825 -3.6893488e+19
2.9865274 -3.6893488e+19 2.217772
-3.6893488e+19 3.0956032 3.6893488e+19
3.012852 -0 2.1950357
0 3.0821557 0
3.0190239 3.6893488e+19 2.164171
0 3.099025 3.6893488e+19
3.0031643 -1.0842022e-19 2.143666
1.0842022e-19 3.0836215 -0
3.020211 3.6893488e+19 2.1179619
0 3.0867758 -0
2.9885588 -2 2.083308
3.6893488e+19 3.1494279 -3.6893488e+19
3.0735097 -3.6893488e+19 2.1330614
-2 3.0881739 -0
2.9905872 1.0842022e-19 2.0379984
0 3.0858037 -2
3.0219784 0 2.0237513
0 3.0813661 1.0842022e-19
2.980711 0 1.9864656
-3.6893488e+19 3.0892618 -1.0842022e-19
3.0247793 1.0842022e-19 1.9778165
-0 3.0904176 -0
2.9938421 0 1.9459734
-0 3.0862477 2
3.0223382 -3.6893488e+19 1.927484
-1.0842022e-19 3.0857897 3.6893488e+19
3.0219672 -0 1.8790265
-2 3.0825047 -2
2.982363 0 1.8244805
3.6893488e+19 3.0909488 3.6893488e+19
3.0261457 -3.6893488e+19 1.7891109
2 3.0827596 -2
2.9827325 3.6893488e+19 1.7158197
3.6893488e+19 3.0837028 -0
2.9536562 -2 1.6186662
2 3.081089 2
3.0018129 -3.6893488e+19 1.3811159
3.6893488e+19 3.0829303 -3.6893488e+19
2.952606 1.0842022e-19 -1.4822807
1.0842022e-19 3.0857351 2
3.0053465 -1.0842022e-19 -1.6549327
-2 3.0882149 -2
2.9597902 -1.0842022e-19 -1.7414343
-2 3.0848677 -3.6893488e+19
3.0046868 -2 -1.7961349
2 3.0879266 -0
2.9593983 -0 -1.8367872
1.0842022e-19 3.0866206 0
3.0060201 -2 -1.8831944
-0 3.089818 -0
2.9619696 -2 -1.9023293
3.6893488e+19 3.0886548 2
3.0075672 2 -1.931486
3.6893488e+19 3.0897291 2
2.9618487 2 -1.9481443
-0 3.0366774 0
2.9360707 -3.6893488e+19 -1.9438365
2 3.0389254 -2
2.8927829 -2 -1.9575274
-0 3.0239034 3.6893488e+19
