# .PCD v0.7 - Point Cloud Data file format
VERSION 0.7
FIELDS x y z
SIZE 4 4 4
TYPE F F F
COUNT 1 1 1
WIDTH 1712
HEIGHT 1
VIEWPOINT 0 0 0 1 0 0 0
POINTS 1712
DATA ascii
0 3.1708107 1.0842022e-19
3.0595174 -2 2.0051122
2 3.0749075 1.0842022e-19
3.0167441 -0 1.9318269
0 3.1721232 2
3.0604827 0 1.9474125
-2 3.1737506 -1.0842022e-19
3.0978928 -2 1.925962
2 3.1777952 -1.0842022e-19
3.0646546 -1.0842022e-19 1.8908145
-0 3.0771236 3.6893488e+19
3.0185635 -1.0842022e-19 1.8022246
-2 3.1794703 -2
3.0658867 -0 1.7887713
-0 3.134336 -0
3.0149918 -1.0842022e-19 1.6826761
-1.0842022e-19 3.1260824 -0
3.0399935 -1.0842022e-19 1.5347226
-1.0842022e-19 3.1335969 2
3.0144823 -2 -1.3296046
-0 3.1267731 2
3.0405262 3.6893488e+19 -1.6322399
-3.6893488e+19 3.182749 -2
3.0483716 -0 -1.7566746
-3.6893488e+19 3.1282125 -1.0842022e-19
3.041636 1.0842022e-19 -1.7979293
1.0842022e-19 3.1355617 -3.6893488e+19
3.0158367 0 -1.846812
-2 3.1280003 2
3.0414724 -1.0842022e-19 -1.8896625
3.6893488e+19 3.1398079 -2
3.0187645 0 -1.9149511
1.0842022e-19 3.124059 -3.6893488e+19
3.0384331 -3.6893488e+19 -1.9409212
0 3.0745728 -1.0842022e-19
2.9475725 -0 -1.9313515
3.6893488e+19 3.1243055 2
3.0386233 -2 -1.9938051
1.0842022e-19 3.0727258 0
2.9450257 3.6893488e+19 -1.9740921
-1.0842022e-19 3.083015 2
3.0067847 3.6893488e+19 -2.0138788
3.6893488e+19 3.0731516 1.0842022e-19
2.9456129 3.6893488e+19 -2.0182314
0 3.0193586 -1.0842022e-19
2.9153996 -1.0842022e-19 -2.0014415
1.0842022e-19 2.8073907 1.0842022e-19
2.702188 0 -1.9123762
3.6893488e+19 2.7593727 2
2.6758821 1.0842022e-19 -1.902187
3.6893488e+19 2.7296495 -1.0842022e-19
2.6027949 -1.0842022e-19 -1.8933431
-3.6893488e+19 2.6593843 -2
2.5860982 3.6893488e+19 -1.8849279
-3.6893488e+19 2.6301734 0
2.5296278 2 -1.8768265
-0 2.5675435 -0
2.5106983 -0 -1.8573304
-2 2.559994 -0
2.4560177 3.6893488e+19 -1.8533993
0 2.5235531 1.0842022e-19
2.4491658 2 -1.8449939
2 2.5201821 -3.6893488e+19
2.3974521 2 -1.8428822
3.6893488e+19 2.4717083 -1.0842022e-19
2.3872652 -3.6893488e+19 -1.8318049
-1.0842022e-19 2.4688282 -1.0842022e-19
2.3448355 -0 -1.8303844
-3.6893488e+19 2.4173493 1.0842022e-19
2.3426375 -3.6893488e+19 -1.8231488
-3.6893488e+19 2.4220164 3.6893488e+19
2.3104043 -0 -1.8246067
-3.6893488e+19 2.3766918 -1.0842022e-19
2.3092582 -3.6893488e+19 -1.8175604
-1.0842022e-19 2.3846622 -0
2.2829292 -0 -1.820385
2 2.3802905 2
2.2622025 0 -1.8205165
-1.0842022e-19 3.20029 0
3.0604658 0 2.6964614
2 3.1774247 -1.0842022e-19
3.0795829 3.6893488e+19 2.6671102
-2 3.1793523 2
3.0810695 -1.0842022e-19 2.6533313
-2 3.1786561 -1.0842022e-19
3.0805326 1.0842022e-19 2.6370802
1.0842022e-19 3.1797545 2
3.1028218 -2 2.639626
1.0842022e-19 3.1771963 0
3.1007216 -0 2.621439
1.0842022e-19 3.1805477 -1.0842022e-19
3.1034729 -1.0842022e-19 2.6084013
-0 3.1906383 1.0842022e-19
3.0741012 -0 2.5941081
2 3.1669352 -1.0842022e-19
3.0922973 -1.0842022e-19 2.5816541
2 3.1891441 3.6893488e+19
3.0730021 1.0842022e-19 2.5773797
-1.0842022e-19 3.1641455 -0
3.0900071 -1.0842022e-19 2.5641582
-3.6893488e+19 3.1815188 -0
3.0673935 -3.6893488e+19 2.5564356
3.6893488e+19 3.1632669 1.0842022e-19
3.0892859 -0 2.5482755
-1.0842022e-19 3.1823626 3.6893488e+19
3.0680141 3.6893488e+19 2.541779
3.6893488e+19 3.1624374 -3.6893488e+19
3.0886047 0 2.5325236
2 3.1800404 0
3.0663061 3.6893488e+19 2.5250638
-1.0842022e-19 3.1656599 -0
3.0912504 2 2.5194845
1.0842022e-19 3.1809158 -3.6893488e+19
3.0669498 -2 2.5104749
-2 3.1683576 3.6893488e+19
3.0725915 -3.6893488e+19 2.4846091
0 3.1741822 -2
3.0424647 0 2.4580858
3.6893488e+19 3.1692479 3.6893488e+19
3.073278 -1.0842022e-19 2.4557538
-1.0842022e-19 3.1759334 -0
3.0436723 3.6893488e+19 2.4307873
-3.6893488e+19 3.1651938 1.0842022e-19
3.070152 2 2.421788
0 3.1666083 3.6893488e+19
3.0712426 -3.6893488e+19 2.3936124
-0 3.1934731 3.6893488e+19
3.0557656 -1.0842022e-19 2.3878787
-2 3.1695571 -2
3.0735164 2 2.3666098
-2 3.1823053 -1.0842022e-19
3.0480657 -0 2.3486104
3.6893488e+19 3.1670864 -2
3.0716112 -3.6893488e+19 2.3348787
-3.6893488e+19 3.1711547 3.6893488e+19
3.0403776 2 2.3109066
-1.0842022e-19 3.1750822 0
3.0777769 -3.6893488e+19 2.3111873
-1.0842022e-19 3.1722403 -0
3.041126 1.0842022e-19 2.282958
-2 3.1790895 -0
3.0808668 3.6893488e+19 2.2837565
-3.6893488e+19 3.132911 0
3.0643642 -2 2.2411597
-0 3.1344774 -0
3.0327933 0 2.1964588
-3.6893488e+19 3.1307278 2
3.0625718 -1.0842022e-19 2.1832333
-3.6893488e+19 3.133795 -1.0842022e-19
3.0322914 -0 2.1423604
0 3.1321433 -2
3.0637336 1.0842022e-19 2.1295445
-3.6893488e+19 3.1330683 -2
3.0317569 0 2.0884612
-3.6893488e+19 3.1323581 2
3.0639102 -0 2.0744646
-1.0842022e-19 3.1694782 -2
3.0585372 -1.0842022e-19 2.0624468
-3.6893488e+19 3.1288855 -0
3.0610592 -1.0842022e-19 2.0167685
-0 3.1311803 -3.6893488e+19
3.0303681 2 1.9810869
2 3.0749075 1.0842022e-19
3.0167441 -0 1.9318269
-2 3.1305223 0
3.0298843 -1.0842022e-19 1.9279572
-0 3.0740674 1.0842022e-19
3.0160544 -3.6893488e+19 1.8845686
-0 3.1283102 -1.0842022e-19
3.0282571 -0 1.8740519
-0 3.0771236 3.6893488e+19
3.0185635 -1.0842022e-19 1.8022246
-3.6893488e+19 3.1301067 0
3.0295787 -1.0842022e-19 1.7699473
-0 3.134336 -0
3.0149918 -1.0842022e-19 1.6826761
2 3.0829482 0
3.0067332 2 1.5164034
-1.0842022e-19 3.1335969 2
3.0144823 -2 -1.3296046
-0 3.0800755 3.6893488e+19
3.004518 1.0842022e-19 -1.6067001
-2 3.1357977 -3.6893488e+19
3.0159996 0 -1.7347772
-3.6893488e+19 3.0820866 -2
3.0060687 1.0842022e-19 -1.7768393
1.0842022e-19 3.1355617 -3.6893488e+19
3.0158367 0 -1.846812
3.6893488e+19 3.0802214 1.0842022e-19
3.0046306 2 -1.8690187
3.6893488e+19 3.1398079 -2
3.0187645 0 -1.9149511
1.0842022e-19 3.0827937 2
3.006614 3.6893488e+19 -1.9198593
0 3.0745728 -1.0842022e-19
2.9475725 -0 -1.9313515
2 3.0921013 0
3.0137911 -3.6893488e+19 -1.9728287
1.0842022e-19 3.0727258 0
2.9450257 3.6893488e+19 -1.9740921
-1.0842022e-19 3.083015 2
3.0067847 3.6893488e+19 -2.0138788
3.6893488e+19 3.025085 -1.0842022e-19
2.8793309 2 -1.9783338
0 3.0193586 -1.0842022e-19
2.9153996 -1.0842022e-19 -2.0014415
1.0842022e-19 2.8073907 1.0842022e-19
2.702188 0 -1.9123762
3.6893488e+19 2.7593727 2
2.6758821 1.0842022e-19 -1.902187
3.6893488e+19 2.7296495 -1.0842022e-19
2.6027949 -1.0842022e-19 -1.8933431
-3.6893488e+19 2.6593843 -2
2.5860982 3.6893488e+19 -1.8849279
-3.6893488e+19 2.6301734 0
2.5296278 2 -1.8768265
-0 2.5675435 -0
2.5106983 -0 -1.8573304
-2 2.559994 -0
2.4560177 3.6893488e+19 -1.8533993
0 2.5235531 1.0842022e-19
2.4491658 2 -1.8449939
2 2.5201821 -3.6893488e+19
2.3974521 2 -1.8428822
3.6893488e+19 2.4717083 -1.0842022e-19
2.3872652 -3.6893488e+19 -1.8318049
-1.0842022e-19 2.4688282 -1.0842022e-19
2.3448355 -0 -1.8303844
-3.6893488e+19 2.4173493 1.0842022e-19
2.3426375 -3.6893488e+19 -1.8231488
-3.6893488e+19 2.4220164 3.6893488e+19
2.3104043 -0 -1.8246067
-3.6893488e+19 2.3766918 -1.0842022e-19
2.3092582 -3.6893488e+19 -1.8175604
-1.0842022e-19 2.3846622 -0
2.2829292 -0 -1.820385
2 2.3802905 2
2.2622025 0 -1.8205165
-2 3.2107856 3.6893488e+19
3.0659294 -1.0842022e-19 2.7223003
3.6893488e+19 3.1806059 -0
3.0802457 3.6893488e+19 2.653697
-0 3.1800797 -3.6893488e+19
3.0798421 3.6893488e+19 2.6375861
2 3.1814139 3.6893488e+19
3.1023014 3.6893488e+19 2.6402948
0 3.1836863 -0
3.067245 1.0842022e-19 2.6188078
-0 3.177562 2
3.0991559 -0 2.6209626
-3.6893488e+19 3.1817324 0
3.1025617 -0 2.6086197
-1.0842022e-19 3.1946478 -2
3.0752635 1.0842022e-19 2.5965745
1.0842022e-19 3.1668472 2
3.0904059 1.0842022e-19 2.5808756
1.0842022e-19 3.191957 -0
3.0732951 -1.0842022e-19 2.5788457
-3.6893488e+19 3.1657507 2
3.0895107 -1.0842022e-19 2.564702
-2 3.1594532 0
3.084368 -3.6893488e+19 2.5448914
-2 3.1849663 -0
3.0681815 -0 2.5429742
-3.6893488e+19 3.1624568 -2
3.0868206 3.6893488e+19 2.5319331
0 3.1660938 -1.0842022e-19
3.0897906 -3.6893488e+19 2.5191891
1.0842022e-19 3.1819177 2
3.0659513 2 2.5105808
1.0842022e-19 3.1771135 -0
3.0428426 2 2.489687
2 3.1690021 -2
3.0713463 3.6893488e+19 2.4843814
-0 3.1766098 0
3.0424974 3.6893488e+19 2.4598806
2 3.1767762 3.6893488e+19
3.0426114 1.0842022e-19 2.430865
-3.6893488e+19 3.1702478 -0
3.0723019 0 2.4260654
1.0842022e-19 3.1750488 -3.6893488e+19
3.0414269 -1.0842022e-19 2.4000921
3.6893488e+19 3.1689274 -3.6893488e+19
3.0712891 3.6893488e+19 2.3950093
-0 3.1912158 1.0842022e-19
3.0525117 -0 2.3852117
1.0842022e-19 3.1704504 -2
3.0724571 1.0842022e-19 2.366653
1.0842022e-19 3.1835194 0
3.0472348 -2 2.3489618
1.0842022e-19 3.1682465 2
3.0707669 -2 2.3351362
-3.6893488e+19 3.1720147 0
3.0393469 -3.6893488e+19 2.3109822
3.6893488e+19 3.1737854 -3.6893488e+19
3.0750148 3.6893488e+19 2.3096154
0 3.1729481 -2
3.0399866 0 2.2829237
-3.6893488e+19 3.1725292 2
3.0740516 -3.6893488e+19 2.2788572
0 3.1582036 3.6893488e+19
3.0833473 3.6893488e+19 2.2612417
-1.0842022e-19 3.1764834 3.6893488e+19
3.0619762 1.0842022e-19 2.2442884
1.0842022e-19 3.1605451 -0
3.0852594 -3.6893488e+19 2.2161641
-0 3.1751103 -0
3.0609717 -3.6893488e+19 2.1837656
-2 3.1576943 -2
3.0829315 0 2.1540568
3.6893488e+19 3.1771424 0
3.0624583 -1.0842022e-19 2.1266801
3.6893488e+19 3.1612067 -3.6893488e+19
3.0857997 -0 2.0981994
-2 3.170434 -3.6893488e+19
3.0575509 1.0842022e-19 2.0625594
-3.6893488e+19 3.12781 3.6893488e+19
3.0585275 2 2.0154428
2 3.1728027 0
3.0592837 -2 2.0058291
-0 3.0717077 1.0842022e-19
3.0127132 0 1.9296516
-0 3.1730084 -0
3.0594342 2 1.9474478
3.6893488e+19 3.1292593 1.0842022e-19
3.059711 2 1.9071505
0 3.1800785 2
3.064606 -2 1.8912951
-0 3.1299808 3.6893488e+19
3.0603001 -0 1.830421
-3.6893488e+19 3.1791339 -2
3.063915 -0 1.7883297
1.0842022e-19 3.2004139 -0
3.0588181 -1.0842022e-19 1.7136989
3.6893488e+19 3.0814605 -0
3.0042078 -3.6893488e+19 1.515489
-0 3.2003706 0
3.0587885 -3.6893488e+19 -1.3647895
1.0842022e-19 3.0822024 0
3.004777 -2 -1.6077249
0 3.189455 3.6893488e+19
3.0513043 -1.0842022e-19 -1.7584751
1.0842022e-19 3.0831017 -3.6893488e+19
3.0054665 -3.6893488e+19 -1.7769976
-3.6893488e+19 3.2002439 2
3.0587018 -2 -1.8792793
1.0842022e-19 3.1292069 -1.0842022e-19
3.0408261 1.0842022e-19 -1.8898271
3.6893488e+19 3.1390142 -1.0842022e-19
3.0167205 -0 -1.9143198
2 3.1239932 -0
3.0368276 3.6893488e+19 -1.9405046
1.0842022e-19 3.1186445 1.0842022e-19
3.0027544 -1.0842022e-19 -1.9556065
-0 3.1256778 -2
3.0381196 -0 -1.9942079
1.0842022e-19 3.1174283 -2
3.0019205 3.6893488e+19 -2.0046744
1.0842022e-19 3.081876 1.0842022e-19
3.0045266 -3.6893488e+19 -2.0124483
0 3.0726769 -0
2.9424751 3.6893488e+19 -2.0173566
-3.6893488e+19 3.0178442 -0
2.9108372 1.0842022e-19 -1.9995263
1.0842022e-19 2.810499 3.6893488e+19
2.7042651 2 -1.913704
0 2.7580433 2
2.6714468 2 -1.9010834
-0 2.7316773 3.6893488e+19
2.602351 2 -1.8936735
-2 2.6645124 -1.0842022e-19
2.5884993 -0 -1.8863261
2 2.634728 3.6893488e+19
2.5314317 2 -1.8781002
-2 2.5656159 -2
2.5077384 -1.0842022e-19 -1.8554267
-2 2.5595825 -0
2.4529245 -3.6893488e+19 -1.8526593
-3.6893488e+19 2.5235596 0
2.446789 3.6893488e+19 -1.8445292
-0 2.5209014 2
2.3963335 2 -1.843044
0 2.474648 -2
2.3876071 -1.0842022e-19 -1.832649
0 2.4723406 -0
2.345521 3.6893488e+19 -1.8315269
-3.6893488e+19 2.4178574 -3.6893488e+19
2.3412309 1.0842022e-19 -1.8229662
-3.6893488e+19 2.4218216 2
2.3085661 3.6893488e+19 -1.8241326
-2 2.3778839 3.6893488e+19
2.3085878 0 -1.8177571
2 2.3854001 -0
2.2819233 -0 -1.820385
-3.6893488e+19 2.3811791 1.0842022e-19
2.2613487 -2 -1.8206216
0 2.350975 2
2.2312794 -1.0842022e-19 -1.81713
-0 2.30232 -2
2.1645606 -3.6893488e+19 -1.8112321
2 2.2590849 -3.6893488e+19
2.1052737 -3.6893488e+19 -1.802433
-1.0842022e-19 2.2100513 -0
2.0654259 -3.6893488e+19 -1.7984283
0 2.1436479 0
2.071461 -0 -1.7975622
-3.6893488e+19 2.1061141 -2
2.0408101 2 -1.7943308
-0 2.0732574 1.0842022e-19
2.0139787 0 -1.7907715
-1.0842022e-19 2.0609679 -2
2.0039427 -1.0842022e-19 -1.7961389
-2 3.2107856 3.6893488e+19
3.0659294 -1.0842022e-19 2.7223003
3.6893488e+19 3.1806059 -0
3.0802457 3.6893488e+19 2.653697
-0 3.1800797 -3.6893488e+19
3.0798421 3.6893488e+19 2.6375861
2 3.1814139 3.6893488e+19
3.1023014 3.6893488e+19 2.6402948
0 3.1836863 -0
3.067245 1.0842022e-19 2.6188078
-0 3.177562 2
3.0991559 -0 2.6209626
0 3.163929 -2
3.0880227 -0 2.5938311
-1.0842022e-19 3.1946478 -2
3.0752635 1.0842022e-19 2.5965745
1.0842022e-19 3.1668472 2
3.0904059 1.0842022e-19 2.5808756
1.0842022e-19 3.191957 -0
3.0732951 -1.0842022e-19 2.5788457
-3.6893488e+19 3.1657507 2
3.0895107 -1.0842022e-19 2.564702
-2 3.1594532 0
3.084368 -3.6893488e+19 2.5448914
-2 3.1849663 -0
3.0681815 -0 2.5429742
-3.6893488e+19 3.1624568 -2
3.0868206 3.6893488e+19 2.5319331
0 3.1660938 -1.0842022e-19
3.0897906 -3.6893488e+19 2.5191891
1.0842022e-19 3.1819177 2
3.0659513 2 2.5105808
1.0842022e-19 3.1771135 -0
3.0428426 2 2.489687
2 3.1690021 -2
3.0713463 3.6893488e+19 2.4843814
-0 3.1766098 0
3.0424974 3.6893488e+19 2.4598806
2 3.1767762 3.6893488e+19
3.0426114 1.0842022e-19 2.430865
-3.6893488e+19 3.1702478 -0
3.0723019 0 2.4260654
1.0842022e-19 3.1750488 -3.6893488e+19
3.0414269 -1.0842022e-19 2.4000921
3.6893488e+19 3.1689274 -3.6893488e+19
3.0712891 3.6893488e+19 2.3950093
1.0842022e-19 3.1770973 -2
3.0428314 -1.0842022e-19 2.3728852
1.0842022e-19 3.1704504 -2
3.0724571 1.0842022e-19 2.366653
1.0842022e-19 3.1835194 0
3.0472348 -2 2.3489618
1.0842022e-19 3.1682465 2
3.0707669 -2 2.3351362
-3.6893488e+19 3.1720147 0
3.0393469 -3.6893488e+19 2.3109822
-3.6893488e+19 3.1304793 2
3.0418022 2 2.2779763
0 3.1729481 -2
3.0399866 0 2.2829237
-3.6893488e+19 3.1281879 2
3.0400448 3.6893488e+19 2.2491868
0 3.1321609 1.0842022e-19
3.0620804 -1.0842022e-19 2.2391498
3.6893488e+19 3.1347868 1.0842022e-19
3.0314748 1.0842022e-19 2.1959627
2 3.1326308 -3.6893488e+19
3.062464 2 2.1844683
1.0842022e-19 3.1342039 3.6893488e+19
3.0310483 1.0842022e-19 2.1420264
-2 3.1333482 -0
3.06305 1.0842022e-19 2.1299279
-1.0842022e-19 3.147712 -3.6893488e+19
3.0409296 -3.6893488e+19 2.1007266
1.0842022e-19 3.132113 1.0842022e-19
3.0620413 1.0842022e-19 2.0735636
-2 3.1306615 1.0842022e-19
3.0284572 2 2.0329916
-3.6893488e+19 3.12781 3.6893488e+19
3.0585275 2 2.0154428
0 3.1300964 -3.6893488e+19
3.0280435 -3.6893488e+19 1.9799885
-0 3.0717077 1.0842022e-19
3.0127132 0 1.9296516
-1.0842022e-19 3.1304705 1.0842022e-19
3.0283175 0 1.9275924
1.0842022e-19 3.0719059 3.6893488e+19
3.0128748 1.0842022e-19 1.8833854
0 3.1800785 2
3.064606 -2 1.8912951
3.6893488e+19 3.0750167 -2
3.0154152 -2 1.8007069
0 3.1303568 -2
3.028234 -2 1.7697649
3.6893488e+19 3.134692 -2
3.013757 1.0842022e-19 1.6825172
3.6893488e+19 3.0814605 -0
3.0042078 -3.6893488e+19 1.515489
-1.0842022e-19 3.1343639 -0
3.0135322 1.0842022e-19 -1.3296459
1.0842022e-19 3.0822024 0
3.004777 -2 -1.6077249
2 3.1347389 -2
3.0137892 -0 -1.7337126
1.0842022e-19 3.0831017 -3.6893488e+19
3.0054665 -3.6893488e+19 -1.7769976
3.6893488e+19 3.1350436 1.0842022e-19
3.0139983 2 -1.8461164
-0 3.081778 2
3.0044515 -3.6893488e+19 -1.8696768
3.6893488e+19 3.1390142 -1.0842022e-19
3.0167205 -0 -1.9143198
-3.6893488e+19 3.085793 -1.0842022e-19
3.0075307 2 -1.9210463
3.6893488e+19 3.0733013 -0
2.9433315 -3.6893488e+19 -1.9303169
-3.6893488e+19 3.0882041 -1.0842022e-19
3.0093799 -1.0842022e-19 -1.9698483
-2 3.0725074 -1.0842022e-19
2.9422429 -2 -1.9735386
1.0842022e-19 3.081876 1.0842022e-19
3.0045266 -3.6893488e+19 -2.0124483
-3.6893488e+19 3.0261202 -3.6893488e+19
2.8786337 -2 -1.9787818
-3.6893488e+19 3.0178442 -0
2.9108372 1.0842022e-19 -1.9995263
1.0842022e-19 2.810499 3.6893488e+19
2.7042651 2 -1.913704
0 2.7580433 2
2.6714468 2 -1.9010834
-0 2.7316773 3.6893488e+19
2.602351 2 -1.8936735
-2 2.6645124 -1.0842022e-19
2.5884993 -0 -1.8863261
2 2.634728 3.6893488e+19
2.5314317 2 -1.8781002
-2 2.5656159 -2
2.5077384 -1.0842022e-19 -1.8554267
-2 2.5595825 -0
2.4529245 -3.6893488e+19 -1.8526593
-3.6893488e+19 2.5235596 0
2.446789 3.6893488e+19 -1.8445292
-0 2.5209014 2
2.3963335 2 -1.843044
0 2.474648 -2
2.3876071 -1.0842022e-19 -1.832649
0 2.4723406 -0
2.345521 3.6893488e+19 -1.8315269
-3.6893488e+19 2.4178574 -3.6893488e+19
2.3412309 1.0842022e-19 -1.8229662
-3.6893488e+19 2.4218216 2
2.3085661 3.6893488e+19 -1.8241326
-2 2.3778839 3.6893488e+19
2.3085878 0 -1.8177571
2 2.3854001 -0
2.2819233 -0 -1.820385
-3.6893488e+19 2.3811791 1.0842022e-19
2.2613487 -2 -1.8206216
0 2.350975 2
2.2312794 -1.0842022e-19 -1.81713
-0 2.30232 -2
2.1645606 -3.6893488e+19 -1.8112321
2 2.2590849 -3.6893488e+19
2.1052737 -3.6893488e+19 -1.802433
-1.0842022e-19 2.2100513 -0
2.0654259 -3.6893488e+19 -1.7984283
0 2.1436479 0
2.071461 -0 -1.7975622
-3.6893488e+19 2.1061141 -2
2.0408101 2 -1.7943308
-0 2.0732574 1.0842022e-19
2.0139787 0 -1.7907715
-1.0842022e-19 2.0609679 -2
2.0039427 -1.0842022e-19 -1.7961389
1.0842022e-19 3.2098348 2
3.0635283 -3.6893488e+19 2.7204909
0 3.177834 -2
3.0975332 3.6893488e+19 2.6362398
3.6893488e+19 3.1783221 -3.6893488e+19
3.0979297 3.6893488e+19 2.6208384
-3.6893488e+19 3.1955886 -2
3.074182 2 2.6124132
1.0842022e-19 3.180346 3.6893488e+19
3.0995739 -2 2.606714
2 3.1956892 2
3.0742552 -2 2.5967298
-1.0842022e-19 3.1671047 -2
3.0888178 2 2.5803819
2 3.1968918 0
3.0751302 -1.0842022e-19 2.5818894
2 3.161736 -3.6893488e+19
3.0844567 3.6893488e+19 2.5459101
-0 3.1864157 2
3.0675085 -1.0842022e-19 2.543395
2 3.1635931 0
3.0859654 1.0842022e-19 2.5321136
2 3.1666121 1.0842022e-19
3.0884178 3.6893488e+19 2.5189562
-2 3.1974347 0
3.0755253 -3.6893488e+19 2.5194323
1.0842022e-19 3.1771789 -3.6893488e+19
3.0412624 -3.6893488e+19 2.4888945
2 3.1694386 -3.6893488e+19
3.0699577 0 2.4839258
0 3.177264 2
3.0413206 1.0842022e-19 2.4597702
-3.6893488e+19 3.1743584 2
3.0737109 -1.0842022e-19 2.4594717
3.6893488e+19 3.1778927 3.6893488e+19
3.0417492 -3.6893488e+19 2.4312272
2 3.1706617 2
3.0708909 3.6893488e+19 2.4256401
-0 3.1765223 3.6893488e+19
3.0408149 3.6893488e+19 2.4007683
0 3.1690168 2
3.0696361 2 2.394311
-2 3.1754632 -3.6893488e+19
3.0400927 -0 2.370801
3.6893488e+19 3.1705174 -3.6893488e+19
3.0707808 -3.6893488e+19 2.3659849
2 3.184417 -1.0842022e-19
3.0461977 -0 2.3490653
-2 3.1803324 -3.6893488e+19
3.0434127 -3.6893488e+19 2.31655
0 3.1737592 -2
3.0732536 -3.6893488e+19 2.3089828
-0 3.172401 2
3.0722177 -1.0842022e-19 2.2782204
-0 3.1327021 -0
3.0608723 -3.6893488e+19 2.2388096
-2 3.1756508 3.6893488e+19
3.0596766 1.0842022e-19 2.2423916
1.0842022e-19 3.1638589 -0
3.0861812 1.0842022e-19 2.218936
-1.0842022e-19 3.1750317 -3.6893488e+19
3.059226 -3.6893488e+19 2.1828661
1.0842022e-19 3.1601794 2
3.0831923 -0 2.1556621
1.0842022e-19 3.1473289 1.0842022e-19
3.0390713 -3.6893488e+19 2.0997267
2 3.1608398 3.6893488e+19
3.0837288 0 2.0971551
-2 3.1749671 -3.6893488e+19
3.0591791 -0 2.0653324
2 3.1279056 2
3.0569761 -3.6893488e+19 2.0149498
0 3.1727443 -0
3.0575619 -0 2.0053105
-3.6893488e+19 3.1287618 -2
3.0576715 -1.0842022e-19 1.9610662
-0 3.1347528 2
3.0299218 0 1.9292519
-0 3.1198754 1.0842022e-19
3.0504532 2 1.902939
2 3.1388998 -3.6893488e+19
3.0329387 1.0842022e-19 1.8775252
-2 3.0707557 0
3.0105529 1.0842022e-19 1.7980378
-0 3.1787081 3.6893488e+19
3.0619009 -2 1.7878593
1.0842022e-19 3.1909111 1.0842022e-19
3.0506256 3.6893488e+19 1.7088199
-3.6893488e+19 3.0830126 0
3.0040302 -3.6893488e+19 1.5158674
-1.0842022e-19 3.1337547 1.0842022e-19
3.0116549 3.6893488e+19 -1.3289597
-1.0842022e-19 3.1269135 -1.0842022e-19
3.0375187 0 -1.6317623
-3.6893488e+19 3.1908023 -2
3.0505514 2 -1.7586473
-1.0842022e-19 3.1285079 -1.0842022e-19
3.0387349 -0 -1.7973748
-2 3.1327834 -0
3.0109925 -1.0842022e-19 -1.8444293
3.6893488e+19 3.1280217 0
3.0383642 3.6893488e+19 -1.889114
-0 3.1197248 1.0842022e-19
3.0020888 2 -1.9058954
2 3.1266479 -0
3.0373161 -0 -1.9414768
1.0842022e-19 3.1184983 -1.0842022e-19
3.0012524 0 -1.9551611
-2 3.1165645 -2
3.0296242 0 -1.9878119
3.6893488e+19 3.1190605 -1.0842022e-19
3.0016358 -3.6893488e+19 -2.0053527
0 3.0803747 3.6893488e+19
3.0020177 -2 -2.0107436
0 3.0260684 2
2.8764625 2 -1.9783338
-0 3.0177057 3.6893488e+19
2.9084249 3.6893488e+19 -1.9989032
3.6893488e+19 2.7615914 -1.0842022e-19
2.6749861 -2 -1.9028378
1.0842022e-19 2.7345061 -0
2.6024959 0 -1.8942443
-3.6893488e+19 2.6614184 3.6893488e+19
2.584199 0 -1.8850232
-0 2.6324306 1.0842022e-19
2.5282323 -0 -1.8770946
-3.6893488e+19 2.5626051 -0
2.503932 3.6893488e+19 -1.8527473
1.0842022e-19 2.5603702 0
2.4516115 2 -1.8528074
-3.6893488e+19 2.5237508 -3.6893488e+19
2.4447405 2 -1.8442193
2 2.5216157 -3.6893488e+19
2.3952208 0 -1.8432059
3.6893488e+19 2.4766178 -3.6893488e+19
2.3871608 1.0842022e-19 -1.8330711
2 2.4730332 -2
2.3441489 2 -1.831439
2 2.4212527 0
2.3421874 -1.0842022e-19 -1.8241538
-1.0842022e-19 2.4226201 -3.6893488e+19
2.3074715 3.6893488e+19 -1.8241326
-1.0842022e-19 2.3819654 -0
2.3102739 -0 -1.8194281
2 2.3831129 1.0842022e-19
2.2787287 -2 -1.8188585
-0 2.3820608 -1.0842022e-19
2.2604997 -0 -1.8207269
1.0842022e-19 3.2098348 2
3.0635283 -3.6893488e+19 2.7204909
0 3.177834 -2
3.0975332 3.6893488e+19 2.6362398
3.6893488e+19 3.1783221 -3.6893488e+19
3.0979297 3.6893488e+19 2.6208384
-3.6893488e+19 3.1955886 -2
3.074182 2 2.6124132
-1.0842022e-19 3.1636541 2
3.086015 0 2.5928783
2 3.1956892 2
3.0742552 -2 2.5967298
-1.0842022e-19 3.1671047 -2
3.0888178 2 2.5803819
2 3.1968918 0
3.0751302 -1.0842022e-19 2.5818894
2 3.161736 -3.6893488e+19
3.0844567 3.6893488e+19 2.5459101
-0 3.1864157 2
3.0675085 -1.0842022e-19 2.543395
2 3.1635931 0
3.0859654 1.0842022e-19 2.5321136
2 3.1666121 1.0842022e-19
3.0884178 3.6893488e+19 2.5189562
-3.6893488e+19 3.1818821 3.6893488e+19
3.0642102 1.0842022e-19 2.5100672
1.0842022e-19 3.1771789 -3.6893488e+19
3.0412624 -3.6893488e+19 2.4888945
2 3.1694386 -3.6893488e+19
3.0699577 0 2.4839258
0 3.177264 2
3.0413206 1.0842022e-19 2.4597702
-3.6893488e+19 3.1743584 2
3.0737109 -1.0842022e-19 2.4594717
3.6893488e+19 3.1778927 3.6893488e+19
3.0417492 -3.6893488e+19 2.4312272
2 3.1706617 2
3.0708909 3.6893488e+19 2.4256401
-0 3.1765223 3.6893488e+19
3.0408149 3.6893488e+19 2.4007683
0 3.1690168 2
3.0696361 2 2.394311
-2 3.1754632 -3.6893488e+19
3.0400927 -0 2.370801
3.6893488e+19 3.1705174 -3.6893488e+19
3.0707808 -3.6893488e+19 2.3659849
2 3.184417 -1.0842022e-19
3.0461977 -0 2.3490653
-2 3.1803324 -3.6893488e+19
3.0434127 -3.6893488e+19 2.31655
0 3.1308134 -1.0842022e-19
3.0404935 -3.6893488e+19 2.277669
-3.6893488e+19 3.1293352 -2
3.039366 2 2.2497094
-0 3.1327021 -0
3.0608723 -3.6893488e+19 2.2388096
-2 3.1756508 3.6893488e+19
3.0596766 1.0842022e-19 2.2423916
-1.0842022e-19 3.13218 -1.0842022e-19
3.0604482 -3.6893488e+19 2.1830411
1.0842022e-19 3.1347797 2
3.0299413 3.6893488e+19 2.1418722
3.6893488e+19 3.133044 2
3.0611501 1.0842022e-19 2.1288257
1.0842022e-19 3.1473289 1.0842022e-19
3.0390713 -3.6893488e+19 2.0997267
0 3.1323147 1.0842022e-19
3.0605576 -2 2.0730515
-2 3.1749671 -3.6893488e+19
3.0591791 -0 2.0653324
2 3.1279056 2
3.0569761 -3.6893488e+19 2.0149498
0 3.1727443 -0
3.0575619 -0 2.0053105
0 3.0732121 -1.0842022e-19
3.012548 -2 1.9301109
-0 3.1347528 2
3.0299218 0 1.9292519
-3.6893488e+19 3.0727315 -2
3.0121577 -2 1.8834455
2 3.1388998 -3.6893488e+19
3.0329387 1.0842022e-19 1.8775252
-2 3.0707557 0
3.0105529 1.0842022e-19 1.7980378
-0 3.1445954 2
3.0370827 -3.6893488e+19 1.7749004
1.0842022e-19 3.1356068 2
3.0129175 2 1.6826272
-3.6893488e+19 3.0830126 0
3.0040302 -3.6893488e+19 1.5158674
-1.0842022e-19 3.1337547 1.0842022e-19
3.0116549 3.6893488e+19 -1.3289597
-0 3.0844021 3.6893488e+19
3.00509 -0 -1.608802
-1.0842022e-19 3.1348791 -1.0842022e-19
3.0124214 -0 -1.7333838
0 3.0833156 -2
3.004261 3.6893488e+19 -1.776794
-2 3.1327834 -0
3.0109925 -1.0842022e-19 -1.8444293
-0 3.0822129 1.0842022e-19
3.0034201 -0 -1.8695123
-0 3.1197248 1.0842022e-19
3.0020888 2 -1.9058954
2 3.0869315 0
3.0070195 -2 -1.9212861
2 3.0738232 2
2.9415836 -3.6893488e+19 -1.9302882
-0 3.0869136 0
3.0070059 -3.6893488e+19 -1.9685755
0 3.0719185 -1.0842022e-19
2.9389861 3.6893488e+19 -1.9727353
-2 3.0245135 1.0842022e-19
2.9188113 0 -1.9666562
0 3.0260684 2
2.8764625 2 -1.9783338
-0 3.0177057 3.6893488e+19
2.9084249 3.6893488e+19 -1.9989032
3.6893488e+19 2.7615914 -1.0842022e-19
2.6749861 -2 -1.9028378
1.0842022e-19 2.7345061 -0
2.6024959 0 -1.8942443
-3.6893488e+19 2.6614184 3.6893488e+19
2.584199 0 -1.8850232
-0 2.6324306 1.0842022e-19
2.5282323 -0 -1.8770946
-3.6893488e+19 2.5626051 -0
2.503932 3.6893488e+19 -1.8527473
1.0842022e-19 2.5603702 0
2.4516115 2 -1.8528074
-3.6893488e+19 2.5237508 -3.6893488e+19
2.4447405 2 -1.8442193
2 2.5216157 -3.6893488e+19
2.3952208 0 -1.8432059
3.6893488e+19 2.4766178 -3.6893488e+19
2.3871608 1.0842022e-19 -1.8330711
2 2.4730332 -2
2.3441489 2 -1.831439
2 2.4212527 0
2.3421874 -1.0842022e-19 -1.8241538
-1.0842022e-19 2.4226201 -3.6893488e+19
2.3074715 3.6893488e+19 -1.8241326
-1.0842022e-19 2.3819654 -0
2.3102739 -0 -1.8194281
2 2.3831129 1.0842022e-19
2.2787287 -2 -1.8188585
-0 2.3820608 -1.0842022e-19
2.2604997 -0 -1.8207269
3.6893488e+19 3.2103486 2
3.06212 -3.6893488e+19 2.7201807
-1.0842022e-19 3.2125235 -0
3.1009164 -2 2.7323508
3.6893488e+19 3.2125473 1.0842022e-19
3.1009345 0 2.7155132
-3.6893488e+19 3.1781657 3.6893488e+19
3.0959501 1.0842022e-19 2.6357222
3.6893488e+19 3.1789899 1.0842022e-19
3.096616 -1.0842022e-19 2.6206312
1.0842022e-19 3.1959345 1.0842022e-19
3.0726554 0 2.6120076
-2 3.1815217 3.6893488e+19
3.0986617 -0 2.6069324
3.6893488e+19 3.197185 3.6893488e+19
3.0735602 -1.0842022e-19 2.5972347
2 3.1679885 3.6893488e+19
3.0877271 2 2.5803819
-1.0842022e-19 3.1981401 1.0842022e-19
3.0742514 0 2.5821865
3.6893488e+19 3.1634991 1.0842022e-19
3.0840998 -3.6893488e+19 2.5465488
1.0842022e-19 3.1880968 2
3.0669844 2 2.5439675
-2 3.1648307 0
3.0851758 0 2.5323596
-0 3.1646488 3.6893488e+19
3.0850286 3.6893488e+19 2.5171227
-0 3.1825006 3.6893488e+19
3.0629354 2 2.5099463
1.0842022e-19 3.175267 0
3.0383344 -0 2.4858427
2 3.1790287 -2
3.0755038 1.0842022e-19 2.4940076
3.6893488e+19 3.1773808 3.6893488e+19
3.0397675 -0 2.4590797
-1.0842022e-19 3.1726284 -2
3.070648 1.0842022e-19 2.4566901
0 3.1760037 -3.6893488e+19
3.0388336 -3.6893488e+19 2.4285614
-3.6893488e+19 3.1728361 -2
3.0708055 0 2.426991
-1.0842022e-19 3.1753755 -2
3.0384078 -2 2.3989813
1.0842022e-19 3.180162 -2
3.0763636 1.0842022e-19 2.4039953
-3.6893488e+19 3.1911612 -3.6893488e+19
3.0491107 2 2.3837998
0 3.1861863 -0
3.0809343 -2 2.3788681
-3.6893488e+19 3.1847768 2
3.0447822 -3.6893488e+19 2.3487344
-2 3.1840312 1.0842022e-19
3.0792994 -1.0842022e-19 2.3464065
-0 3.1826708 1.0842022e-19
3.0433543 2 2.3177054
3.6893488e+19 3.173311 -2
3.0711658 -3.6893488e+19 2.3080432
-1.0842022e-19 3.2029393 0
3.0570965 0 2.3019125
-3.6893488e+19 3.1696639 2
3.068399 -0 2.2758689
-3.6893488e+19 3.1758518 0
3.0581248 -1.0842022e-19 2.2416911
3.6893488e+19 3.1656337 0
3.0858245 -2 2.2199512
0 3.1748016 1.0842022e-19
3.0573647 0 2.1818125
-1.0842022e-19 3.1611698 3.6893488e+19
3.0822177 1.0842022e-19 2.155782
-1.0842022e-19 3.1772451 2
3.0591328 -0 2.1253469
0 3.1615646 -3.6893488e+19
3.0825365 -1.0842022e-19 2.0970321
2 3.1778986 2
3.0596056 0 2.0669065
-0 3.1598258 -1.0842022e-19
3.0811317 -1.0842022e-19 2.0367217
-0 3.1750393 -3.6893488e+19
3.0575366 3.6893488e+19 2.0062106
3.6893488e+19 3.1276934 -0
3.0551693 1.0842022e-19 1.9600259
-3.6893488e+19 3.1747143 -3.6893488e+19
3.0573015 1.0842022e-19 1.9474949
1.0842022e-19 3.0715685 2
3.0098214 -3.6893488e+19 1.8826834
-2 3.1314104 -1.0842022e-19
3.025969 -0 1.874665
3.6893488e+19 3.0705118 -0
3.0089676 2 1.7975405
-2 3.17661 -3.6893488e+19
3.0586731 -1.0842022e-19 1.7867554
3.6893488e+19 3.1903241 0
3.0485432 -1.0842022e-19 1.7081717
-2 3.1313252 2
3.0393114 -0 1.5359838
0 3.1350579 -0
3.0110722 2 -1.3292891
0 3.128983 1.0842022e-19
3.0375342 -1.0842022e-19 -1.6322225
3.6893488e+19 3.1910172 0
3.0490131 -1.0842022e-19 -1.7584751
-1.0842022e-19 3.1285141 3.6893488e+19
3.0371785 1.0842022e-19 -1.7970355
-2 3.1876719 1.0842022e-19
3.0467451 -3.6893488e+19 -1.8752242
-1.0842022e-19 3.0882006 1.0842022e-19
3.0065928 2 -1.8734251
-0 3.1270986 -2
3.0361044 3.6893488e+19 -1.9413253
1.0842022e-19 3.1200325 -3.6893488e+19
3.0008848 1.0842022e-19 -1.9556496
-3.6893488e+19 3.1180651 -2
3.0292509 -0 -1.9883113
0 3.11814 -1.0842022e-19
2.9992034 1.0842022e-19 -2.0042639
3.6893488e+19 3.0789423 0
2.9991369 2 -2.0090978
-2 3.0712655 -3.6893488e+19
2.9356411 0 -2.0152445
1.0842022e-19 3.0164478 -0
2.9043076 -2 -1.9972416
-0 2.7611749 1.0842022e-19
2.6720493 2 -1.9022719
-3.6893488e+19 2.7327969 1.0842022e-19
2.5993273 -0 -1.8934633
1.0842022e-19 2.6622903 3.6893488e+19
2.583123 0 -1.8850232
2 2.6344697 -3.6893488e+19
2.5281825 -0 -1.8775303
-1.0842022e-19 2.5643344 -3.6893488e+19
2.5039763 -1.0842022e-19 -1.8535229
3.6893488e+19 2.561363 -0
2.4505727 -3.6893488e+19 -1.8531033
2 2.5232646 0
2.4415858 -0 -1.8433672
1.0842022e-19 2.5222321 1.0842022e-19
2.3939464 0 -1.8432869
3.6893488e+19 2.4774339 1.0842022e-19
2.3857579 1.0842022e-19 -1.8329867
1.0842022e-19 2.4735272 -3.6893488e+19
2.3426199 -2 -1.8312632
1.0842022e-19 2.4242754 -3.6893488e+19
2.3428066 -0 -1.8251587
1.0842022e-19 2.4230187 -0
2.3060746 3.6893488e+19 -1.8239429
0 2.3816137 -2
2.3083367 1.0842022e-19 -1.8188384
0 2.3822279 1.0842022e-19
2.2765605 -1.0842022e-19 -1.8180444
-0 2.3825343 1.0842022e-19
2.2593613 -2 -1.8206216
-1.0842022e-19 2.3524282 -3.6893488e+19
2.2278981 -0 -1.8172421
-0 2.3009315 -3.6893488e+19
2.1580677 0 -1.8097202
-1.0842022e-19 2.263489 -1.0842022e-19
2.1072953 1.0842022e-19 -1.80481
-2 2.2108688 0
2.0624728 -2 -1.7981211
-3.6893488e+19 2.144932 1.0842022e-19
2.069098 -1.0842022e-19 -1.7973949
-0 2.1114478 3.6893488e+19
2.0420432 2 -1.7961419
-0 2.0792046 -1.0842022e-19
2.0159912 -3.6893488e+19 -1.7931089
3.6893488e+19 2.0603836 -2
2.0007842 -0 -1.7950966
3.6893488e+19 3.2103486 2
3.06212 -3.6893488e+19 2.7201807
-1.0842022e-19 3.2125235 -0
3.1009164 -2 2.7323508
3.6893488e+19 3.2125473 1.0842022e-19
3.1009345 0 2.7155132
-3.6893488e+19 3.1781657 3.6893488e+19
3.0959501 1.0842022e-19 2.6357222
3.6893488e+19 3.1789899 1.0842022e-19
3.096616 -1.0842022e-19 2.6206312
1.0842022e-19 3.1959345 1.0842022e-19
3.0726554 0 2.6120076
-2 3.1690183 3.6893488e+19
3.0885592 -0 2.5965903
3.6893488e+19 3.1840296 3.6893488e+19
3.0640416 3.6893488e+19 2.5870197
2 3.1679885 3.6893488e+19
3.0877271 2 2.5803819
-1.0842022e-19 3.1981401 1.0842022e-19
3.0742514 0 2.5821865
3.6893488e+19 3.1634991 1.0842022e-19
3.0840998 -3.6893488e+19 2.5465488
1.0842022e-19 3.1880968 2
3.0669844 2 2.5439675
-2 3.1648307 0
3.0851758 0 2.5323596
-0 3.1646488 3.6893488e+19
3.0850286 3.6893488e+19 2.5171227
-0 3.1825006 3.6893488e+19
3.0629354 2 2.5099463
1.0842022e-19 3.175267 0
3.0383344 -0 2.4858427
2 3.1790287 -2
3.0755038 1.0842022e-19 2.4940076
3.6893488e+19 3.1773808 3.6893488e+19
3.0397675 -0 2.4590797
-1.0842022e-19 3.1726284 -2
3.070648 1.0842022e-19 2.4566901
0 3.1760037 -3.6893488e+19
3.0388336 -3.6893488e+19 2.4285614
-3.6893488e+19 3.1728361 -2
3.0708055 0 2.426991
-1.0842022e-19 3.1753755 -2
3.0384078 -2 2.3989813
1.0842022e-19 3.180162 -2
3.0763636 1.0842022e-19 2.4039953
-1.0842022e-19 3.1772501 0
3.0396791 -1.0842022e-19 2.3716974
0 3.1861863 -0
3.0809343 -2 2.3788681
-3.6893488e+19 3.1847768 2
3.0447822 -3.6893488e+19 2.3487344
-2 3.1840312 1.0842022e-19
3.0792994 -1.0842022e-19 2.3464065
-0 3.1826708 1.0842022e-19
3.0433543 2 2.3177054
3.6893488e+19 3.173311 -2
3.0711658 -3.6893488e+19 2.3080432
-1.0842022e-19 3.2029393 0
3.0570965 0 2.3019125
-3.6893488e+19 3.1696639 2
3.068399 -0 2.2758689
-3.6893488e+19 3.1758518 0
3.0581248 -1.0842022e-19 2.2416911
-3.6893488e+19 3.1334751 3.6893488e+19
3.0598409 0 2.1835902
-2 3.1469381 0
3.0372043 0 2.1534894
1.0842022e-19 3.1340499 -2
3.0603051 1.0842022e-19 2.1290174
-1.0842022e-19 3.1473491 2
3.0375016 2 2.0990825
-3.6893488e+19 3.1348732 -0
3.0609705 2 2.0745261
3.6893488e+19 3.1471086 0
3.0373275 3.6893488e+19 2.0441029
1.0842022e-19 3.1263013 -0
3.0540445 -1.0842022e-19 2.0132673
-1.0842022e-19 3.1447732 1.0842022e-19
3.0356379 0 1.9879665
2 3.1163461 2
3.046001 3.6893488e+19 1.9537159
-2 3.1462398 -1.0842022e-19
3.0366988 -2 1.9342539
1.0842022e-19 3.0715685 2
3.0098214 -3.6893488e+19 1.8826834
-2 3.1314104 -1.0842022e-19
3.025969 -0 1.874665
3.6893488e+19 3.0705118 -0
3.0089676 2 1.7975405
-0 3.1319768 -1.0842022e-19
3.0263789 3.6893488e+19 1.7698321
-1.0842022e-19 3.1346886 -2
3.0108218 -0 1.681869
-1.0842022e-19 3.086339 1.0842022e-19
3.0051804 -0 1.516992
0 3.1350579 -0
3.0110722 2 -1.3292891
-0 3.0847437 -0
3.0039699 2 -1.6085762
-2 3.1332097 1.0842022e-19
3.0098193 3.6893488e+19 -1.7319591
1.0842022e-19 3.0844517 -3.6893488e+19
3.0037482 -2 -1.7770089
3.6893488e+19 3.135921 2
3.0116575 3.6893488e+19 -1.8458352
-1.0842022e-19 3.0882006 1.0842022e-19
3.0065928 2 -1.8734251
3.6893488e+19 3.0875022 -1.0842022e-19
3.0060627 1.0842022e-19 -1.9212357
1.0842022e-19 3.1200325 -3.6893488e+19
3.0008848 1.0842022e-19 -1.9556496
3.6893488e+19 3.0885792 -2
3.0068798 -2 -1.9692199
-3.6893488e+19 3.0731885 -0
2.9382489 -3.6893488e+19 -1.9732172
-1.0842022e-19 3.0271244 0
2.9205086 -2 -1.9682825
-2 3.0252929 -2
2.8733015 -0 -1.9772884
1.0842022e-19 3.0164478 -0
2.9043076 -2 -1.9972416
-0 2.7611749 1.0842022e-19
2.6720493 2 -1.9022719
-3.6893488e+19 2.7327969 1.0842022e-19
2.5993273 -0 -1.8934633
1.0842022e-19 2.6622903 3.6893488e+19
2.583123 0 -1.8850232
2 2.6344697 -3.6893488e+19
2.5281825 -0 -1.8775303
-1.0842022e-19 2.5643344 -3.6893488e+19
2.5039763 -1.0842022e-19 -1.8535229
3.6893488e+19 2.561363 -0
2.4505727 -3.6893488e+19 -1.8531033
2 2.5232646 0
2.4415858 -0 -1.8433672
1.0842022e-19 2.5222321 1.0842022e-19
2.3939464 0 -1.8432869
3.6893488e+19 2.4774339 1.0842022e-19
2.3857579 1.0842022e-19 -1.8329867
1.0842022e-19 2.4735272 -3.6893488e+19
2.3426199 -2 -1.8312632
1.0842022e-19 2.4242754 -3.6893488e+19
2.3428066 -0 -1.8251587
1.0842022e-19 2.4230187 -0
2.3060746 3.6893488e+19 -1.8239429
0 2.3816137 -2
2.3083367 1.0842022e-19 -1.8188384
0 2.3822279 1.0842022e-19
2.2765605 -1.0842022e-19 -1.8180444
-0 2.3825343 1.0842022e-19
2.2593613 -2 -1.8206216
-1.0842022e-19 2.3524282 -3.6893488e+19
2.2278981 -0 -1.8172421
-0 2.3009315 -3.6893488e+19
2.1580677 0 -1.8097202
-1.0842022e-19 2.263489 -1.0842022e-19
2.1072953 1.0842022e-19 -1.80481
-2 2.2108688 0
2.0624728 -2 -1.7981211
-3.6893488e+19 2.144932 1.0842022e-19
2.069098 -1.0842022e-19 -1.7973949
-0 2.1114478 3.6893488e+19
2.0420432 2 -1.7961419
-0 2.0792046 -1.0842022e-19
2.0159912 -3.6893488e+19 -1.7931089
3.6893488e+19 2.0603836 -2
2.0007842 -0 -1.7950966
2 3.2223408 1.0842022e-19
3.1064243 3.6893488e+19 2.7544274
-2 3.2071316 1.0842022e-19
3.0581987 -3.6893488e+19 2.7160711
1.0842022e-19 3.2122664 -2
3.0988221 -3.6893488e+19 2.7311306
2 3.2049253 -2
3.056711 -0 2.697861
1.0842022e-19 3.2097816 -0
3.0599852 0 2.6865599
-1.0842022e-19 3.2243507 -1.0842022e-19
3.1079409 3.6893488e+19 2.6920714
-2 3.202714 -3.6893488e+19
3.0552201 -2 2.6483047
-2 3.1773236 2
3.0934284 2 2.6184154
0 3.1698294 -3.6893488e+19
3.0874052 -2 2.5965307
2 3.1982043 0
3.0725172 -3.6893488e+19 2.5973706
0 3.1688695 3.6893488e+19
3.0866339 2 2.5803819
0 3.1983588 1.0842022e-19
3.0726283 0 2.5817225
0 3.1646843 -1.0842022e-19
3.0832703 2 2.5467734
-1.0842022e-19 3.1891243 0
3.0659835 0 2.5441022
1.0842022e-19 3.1662364 -1.0842022e-19
3.0845177 -1.0842022e-19 2.5327203
2 3.1807246 3.6893488e+19
3.0599391 1.0842022e-19 2.5234189
3.6893488e+19 3.1656435 1.0842022e-19
3.0840414 2 2.5172005
-1.0842022e-19 3.1811512 0
3.0602462 -1.0842022e-19 2.5086472
2 3.177537 0
3.0382459 3.6893488e+19 2.4875741
-3.6893488e+19 3.1798775 -3.6893488e+19
3.0743818 1.0842022e-19 2.4940076
-2 3.1783938 3.6893488e+19
3.0388236 -2 2.4593558
3.6893488e+19 3.1746056 0
3.0704038 -2 2.4579203
2 3.1768084 -1.0842022e-19
3.0377545 1.0842022e-19 2.4286134
2 3.1754351 1.0842022e-19
3.0710297 0 2.428767
1.0842022e-19 3.1755602 1.0842022e-19
3.0369132 -1.0842022e-19 2.3984501
-2 3.1784549 1.0842022e-19
3.0733085 1.0842022e-19 2.4015975
2 3.1905477 -2
3.0470176 2 2.3825896
-0 3.1750457 0
3.0707359 3.6893488e+19 2.3684626
1.0842022e-19 3.1855714 -2
3.0436625 -1.0842022e-19 2.3487551
-2 3.1828511 1.0842022e-19
3.0766258 3.6893488e+19 2.3447824
3.6893488e+19 3.183255 3.6893488e+19
3.0421009 2 2.3175728
-0 3.1734271 1.0842022e-19
3.0695145 1.0842022e-19 2.3075194
2 3.1979239 2
3.0519907 0 2.2980425
-0 3.170594 3.6893488e+19
3.0673766 -0 2.2759342
-1.0842022e-19 3.1587546 0
3.078505 2 2.259943
1.0842022e-19 3.1759212 0
3.0564828 1.0842022e-19 2.240845
0 3.1161394 2
3.0442562 0 2.1631181
-0 3.1736271 3.6893488e+19
3.054832 -1.0842022e-19 2.1798077
-2 3.1599195 -2
3.0794411 -0 2.1536973
-1.0842022e-19 3.1766829 2
3.0570309 -3.6893488e+19 2.1241469
1.0842022e-19 3.1615558 0
3.0807562 -0 2.0962949
-2 3.1807845 2
3.0599823 -0 2.0684428
-2 3.130332 -3.6893488e+19
3.0556624 -1.0842022e-19 2.0155277
-1.0842022e-19 3.1762469 2
3.0567172 0 2.0064547
3.6893488e+19 3.0766492 0
3.0125191 0 1.9312595
-2 3.1733856 -1.0842022e-19
3.0546582 -2 1.9465061
0 3.0759966 0
3.0119946 -3.6893488e+19 1.8842276
0 3.1299491 3.6893488e+19
3.0234022 3.6893488e+19 1.87324
2 3.0753036 0
3.0114377 3.6893488e+19 1.7997518
0 3.176502 -2
3.0569005 -1.0842022e-19 1.7864099
-1.0842022e-19 3.1898847 1.0842022e-19
3.0465708 -1.0842022e-19 1.707597
-1.0842022e-19 3.1277394 3.6893488e+19
3.0350389 -2 1.534155
-0 3.1924062 3.6893488e+19
3.0482707 3.6893488e+19 -1.3593005
0 3.1282113 2
3.0353949 1.0842022e-19 -1.6316928
0 3.1924965 -0
3.0483315 -1.0842022e-19 -1.7586864
-3.6893488e+19 3.1290135 1.0842022e-19
3.0360005 0 -1.7969223
-2 3.188627 -2
3.0457227 3.6893488e+19 -1.8752761
-0 3.1289995 3.6893488e+19
3.0359898 -3.6893488e+19 -1.888922
2 3.1272213 3.6893488e+19
3.0346479 3.6893488e+19 -1.9410096
-1.0842022e-19 3.0717866 0
2.933898 -3.6893488e+19 -1.9285208
-2 3.0710151 -2
2.9328575 1.0842022e-19 -1.9713249
-2 3.0781474 -3.6893488e+19
2.9952345 -0 -2.0079613
-3.6893488e+19 3.0712898 2
2.933228 -2 -2.0147963
0 3.016078 1.0842022e-19
2.9015603 -3.6893488e+19 -1.9964108
-1.0842022e-19 2.7644005 -0
2.674983 2 -1.9038283
-2 2.7316823 1.0842022e-19
2.5966072 -3.6893488e+19 -1.8928624
0 2.6664653 1.0842022e-19
2.5847018 3.6893488e+19 -1.8861036
0 2.62902 2
2.5227337 0 -1.8754859
3.6893488e+19 2.566066 -2
2.5040135 -3.6893488e+19 -1.8542985
1.0842022e-19 2.5613434 -2
2.4480705 -3.6893488e+19 -1.8526593
3.6893488e+19 2.524229 -0
2.4407809 -1.0842022e-19 -1.843677
1.0842022e-19 2.5230491 -2
2.3929591 -2 -1.8435296
3.6893488e+19 2.4811585 3.6893488e+19
2.386694 2 -1.8341684
-1.0842022e-19 2.4744205 2
2.3413818 -2 -1.8312632
2 2.4230349 -0
2.3399816 -1.0842022e-19 -1.8241538
3.6893488e+19 2.4240189 -1.0842022e-19
2.3051138 0 -1.8240378
-3.6893488e+19 2.3822238 0
2.307183 -0 -1.81874
-3.6893488e+19 2.3831508 2
2.2757063 2 -1.8181462
-3.6893488e+19 2.3827982 -3.6893488e+19
2.2580829 3.6893488e+19 -1.8204112
2 3.2223408 1.0842022e-19
3.1064243 3.6893488e+19 2.7544274
-2 3.2071316 1.0842022e-19
3.0581987 -3.6893488e+19 2.7160711
1.0842022e-19 3.2122664 -2
3.0988221 -3.6893488e+19 2.7311306
2 3.2049253 -2
3.056711 -0 2.697861
1.0842022e-19 3.2097816 -0
3.0599852 0 2.6865599
-1.0842022e-19 3.2243507 -1.0842022e-19
3.1079409 3.6893488e+19 2.6920714
-2 3.202714 -3.6893488e+19
3.0552201 -2 2.6483047
-2 3.1773236 2
3.0934284 2 2.6184154
0 3.1698294 -3.6893488e+19
3.0874052 -2 2.5965307
0 3.1854751 -2
3.0633574 -3.6893488e+19 2.5875051
0 3.1688695 3.6893488e+19
3.0866339 2 2.5803819
0 3.1983588 1.0842022e-19
3.0726283 0 2.5817225
0 3.1646843 -1.0842022e-19
3.0832703 2 2.5467734
-1.0842022e-19 3.1891243 0
3.0659835 0 2.5441022
1.0842022e-19 3.1662364 -1.0842022e-19
3.0845177 -1.0842022e-19 2.5327203
2 3.1807246 3.6893488e+19
3.0599391 1.0842022e-19 2.5234189
3.6893488e+19 3.1656435 1.0842022e-19
3.0840414 2 2.5172005
-1.0842022e-19 3.1811512 0
3.0602462 -1.0842022e-19 2.5086472
2 3.177537 0
3.0382459 3.6893488e+19 2.4875741
-3.6893488e+19 3.1798775 -3.6893488e+19
3.0743818 1.0842022e-19 2.4940076
-2 3.1783938 3.6893488e+19
3.0388236 -2 2.4593558
3.6893488e+19 3.1746056 0
3.0704038 -2 2.4579203
2 3.1768084 -1.0842022e-19
3.0377545 1.0842022e-19 2.4286134
2 3.1754351 1.0842022e-19
3.0710297 0 2.428767
1.0842022e-19 3.1755602 1.0842022e-19
3.0369132 -1.0842022e-19 2.3984501
-2 3.1784549 1.0842022e-19
3.0733085 1.0842022e-19 2.4015975
-2 3.1776958 2
3.038353 -0 2.3714285
-0 3.1750457 0
3.0707359 3.6893488e+19 2.3684626
1.0842022e-19 3.1855714 -2
3.0436625 -1.0842022e-19 2.3487551
-2 3.1828511 1.0842022e-19
3.0766258 3.6893488e+19 2.3447824
3.6893488e+19 3.183255 3.6893488e+19
3.0421009 2 2.3175728
-0 3.1734271 1.0842022e-19
3.0695145 1.0842022e-19 2.3075194
-1.0842022e-19 3.1552718 -1.0842022e-19
3.0232346 2 2.2696624
-0 3.170594 3.6893488e+19
3.0673766 -0 2.2759342
-3.6893488e+19 3.1153822 -0
3.0436478 -0 2.2147217
1.0842022e-19 3.1759212 0
3.0564828 1.0842022e-19 2.240845
0 3.1161394 2
3.0442562 0 2.1631181
-0 3.1736271 3.6893488e+19
3.054832 -1.0842022e-19 2.1798077
-0 3.1194336 0
3.0469038 0 2.113826
-3.6893488e+19 3.1490364 -3.6893488e+19
3.037137 -1.0842022e-19 2.0999045
2 3.1183558 3.6893488e+19
3.0460374 -2 2.0599451
3.6893488e+19 3.1483648 -0
3.0366538 2 2.0444777
-2 3.130332 -3.6893488e+19
3.0556624 -1.0842022e-19 2.0155277
-1.0842022e-19 3.1348696 -0
3.026943 -3.6893488e+19 1.9815596
3.6893488e+19 3.0766492 0
3.0125191 0 1.9312595
-2 3.1323302 3.6893488e+19
3.0251157 1.0842022e-19 1.9274511
0 3.0759966 0
3.0119946 -3.6893488e+19 1.8842276
0 3.1299491 3.6893488e+19
3.0234022 3.6893488e+19 1.87324
2 3.0753036 0
3.0114377 3.6893488e+19 1.7997518
3.6893488e+19 3.1291974 -3.6893488e+19
3.0228612 1.0842022e-19 1.7685075
-0 3.136457 0
3.0105498 -2 1.6823826
-1.0842022e-19 3.0890999 -3.6893488e+19
3.0058818 -0 1.5178748
1.0842022e-19 3.1361532 -2
3.0103447 0 -1.3295087
2 3.0864289 -2
3.0038662 -2 -1.6092883
-0 3.1345091 -2
3.0092363 3.6893488e+19 -1.7323349
-1.0842022e-19 3.0854626 -1.0842022e-19
3.0031371 -0 -1.7771673
0 3.1367588 1.0842022e-19
3.0107532 2 -1.845924
-1.0842022e-19 3.087074 0
3.0043533 0 -1.8721087
2 3.1272213 3.6893488e+19
3.0346479 3.6893488e+19 -1.9410096
-1.0842022e-19 3.0717866 0
2.933898 -3.6893488e+19 -1.9285208
-2 3.0710151 -2
2.9328575 1.0842022e-19 -1.9713249
-2 3.0298662 2
2.9223695 3.6893488e+19 -1.9700068
-3.6893488e+19 3.0252359 -1.0842022e-19
2.8711288 0 -1.9768404
0 3.016078 1.0842022e-19
2.9015603 -3.6893488e+19 -1.9964108
-1.0842022e-19 2.7644005 -0
2.674983 2 -1.9038283
-2 2.7316823 1.0842022e-19
2.5966072 -3.6893488e+19 -1.8928624
0 2.6664653 1.0842022e-19
2.5847018 3.6893488e+19 -1.8861036
0 2.62902 2
2.5227337 0 -1.8754859
3.6893488e+19 2.566066 -2
2.5040135 -3.6893488e+19 -1.8542985
1.0842022e-19 2.5613434 -2
2.4480705 -3.6893488e+19 -1.8526593
3.6893488e+19 2.524229 -0
2.4407809 -1.0842022e-19 -1.843677
1.0842022e-19 2.5230491 -2
2.3929591 -2 -1.8435296
3.6893488e+19 2.4811585 3.6893488e+19
2.386694 2 -1.8341684
-1.0842022e-19 2.4744205 2
2.3413818 -2 -1.8312632
2 2.4230349 -0
2.3399816 -1.0842022e-19 -1.8241538
3.6893488e+19 2.4240189 -1.0842022e-19
2.3051138 0 -1.8240378
-3.6893488e+19 2.3822238 0
2.307183 -0 -1.81874
-3.6893488e+19 2.3831508 2
2.2757063 2 -1.8181462
-3.6893488e+19 2.3827982 -3.6893488e+19
2.2580829 3.6893488e+19 -1.8204112
-0 3.2186575 3.6893488e+19
3.101855 -3.6893488e+19 2.7605426
0 3.2223778 -3.6893488e+19
3.1046479 1.0842022e-19 2.7539809
-0 3.2085419 -3.6893488e+19
3.0575259 -0 2.7167432
3.6893488e+19 3.2128708 1.0842022e-19
3.0975106 -3.6893488e+19 2.7308764
-1.0842022e-19 3.2061293 -1.0842022e-19
3.055908 3.6893488e+19 2.6983109
3.6893488e+19 3.2168376 -0
3.1004887 0 2.7180436
-1.0842022e-19 3.2106082 -1.0842022e-19
3.0958118 0 2.6951137
-3.6893488e+19 3.1978714 -2
3.0503697 -0 2.6589546
0 3.2233794 0
3.1054001 -1.0842022e-19 2.6903572
-3.6893488e+19 3.2019503 3.6893488e+19
3.0531054 -3.6893488e+19 2.6469815
3.6893488e+19 3.2124438 -1.0842022e-19
3.0971899 1.0842022e-19 2.663522
-2 3.2148907 3.6893488e+19
3.0828071 -1.0842022e-19 2.642421
-0 3.1774857 0
3.0918467 0 2.6178355
-3.6893488e+19 3.2121007 2
3.0808098 3.6893488e+19 2.6237702
0 3.1703134 1.0842022e-19
3.0861111 1.0842022e-19 2.5962529
-2 3.1889987 2
3.0642715 -3.6893488e+19 2.5896413
-1.0842022e-19 3.1724389 -1.0842022e-19
3.0878108 1.0842022e-19 2.5825467
-2 3.1991689 -1.0842022e-19
3.071552 -3.6893488e+19 2.5817409
-3.6893488e+19 3.1716254 3.6893488e+19
3.0871603 1.0842022e-19 2.566515
-0 3.1679368 -0
3.0842106 2 2.5485172
-3.6893488e+19 3.1669295 1.0842022e-19
3.0834053 -0 2.5326383
3.6893488e+19 3.1808741 -3.6893488e+19
3.058455 -1.0842022e-19 2.5230355
-0 3.1669409 2
3.0834143 -1.0842022e-19 2.5175111
-1.0842022e-19 3.1821837 3.6893488e+19
3.0593927 -0 2.5088134
-0 3.1797075 2
3.038188 0 2.4892468
1.0842022e-19 3.1771169 0
3.0706675 -0 2.4899349
3.6893488e+19 3.1771622 2
3.0364809 2 2.4572849
1.0842022e-19 3.1754601 -3.6893488e+19
3.0694234 2 2.4580007
-3.6893488e+19 3.1801157 -1.0842022e-19
3.0384617 -3.6893488e+19 2.4312272
-0 3.1757689 3.6893488e+19
3.0696554 -0 2.4283166
1.0842022e-19 3.1773951 2
3.0366371 -3.6893488e+19 2.3995125
0 3.1795654 2
3.0725057 3.6893488e+19 2.4019001
3.6893488e+19 3.1775446 -3.6893488e+19
3.0367372 -1.0842022e-19 2.3706889
-1.0842022e-19 3.174233 0
3.0685024 3.6893488e+19 2.3670838
2 3.1826391 -0
3.040154 2 2.34584
0 3.1831231 3.6893488e+19
3.0751767 -2 2.3443663
-3.6893488e+19 3.1855209 -0
3.076977 -2 2.3157227
-1.0842022e-19 3.1865153 3.6893488e+19
3.0427537 2 2.2899756
-1.0842022e-19 3.172713 -2
3.0673611 1.0842022e-19 2.2768161
1.0842022e-19 3.1599197 -0
3.0777996 -3.6893488e+19 2.2601748
-3.6893488e+19 3.1761596 3.6893488e+19
3.0550802 0 2.2402613
2 3.1588683 1.0842022e-19
3.0769589 -0 2.2104287
-3.6893488e+19 3.1752317 2
3.0544159 -2 2.1806815
3.6893488e+19 3.1615016 -0
3.0790646 -0 2.154464
0 3.1753488 0
3.0544996 -0 2.1223249
-1.0842022e-19 3.1165402 -2
3.0431104 -2 2.0578153
1.0842022e-19 3.1814883 -2
3.0588946 2 2.0684054
3.6893488e+19 3.135735 0
3.05846 3.6893488e+19 2.018774
2 3.1793301 -2
3.0573497 2 2.007858
-3.6893488e+19 3.1763651 -2
3.0909505 -1.0842022e-19 1.9861305
3.6893488e+19 3.1319838 3.6893488e+19
3.0234554 -3.6893488e+19 1.9269803
-2 3.1747026 -1.0842022e-19
3.0896211 1.0842022e-19 1.9245281
1.0842022e-19 3.1302588 -2
3.0222204 3.6893488e+19 1.873008
3.6893488e+19 3.0751102 2
3.0099802 -1.0842022e-19 1.7993069
-0 3.1761563 1.0842022e-19
3.0550778 2 1.7859972
3.6893488e+19 3.1906843 3.6893488e+19
3.0455496 3.6893488e+19 1.7076337
-1.0842022e-19 3.131757 -1.0842022e-19
3.0366125 -2 1.5355529
0 3.1931062 -1.0842022e-19
3.0471737 1.0842022e-19 -1.3592868
0 3.1330044 2
3.037549 3.6893488e+19 -1.6331172
-1.0842022e-19 3.1899264 -0
3.0450413 0 -1.7576923
1.0842022e-19 3.129535 1.0842022e-19
3.0349443 -1.0842022e-19 -1.7968431
1.0842022e-19 3.1624877 -0
3.0266392 0 -1.860235
1.0842022e-19 3.0894923 1.0842022e-19
3.0048814 2 -1.8734251
-1.0842022e-19 3.1624351 -1.0842022e-19
3.0266039 -3.6893488e+19 -1.9230053
0 3.1271398 -2
3.0331459 -2 -1.9406182
1.0842022e-19 3.0722888 -1.0842022e-19
2.9322927 2 -1.9285065
-2 3.1348321 2
3.0389214 1.0842022e-19 -1.9982195
-1.0842022e-19 3.1327534 3.6893488e+19
3.0066977 0 -2.0134583
2 3.087765 -3.6893488e+19
3.0035844 3.6893488e+19 -2.0150349
1.0842022e-19 3.0711429 2
2.9307559 0 -2.0142417
-3.6893488e+19 3.0157926 -0
2.8990996 -3.6893488e+19 -1.9956955
-2 2.8088026 -2
2.6921327 2 -1.911606
1.0842022e-19 2.759752 0
2.6654308 -3.6893488e+19 -1.9008286
0 2.7345552 1.0842022e-19
2.5968845 -0 -1.8934633
0 2.6660135 1.0842022e-19
2.5826726 0 -1.8856906
-3.6893488e+19 2.6316104 -1.0842022e-19
2.5231881 0 -1.8761227
-3.6893488e+19 2.5693135 3.6893488e+19
2.5053449 -3.6893488e+19 -1.8562022
2 2.56199 2
2.4466963 -0 -1.8527334
1.0842022e-19 2.5253496 1.0842022e-19
2.4403765 -0 -1.8441418
-3.6893488e+19 2.5235271 -1.0842022e-19
2.3916266 -2 -1.8435296
-0 2.4815161 -2
2.3850529 0 -1.8339152
-0 2.4764664 -1.0842022e-19
2.3410938 1.0842022e-19 -1.8317906
1.0842022e-19 2.4228904 -3.6893488e+19
2.3381717 0 -1.8236971
-3.6893488e+19 2.4239519 3.6893488e+19
2.3034997 0 -1.8236585
2 2.3829718 -1.0842022e-19
2.3062501 -0 -1.81874
2 2.3858442 -2
2.2762189 -2 -1.8191638
2 2.3846653 1.0842022e-19
2.2579799 -1.0842022e-19 -1.8210425
3.6893488e+19 2.3546622 -3.6893488e+19
2.2257159 -3.6893488e+19 -1.8178029
0 2.3034 2
2.1569569 -3.6893488e+19 -1.8106021
