# .PCD v0.7 - Point Cloud Data file format
VERSION 0.7
FIELDS x y z
SIZE 4 4 4
TYPE F F F
COUNT 1 1 1
WIDTH 1722
HEIGHT 1
VIEWPOINT 0 0 0 1 0 0 0
POINTS 1722
DATA ascii
1.7928588 -1.0842022e-19 -1.8081977
-0 2.4689224 -1.0842022e-19
1.60466 -1.0842022e-19 -1.8030901
0 2.4512219 1.0842022e-19
1.7766647 2 -1.8032652
0 3.300941 0
0.9455924 0 2.7812686
-0 3.2964251 3.6893488e+19
0.94453311 -1.0842022e-19 2.7683458
3.6893488e+19 3.2757804 -2
0.93969041 -1.0842022e-19 2.7010305
3.6893488e+19 3.2726102 3.6893488e+19
0.93894678 1.0842022e-19 2.6800311
3.6893488e+19 3.2741756 1.0842022e-19
0.93931401 3.6893488e+19 2.6666355
1.0842022e-19 3.2824638 2
2.2321346 -0 2.6716743
-3.6893488e+19 3.2872586 2
0.94238293 -3.6893488e+19 2.6699417
1.0842022e-19 3.2823009 -3.6893488e+19
2.02652 -1.0842022e-19 2.6385167
1.0842022e-19 3.266546 -0
2.3583658 0 2.6102777
-3.6893488e+19 3.2933576 0
2.0373507 1.0842022e-19 2.6369002
-0 3.3194664 2
2.0629246 0 2.653048
2 3.3005977 -0
2.0444422 1.0842022e-19 2.612071
0 3.2942891 1.0842022e-19
2.0382628 -3.6893488e+19 2.5876961
-3.6893488e+19 3.3251026 2
2.4370942 3.6893488e+19 2.6149156
3.6893488e+19 3.2931213 -3.6893488e+19
2.0371189 1.0842022e-19 2.5696836
1.0842022e-19 3.294446 -2
2.0384164 0 2.5544086
-2 3.318382 -3.6893488e+19
2.4280584 0 2.5711071
-2 3.2508991 -1.0842022e-19
0.93020797 -0 2.4759166
0 3.3598626 -2
2.3071227 3.6893488e+19 2.5815978
-2 3.2500288 1.0842022e-19
0.92979974 -0 2.4460065
0 3.2890632 -2
2.2433989 -2 2.5000165
-3.6893488e+19 3.289721 0
0.94296056 1.0842022e-19 2.4841156
3.6893488e+19 3.2631779 -2
2.1992157 -1.0842022e-19 2.4255362
0 3.2488272 1.0842022e-19
0.92951101 -1.0842022e-19 2.3886631
-1.0842022e-19 3.2630148 -1.0842022e-19
2.1989374 -2 2.3956189
-0 3.2506661 -2
0.93009865 0 2.3624072
0 3.2504499 -1.0842022e-19
2.1774902 0 2.3485136
-1.0842022e-19 3.2539165 3.6893488e+19
0.93162358 1.0842022e-19 2.3385744
0 3.2497599 3.6893488e+19
2.1765175 -3.6893488e+19 2.3196185
-3.6893488e+19 3.2873516 2
0.94240475 -0 2.350899
1.0842022e-19 3.2502308 3.6893488e+19
2.1771164 -0 2.2919519
-2 3.2853153 2
0.94192708 -0 2.3164232
-1.0842022e-19 3.2519085 -0
2.1799803 2 2.2656343
1.0842022e-19 3.3128355 0
2.4206011 1.0842022e-19 2.3129954
-1.0842022e-19 3.2520554 1.0842022e-19
1.9968941 -3.6893488e+19 2.2246056
-2 3.3191977 3.6893488e+19
2.4291551 2 2.2835128
0 3.2524023 -0
1.9972337 2 2.1687496
3.6893488e+19 3.251662 -1.0842022e-19
2.3383546 -0 2.1405602
1.0842022e-19 3.2540631 3.6893488e+19
1.9988606 2 2.1146762
0 3.2519741 0
2.3387742 -3.6893488e+19 2.084518
0 3.2505157 -0
1.9953858 0 2.0535731
0 3.251636 -1.0842022e-19
2.3383195 -0 2.0276623
-0 3.2421598 -3.6893488e+19
1.9910408 -3.6893488e+19 1.9932182
-0 3.2400572 -2
2.3294361 3.6893488e+19 1.9654614
-3.6893488e+19 3.2417541 1.0842022e-19
1.9908422 -1.0842022e-19 1.9380963
0 3.2404191 -3.6893488e+19
2.3296793 1.0842022e-19 1.9107014
-0 3.2254591 2
1.9828615 1.0842022e-19 1.87879
2 3.24138 1.0842022e-19
2.3303254 -0 1.8369889
-1.0842022e-19 3.227284 -2
1.9837552 -3.6893488e+19 1.7770185
-3.6893488e+19 3.1649287 -3.6893488e+19
0.90983075 2 1.6716348
-2 3.2389901 2
2.1673262 3.6893488e+19 1.5615733
0 3.1680312 0
0.91055852 -0 -1.2177132
3.6893488e+19 3.2014561 -3.6893488e+19
0.91839904 -0 -1.7160964
2 3.2390254 1.0842022e-19
2.1673563 -0 -1.796849
-2 3.2993748 1.0842022e-19
0.94522506 0 -1.8884481
3.6893488e+19 3.2228453 1.0842022e-19
2.1535475 0 -1.8859026
2 3.2002404 3.6893488e+19
0.91811389 -3.6893488e+19 -1.9043385
1.0842022e-19 3.2179394 -0
2.1493604 -2 -1.9367888
3.6893488e+19 3.2034109 -3.6893488e+19
0.91885757 -0 -1.9560342
-2 3.159085 -0
2.0991316 3.6893488e+19 -1.9590216
1.0842022e-19 3.1108055 1.0842022e-19
0.89713496 -0 -1.9542418
-3.6893488e+19 2.9186244 2
0.8481977 1.0842022e-19 -1.891865
1.0842022e-19 2.8348591 -0
1.8928919 2 -1.871015
1.0842022e-19 2.8107131 -0
1.9588737 0 -1.8711883
-2 2.7845943 -1.0842022e-19
1.7643833 -0 -1.8657258
3.6893488e+19 2.760169 0
1.9248961 3.6893488e+19 -1.86034
2 2.7306647 0
1.735411 -0 -1.8551929
-1.0842022e-19 2.6885724 2
1.897413 -3.6893488e+19 -1.847994
3.6893488e+19 2.6511667 -3.6893488e+19
1.6964759 0 -1.8395916
-0 2.6240046 1.0842022e-19
1.8757105 -0 -1.836187
-3.6893488e+19 2.5915346 1.0842022e-19
1.6672705 -1.0842022e-19 -1.8268454
-0 2.5706587 1.0842022e-19
1.8405597 -2 -1.8241099
-1.0842022e-19 2.5507522 -1.0842022e-19
1.6472968 3.6893488e+19 -1.8196224
-3.6893488e+19 2.5316284 3.6893488e+19
1.814322 2 -1.8157375
-3.6893488e+19 2.5147302 -1.0842022e-19
1.6296546 -0 -1.8111892
1.0842022e-19 2.4994016 -1.0842022e-19
1.7928588 -1.0842022e-19 -1.8081977
-0 2.4689224 -1.0842022e-19
1.60466 -1.0842022e-19 -1.8030901
0 2.4512219 1.0842022e-19
1.7766647 2 -1.8032652
2 3.3004074 -2
-1.5717214 -0 2.7807708
-0 3.2956469 -0
-1.5686041 -1.0842022e-19 2.7676423
-1.0842022e-19 3.2928023 -0
-1.5667413 0 2.7288711
1.0842022e-19 3.2906065 -1.0842022e-19
-1.5653033 -2 2.7084208
2 3.3035772 1.0842022e-19
2.2426982 -0 2.7206936
-3.6893488e+19 3.2741439 1.0842022e-19
-1.554523 -3.6893488e+19 2.6665888
-0 3.3028288 1.0842022e-19
2.2414837 -0 2.7020147
0 3.2846296 -0
-1.5613893 -3.6893488e+19 2.6660993
3.6893488e+19 3.3064866 -1.0842022e-19
2.2474201 2 2.6897869
-2 3.2951448 0
2.0143797 -2 2.656162
-3.6893488e+19 3.2668645 -0
2.3475511 -2 2.6106303
3.6893488e+19 3.2919161 2
2.0114875 1.0842022e-19 2.6349695
-2 3.2880323 -1.0842022e-19
2.0080085 -0 2.6133621
2 3.3014393 -1.0842022e-19
2.0200179 2 2.6130569
0 3.3515196 3.6893488e+19
2.4578013 1.0842022e-19 2.6645572
-3.6893488e+19 3.2948835 3.6893488e+19
2.0141456 -3.6893488e+19 2.5883524
-0 3.3244944 1.0842022e-19
2.4226053 1.0842022e-19 2.6141541
-3.6893488e+19 3.2967186 0
2.0157895 -3.6893488e+19 2.5735819
-2 3.3248644 -1.0842022e-19
2.4230871 1.0842022e-19 2.5960565
-0 3.2946234 -2
2.0139124 -1.0842022e-19 2.5545685
3.6893488e+19 3.3184664 -1.0842022e-19
2.4147546 3.6893488e+19 2.5711226
2 3.2763546 3.6893488e+19
1.997548 -2 2.5200231
2 3.3005195 3.6893488e+19
-1.5717949 -1.0842022e-19 2.5350201
1.0842022e-19 3.3711665 -0
2.3011968 -0 2.5919673
-3.6893488e+19 3.2991765 -1.0842022e-19
-1.5709155 -3.6893488e+19 2.5168393
1.0842022e-19 3.2889473 0
2.2189543 -3.6893488e+19 2.4997647
-1.0842022e-19 3.2475734 2
-1.5379177 3.6893488e+19 2.4157166
-1.0842022e-19 3.303597 -0
2.2427304 -0 2.4908237
-2 3.2491364 -0
-1.5384295 1.0842022e-19 2.3889055
0 3.4162419 2
2.337775 0 2.5630066
-0 3.2889311 -3.6893488e+19
-1.5642062 -2 2.417731
-1.0842022e-19 3.2860074 -3.6893488e+19
2.2141829 1.0842022e-19 2.3979397
-3.6893488e+19 3.2876267 0
-1.5633522 -1.0842022e-19 2.3835251
-1.0842022e-19 3.2488945 1.0842022e-19
2.1548467 -2 2.3190217
-3.6893488e+19 3.2855434 -2
-1.5619879 1.0842022e-19 2.3486922
-0 3.2884426 -2
2.2181351 1.0842022e-19 2.3364892
3.6893488e+19 3.2841454 0
-1.5610723 3.6893488e+19 2.3151267
3.6893488e+19 3.2867291 1.0842022e-19
2.2153542 1.0842022e-19 2.3023109
3.6893488e+19 3.2524705 2
2.328805 -3.6893488e+19 2.2525449
-2 3.312665 0
2.0300736 -3.6893488e+19 2.2943423
3.6893488e+19 3.318567 3.6893488e+19
2.4148858 0 2.2828915
3.6893488e+19 3.3112259 -3.6893488e+19
2.0287843 3.6893488e+19 2.2581508
-2 3.3160999 0
2.4116728 -2 2.2404568
-1.0842022e-19 3.2521477 -3.6893488e+19
1.9758644 -3.6893488e+19 2.1118991
1.0842022e-19 3.3247259 2
2.4229066 -1.0842022e-19 2.1810093
0 3.3153069 3.6893488e+19
2.0324399 -2 2.1320572
0 3.2435131 -0
2.3213632 -3.6893488e+19 2.0222192
-2 3.2383883 0
1.96874 0 1.991336
-1.0842022e-19 3.2408793 3.6893488e+19
2.3196483 -3.6893488e+19 1.9657761
-2 3.2384815 2
1.9687817 0 1.9368303
-1.0842022e-19 3.2400579 1.0842022e-19
2.3191135 3.6893488e+19 1.9105483
-2 3.3112864 -2
2.0288386 -1.0842022e-19 1.9186265
0 3.2389636 -2
2.3184006 -3.6893488e+19 1.8359008
-3.6893488e+19 3.3118935 -0
2.0293825 -1.0842022e-19 1.8236657
-0 3.2037389 -3.6893488e+19
-1.5235652 2 1.6876892
1.0842022e-19 3.237309 1.0842022e-19
2.1454451 1.0842022e-19 1.5609065
0 3.1657486 0
-1.5111263 1.0842022e-19 -1.2165252
-1.0842022e-19 3.231627 1.0842022e-19
2.1408343 2 -1.6215289
2 3.22961 1.0842022e-19
-1.5320361 2 -1.7295735
1.0842022e-19 3.2980304 0
-1.5701649 -1.0842022e-19 -1.8878267
2 3.2338314 -3.6893488e+19
2.1426229 -2 -1.8890412
2 3.1980519 -1.0842022e-19
-1.5217031 0 -1.9035889
-1.0842022e-19 3.2322614 -1.0842022e-19
2.1413491 -3.6893488e+19 -1.9424796
-3.6893488e+19 3.1963496 3.6893488e+19
-1.5211458 0 -1.9528263
-2 3.1060259 1.0842022e-19
-1.4831433 -2 -1.9515369
-1.0842022e-19 2.9141896 3.6893488e+19
-1.3856158 -1.0842022e-19 -1.8903625
3.6893488e+19 2.8496826 -1.0842022e-19
1.8918815 3.6893488e+19 -1.8784353
-0 2.811589 2
1.952899 -2 -1.8718289
1.0842022e-19 2.7863631 -3.6893488e+19
1.7532566 -0 -1.8672032
1.0842022e-19 2.757551 -0
1.9177107 -0 -1.8579214
2 2.7267103 1.0842022e-19
1.7135096 3.6893488e+19 -1.8532816
2 2.6856833 2
1.891853 -1.0842022e-19 -1.846477
0 2.6500754 1.0842022e-19
1.6791862 3.6893488e+19 -1.8389914
-3.6893488e+19 2.6232154 1.0842022e-19
1.8680286 -1.0842022e-19 -1.8356959
-1.0842022e-19 2.5919347 1.0842022e-19
1.6531461 -3.6893488e+19 -1.8270663
-0 2.5709765 0
1.8340119 -1.0842022e-19 -1.8242642
3.6893488e+19 2.5511489 -1.0842022e-19
1.6348789 -0 -1.8198642
-0 2.5329309 -0
1.8092375 -3.6893488e+19 -1.816578
-1.0842022e-19 2.5158708 1.0842022e-19
1.6131572 3.6893488e+19 -1.811977
2 2.4995096 3.6893488e+19
1.787634 -1.0842022e-19 -1.8081977
-0 2.4706998 2
1.5858176 3.6893488e+19 -1.8037515
-2 2.4500794 -3.6893488e+19
1.7715402 0 -1.8027755
-2 2.3870561 -1.0842022e-19
-1.1267316 0 -1.7992048
3.6893488e+19 2.3333356 -2
-1.0932845 3.6893488e+19 -1.7938824
0 2.296324 3.6893488e+19
-1.0690475 -3.6893488e+19 -1.7919521
-0 2.2606328 1.0842022e-19
-1.0456752 2 -1.7866971
3.6893488e+19 2.2251363 -0
1.6546984 -2 -1.7865175
-0 2.1862268 1.0842022e-19
1.64203 2 -1.7858757
-2 2.1493814 1.0842022e-19
1.6300336 1.0842022e-19 -1.7838687
-2 2.1189923 -0
1.6152786 -3.6893488e+19 -1.7825395
2 3.3004074 -2
-1.5717214 -0 2.7807708
-0 3.2956469 -0
-1.5686041 -1.0842022e-19 2.7676423
-2 3.2754273 1.0842022e-19
-1.5553634 3.6893488e+19 2.7004547
2 3.2734678 1.0842022e-19
-1.5540801 1.0842022e-19 2.6813853
3.6893488e+19 3.2692897 1.0842022e-19
2.1870506 3.6893488e+19 2.6675313
-3.6893488e+19 3.2741439 1.0842022e-19
-1.554523 -3.6893488e+19 2.6665888
-2 3.2828856 0
2.2091165 -0 2.6722467
0 3.2846296 -0
-1.5613893 -3.6893488e+19 2.6660993
3.6893488e+19 3.2762573 0
2.1983588 0 2.64641
-3.6893488e+19 3.281091 -0
2.0017908 -2 2.636822
-3.6893488e+19 3.2668645 -0
2.3475511 -2 2.6106303
3.6893488e+19 3.2919161 2
2.0114875 1.0842022e-19 2.6349695
-2 3.2880323 -1.0842022e-19
2.0080085 -0 2.6133621
0 3.2941957 3.6893488e+19
2.0135293 -0 2.6043324
0 3.3515196 3.6893488e+19
2.4578013 1.0842022e-19 2.6645572
-3.6893488e+19 3.2948835 3.6893488e+19
2.0141456 -3.6893488e+19 2.5883524
3.6893488e+19 3.2883418 1.0842022e-19
2.3755219 2 2.5735829
-3.6893488e+19 3.2967186 0
2.0157895 -3.6893488e+19 2.5735819
-2 3.2861147 3.6893488e+19
2.3726215 -3.6893488e+19 2.5547788
0 3.2785602 3.6893488e+19
1.9995236 0 2.5379632
1.0842022e-19 3.2866817 -0
2.3733597 1.0842022e-19 2.5390728
2 3.2763546 3.6893488e+19
1.997548 -2 2.5200231
-2 3.2506034 -2
-1.5391074 1.0842022e-19 2.4753575
1.0842022e-19 3.3711665 -0
2.3011968 -0 2.5919673
-2 3.2523108 -0
-1.5402255 -2 2.4500785
1.0842022e-19 3.2889473 0
2.2189543 -3.6893488e+19 2.4997647
-1.0842022e-19 3.2475734 2
-1.5379177 3.6893488e+19 2.4157166
-1.0842022e-19 3.303597 -0
2.2427304 -0 2.4908237
-2 3.2491364 -0
-1.5384295 1.0842022e-19 2.3889055
2 3.2632992 1.0842022e-19
2.1773281 -2 2.3959928
-0 3.2505875 -2
-1.539097 1.0842022e-19 2.3622947
-3.6893488e+19 3.2630608 1.0842022e-19
2.1769414 1.0842022e-19 2.3660128
3.6893488e+19 3.2493298 3.6893488e+19
-1.5384928 0 2.3329062
-1.0842022e-19 3.2488945 1.0842022e-19
2.1548467 -2 2.3190217
-3.6893488e+19 3.2855434 -2
-1.5619879 1.0842022e-19 2.3486922
1.0842022e-19 3.2490356 1.0842022e-19
2.1549611 2 2.2910805
3.6893488e+19 3.2841454 0
-1.5610723 3.6893488e+19 2.3151267
1.0842022e-19 3.2514758 -3.6893488e+19
2.1581388 -1.0842022e-19 2.2651417
3.6893488e+19 3.2524705 2
2.328805 -3.6893488e+19 2.2525449
2 3.2520592 -0
1.9757851 -3.6893488e+19 2.2245762
3.6893488e+19 3.318567 3.6893488e+19
2.4148858 0 2.2828915
-0 3.2517664 0
1.975523 0 2.1676629
-2 3.3160999 0
2.4116728 -2 2.2404568
-1.0842022e-19 3.2521477 -3.6893488e+19
1.9758644 -3.6893488e+19 2.1118991
-1.0842022e-19 3.2494824 3.6893488e+19
2.3252504 0 2.0814822
2 3.2512996 -2
1.9751047 -2 2.0544996
0 3.2435131 -0
2.3213632 -3.6893488e+19 2.0222192
-2 3.2383883 0
1.96874 0 1.991336
-1.0842022e-19 3.2408793 3.6893488e+19
2.3196483 -3.6893488e+19 1.9657761
-2 3.2384815 2
1.9687817 0 1.9368303
-1.0842022e-19 3.2400579 1.0842022e-19
2.3191135 3.6893488e+19 1.9105483
2 3.2234967 2
1.9620702 3.6893488e+19 1.8782486
0 3.2389636 -2
2.3184006 -3.6893488e+19 1.8359008
-0 3.2262585 0
1.9633073 -0 1.7766804
-2 3.1647711 -1.0842022e-19
-1.5108062 0 1.6715702
1.0842022e-19 3.237309 1.0842022e-19
2.1454451 1.0842022e-19 1.5609065
0 3.1657486 0
-1.5111263 1.0842022e-19 -1.2165252
-1.0842022e-19 3.231627 1.0842022e-19
2.1408343 2 -1.6215289
2 3.1647058 -3.6893488e+19
-1.5107847 1.0842022e-19 -1.698506
-1.0842022e-19 3.2328541 -2
-1.5330982 -0 -1.8483001
2 3.2338314 -3.6893488e+19
2.1426229 -2 -1.8890412
2 3.1980519 -1.0842022e-19
-1.5217031 0 -1.9035889
-3.6893488e+19 3.1831834 -1.0842022e-19
2.1015229 3.6893488e+19 -1.9228917
-3.6893488e+19 3.1963496 3.6893488e+19
-1.5211458 0 -1.9528263
-2 3.1060259 1.0842022e-19
-1.4831433 -2 -1.9515369
-1.0842022e-19 2.9141896 3.6893488e+19
-1.3856158 -1.0842022e-19 -1.8903625
3.6893488e+19 2.8496826 -1.0842022e-19
1.8918815 3.6893488e+19 -1.8784353
-0 2.811589 2
1.952899 -2 -1.8718289
1.0842022e-19 2.7863631 -3.6893488e+19
1.7532566 -0 -1.8672032
1.0842022e-19 2.757551 -0
1.9177107 -0 -1.8579214
2 2.7267103 1.0842022e-19
1.7135096 3.6893488e+19 -1.8532816
2 2.6856833 2
1.891853 -1.0842022e-19 -1.846477
0 2.6500754 1.0842022e-19
1.6791862 3.6893488e+19 -1.8389914
-3.6893488e+19 2.6232154 1.0842022e-19
1.8680286 -1.0842022e-19 -1.8356959
-1.0842022e-19 2.5919347 1.0842022e-19
1.6531461 -3.6893488e+19 -1.8270663
-0 2.5709765 0
1.8340119 -1.0842022e-19 -1.8242642
3.6893488e+19 2.5511489 -1.0842022e-19
1.6348789 -0 -1.8198642
-0 2.5329309 -0
1.8092375 -3.6893488e+19 -1.816578
-1.0842022e-19 2.5158708 1.0842022e-19
1.6131572 3.6893488e+19 -1.811977
2 2.4995096 3.6893488e+19
1.787634 -1.0842022e-19 -1.8081977
-0 2.4706998 2
1.5858176 3.6893488e+19 -1.8037515
-2 2.4500794 -3.6893488e+19
1.7715402 0 -1.8027755
-2 2.3870561 -1.0842022e-19
-1.1267316 0 -1.7992048
3.6893488e+19 2.3333356 -2
-1.0932845 3.6893488e+19 -1.7938824
0 2.296324 3.6893488e+19
-1.0690475 -3.6893488e+19 -1.7919521
-0 2.2606328 1.0842022e-19
-1.0456752 2 -1.7866971
3.6893488e+19 2.2251363 -0
1.6546984 -2 -1.7865175
-0 2.1862268 1.0842022e-19
1.64203 2 -1.7858757
-2 2.1493814 1.0842022e-19
1.6300336 1.0842022e-19 -1.7838687
-2 2.1189923 -0
1.6152786 -3.6893488e+19 -1.7825395
1.0842022e-19 3.3001914 -2
-1.699201 3.6893488e+19 2.7805717
-3.6893488e+19 3.2952933 -0
-1.6959509 -2 2.7673249
-3.6893488e+19 3.29826 3.6893488e+19
-1.6979195 3.6893488e+19 2.7525787
2 3.2931056 -1.0842022e-19
-1.694499 2 2.7293718
-3.6893488e+19 3.2906647 1.0842022e-19
-1.6928794 3.6893488e+19 2.7085176
-3.6893488e+19 3.3036318 -2
2.2172081 2 2.7207174
-0 3.2907503 0
-1.6929362 1.0842022e-19 2.6918283
-1.0842022e-19 3.3030982 -1.0842022e-19
2.216387 0 2.7023582
-0 3.2856717 2
-1.6895661 -0 2.6676273
-3.6893488e+19 3.3062959 -0
2.2213075 -1.0842022e-19 2.6894562
-2 3.2629495 2
2.3313327 3.6893488e+19 2.6204112
2 3.2952425 -0
1.989638 0 2.6562681
0 3.2890546 2
1.9846154 -1.0842022e-19 2.6311688
-3.6893488e+19 3.2906177 3.6893488e+19
2.3661964 -1.0842022e-19 2.6259494
0 3.3012757 -0
1.9945349 0 2.6300423
2 3.301136 -2
1.9944215 -2 2.6126661
-1.0842022e-19 3.3509307 0
2.4421945 -3.6893488e+19 2.6637757
-2 3.294997 2
1.9894388 2 2.588459
1.0842022e-19 3.3243313 2
2.4086773 1.0842022e-19 2.6138945
-2 3.2971573 3.6893488e+19
1.9911922 1.0842022e-19 2.5740378
0 3.3252881 -3.6893488e+19
2.4098828 -1.0842022e-19 2.5964346
-2 3.2773712 -2
1.9751325 1.0842022e-19 2.5367141
-1.0842022e-19 3.2873909 2
2.3621304 -3.6893488e+19 2.539727
0 3.2795525 -0
1.9769028 0 2.5231287
3.6893488e+19 3.2993217 -1.0842022e-19
-1.6986239 0 2.5338871
0 3.250771 -0
-1.6664066 3.6893488e+19 2.4473362
3.6893488e+19 3.2874796 -0
2.1923542 3.6893488e+19 2.4971619
0 3.3095467 -3.6893488e+19
-1.7054089 -1.0842022e-19 2.508625
0 3.2512913 -0
2.1366699 2 2.4062085
-0 3.2904654 1.0842022e-19
-1.6927471 -2 2.4526405
-2 3.409785 -1.0842022e-19
2.3152747 -1.0842022e-19 2.5581112
-1.0842022e-19 3.289006 -1.0842022e-19
-1.6917787 -0 2.4178436
2 3.2869153 1.0842022e-19
2.1914859 -2 2.3991508
0 3.2875774 3.6893488e+19
-1.6908306 -0 2.3834629
1.0842022e-19 3.2852914 -2
-1.6893137 2 2.3483877
-2 3.2901766 1.0842022e-19
2.1965044 -2 2.3384681
1.0842022e-19 3.2821162 -2
-1.6872066 -0 2.3128793
-0 3.2504649 0
2.1353986 -3.6893488e+19 2.2640417
-2 3.2529433 -1.0842022e-19
2.3187242 -1.0842022e-19 2.2529647
2 3.2582049 1.0842022e-19
1.9595759 -3.6893488e+19 2.2361133
0 3.318012 2
2.4007146 2 2.2823391
0 3.2510355 -1.0842022e-19
1.9537566 -0 2.1664207
0 3.3173335 0
2.3998597 1.0842022e-19 2.2422671
-0 3.2519469 -0
1.9544965 -3.6893488e+19 2.1115856
-2 3.2465992 0
2.3128729 -3.6893488e+19 2.0794992
-1.0842022e-19 3.255235 -3.6893488e+19
1.9571652 -2 2.0592465
-3.6893488e+19 3.2427449 0
2.3104446 3.6893488e+19 2.0217385
2 3.2383914 -2
1.948205 -0 1.9913205
0 3.2412007 -2
2.3094714 -0 1.9658719
3.6893488e+19 3.3075788 0
1.999651 -1.0842022e-19 1.9852637
-1.0842022e-19 3.2410643 -2
2.3093855 2 1.9108442
-2 3.2217493 3.6893488e+19
1.9414512 3.6893488e+19 1.8777664
-2 3.2401254 -2
2.308794 2 1.8363576
0 3.2256048 1.0842022e-19
1.9430158 -0 1.7764615
3.6893488e+19 3.2014532 -0
-1.6497877 -1.0842022e-19 1.6867455
1.0842022e-19 3.2374659 -1.0842022e-19
2.1250396 -2 1.5609422
3.6893488e+19 3.2000251 -1.0842022e-19
-1.6493138 3.6893488e+19 -1.2343791
0 3.3249032 -1.0842022e-19
2.249939 -1.0842022e-19 -1.6662855
1.0842022e-19 3.2292614 -1.0842022e-19
-1.6590141 0 -1.729409
-1.0842022e-19 3.2326007 3.6893488e+19
2.1212966 -3.6893488e+19 -1.7945462
-2 3.232693 0
-1.6601528 3.6893488e+19 -1.8482279
-3.6893488e+19 3.2237823 0
2.1145122 -3.6893488e+19 -1.8861357
-3.6893488e+19 3.2335386 -2
-1.6604333 -0 -1.9157552
-0 3.2178764 -2
2.1099682 -3.6893488e+19 -1.9367141
0 3.1946585 -3.6893488e+19
-1.6475332 1.0842022e-19 -1.9520597
2 3.1464963 0
2.0550508 0 -1.9525355
-2 3.1057413 -1.0842022e-19
-1.6110629 1.0842022e-19 -1.9513779
0 2.9582491 3.6893488e+19
1.9262806 2 -1.8926599
-2 2.9256124 2
-1.516214 -1.0842022e-19 -1.894235
-2 2.8507257 -1.0842022e-19
1.8849182 2 -1.8788017
0 2.8109078 2
1.9458815 3.6893488e+19 -1.8712375
0 2.7850106 3.6893488e+19
1.731333 3.6893488e+19 -1.8660424
-0 2.7590358 -3.6893488e+19
1.9132005 -1.0842022e-19 -1.859215
-3.6893488e+19 2.7278662 -0
1.6939336 -1.0842022e-19 -1.8538191
-2 2.6850286 1.0842022e-19
1.8870407 2 -1.8460978
-2 2.6493552 0
1.6620713 0 -1.8385913
-0 2.6234183 -2
1.860265 1.0842022e-19 -1.8357661
2 2.588594 0
1.6374124 1.0842022e-19 -1.8250781
-3.6893488e+19 2.569056 1.0842022e-19
1.8260152 -0 -1.8230304
0 2.5515437 1.0842022e-19
1.6197524 3.6893488e+19 -1.8201059
2 2.5334871 -1.0842022e-19
1.8036056 -0 -1.8169143
-2 2.5148935 0
1.5900049 -2 -1.8112767
-3.6893488e+19 2.4976289 2
1.7817608 3.6893488e+19 -1.8074697
3.6893488e+19 2.4709816 -0
1.5661396 0 -1.803846
-1.0842022e-19 2.449182 1.0842022e-19
1.7664993 -0 -1.8023837
1.0842022e-19 3.3001914 -2
-1.699201 3.6893488e+19 2.7805717
-3.6893488e+19 3.2952933 -0
-1.6959509 -2 2.7673249
2 3.2709746 3.6893488e+19
-1.6798134 -3.6893488e+19 2.7089446
-3.6893488e+19 3.2721486 0
-1.6805925 2 2.695097
-3.6893488e+19 3.2906647 1.0842022e-19
-1.6928794 3.6893488e+19 2.7085176
-3.6893488e+19 3.3036318 -2
2.2172081 2 2.7207174
-0 3.2737114 1.0842022e-19
-1.6816295 3.6893488e+19 2.6659358
3.6893488e+19 3.282861 2
2.1852474 3.6893488e+19 2.6721551
-0 3.2856717 2
-1.6895661 -0 2.6676273
-3.6893488e+19 3.3062959 -0
2.2213075 -1.0842022e-19 2.6894562
-2 3.2629495 2
2.3313327 3.6893488e+19 2.6204112
2 3.2952425 -0
1.989638 0 2.6562681
0 3.2890546 2
1.9846154 -1.0842022e-19 2.6311688
-3.6893488e+19 3.2906177 3.6893488e+19
2.3661964 -1.0842022e-19 2.6259494
-2 3.287497 3.6893488e+19
1.9833513 -1.0842022e-19 2.6126614
3.6893488e+19 3.2935057 -2
1.9882282 -0 2.6034768
-1.0842022e-19 3.3509307 0
2.4421945 -3.6893488e+19 2.6637757
-2 3.294997 2
1.9894388 2 2.588459
1.0842022e-19 3.3243313 2
2.4086773 1.0842022e-19 2.6138945
-2 3.2971573 3.6893488e+19
1.9911922 1.0842022e-19 2.5740378
2 3.2851095 2
2.3592556 -0 2.5536442
-2 3.2773712 -2
1.9751325 1.0842022e-19 2.5367141
-1.0842022e-19 3.2873909 2
2.3621304 -3.6893488e+19 2.539727
0 3.2795525 -0
1.9769028 0 2.5231287
1.0842022e-19 3.2476645 1.0842022e-19
-1.6651201 1.0842022e-19 2.4720023
0 3.250771 -0
-1.6664066 3.6893488e+19 2.4473362
3.6893488e+19 3.2874796 -0
2.1923542 3.6893488e+19 2.4971619
0 3.3095467 -3.6893488e+19
-1.7054089 -1.0842022e-19 2.508625
0 3.2512913 -0
2.1366699 2 2.4062085
-2 3.2470164 -3.6893488e+19
-1.6649051 2 2.3872576
1.0842022e-19 3.2629449 3.6893488e+19
2.1546018 -1.0842022e-19 2.3954086
-1.0842022e-19 3.289006 -1.0842022e-19
-1.6917787 -0 2.4178436
0 3.2638259 -2
2.1559572 1.0842022e-19 2.3670294
2 3.2498853 3.6893488e+19
-1.665857 -0 2.3332798
2 3.2355189 0
-1.6610904 2 2.2964492
-1.0842022e-19 3.2498474 -2
2.1345656 -3.6893488e+19 2.2915161
1.0842022e-19 3.2821162 -2
-1.6872066 -0 2.3128793
-0 3.2504649 0
2.1353986 -3.6893488e+19 2.2640417
-2 3.2529433 -1.0842022e-19
2.3187242 -1.0842022e-19 2.2529647
2 3.2582049 1.0842022e-19
1.9595759 -3.6893488e+19 2.2361133
3.6893488e+19 3.252285 2
2.3178947 3.6893488e+19 2.1979702
0 3.2510355 -1.0842022e-19
1.9537566 -0 2.1664207
0 3.3173335 0
2.3998597 1.0842022e-19 2.2422671
-0 3.2519469 -0
1.9544965 -3.6893488e+19 2.1115856
-2 3.2465992 0
2.3128729 -3.6893488e+19 2.0794992
-1.0842022e-19 3.255235 -3.6893488e+19
1.9571652 -2 2.0592465
-3.6893488e+19 3.2427449 0
2.3104446 3.6893488e+19 2.0217385
2 3.2383914 -2
1.948205 -0 1.9913205
0 3.2412007 -2
2.3094714 -0 1.9658719
3.6893488e+19 3.2381098 2
1.9480908 -0 1.936675
-1.0842022e-19 3.2410643 -2
2.3093855 2 1.9108442
-2 3.2217493 3.6893488e+19
1.9414512 3.6893488e+19 1.8777664
-2 3.2401254 -2
2.308794 2 1.8363576
0 3.2256048 1.0842022e-19
1.9430158 -0 1.7764615
3.6893488e+19 3.1611733 2
-1.6364232 2 1.6700836
1.0842022e-19 3.2374659 -1.0842022e-19
2.1250396 -2 1.5609422
-0 3.1640255 -2
-1.6373695 1.0842022e-19 -1.2156301
0 3.2323139 3.6893488e+19
2.1210759 3.6893488e+19 -1.6218483
2 3.166389 -1.0842022e-19
-1.6381537 -2 -1.6993136
1.0842022e-19 3.2084739 -3.6893488e+19
2.1027341 2 -1.7860701
-0 3.1684818 -2
-1.6388481 0 -1.8185326
3.6893488e+19 3.206836 -1.0842022e-19
2.101474 -1.0842022e-19 -1.8812664
-2 3.1689918 3.6893488e+19
-1.6390173 -2 -1.8936287
-0 3.1835518 -1.0842022e-19
2.08356 0 -1.9230163
0 3.1946585 -3.6893488e+19
-1.6475332 1.0842022e-19 -1.9520597
-2 2.9578004 0
1.9261081 2 -1.8588505
-2 3.1057413 -1.0842022e-19
-1.6110629 1.0842022e-19 -1.9513779
0 2.9582491 3.6893488e+19
1.9262806 2 -1.8926599
-2 2.9256124 2
-1.516214 -1.0842022e-19 -1.894235
-2 2.8507257 -1.0842022e-19
1.8849182 2 -1.8788017
0 2.8109078 2
1.9458815 3.6893488e+19 -1.8712375
0 2.7850106 3.6893488e+19
1.731333 3.6893488e+19 -1.8660424
-0 2.7590358 -3.6893488e+19
1.9132005 -1.0842022e-19 -1.859215
-3.6893488e+19 2.7278662 -0
1.6939336 -1.0842022e-19 -1.8538191
-2 2.6850286 1.0842022e-19
1.8870407 2 -1.8460978
-2 2.6493552 0
1.6620713 0 -1.8385913
-0 2.6234183 -2
1.860265 1.0842022e-19 -1.8357661
2 2.588594 0
1.6374124 1.0842022e-19 -1.8250781
-3.6893488e+19 2.569056 1.0842022e-19
1.8260152 -0 -1.8230304
0 2.5515437 1.0842022e-19
1.6197524 3.6893488e+19 -1.8201059
2 2.5334871 -1.0842022e-19
1.8036056 -0 -1.8169143
-2 2.5148935 0
1.5900049 -2 -1.8112767
-3.6893488e+19 2.4976289 2
1.7817608 3.6893488e+19 -1.8074697
3.6893488e+19 2.4709816 -0
1.5661396 0 -1.803846
-1.0842022e-19 2.449182 1.0842022e-19
1.7664993 -0 -1.8023837
-1.0842022e-19 3.3005817 0
-1.7752264 1.0842022e-19 2.7809415
1.0842022e-19 3.2933815 -0
-1.7716277 2 2.7570112
2 3.2989123 -1.0842022e-19
-1.7743919 0 2.7531354
1.0842022e-19 3.2919066 1.0842022e-19
-1.7708906 3.6893488e+19 2.7274189
-2 3.2906904 0
-1.7702829 3.6893488e+19 2.708566
0 3.3037152 -3.6893488e+19
2.1917701 0 2.7207887
1.0842022e-19 3.2895174 3.6893488e+19
-1.7696965 0 2.6899621
3.6893488e+19 3.3035498 1.0842022e-19
2.1915298 2 2.7029765
-0 3.2863739 -0
-1.7681254 -2 2.6686609
2 3.3066716 -3.6893488e+19
2.1960704 3.6893488e+19 2.6899412
-2 3.2868495 -2
2.349329 -1.0842022e-19 2.6539965
3.6893488e+19 3.2913816 3.6893488e+19
1.9620157 2 2.6509299
-2 3.2896276 -2
1.9607395 2 2.6319005
2 3.2917075 2
2.3552451 1.0842022e-19 2.6272824
-0 3.3016341 0
1.9694757 0 2.6304705
2 3.27141 0
2.3305266 3.6893488e+19 2.5854716
1.0842022e-19 3.3010778 3.6893488e+19
1.9690709 -2 2.6125731
-3.6893488e+19 3.351002 -3.6893488e+19
2.4274547 -3.6893488e+19 2.6637757
2 3.2927117 -3.6893488e+19
1.9629835 -2 2.5858157
2 3.2978108 3.6893488e+19
1.9666938 -0 2.5747297
-3.6893488e+19 3.3258018 -1.0842022e-19
2.3967657 -3.6893488e+19 2.5969114
2 3.2774198 1.0842022e-19
1.9518569 -0 2.536746
-0 3.2978048 3.6893488e+19
1.9666895 3.6893488e+19 2.5409434
1.0842022e-19 3.304225 0
2.1925118 -1.0842022e-19 2.5302212
0 3.2808731 -0
2.158545 2 2.4856768
2 3.2423074 2
-1.746048 -0 2.4113281
-1.0842022e-19 3.2516792 2
2.1160812 -2 2.4067857
1.0842022e-19 3.2901495 3.6893488e+19
-1.7700124 -3.6893488e+19 2.4521558
-0 3.4100685 2
2.2982335 -1.0842022e-19 2.5582864
3.6893488e+19 3.2875695 1.0842022e-19
-1.768723 0 2.4157739
0 3.2863908 2
2.1665709 -2 2.3983722
2 3.2882264 -3.6893488e+19
-1.7690512 0 2.384335
-0 3.2540691 3.6893488e+19
2.1195574 1.0842022e-19 2.3248508
0 3.2848971 -2
-1.7673873 3.6893488e+19 2.3479121
1.0842022e-19 3.2916291 -0
2.1741903 -2 2.3401203
-0 3.2817683 -3.6893488e+19
-1.7658236 3.6893488e+19 2.312499
-2 3.2641706 -2
2.1342506 -2 2.2784562
-2 3.3030961 2
2.3691144 2 2.3030603
-3.6893488e+19 3.2587669 -0
1.9382846 3.6893488e+19 2.2371409
2 3.3183255 -2
2.3876607 0 2.2825601
1.0842022e-19 3.2860889 0
1.9581647 0 2.2245381
1.0842022e-19 3.3175535 3.6893488e+19
2.3867207 3.6893488e+19 2.2425084
-0 3.2863257 -1.0842022e-19
1.9583369 -2 2.1608989
3.6893488e+19 3.2856166 0
2.3478277 1.0842022e-19 2.128943
2 3.2551262 1.0842022e-19
1.9356356 0 2.0590954
1.0842022e-19 3.2869377 -0
2.3494363 -2 2.0664158
-3.6893488e+19 3.2408643 -1.0842022e-19
2.2988904 2 1.9656804
-1.0842022e-19 3.2416937 -3.6893488e+19
2.2993953 1.0842022e-19 1.9110177
-3.6893488e+19 3.3101721 2
1.9756882 2 1.9180006
3.6893488e+19 3.2425931 -0
2.299943 2 1.8373785
0 3.2267594 2
1.9234504 -2 1.7768196
3.6893488e+19 3.162385 2
-1.7061039 1.0842022e-19 1.6705878
3.6893488e+19 3.2359335 -0
2.1034083 0 1.560335
-1.0842022e-19 3.2131107 1.0842022e-19
-1.7314559 -3.6893488e+19 -1.2411983
3.6893488e+19 3.2251306 -2
2.0955515 1.0842022e-19 -1.6181421
0 3.1661944 1.0842022e-19
-1.7080078 -3.6893488e+19 -1.6992239
2 3.3113472 1.0842022e-19
2.2028716 -0 -1.8437369
-0 3.232841 -0
-1.7413168 -0 -1.8483001
-0 3.2250891 3.6893488e+19
2.0955215 -3.6893488e+19 -1.8864944
-2 3.2331555 2
-1.741474 3.6893488e+19 -1.9156266
0 3.2072608 3.6893488e+19
2.0825553 -1.0842022e-19 -1.9324553
-0 3.1688182 -3.6893488e+19
-1.7093191 0 -1.9403208
-3.6893488e+19 3.1538773 -1.0842022e-19
2.0437307 -2 -1.9562805
3.6893488e+19 3.1206629 -1.0842022e-19
-1.6852518 2 -1.9598283
1.0842022e-19 2.9583054 -1.0842022e-19
1.9166574 2 -1.8926599
-1.0842022e-19 2.9108064 -0
-1.580315 -3.6893488e+19 -1.8892198
-3.6893488e+19 2.8446565 2
1.8753304 -3.6893488e+19 -1.8765572
1.0842022e-19 2.810971 -2
1.9393522 3.6893488e+19 -1.8712375
1.0842022e-19 2.784467 0
1.7069845 3.6893488e+19 -1.8655674
-0 2.7588396 3.6893488e+19
1.9076091 3.6893488e+19 -1.8589901
1.0842022e-19 2.7247779 0
1.6727295 -2 -1.8523259
0 2.6849928 -2
1.8824348 1.0842022e-19 -1.8460346
-2 2.648757 -0
1.6450722 1.0842022e-19 -1.8382579
3.6893488e+19 2.6231213 -3.6893488e+19
1.8521959 -0 -1.8355556
-1.0842022e-19 2.5887399 2
1.6214747 -3.6893488e+19 -1.8251517
1.0842022e-19 2.5692453 -3.6893488e+19
1.8193904 2 -1.8231075
-0 2.5514381 -2
1.5943331 -0 -1.8200253
-2 2.5305638 3.6893488e+19
1.7958372 -1.0842022e-19 -1.8148968
2 2.5150349 -3.6893488e+19
1.5678452 2 -1.8113643
1.0842022e-19 2.4977303 -0
1.7765355 3.6893488e+19 -1.8074697
1.0842022e-19 2.4710114 1.0842022e-19
1.5463592 0 -1.803846
3.6893488e+19 2.4515061 0
1.7624625 2 -1.8032652
-2 2.3853066 -0
-1.3175706 3.6893488e+19 -1.7984221
0 2.3308465 -3.6893488e+19
-1.2903521 -0 -1.7926258
2 2.2955732 -2
-1.2727231 -3.6893488e+19 -1.7915337
1.0842022e-19 2.2611198 -1.0842022e-19
-1.2555038 -1.0842022e-19 -1.7870036
1.0842022e-19 2.226316 -1.0842022e-19
1.6450158 0 -1.7868516
1.0842022e-19 2.1854267 0
1.632567 -1.0842022e-19 -1.7855141
1.0842022e-19 2.1456344 -3.6893488e+19
1.6159042 -0 -1.782313
-0 2.1167068 -3.6893488e+19
1.5982901 0 -1.781499
-1.0842022e-19 3.3005817 0
-1.7752264 1.0842022e-19 2.7809415
1.0842022e-19 3.2933815 -0
-1.7716277 2 2.7570112
0 3.2719331 0
-1.7609081 -3.6893488e+19 2.7105756
-0 3.2714245 -0
-1.760654 -2 2.6939201
-2 3.2906904 0
-1.7702829 3.6893488e+19 2.708566
0 3.3037152 -3.6893488e+19
2.1917701 0 2.7207887
1.0842022e-19 3.2721565 -2
-1.7610197 -1.0842022e-19 2.6635797
1.0842022e-19 3.2828958 1.0842022e-19
2.1614873 3.6893488e+19 2.6721551
-0 3.2863739 -0
-1.7681254 -2 2.6686609
2 3.3066716 -3.6893488e+19
2.1960704 3.6893488e+19 2.6899412
0 3.2630491 -0
2.3203444 3.6893488e+19 2.620476
3.6893488e+19 3.2913816 3.6893488e+19
1.9620157 2 2.6509299
-2 3.2896276 -2
1.9607395 2 2.6319005
2 3.2917075 2
2.3552451 1.0842022e-19 2.6272824
3.6893488e+19 3.2874844 -3.6893488e+19
1.95918 2 2.6126225
2 3.27141 0
2.3305266 3.6893488e+19 2.5854716
-0 3.2935705 1.0842022e-19
1.9636085 -1.0842022e-19 2.6035326
-3.6893488e+19 3.351002 -3.6893488e+19
2.4274547 -3.6893488e+19 2.6637757
2 3.2927117 -3.6893488e+19
1.9629835 -2 2.5858157
2 3.2978108 3.6893488e+19
1.9666938 -0 2.5747297
-3.6893488e+19 3.3258018 -1.0842022e-19
2.3967657 -3.6893488e+19 2.5969114
2 3.2774198 1.0842022e-19
1.9518569 -0 2.536746
0 3.2791514 1.0842022e-19
1.9531168 3.6893488e+19 2.5227196
1.0842022e-19 3.304225 0
2.1925118 -1.0842022e-19 2.5302212
0 3.2808731 -0
2.158545 2 2.4856768
2 3.2423074 2
-1.746048 -0 2.4113281
-1.0842022e-19 3.2516792 2
2.1160812 -2 2.4067857
0 3.2341008 -2
-1.7419463 -3.6893488e+19 2.3772004
-0 3.4100685 2
2.2982335 -1.0842022e-19 2.5582864
-1.0842022e-19 3.2539885 0
-1.7519398 2 2.3672218
-3.6893488e+19 3.2527552 0
2.1176465 1.0842022e-19 2.3515851
0 3.2546563 1.0842022e-19
-1.7522734 1.0842022e-19 2.339571
-0 3.2540691 3.6893488e+19
2.1195574 1.0842022e-19 2.3248508
-3.6893488e+19 3.2356663 -2
-1.7427288 2 2.2965443
-1.0842022e-19 3.2497842 0
2.1134818 2 2.2914436
-0 3.2817683 -3.6893488e+19
-1.7658236 3.6893488e+19 2.312499
-2 3.2641706 -2
2.1342506 -2 2.2784562
1.0842022e-19 3.2520618 0
2.3069642 -3.6893488e+19 2.2520318
-3.6893488e+19 3.2587669 -0
1.9382846 3.6893488e+19 2.2371409
-0 3.2519629 0
2.3068438 3.6893488e+19 2.1973073
-3.6893488e+19 3.2516439 -0
1.9331018 -1.0842022e-19 2.1674039
2 3.2529099 -3.6893488e+19
2.3079967 -1.0842022e-19 2.1422496
-0 3.2863257 -1.0842022e-19
1.9583369 -2 2.1608989
3.6893488e+19 3.2856166 0
2.3478277 1.0842022e-19 2.128943
2 3.2551262 1.0842022e-19
1.9356356 0 2.0590954
-2 3.2434368 -1.0842022e-19
2.3004568 -2 2.0220647
-3.6893488e+19 3.2408643 -1.0842022e-19
2.2988904 2 1.9656804
-1.0842022e-19 3.2416937 -3.6893488e+19
2.2993953 1.0842022e-19 1.9110177
3.6893488e+19 3.2213418 -2
1.9214793 -3.6893488e+19 1.8776479
3.6893488e+19 3.2425931 -0
2.299943 2 1.8373785
0 3.2267594 2
1.9234504 -2 1.7768196
3.6893488e+19 3.162385 2
-1.7061039 1.0842022e-19 1.6705878
3.6893488e+19 3.2359335 -0
2.1034083 0 1.560335
-2 3.1649246 1.0842022e-19
-1.7073733 -0 -1.216102
3.6893488e+19 3.2251306 -2
2.0955515 1.0842022e-19 -1.6181421
0 3.1661944 1.0842022e-19
-1.7080078 -3.6893488e+19 -1.6992239
2 3.2080619 2
2.083138 3.6893488e+19 -1.7859056
3.6893488e+19 3.1672249 -1.0842022e-19
-1.7085228 2 -1.8179545
1.0842022e-19 3.2089522 -2
2.0837853 -0 -1.8818582
1.0842022e-19 3.1685474 0
-1.7091838 0 -1.8934789
-1.0842022e-19 3.1833553 0
2.0651696 3.6893488e+19 -1.9229167
-0 3.1688182 -3.6893488e+19
-1.7093191 0 -1.9403208
3.6893488e+19 2.9576695 1.0842022e-19
1.9164263 1.0842022e-19 -1.8587549
3.6893488e+19 3.1206629 -1.0842022e-19
-1.6852518 2 -1.9598283
1.0842022e-19 2.9583054 -1.0842022e-19
1.9166574 2 -1.8926599
-1.0842022e-19 2.9108064 -0
-1.580315 -3.6893488e+19 -1.8892198
-3.6893488e+19 2.8446565 2
1.8753304 -3.6893488e+19 -1.8765572
1.0842022e-19 2.810971 -2
1.9393522 3.6893488e+19 -1.8712375
1.0842022e-19 2.784467 0
1.7069845 3.6893488e+19 -1.8655674
-0 2.7588396 3.6893488e+19
1.9076091 3.6893488e+19 -1.8589901
1.0842022e-19 2.7247779 0
1.6727295 -2 -1.8523259
0 2.6849928 -2
1.8824348 1.0842022e-19 -1.8460346
-2 2.648757 -0
1.6450722 1.0842022e-19 -1.8382579
3.6893488e+19 2.6231213 -3.6893488e+19
1.8521959 -0 -1.8355556
-1.0842022e-19 2.5887399 2
1.6214747 -3.6893488e+19 -1.8251517
1.0842022e-19 2.5692453 -3.6893488e+19
1.8193904 2 -1.8231075
-0 2.5514381 -2
1.5943331 -0 -1.8200253
-2 2.5305638 3.6893488e+19
1.7958372 -1.0842022e-19 -1.8148968
2 2.5150349 -3.6893488e+19
1.5678452 2 -1.8113643
1.0842022e-19 2.4977303 -0
1.7765355 3.6893488e+19 -1.8074697
1.0842022e-19 2.4710114 1.0842022e-19
1.5463592 0 -1.803846
3.6893488e+19 2.4515061 0
1.7624625 2 -1.8032652
-2 2.3853066 -0
-1.3175706 3.6893488e+19 -1.7984221
0 2.3308465 -3.6893488e+19
-1.2903521 -0 -1.7926258
2 2.2955732 -2
-1.2727231 -3.6893488e+19 -1.7915337
1.0842022e-19 2.2611198 -1.0842022e-19
-1.2555038 -1.0842022e-19 -1.7870036
1.0842022e-19 2.226316 -1.0842022e-19
1.6450158 0 -1.7868516
1.0842022e-19 2.1854267 0
1.632567 -1.0842022e-19 -1.7855141
1.0842022e-19 2.1456344 -3.6893488e+19
1.6159042 -0 -1.782313
-0 2.1167068 -3.6893488e+19
1.5982901 0 -1.781499
-1.0842022e-19 3.2949765 -0
-1.8219815 3.6893488e+19 2.7670491
-1.0842022e-19 3.2933743 -0
-1.8209116 2 2.7570112
2 3.2969639 2
-1.8233087 -2 2.7514913
-3.6893488e+19 3.2914402 -0
-1.8196201 1.0842022e-19 2.7266679
2 3.2853036 -0
2.1409791 -1.0842022e-19 2.708744
2 3.2900398 -1.0842022e-19
-1.8186848 -0 2.7075503
-3.6893488e+19 3.2818797 1.0842022e-19
2.1362872 3.6893488e+19 2.6868911
2 3.288789 1.0842022e-19
-1.8178496 -2 2.6888657
-3.6893488e+19 3.2832353 2
2.138145 2 2.6726131
-3.6893488e+19 3.2863362 -1.0842022e-19
-1.8162117 3.6893488e+19 2.6686161
-2 3.2630239 -3.6893488e+19
2.3092058 2 2.620368
0 3.2732818 3.6893488e+19
2.3212647 3.6893488e+19 2.619077
1.0842022e-19 3.2890275 -1.0842022e-19
1.936015 -1.0842022e-19 2.6310875
-3.6893488e+19 3.2898262 3.6893488e+19
2.3407142 -2 2.6247756
3.6893488e+19 3.3024535 -3.6893488e+19
1.9446559 0 2.6314826
-1.0842022e-19 3.2712321 -2
2.3188553 -2 2.585186
-3.6893488e+19 3.2971463 -3.6893488e+19
1.9412403 -2 2.573987
0 3.3258042 0
2.3830092 0 2.5968459
3.6893488e+19 3.2776368 -2
1.9286841 -1.0842022e-19 2.5369542
-2 3.2779729 1.0842022e-19
1.9289006 0 2.5215533
-2 3.2697523 -1.0842022e-19
-1.8051372 -1.0842022e-19 2.5058529
-2 3.2804863 3.6893488e+19
2.1343777 2 2.4849522
-1.0842022e-19 3.2364216 -2
-1.787413 2 2.4064202
-1.0842022e-19 3.2513666 1.0842022e-19
2.0944722 -0 2.4062335
0 3.2895827 0
-1.8183796 -2 2.4512835
1.0842022e-19 3.2522991 0
2.0957499 2 2.3793092
-0 3.287158 -2
-1.8167604 3.6893488e+19 2.4151888
1.0842022e-19 3.2872326 3.6893488e+19
2.1436226 -0 2.399497
0 3.2860708 -3.6893488e+19
-1.8160343 3.6893488e+19 2.3814697
-0 3.2931571 -2
2.1517415 3.6893488e+19 2.3747849
0 3.2846878 2
-1.8151108 0 2.3476648
1.0842022e-19 3.2920365 3.6893488e+19
2.1502059 2 2.3405561
-3.6893488e+19 3.2808731 2
-1.8125635 3.6893488e+19 2.3115137
1.0842022e-19 3.2917104 -1.0842022e-19
2.1497588 2 2.3074496
1.0842022e-19 3.2853322 -3.6893488e+19
2.3354309 3.6893488e+19 2.2852423
3.6893488e+19 3.2511411 -1.0842022e-19
2.2952366 -2 2.1957607
-3.6893488e+19 3.2860425 1.0842022e-19
1.9340941 -3.6893488e+19 2.2244344
3.6893488e+19 3.2526793 3.6893488e+19
2.297045 -0 2.1418152
-2 3.3125601 -3.6893488e+19
1.9511604 0 2.1985223
-3.6893488e+19 3.2858438 -0
2.3360326 -3.6893488e+19 2.1291699
-0 3.3105428 -2
1.9498621 2 2.1262136
0 3.2860596 -0
2.3362861 -1.0842022e-19 2.0653856
-1.0842022e-19 3.3122098 -2
1.950935 0 2.0584972
-0 3.242238 0
2.2893329 3.6893488e+19 1.9662415
1.0842022e-19 3.244252 -3.6893488e+19
2.2905164 0 1.9118236
-2 3.2181194 -3.6893488e+19
1.9006383 -0 1.8767681
-0 3.2430637 -0
2.289818 -0 1.8375397
3.6893488e+19 3.219413 -2
1.9010546 1.0842022e-19 1.7744719
1.0842022e-19 3.1659687 -2
-1.7638892 -3.6893488e+19 1.6720742
2 3.2310569 2
2.0796194 2 1.5584538
2 3.2006316 3.6893488e+19
-1.775463 -3.6893488e+19 -1.2347045
-3.6893488e+19 3.2241552 -0
2.0748904 -3.6893488e+19 -1.6176149
-3.6893488e+19 3.1996815 -1.0842022e-19
-1.7751458 0 -1.7152588
3.6893488e+19 3.3117735 2
2.1772535 1.0842022e-19 -1.8440111
1.0842022e-19 3.1639655 0
-1.7632204 -1.0842022e-19 -1.8164517
-3.6893488e+19 3.2118459 3.6893488e+19
2.0664561 0 -1.8826743
-2 3.1681623 -0
-1.7646217 -3.6893488e+19 -1.8933502
1.0842022e-19 3.1705263 1.0842022e-19
-1.765411 0 -1.9411016
-2 3.2066302 -3.6893488e+19
2.0628822 1.0842022e-19 -1.9831971
3.6893488e+19 3.1187491 1.0842022e-19
-1.746246 0 -1.9587499
-2 2.9236593 0
-1.6414572 -1.0842022e-19 -1.893579
2 2.8536165 3.6893488e+19
1.8672974 -0 -1.8798323
3.6893488e+19 2.8110943 3.6893488e+19
1.9328582 -2 -1.8712867
-1.0842022e-19 2.7841709 3.6893488e+19
1.6828895 3.6893488e+19 -1.8653036
-1.0842022e-19 2.7590771 1.0842022e-19
1.9022831 -3.6893488e+19 -1.8591588
1.0842022e-19 2.7254283 3.6893488e+19
1.6529903 -3.6893488e+19 -1.8526245
-3.6893488e+19 2.6845803 -0
1.8777211 2 -1.8457818
3.6893488e+19 2.6450386 -1.0842022e-19
1.6271213 3.6893488e+19 -1.8362573
2 2.6233189 -3.6893488e+19
1.8444332 0 -1.8356258
0 2.5926228 0
1.5955085 -0 -1.8274345
3.6893488e+19 2.5694323 -2
1.8127592 2 -1.8231846
-2 2.5533235 2
1.5702159 0 -1.8212342
0 2.5308676 -3.6893488e+19
1.7900912 0 -1.815065
-3.6893488e+19 2.5145516 1.0842022e-19
1.5452628 -3.6893488e+19 -1.8110141
-1.0842022e-19 2.4975796 -3.6893488e+19
1.7712362 0 -1.8073788
2 2.4710379 -2
1.5265775 0 -1.803846
-1.0842022e-19 2.452091 -1.0842022e-19
1.7578673 -1.0842022e-19 -1.8034611
-1.0842022e-19 3.2949765 -0
-1.8219815 3.6893488e+19 2.7670491
-1.0842022e-19 3.2933743 -0
-1.8209116 2 2.7570112
2 3.2969639 2
-1.8233087 -2 2.7514913
-2 3.2714486 2
-1.80627 -2 2.6939702
2 3.2853036 -0
2.1409791 -1.0842022e-19 2.708744
2 3.2900398 -1.0842022e-19
-1.8186848 -0 2.7075503
-3.6893488e+19 3.2818797 1.0842022e-19
2.1362872 3.6893488e+19 2.6868911
0 3.2711062 2
-1.8060412 -0 2.6619935
-3.6893488e+19 3.2832353 2
2.138145 2 2.6726131
1.0842022e-19 3.2752395 0
-1.8088014 -2 2.6523926
-2 3.2630239 -3.6893488e+19
2.3092058 2 2.620368
0 3.2732818 3.6893488e+19
2.3212647 3.6893488e+19 2.619077
-2 3.2781758 -1.0842022e-19
1.9290311 2 2.6167798
2 3.2738574 -0
2.3219414 1.0842022e-19 2.6041262
1.0842022e-19 3.2875006 -1.0842022e-19
1.9350324 2 2.6126225
-1.0842022e-19 3.2712321 -2
2.3188553 -2 2.585186
-3.6893488e+19 3.2971463 -3.6893488e+19
1.9412403 -2 2.573987
0 3.3258042 0
2.3830092 0 2.5968459
3.6893488e+19 3.2776368 -2
1.9286841 -1.0842022e-19 2.5369542
-2 3.2779729 1.0842022e-19
1.9289006 0 2.5215533
-2 3.2697523 -1.0842022e-19
-1.8051372 -1.0842022e-19 2.5058529
-2 3.2804863 3.6893488e+19
2.1343777 2 2.4849522
-1.0842022e-19 3.2364216 -2
-1.787413 2 2.4064202
-1.0842022e-19 3.2513666 1.0842022e-19
2.0944722 -0 2.4062335
-0 3.2344313 1.0842022e-19
-1.7867485 0 2.3774672
1.0842022e-19 3.2522991 0
2.0957499 2 2.3793092
3.6893488e+19 3.2352464 1.0842022e-19
-1.7870207 1.0842022e-19 2.3507979
-3.6893488e+19 3.2528 2
2.0964365 -2 2.3516066
2 3.2373464 -3.6893488e+19
-1.7877218 -1.0842022e-19 2.3249333
1.0842022e-19 3.2535229 2
2.0974269 -3.6893488e+19 2.3241146
0 3.2366519 -0
-1.7874899 -2 2.297153
1.0842022e-19 3.2547476 0
2.0991054 -1.0842022e-19 2.2970719
1.0842022e-19 3.2368054 -1.0842022e-19
-1.7875412 -1.0842022e-19 2.2699554
-2 3.2651203 3.6893488e+19
2.1133201 -0 2.2794249
-2 3.252049 -1.0842022e-19
2.296304 1.0842022e-19 2.2519698
3.6893488e+19 3.2511411 -1.0842022e-19
2.2952366 -2 2.1957607
-0 3.2515957 0
1.9119245 -1.0842022e-19 2.1673005
3.6893488e+19 3.2526793 3.6893488e+19
2.297045 -0 2.1418152
-1.0842022e-19 3.2864666 -2
1.9343669 2 2.1610782
1.0842022e-19 3.252883 0
2.2972844 0 2.0854475
-1.0842022e-19 3.2596052 -2
1.9170792 2 2.0645041
0 3.2457142 -1.0842022e-19
2.2913759 -3.6893488e+19 2.0232666
-1.0842022e-19 3.3122098 -2
1.950935 0 2.0584972
-0 3.242238 0
2.2893329 3.6893488e+19 1.9662415
1.0842022e-19 3.244252 -3.6893488e+19
2.2905164 0 1.9118236
-2 3.2181194 -3.6893488e+19
1.9006383 -0 1.8767681
-0 3.2430637 -0
2.289818 -0 1.8375397
3.6893488e+19 3.219413 -2
1.9010546 1.0842022e-19 1.7744719
1.0842022e-19 3.1659687 -2
-1.7638892 -3.6893488e+19 1.6720742
2 3.2310569 2
2.0796194 2 1.5584538
1.0842022e-19 3.1624775 2
-1.7627236 3.6893488e+19 -1.2148325
-3.6893488e+19 3.2241552 -0
2.0748904 -3.6893488e+19 -1.6176149
3.6893488e+19 3.1632159 -1.0842022e-19
-1.7629701 -2 -1.6978029
0 3.2119551 -1.0842022e-19
2.0665307 -0 -1.7872543
1.0842022e-19 3.1639655 0
-1.7632204 -1.0842022e-19 -1.8164517
-3.6893488e+19 3.2118459 3.6893488e+19
2.0664561 0 -1.8826743
-2 3.1681623 -0
-1.7646217 -3.6893488e+19 -1.8933502
1.0842022e-19 3.1705263 1.0842022e-19
-1.765411 0 -1.9411016
-3.6893488e+19 3.1537681 -3.6893488e+19
2.0266612 3.6893488e+19 -1.9562008
3.6893488e+19 3.1187491 1.0842022e-19
-1.746246 0 -1.9587499
-2 2.9236593 0
-1.6414572 -1.0842022e-19 -1.893579
2 2.8536165 3.6893488e+19
1.8672974 -0 -1.8798323
3.6893488e+19 2.8110943 3.6893488e+19
1.9328582 -2 -1.8712867
-1.0842022e-19 2.7841709 3.6893488e+19
1.6828895 3.6893488e+19 -1.8653036
-1.0842022e-19 2.7590771 1.0842022e-19
1.9022831 -3.6893488e+19 -1.8591588
1.0842022e-19 2.7254283 3.6893488e+19
1.6529903 -3.6893488e+19 -1.8526245
-3.6893488e+19 2.6845803 -0
1.8777211 2 -1.8457818
3.6893488e+19 2.6450386 -1.0842022e-19
1.6271213 3.6893488e+19 -1.8362573
2 2.6233189 -3.6893488e+19
1.8444332 0 -1.8356258
0 2.5926228 0
1.5955085 -0 -1.8274345
3.6893488e+19 2.5694323 -2
1.8127592 2 -1.8231846
-2 2.5533235 2
1.5702159 0 -1.8212342
0 2.5308676 -3.6893488e+19
1.7900912 0 -1.815065
-3.6893488e+19 2.5145516 1.0842022e-19
1.5452628 -3.6893488e+19 -1.8110141
-1.0842022e-19 2.4975796 -3.6893488e+19
1.7712362 0 -1.8073788
2 2.4710379 -2
1.5265775 0 -1.803846
-1.0842022e-19 2.452091 -1.0842022e-19
1.7578673 -1.0842022e-19 -1.8034611
-1.0842022e-19 3.2944493 -2
-1.8711003 1.0842022e-19 2.7665801
-0 3.2952428 -0
-1.8717635 -1.0842022e-19 2.7500415
-0 3.2905588 -0
-1.8678486 -0 2.7252407
2 3.2899542 -2
-1.8673432 2 2.7074294
1.0842022e-19 3.2829835 2
2.1139898 -2 2.6885538
2 3.288028 1.0842022e-19
-1.8657334 -1.0842022e-19 2.6877227
0 3.2841105 1.0842022e-19
2.1154394 -1.0842022e-19 2.6738725
-1.0842022e-19 3.28602 -0
-1.8640552 3.6893488e+19 2.6681666
-0 3.2747014 2
2.311337 -0 2.620924
-0 3.2891033 3.6893488e+19
1.9117724 -1.0842022e-19 2.6311688
-3.6893488e+19 3.2733397 -3.6893488e+19
2.3097937 -2 2.60339
-0 3.2876999 2
1.9109871 0 2.6128561
-1.0842022e-19 3.2709908 -2
2.3071315 1.0842022e-19 2.5848246
3.6893488e+19 3.2886734 -0
1.9115318 3.6893488e+19 2.5975986
-2 3.2972848 -2
1.9163505 1.0842022e-19 2.5741222
-2 3.2866833 3.6893488e+19
1.9104183 0 2.5462899
-2 3.2763274 -2
1.9046234 -0 2.5199323
-3.6893488e+19 3.2691388 -0
-1.8499459 3.6893488e+19 2.5052791
3.6893488e+19 3.2775538 3.6893488e+19
2.1070058 2 2.5055971
0 3.3118691 1.0842022e-19
-1.8803298 -0 2.5281827
1.0842022e-19 3.2797875 -3.6893488e+19
2.1098788 3.6893488e+19 2.483691
1.0842022e-19 3.2366242 3.6893488e+19
-1.8283598 -2 2.4066019
2 3.2521708 0
2.0743568 -1.0842022e-19 2.4074886
1.0842022e-19 3.2899625 1.0842022e-19
-1.8673502 -2 2.4518893
2 3.2518446 3.6893488e+19
2.0739372 1.0842022e-19 2.3785849
1.0842022e-19 3.2876627 0
-1.8654281 -0 2.4159312
0 3.2873106 3.6893488e+19
2.1195555 -0 2.3995619
-2 3.2368953 2
-1.8284732 -0 2.3246427
1.0842022e-19 3.2935627 0
2.1275973 0 2.3752625
-2 3.2842894 -0
-1.8626087 1.0842022e-19 2.3471892
2 3.2918036 2
2.1253347 -2 2.3402474
0 3.2803814 2
-1.8593423 -1.0842022e-19 2.3109777
-0 3.2655387 -0
2.0915513 0 2.2798355
-1.0842022e-19 3.2488425 -0
2.2826853 -3.6893488e+19 2.2485909
-3.6893488e+19 3.2519822 1.0842022e-19
2.285588 2 2.1971693
-2 3.2838411 2
1.9088279 3.6893488e+19 2.2207601
-0 3.2507968 -1.0842022e-19
2.2842443 -2 2.1388223
0 3.2506573 0
2.2840862 -2 2.082432
2 3.3090127 2
1.922913 2 2.1243412
-3.6893488e+19 3.2481444 3.6893488e+19
2.2822897 2 2.0245545
2 3.3121941 0
1.9246932 -0 2.0584662
-2 3.3092549 -3.6893488e+19
1.9230485 -3.6893488e+19 1.9865059
-0 3.2416341 3.6893488e+19
2.2786005 -0 1.910936
2 3.3077526 -1.0842022e-19
1.9222078 -2 1.9166723
-2 3.2422843 -2
2.2789688 3.6893488e+19 1.8371636
-2 3.2498987 -0
1.8898631 -0 1.7841713
1.0842022e-19 3.2320774 3.6893488e+19
2.0600379 -0 1.5588229
2 3.1956182 -3.6893488e+19
-1.8112234 -2 -1.2321005
1.0842022e-19 3.2237387 -3.6893488e+19
2.0546749 -2 -1.6173753
-3.6893488e+19 3.1997302 3.6893488e+19
-1.8129419 -3.6893488e+19 -1.7152886
3.6893488e+19 3.217001 3.6893488e+19
2.0503418 -3.6893488e+19 -1.7890087
-1.0842022e-19 3.1951029 0
-1.8110082 -1.0842022e-19 -1.8308586
-0 3.210429 -0
2.0461152 -0 -1.8822528
-1.0842022e-19 3.1659315 -2
-1.7988174 3.6893488e+19 -1.8925899
1.0842022e-19 3.2073636 -1.0842022e-19
2.0441437 -1.0842022e-19 -1.9324553
3.6893488e+19 3.1724498 2
-1.8015414 -0 -1.9419816
1.0842022e-19 3.2067738 -0
2.0437644 2 -1.9832449
1.0842022e-19 3.1197059 3.6893488e+19
-1.7794998 2 -1.9592979
1.0842022e-19 2.9130943 3.6893488e+19
-1.6726317 -3.6893488e+19 -1.8900027
1.0842022e-19 2.8521578 -0
1.8514829 -2 -1.8792826
3.6893488e+19 2.8114645 3.6893488e+19
1.9265015 1.0842022e-19 -1.8715333
3.6893488e+19 2.7856202 -3.6893488e+19
1.6598233 1.0842022e-19 -1.8665173
-3.6893488e+19 2.7603087 -2
1.8975124 -3.6893488e+19 -1.8602275
-2 2.7259507 -3.6893488e+19
1.6331629 1.0842022e-19 -1.8528636
-1.0842022e-19 2.6836672 -0
1.8707516 -0 -1.8452761
1.0842022e-19 2.6453075 -0
1.5962006 1.0842022e-19 -1.8363907
-3.6893488e+19 2.6237626 -3.6893488e+19
1.8368047 -1.0842022e-19 -1.8358362
-3.6893488e+19 2.5927641 -2
1.5667992 2 -1.8275082
2 2.5701144 -2
1.8064032 -1.0842022e-19 -1.8235701
-0 2.5525911 -3.6893488e+19
1.5443196 -2 -1.8207506
1.0842022e-19 2.5339026 -1.0842022e-19
1.7858826 0 -1.8170825
0 2.5134444 -1.0842022e-19
1.5224144 2 -1.8102263
3.6893488e+19 2.4994123 -2
1.766504 -3.6893488e+19 -1.8080157
2 2.4705634 -1.0842022e-19
1.5066556 -3.6893488e+19 -1.8036569
-3.6893488e+19 2.4516802 -0
1.7529796 2 -1.8032652
1.0842022e-19 2.385534 3.6893488e+19
-1.4111143 2 -1.7985339
0 2.3320684 -1.0842022e-19
-1.3887711 -3.6893488e+19 -1.793254
-0 2.295557 -2
-1.3720261 -3.6893488e+19 -1.7915337
3.6893488e+19 2.2588823 1.0842022e-19
-1.3413734 3.6893488e+19 -1.7856243
3.6893488e+19 2.2260079 2
1.6348727 -3.6893488e+19 -1.7866845
3.6893488e+19 2.184123 2
1.6210099 -1.0842022e-19 -1.7849718
1.0842022e-19 2.1511686 2
1.6023352 -2 -1.784452
2 2.1183119 1.0842022e-19
1.5837159 3.6893488e+19 -1.7821233
-1.0842022e-19 3.2944493 -2
-1.8711003 1.0842022e-19 2.7665801
-0 3.2952428 -0
-1.8717635 -1.0842022e-19 2.7500415
0 3.271471 -0
-1.851895 -2 2.6940203
1.0842022e-19 3.2731235 -1.0842022e-19
-1.8532761 1.0842022e-19 2.6808774
1.0842022e-19 3.2829835 2
2.1139898 -2 2.6885538
0 3.2717886 1.0842022e-19
-1.8521605 2 2.6630433
0 3.2841105 1.0842022e-19
2.1154394 -1.0842022e-19 2.6738725
-1.0842022e-19 3.2752309 -1.0842022e-19
-1.8550376 -2 2.6523926
-0 3.2747014 2
2.311337 -0 2.620924
-3.6893488e+19 3.2781279 -1.0842022e-19
1.9056309 3.6893488e+19 2.6166985
-3.6893488e+19 3.2733397 -3.6893488e+19
2.3097937 -2 2.60339
-0 3.2876999 2
1.9109871 0 2.6128561
-1.0842022e-19 3.2709908 -2
2.3071315 1.0842022e-19 2.5848246
3.6893488e+19 3.2886734 -0
