# .PCD v0.7 - Point Cloud Data file format
VERSION 0.7
FIELDS x y z
SIZE 4 4 4
TYPE F F F
COUNT 1 1 1
WIDTH 1711
HEIGHT 1
VIEWPOINT 0 0 0 1 0 0 0
POINTS 1711
DATA ascii
2.8173335 -3.6893488e+19 2.594363
-2 3.0906382 -1.0842022e-19
2.6877077 -3.6893488e+19 2.5213246
1.0842022e-19 3.1728342 3.6893488e+19
2.8222384 -0 2.586616
0 3.0925729 2
2.6901937 2 2.5124865
-1.0842022e-19 3.1350822 -3.6893488e+19
2.793468 2 2.5446877
-3.6893488e+19 3.1678672 3.6893488e+19
2.7969203 -2 2.554373
-1.0842022e-19 3.1691124 3.6893488e+19
2.7978051 0 2.5425265
1.0842022e-19 3.0937471 2
2.7385068 -0 2.4589791
1.0842022e-19 3.0930965 0
2.7375822 1.0842022e-19 2.4373229
-3.6893488e+19 3.0938261 -2
2.7386191 3.6893488e+19 2.4174647
-0 3.0950067 -0
2.7402968 1.0842022e-19 2.3980842
3.6893488e+19 3.1848187 -3.6893488e+19
2.8621578 -0 2.4987504
3.6893488e+19 3.0953836 2
2.7408326 -3.6893488e+19 2.3777175
-1.0842022e-19 3.0768936 0
2.7722678 -2 2.3548791
-2 3.0966499 2
2.7426322 -2 2.3582664
-0 3.1031437 2
2.7037768 3.6893488e+19 2.3507364
2 3.0891471 3.6893488e+19
2.7584612 3.6893488e+19 2.3329268
3.6893488e+19 3.1574218 -2
2.761761 -3.6893488e+19 2.3804631
0 3.0888293 3.6893488e+19
2.758219 3.6893488e+19 2.3121455
-3.6893488e+19 3.0939553 -0
2.6919701 -1.0842022e-19 2.3008134
3.6893488e+19 3.1342852 0
2.7928607 -2 2.3308365
-1.0842022e-19 3.0997934 1.0842022e-19
2.699472 -1.0842022e-19 2.2852247
2 3.0939174 3.6893488e+19
2.6919212 -3.6893488e+19 2.2601097
0 3.1977153 -0
2.8412001 -1.0842022e-19 2.3315365
1.0842022e-19 3.0964079 0
2.6951215 3.6893488e+19 2.2331049
-3.6893488e+19 3.0723643 3.6893488e+19
2.7413428 -1.0842022e-19 2.1886878
-3.6893488e+19 3.0876403 -1.0842022e-19
2.6838555 -3.6893488e+19 2.1810687
0 3.0719528 3.6893488e+19
2.7407153 -0 2.1494734
3.6893488e+19 3.0842195 3.6893488e+19
2.6794598 -0 2.1373451
-0 3.0721366 2
2.7409956 -0 2.1110644
2 3.2313068 -1.0842022e-19
2.9008775 0 2.2584434
0 3.0882957 1.0842022e-19
2.7307596 -3.6893488e+19 2.0858288
1.0842022e-19 3.075726 -3.6893488e+19
2.7712951 -0 2.0603187
1.0842022e-19 3.0758388 3.6893488e+19
2.7130568 -0 2.0347736
2 3.0760734 -1.0842022e-19
2.7715845 -2 2.0211442
-0 3.0752122 2
2.7121665 -0 1.9956465
1.0842022e-19 3.0745893 -2
2.7703483 2 1.9806107
3.6893488e+19 3.0615633 -1.0842022e-19
2.6927695 -1.0842022e-19 1.948392
3.6893488e+19 3.0769806 -3.6893488e+19
2.7723401 1.0842022e-19 1.9427512
-1.0842022e-19 3.0646687 2
2.6971829 3.6893488e+19 1.9130833
-2 3.0767906 2
2.772182 -1.0842022e-19 1.9031146
1.0842022e-19 3.0639038 -0
2.6960957 2 1.8754998
2 3.0807669 -3.6893488e+19
2.7754936 -1.0842022e-19 1.85499
-0 3.0669508 0
2.7004261 1.0842022e-19 1.8033795
-3.6893488e+19 3.0725262 2
2.7686303 2 1.7712938
3.6893488e+19 3.0572333 -1.0842022e-19
2.6866162 0 1.7003154
1.0842022e-19 3.0666203 2
2.6568456 0 1.6301318
1.0842022e-19 3.0668972 2
2.7330096 3.6893488e+19 1.4781121
-0 3.0589499 -3.6893488e+19
2.6469893 1.0842022e-19 -1.267496
3.6893488e+19 3.0646467 -1.0842022e-19
2.7295794 -0 -1.5621771
3.6893488e+19 3.0631058 0
2.6523297 -0 -1.6647636
3.6893488e+19 3.0550227 -1.0842022e-19
2.7149107 0 -1.7363805
-3.6893488e+19 3.0680492 -3.6893488e+19
2.6586816 -0 -1.7832193
2 3.057765 3.6893488e+19
2.7190905 1.0842022e-19 -1.817732
-0 3.0747609 -0
2.6673059 1.0842022e-19 -1.8626689
-1.0842022e-19 3.0494859 -2
2.7064717 -1.0842022e-19 -1.879541
0 3.0389264 -0
2.6212597 2 -1.8895952
2 3.0059962 3.6893488e+19
2.6401854 0 -1.8913081
2 2.994112 2
2.5674579 1.0842022e-19 -1.8983414
-3.6893488e+19 2.9854283 -3.6893488e+19
2.619941 3.6893488e+19 -1.9129869
3.6893488e+19 2.9667485 1.0842022e-19
2.5498774 1.0842022e-19 -1.917506
3.6893488e+19 2.850982 0
2.5174806 -3.6893488e+19 -1.8888282
-1.0842022e-19 2.795562 1.0842022e-19
2.4923439 -1.0842022e-19 -1.8772904
3.6893488e+19 2.76547 -0
2.3772655 -2 -1.8647664
-1.0842022e-19 2.7050741 1.0842022e-19
2.3790286 0 -1.8485547
3.6893488e+19 2.6764419 3.6893488e+19
2.3030131 -0 -1.8428984
-2 2.6242709 -1.0842022e-19
2.311728 -2 -1.8315547
3.6893488e+19 2.606092 -2
2.2530251 -2 -1.8281101
-3.6893488e+19 2.5732186 1.0842022e-19
2.269207 3.6893488e+19 -1.8229921
-0 2.5639818 -2
2.1962066 -0 -1.8227684
1.0842022e-19 2.5348561 -2
2.2245097 -1.0842022e-19 -1.8167975
-2 2.5273001 -2
2.1440775 -0 -1.816173
3.6893488e+19 2.5044546 -1.0842022e-19
2.1738675 -3.6893488e+19 -1.8117996
-2 2.4998312 3.6893488e+19
2.1051607 3.6893488e+19 -1.8121924
-1.0842022e-19 2.457346 -3.6893488e+19
2.1309206 -3.6893488e+19 -1.8067963
-1.0842022e-19 2.4504986 -3.6893488e+19
2.0701067 -2 -1.8071588
-1.0842022e-19 2.4196062 3.6893488e+19
2.0994875 -3.6893488e+19 -1.8045855
-1.0842022e-19 3.1713233 -2
2.7682595 1.0842022e-19 2.6626039
-1.0842022e-19 3.0896549 -0
2.6825216 3.6893488e+19 2.5721631
1.0842022e-19 3.1535618 -1.0842022e-19
2.8051324 -3.6893488e+19 2.6336193
1.0842022e-19 3.0900364 2
2.6830072 -3.6893488e+19 2.5620813
2 3.0907502 1.0842022e-19
2.6839163 -0 2.5523052
3.6893488e+19 3.2176058 1.0842022e-19
2.7977281 3.6893488e+19 2.650573
-0 3.0926852 -0
2.6863804 3.6893488e+19 2.5331302
2 3.1696248 3.6893488e+19
2.8172777 2 2.5966868
-3.6893488e+19 3.2211142 -0
2.7999618 -2 2.6249371
-0 3.1739731 2
2.8205655 0 2.5871875
-0 3.2158079 -2
2.7965832 1.0842022e-19 2.6066129
-0 3.1346884 3.6893488e+19
2.7908623 0 2.5440938
-1.0842022e-19 3.1677608 -3.6893488e+19
2.7943821 3.6893488e+19 2.5540137
2 3.2504871 1.0842022e-19
2.9141822 -3.6893488e+19 2.6142938
0 3.1702864 -3.6893488e+19
2.7961617 -2 2.5430739
-2 3.251986 -1.0842022e-19
2.9166608 2 2.6008582
3.6893488e+19 3.096067 2
2.7377238 2 2.4407005
-0 3.1651914 -0
2.7925715 -1.0842022e-19 2.5018237
-1.0842022e-19 3.1656244 2
2.7928767 -0 2.4791217
0 3.1878111 0
2.8619618 -2 2.5008185
0 3.179426 -1.0842022e-19
2.8026021 0 2.4691927
-1.0842022e-19 3.1460516 1.0842022e-19
2.8274372 -3.6893488e+19 2.4294908
-0 3.1686244 0
2.7949908 -2 2.4322519
1.0842022e-19 3.1588569 2
2.7603221 0 2.4057298
0 3.1709723 -1.0842022e-19
2.8182964 2 2.4128406
2 3.1572602 2
2.7593055 -3.6893488e+19 2.3799937
0 3.0896313 2
2.7567947 3.6893488e+19 2.3125734
2 3.1520569 -3.6893488e+19
2.7559924 -3.6893488e+19 2.3513329
-2 3.1342311 3.6893488e+19
2.7905166 0 2.3304615
1.0842022e-19 3.1462927 1.0842022e-19
2.7523224 1.0842022e-19 2.32287
-3.6893488e+19 3.1339962 -2
2.790339 -0 2.3071518
-2 3.1442378 -1.0842022e-19
2.751014 1.0842022e-19 2.2979183
-1.0842022e-19 3.1957433 -0
2.8370259 -1.0842022e-19 2.3297484
0 3.1457517 2
2.7519779 1.0842022e-19 2.2757292
-0 3.2091138 3.6893488e+19
2.8471353 1.0842022e-19 2.3120809
-1.0842022e-19 3.1448426 0
2.7513993 3.6893488e+19 2.2518387
-1.0842022e-19 3.2013104 3.6893488e+19
2.8412352 -3.6893488e+19 2.2797108
0 3.1462009 -3.6893488e+19
2.7522638 -0 2.2087941
-2 3.0729821 -3.6893488e+19
2.7384126 3.6893488e+19 2.1116524
-1.0842022e-19 3.2375374 0
2.9030733 -2 2.2615044
-2 3.1788521 0
2.8021979 0 2.1753309
2 3.0730236 -0
2.7670608 -2 2.0574098
1.0842022e-19 3.1779275 -3.6893488e+19
2.8015461 0 2.1236498
-1.0842022e-19 3.075851 2
2.7693985 -1.0842022e-19 2.0206649
0 3.1789246 -1.0842022e-19
2.8022487 -1.0842022e-19 2.0736845
0 3.2350039 -0
2.9009786 2 2.0942061
-0 3.0605562 0
2.6876774 -2 1.9475676
0 3.2314074 -3.6893488e+19
2.898005 -3.6893488e+19 2.0334754
2 3.1654203 -3.6893488e+19
2.7927327 -3.6893488e+19 1.9651003
3.6893488e+19 3.0779254 -2
2.7711134 -3.6893488e+19 1.9034793
-2 3.166353 -3.6893488e+19
2.79339 -3.6893488e+19 1.9163052
3.6893488e+19 3.0820794 1.0842022e-19
2.7745478 3.6893488e+19 1.8556519
-2 3.1781108 1.0842022e-19
2.8016756 3.6893488e+19 1.8657171
3.6893488e+19 3.1823509 1.0842022e-19
2.8574476 -3.6893488e+19 1.8208957
0 3.1795058 -1.0842022e-19
2.8026583 -2 1.7648885
1.0842022e-19 3.0663199 -2
2.6528063 0 1.6298995
2 3.1853924 1.0842022e-19
2.8291996 -2 1.5315485
1.0842022e-19 3.0622997 0
2.7222588 -3.6893488e+19 -1.5605962
-1.0842022e-19 3.0640233 -0
2.6498818 -3.6893488e+19 -1.665108
-3.6893488e+19 3.1922054 0
2.8343511 -2 -1.7961755
-1.0842022e-19 3.0665591 -1.0842022e-19
2.653111 -3.6893488e+19 -1.7823461
-0 3.0562298 -0
2.7130799 3.6893488e+19 -1.8165801
0 3.1355267 -1.0842022e-19
2.7409351 0 -1.8909513
2 3.0516541 0
2.7061605 -2 -1.8803492
1.0842022e-19 3.1331668 -1.0842022e-19
2.7379301 -0 -1.9349725
-0 3.042712 0
2.6926384 -3.6893488e+19 -1.9114143
3.6893488e+19 3.0382106 -2
2.6170115 -2 -1.9229072
0 2.983341 -2
2.6154532 0 -1.9121248
-2 2.9623795 1.0842022e-19
2.5444005 0 -1.9157991
-0 2.7944412 1.0842022e-19
2.4868608 0 -1.87667
-2 2.7668345 0
2.3760591 3.6893488e+19 -1.8657756
-3.6893488e+19 2.7052228 -1.0842022e-19
2.3763571 -2 -1.8483849
2 2.6755428 -3.6893488e+19
2.2998657 -3.6893488e+19 -1.8422375
0 2.6243322 0
2.3094804 3.6893488e+19 -1.831364
1.0842022e-19 2.6079514 3.6893488e+19
2.2522364 -3.6893488e+19 -1.8289815
-2 2.5734549 -1.0842022e-19
2.2674174 -3.6893488e+19 -1.8229215
2 2.5648608 1.0842022e-19
2.1937439 -3.6893488e+19 -1.8231384
3.6893488e+19 2.5353961 1.0842022e-19
2.2219045 2 -1.8169525
1.0842022e-19 2.5274398 1.0842022e-19
2.1410053 3.6893488e+19 -1.816092
-3.6893488e+19 2.5058823 2
2.1731033 -2 -1.8126438
-3.6893488e+19 2.5002646 -2
2.1027064 -1.0842022e-19 -1.8122803
3.6893488e+19 2.4633651 -1.0842022e-19
2.1330886 0 -1.8089889
-1.0842022e-19 2.4504468 1.0842022e-19
2.067415 -3.6893488e+19 -1.8069692
-0 2.4200625 -0
2.0972881 -3.6893488e+19 -1.8045855
2 2.370698 -2
1.986026 3.6893488e+19 -1.8006425
-0 2.3221054 -3.6893488e+19
1.9550868 2 -1.7967418
3.6893488e+19 2.2795172 1.0842022e-19
1.9279706 -2 -1.790688
-3.6893488e+19 2.2509279 2
1.9097677 -0 -1.7887508
0 2.1896136 2
1.931726 3.6893488e+19 -1.7865156
0 2.1489944 2
1.914935 -3.6893488e+19 -1.7840079
-0 2.1175652 -1.0842022e-19
1.9019428 3.6893488e+19 -1.7829796
0 2.0884924 -3.6893488e+19
1.8899248 -3.6893488e+19 -1.7811303
-1.0842022e-19 3.1713233 -2
2.7682595 1.0842022e-19 2.6626039
-1.0842022e-19 3.0896549 -0
2.6825216 3.6893488e+19 2.5721631
1.0842022e-19 3.1535618 -1.0842022e-19
2.8051324 -3.6893488e+19 2.6336193
1.0842022e-19 3.0900364 2
2.6830072 -3.6893488e+19 2.5620813
2 3.0907502 1.0842022e-19
2.6839163 -0 2.5523052
3.6893488e+19 3.2176058 1.0842022e-19
2.7977281 3.6893488e+19 2.650573
-0 3.0926852 -0
2.6863804 3.6893488e+19 2.5331302
2 3.1696248 3.6893488e+19
2.8172777 2 2.5966868
3.6893488e+19 3.0922987 0
2.6858883 -3.6893488e+19 2.522419
-0 3.1739731 2
2.8205655 0 2.5871875
-0 3.2158079 -2
2.7965832 1.0842022e-19 2.6066129
-0 3.1346884 3.6893488e+19
2.7908623 0 2.5440938
-1.0842022e-19 3.1677608 -3.6893488e+19
2.7943821 3.6893488e+19 2.5540137
2 3.2504871 1.0842022e-19
2.9141822 -3.6893488e+19 2.6142938
0 3.1702864 -3.6893488e+19
2.7961617 -2 2.5430739
-2 3.251986 -1.0842022e-19
2.9166608 2 2.6008582
3.6893488e+19 3.096067 2
2.7377238 2 2.4407005
3.6893488e+19 3.094641 1.0842022e-19
2.7357142 -3.6893488e+19 2.4180663
2 3.0955019 -3.6893488e+19
2.7369273 -0 2.3982861
-1.0842022e-19 3.0797324 -3.6893488e+19
2.7726073 -3.6893488e+19 2.3778024
-0 3.0961716 0
2.7378714 -0 2.3782287
-0 3.076762 2
2.7701516 1.0842022e-19 2.354351
3.6893488e+19 3.0962985 -2
2.73805 3.6893488e+19 2.3575716
2 3.102109 1.0842022e-19
2.6983807 -1.0842022e-19 2.3494158
-2 3.0874515 -3.6893488e+19
2.7551465 -2 2.3309331
2 3.1572602 2
2.7593055 -3.6893488e+19 2.3799937
0 3.0896313 2
2.7567947 3.6893488e+19 2.3125734
1.0842022e-19 3.1015296 -0
2.6976428 -0 2.3071802
-3.6893488e+19 3.0928152 -3.6893488e+19
2.759202 -0 2.2948413
0 3.0902765 -1.0842022e-19
2.6833129 0 2.2772322
1.0842022e-19 3.0791647 2
2.747762 0 2.263293
0 3.0911806 3.6893488e+19
2.6844642 -2 2.2578237
3.6893488e+19 3.0822544 1.0842022e-19
2.7512171 -0 2.241585
0 3.1457517 2
2.7519779 1.0842022e-19 2.2757292
-0 3.0719857 1.0842022e-19
2.7369061 0 2.1877372
-1.0842022e-19 3.1448426 0
2.7513993 3.6893488e+19 2.2518387
-1.0842022e-19 3.0731475 2
2.738663 -1.0842022e-19 2.1505575
-3.6893488e+19 3.0871136 -0
2.6792855 -1.0842022e-19 2.1403723
-2 3.0729821 -3.6893488e+19
2.7384126 3.6893488e+19 2.1116524
0 3.0686548 -3.6893488e+19
2.7634487 0 2.0918391
-2 3.1788521 0
2.8021979 0 2.1753309
2 3.0730236 -0
2.7670608 -2 2.0574098
1.0842022e-19 3.074728 -2
2.7076499 0 2.03354
-1.0842022e-19 3.075851 2
2.7693985 -1.0842022e-19 2.0206649
2 3.075455 -3.6893488e+19
2.7086744 -2 1.995602
1.0842022e-19 3.0765004 -3.6893488e+19
2.7699351 -2 1.9817165
-0 3.0605562 0
2.6876774 -2 1.9475676
3.6893488e+19 3.0762393 -3.6893488e+19
2.7697194 3.6893488e+19 1.9421053
-0 3.0614252 0
2.6889021 -2 1.9112527
3.6893488e+19 3.0779254 -2
2.7711134 -3.6893488e+19 1.9034793
-1.0842022e-19 3.0644305 -3.6893488e+19
2.6931374 1.0842022e-19 1.875594
3.6893488e+19 3.0820794 1.0842022e-19
2.7745478 3.6893488e+19 1.8556519
-2 3.0651817 -2
2.6941962 0 1.8022196
-1.0842022e-19 3.0822043 -1.0842022e-19
2.7746511 0 1.77552
0 3.0585203 0
2.684808 -0 1.700968
1.0842022e-19 3.0663199 -2
2.6528063 0 1.6298995
-2 3.0579753 -2
2.7157195 -2 1.4714696
1.0842022e-19 3.0622997 0
2.7222588 -3.6893488e+19 -1.5605962
-1.0842022e-19 3.0640233 -0
2.6498818 -3.6893488e+19 -1.665108
1.0842022e-19 3.0569046 -0
2.7141001 -1.0842022e-19 -1.7376024
-1.0842022e-19 3.0665591 -1.0842022e-19
2.653111 -3.6893488e+19 -1.7823461
-0 3.0562298 -0
2.7130799 3.6893488e+19 -1.8165801
0 3.1355267 -1.0842022e-19
2.7409351 0 -1.8909513
2 3.0516541 0
2.7061605 -2 -1.8803492
3.6893488e+19 3.0372932 -1.0842022e-19
2.6158433 -0 -1.8886899
1.0842022e-19 3.006952 -3.6893488e+19
2.638562 -0 -1.8916947
-2 2.9923239 0
2.5634663 0 -1.8976809
0 2.983341 -2
2.6154532 0 -1.9121248
-2 2.9623795 1.0842022e-19
2.5444005 0 -1.9157991
-0 2.7944412 1.0842022e-19
2.4868608 0 -1.87667
-2 2.7668345 0
2.3760591 3.6893488e+19 -1.8657756
-3.6893488e+19 2.7052228 -1.0842022e-19
2.3763571 -2 -1.8483849
2 2.6755428 -3.6893488e+19
2.2998657 -3.6893488e+19 -1.8422375
0 2.6243322 0
2.3094804 3.6893488e+19 -1.831364
1.0842022e-19 2.6079514 3.6893488e+19
2.2522364 -3.6893488e+19 -1.8289815
-2 2.5734549 -1.0842022e-19
2.2674174 -3.6893488e+19 -1.8229215
2 2.5648608 1.0842022e-19
2.1937439 -3.6893488e+19 -1.8231384
3.6893488e+19 2.5353961 1.0842022e-19
2.2219045 2 -1.8169525
1.0842022e-19 2.5274398 1.0842022e-19
2.1410053 3.6893488e+19 -1.816092
-3.6893488e+19 2.5058823 2
2.1731033 -2 -1.8126438
-3.6893488e+19 2.5002646 -2
2.1027064 -1.0842022e-19 -1.8122803
3.6893488e+19 2.4633651 -1.0842022e-19
2.1330886 0 -1.8089889
-1.0842022e-19 2.4504468 1.0842022e-19
2.067415 -3.6893488e+19 -1.8069692
-0 2.4200625 -0
2.0972881 -3.6893488e+19 -1.8045855
2 2.370698 -2
1.986026 3.6893488e+19 -1.8006425
-0 2.3221054 -3.6893488e+19
1.9550868 2 -1.7967418
3.6893488e+19 2.2795172 1.0842022e-19
1.9279706 -2 -1.790688
-3.6893488e+19 2.2509279 2
1.9097677 -0 -1.7887508
0 2.1896136 2
1.931726 3.6893488e+19 -1.7865156
0 2.1489944 2
1.914935 -3.6893488e+19 -1.7840079
-0 2.1175652 -1.0842022e-19
1.9019428 3.6893488e+19 -1.7829796
0 2.0884924 -3.6893488e+19
1.8899248 -3.6893488e+19 -1.7811303
0 3.1545026 0
2.8034256 -0 2.6341348
-3.6893488e+19 3.0903475 -2
2.6794815 -3.6893488e+19 2.562108
0 3.0910623 -2
2.6803832 0 2.5523312
-0 3.0925784 -2
2.6822965 -0 2.5432253
3.6893488e+19 3.0918293 -2
2.6813512 -2 2.5321887
0 3.1719348 -2
2.8165016 1.0842022e-19 2.5982518
0 3.2190166 -1.0842022e-19
2.7959237 -3.6893488e+19 2.6229579
1.0842022e-19 3.1755996 0
2.8192508 2 2.5881474
3.6893488e+19 3.217983 -1.0842022e-19
2.7952716 2 2.607981
1.0842022e-19 3.1327925 0
2.7871404 0 2.542356
-0 3.1489379 3.6893488e+19
2.8273802 -2 2.5521629
-0 3.167069 -3.6893488e+19
2.7914419 -1.0842022e-19 2.5532315
1.0842022e-19 3.2506576 2
2.9113939 -3.6893488e+19 2.6141489
-0 3.1714003 -2
2.7944686 3.6893488e+19 2.543581
2 3.2520154 -0
2.9136224 -2 2.6005206
3.6893488e+19 3.206054 0
2.8742514 0 2.5390148
0 3.164989 3.6893488e+19
2.7899885 2 2.5014699
-2 3.1684618 3.6893488e+19
2.7924154 2 2.4819498
1.0842022e-19 3.0798876 1.0842022e-19
2.7707155 -2 2.3775728
2 3.1800253 -3.6893488e+19
2.8004956 -2 2.4694161
-3.6893488e+19 3.1465075 2
2.8253858 1.0842022e-19 2.429522
1.0842022e-19 3.1698585 3.6893488e+19
2.7933912 3.6893488e+19 2.4331281
-1.0842022e-19 3.092664 0
2.6824048 1.0842022e-19 2.3397613
-1.0842022e-19 3.1710095 1.0842022e-19
2.8158078 -0 2.4124703
-2 3.1570649 -1.0842022e-19
2.7568357 1.0842022e-19 2.3794968
3.6893488e+19 3.1391022 0
2.7918735 -3.6893488e+19 2.3577502
-2 3.1517384 -1.0842022e-19
2.753475 -1.0842022e-19 2.3507636
2 3.1359785 -3.6893488e+19
2.78953 0 2.3316371
-0 3.1460283 -2
2.7497444 -1.0842022e-19 2.322387
-2 3.135016 0
2.7888083 -1.0842022e-19 2.3076639
-3.6893488e+19 3.0934522 1.0842022e-19
2.6833994 -2 2.2593253
1.0842022e-19 3.0820575 -2
2.7481658 -1.0842022e-19 2.2408094
-1.0842022e-19 3.1458127 2
2.7494726 -1.0842022e-19 2.275543
-1.0842022e-19 3.1470425 -0
2.7505121 -1.0842022e-19 2.2530317
3.6893488e+19 3.202456 -2
2.8393962 -2 2.2801445
-3.6893488e+19 3.1484621 2
2.7514079 -3.6893488e+19 2.21103
2 3.0726292 0
2.7340214 -0 2.1109011
0 3.0692582 -3.6893488e+19
2.7619925 2 2.0921173
2 3.1799531 1.0842022e-19
2.8004453 -1.0842022e-19 2.1760311
1.0842022e-19 3.0727081 3.6893488e+19
2.7648237 3.6893488e+19 2.0567787
2 3.178468 3.6893488e+19
2.7994075 -3.6893488e+19 2.1237781
0 3.2418163 3.6893488e+19
2.9035988 0 2.1580822
2 3.0750172 -0
2.7042351 -3.6893488e+19 1.9950465
-2 3.2397733 0
2.9019225 -1.0842022e-19 2.0972164
2 3.151376 -3.6893488e+19
2.7804759 -0 2.0051103
2 3.0625961 -2
2.6868756 -2 1.9117104
-3.6893488e+19 3.0644834 -3.6893488e+19
2.6895134 2 1.8754998
-1.0842022e-19 3.2048218 1.0842022e-19
2.8732402 -0 1.9077822
-3.6893488e+19 3.0655303 -0
2.6909766 0 1.8022528
-1.0842022e-19 3.1828172 0
2.8551826 -3.6893488e+19 1.8208957
-2 3.0598361 2
2.6830187 1.0842022e-19 1.70164
-3.6893488e+19 3.0619929 -1.0842022e-19
2.6437011 1.0842022e-19 1.6280164
1.0842022e-19 3.0590985 1.0842022e-19
2.713722 0 1.4720583
-1.0842022e-19 3.0667968 1.0842022e-19
2.6497631 1.0842022e-19 -1.2708718
1.0842022e-19 3.0605011 0
2.7158263 -2 -1.5593455
-1.0842022e-19 3.0651779 -3.6893488e+19
2.6477201 -2 -1.6655777
-0 3.0580556 -1.0842022e-19
2.7121575 3.6893488e+19 -1.7382586
3.6893488e+19 3.0672987 1.0842022e-19
2.6503963 2 -1.782583
1.0842022e-19 3.0598085 -2
2.714787 -1.0842022e-19 -1.8186278
-1.0842022e-19 3.1361742 -2
2.7373097 3.6893488e+19 -1.891071
-3.6893488e+19 3.0495529 1.0842022e-19
2.6994016 -3.6893488e+19 -1.8793137
2 3.1356893 -0
2.7366977 2 -1.9360359
-0 3.0492005 2
2.6988728 2 -1.9148299
3.6893488e+19 3.037884 -0
2.6132782 2 -1.9225681
-3.6893488e+19 2.9829404 1.0842022e-19
2.6122634 -1.0842022e-19 -1.9118308
-0 2.96717 2
2.5447588 2 -1.9173779
2 2.7105031 -1.0842022e-19
2.3779023 -3.6893488e+19 -1.822897
-3.6893488e+19 2.7674332 -2
2.3737574 -2 -1.8660942
1.0842022e-19 2.7072151 2
2.3752041 -1.0842022e-19 -1.8491206
-0 2.6761694 -1.0842022e-19
2.2978013 -3.6893488e+19 -1.8423576
2 2.6256592 -1.0842022e-19
2.3082769 3.6893488e+19 -1.8318725
3.6893488e+19 2.6092222 3.6893488e+19
2.2510195 2 -1.8295178
-1.0842022e-19 2.5735731 1.0842022e-19
2.2655337 -3.6893488e+19 -1.8227805
-0 2.5649147 -1.0842022e-19
2.1901162 -0 -1.8229904
1.0842022e-19 2.5361652 -3.6893488e+19
2.219671 -0 -1.8172623
0 2.5278125 3.6893488e+19
2.138263 -0 -1.816173
-0 2.5065041 0
2.1709898 0 -1.8128971
3.6893488e+19 2.5003772 -0
2.0999203 3.6893488e+19 -1.8121924
0 2.4652469 -0
2.1317952 -3.6893488e+19 -1.8095369
-2 2.4503908 -2
2.0647268 -3.6893488e+19 -1.8067795
3.6893488e+19 2.4207458 -0
2.0952764 3.6893488e+19 -1.8046838
0 3.1545026 0
2.8034256 -0 2.6341348
-3.6893488e+19 3.0903475 -2
2.6794815 -3.6893488e+19 2.562108
0 3.0910623 -2
2.6803832 0 2.5523312
-0 3.0925784 -2
2.6822965 -0 2.5432253
3.6893488e+19 3.0918293 -2
2.6813512 -2 2.5321887
0 3.1719348 -2
2.8165016 1.0842022e-19 2.5982518
3.6893488e+19 3.0928171 -2
2.6825976 0 2.5226054
1.0842022e-19 3.1755996 0
2.8192508 2 2.5881474
-1.0842022e-19 3.0923529 1.0842022e-19
2.6820121 -0 2.5118809
1.0842022e-19 3.1327925 0
2.7871404 0 2.542356
-0 3.1489379 3.6893488e+19
2.8273802 -2 2.5521629
-0 3.167069 -3.6893488e+19
2.7914419 -1.0842022e-19 2.5532315
0 3.1499858 -2
2.8282399 -2 2.5405445
-0 3.1714003 -2
2.7944686 3.6893488e+19 2.543581
2 3.2520154 -0
2.9136224 -2 2.6005206
3.6893488e+19 3.206054 0
2.8742514 0 2.5390148
0 3.164989 3.6893488e+19
2.7899885 2 2.5014699
-2 3.1684618 3.6893488e+19
2.7924154 2 2.4819498
1.0842022e-19 3.0798876 1.0842022e-19
2.7707155 -2 2.3775728
2 3.1800253 -3.6893488e+19
2.8004956 -2 2.4694161
-3.6893488e+19 3.0803273 -3.6893488e+19
2.7710762 0 2.3578315
1.0842022e-19 3.1698585 3.6893488e+19
2.7933912 3.6893488e+19 2.4331281
-1.0842022e-19 3.092664 0
2.6824048 1.0842022e-19 2.3397613
-0 3.0883076 -1.0842022e-19
2.7537713 -3.6893488e+19 2.3314457
-2 3.1570649 -1.0842022e-19
2.7568357 1.0842022e-19 2.3794968
2 3.0888317 1.0842022e-19
2.7541645 0 2.3115304
-2 3.1517384 -1.0842022e-19
2.753475 -1.0842022e-19 2.3507636
1.0842022e-19 3.0926003 1.0842022e-19
2.7569914 0 2.2943661
1.0842022e-19 3.0931692 2
2.683042 -0 2.279357
-1.0842022e-19 3.0803633 -2
2.7456243 2 2.2639914
-3.6893488e+19 3.0934522 1.0842022e-19
2.6833994 -2 2.2593253
1.0842022e-19 3.0820575 -2
2.7481658 -1.0842022e-19 2.2408094
-1.0842022e-19 3.1458127 2
2.7494726 -1.0842022e-19 2.275543
-1.0842022e-19 3.1470425 -0
2.7505121 -1.0842022e-19 2.2530317
-3.6893488e+19 3.0745752 -3.6893488e+19
2.7369409 -0 2.1519308
0 3.0869477 0
2.6751912 2 2.1398563
2 3.0726292 0
2.7340214 -0 2.1109011
0 3.0692582 -3.6893488e+19
2.7619925 2 2.0921173
2 3.1799531 1.0842022e-19
2.8004453 -1.0842022e-19 2.1760311
1.0842022e-19 3.0727081 3.6893488e+19
2.7648237 3.6893488e+19 2.0567787
-2 3.0750263 3.6893488e+19
2.704248 0 2.03354
2 3.0752785 -2
2.766933 -2 2.0198982
2 3.0750172 -0
2.7042351 -3.6893488e+19 1.9950465
-2 3.2397733 0
2.9019225 -1.0842022e-19 2.0972164
2 3.0611069 -0
2.6847944 3.6893488e+19 1.9477363
2 3.0625961 -2
2.6868756 -2 1.9117104
-3.6893488e+19 3.0644834 -3.6893488e+19
2.6895134 2 1.8754998
0 3.0794027 -3.6893488e+19
2.7703173 0 1.8535461
-3.6893488e+19 3.0655303 -0
2.6909766 0 1.8022528
0 3.0834012 -1.0842022e-19
2.7735987 0 1.7758994
-2 3.0598361 2
2.6830187 1.0842022e-19 1.70164
-3.6893488e+19 3.0619929 -1.0842022e-19
2.6437011 1.0842022e-19 1.6280164
1.0842022e-19 3.0590985 1.0842022e-19
2.713722 0 1.4720583
-1.0842022e-19 3.0667968 1.0842022e-19
2.6497631 1.0842022e-19 -1.2708718
1.0842022e-19 3.0605011 0
2.7158263 -2 -1.5593455
-1.0842022e-19 3.0651779 -3.6893488e+19
2.6477201 -2 -1.6655777
-0 3.0580556 -1.0842022e-19
2.7121575 3.6893488e+19 -1.7382586
3.6893488e+19 3.0672987 1.0842022e-19
2.6503963 2 -1.782583
1.0842022e-19 3.0598085 -2
2.714787 -1.0842022e-19 -1.8186278
-2 3.039638 -2
2.6154916 -2 -1.8366119
-3.6893488e+19 3.0495529 1.0842022e-19
2.6994016 -3.6893488e+19 -1.8793137
-3.6893488e+19 3.0367868 0
2.6118939 1.0842022e-19 -1.8883307
-3.6893488e+19 3.0054214 1.0842022e-19
2.6331937 -0 -1.8907119
3.6893488e+19 2.9873121 -1.0842022e-19
2.5574672 -1.0842022e-19 -1.8960562
-3.6893488e+19 2.9829404 1.0842022e-19
2.6122634 -1.0842022e-19 -1.9118308
-0 2.96717 2
2.5447588 2 -1.9173779
2 2.7105031 -1.0842022e-19
2.3779023 -3.6893488e+19 -1.822897
-3.6893488e+19 2.7674332 -2
2.3737574 -2 -1.8660942
1.0842022e-19 2.7072151 2
2.3752041 -1.0842022e-19 -1.8491206
-0 2.6761694 -1.0842022e-19
2.2978013 -3.6893488e+19 -1.8423576
2 2.6256592 -1.0842022e-19
2.3082769 3.6893488e+19 -1.8318725
3.6893488e+19 2.6092222 3.6893488e+19
2.2510195 2 -1.8295178
-1.0842022e-19 2.5735731 1.0842022e-19
2.2655337 -3.6893488e+19 -1.8227805
-0 2.5649147 -1.0842022e-19
2.1901162 -0 -1.8229904
1.0842022e-19 2.5361652 -3.6893488e+19
2.219671 -0 -1.8172623
0 2.5278125 3.6893488e+19
2.138263 -0 -1.816173
-0 2.5065041 0
2.1709898 0 -1.8128971
3.6893488e+19 2.5003772 -0
2.0999203 3.6893488e+19 -1.8121924
0 2.4652469 -0
2.1317952 -3.6893488e+19 -1.8095369
-2 2.4503908 -2
2.0647268 -3.6893488e+19 -1.8067795
3.6893488e+19 2.4207458 -0
2.0952764 3.6893488e+19 -1.8046838
3.6893488e+19 3.1546984 -3.6893488e+19
2.8011563 1.0842022e-19 2.633945
1.0842022e-19 3.1523092 -0
2.7993784 -3.6893488e+19 2.6191351
-2 3.0914595 3.6893488e+19
2.6769543 -1.0842022e-19 2.5524344
-3.6893488e+19 3.1577199 -3.6893488e+19
2.8034048 2 2.6114264
-2 3.0923927 -0
2.6781211 2 2.5428255
2 3.0922277 -0
2.6779146 -2 2.5322852
-1.0842022e-19 3.0934508 -0
2.6794441 0 2.5228848
0 3.171006 -2
2.8132915 1.0842022e-19 2.5841706
-3.6893488e+19 3.0925171 2
2.6782768 1.0842022e-19 2.5117912
1.0842022e-19 3.1330807 -2
2.7850695 1.0842022e-19 2.54229
-2 3.1491942 -1.0842022e-19
2.8251498 -3.6893488e+19 2.5520334
3.6893488e+19 3.151613 -1.0842022e-19
2.8271198 1.0842022e-19 2.5414145
-3.6893488e+19 3.1338348 0
2.8126395 -2 2.5048029
-2 3.1634829 -0
2.7865078 -0 2.5127945
2 3.1629996 -1.0842022e-19
2.7861729 0 2.5000365
-3.6893488e+19 3.2499373 -1.0842022e-19
2.9072065 0 2.5511243
0 3.1688435 3.6893488e+19
2.7902222 2 2.4819498
-0 3.1509659 0
2.8265929 0 2.4584346
1.0842022e-19 3.1810617 2
2.7986884 0 2.470119
-1.0842022e-19 3.1475642 -1.0842022e-19
2.823822 -1.0842022e-19 2.4302056
-1.0842022e-19 3.1647012 1.0842022e-19
2.7873521 -2 2.4274182
-3.6893488e+19 3.0971224 -1.0842022e-19
2.6840351 -3.6893488e+19 2.3438988
1.0842022e-19 3.1732259 -1.0842022e-19
2.8149436 -0 2.4142361
1.0842022e-19 3.157074 -0
2.7544985 0 2.3791931
1.0842022e-19 3.1392794 0
2.7896824 -1.0842022e-19 2.357563
-1.0842022e-19 3.1522174 -1.0842022e-19
2.7514622 3.6893488e+19 2.350893
-3.6893488e+19 3.1345203 -0
2.7861409 2 2.3300612
3.6893488e+19 3.147898 -3.6893488e+19
2.7475235 1.0842022e-19 2.3236427
3.6893488e+19 3.1357429 1.0842022e-19
2.7870507 3.6893488e+19 2.3079433
-3.6893488e+19 3.1903408 3.6893488e+19
2.7752967 2 2.3322082
3.6893488e+19 3.1334465 -0
2.7853417 1.0842022e-19 2.2831063
0 3.1908443 1.0842022e-19
2.7756114 -3.6893488e+19 2.306639
3.6893488e+19 3.150135 -3.6893488e+19
2.7977605 1.0842022e-19 2.2714565
-1.0842022e-19 3.1459119 -0
2.7450404 3.6893488e+19 2.2521038
-2 3.1514862 2
2.7987661 0 2.2466857
2 3.1466477 -2
2.7459602 -0 2.2085533
0 3.254586 -2
2.8789003 0 2.2845078
1.0842022e-19 3.0676649 3.6893488e+19
2.7587428 -2 2.0900455
-3.6893488e+19 3.1303213 2
2.7635298 2 2.126509
0 3.0702796 0
2.7608726 -1.0842022e-19 2.0541441
3.6893488e+19 3.1326199 2
2.7651224 0 2.0834782
0 3.1876481 -2
2.8564708 -0 2.1127477
-1.0842022e-19 3.1861064 -0
2.8552153 3.6893488e+19 2.0588393
-2 3.1524205 -3.6893488e+19
2.7788424 0 2.0055413
-2 3.0709536 2
2.7614217 -3.6893488e+19 1.9385871
-2 3.0615823 -3.6893488e+19
2.6817992 3.6893488e+19 1.9110392
1.0842022e-19 3.1910582 -2
2.8592484 2 1.9559859
-2 3.0642684 -1.0842022e-19
2.6855216 -3.6893488e+19 1.8752997
-0 3.1995509 0
2.8661661 3.6893488e+19 1.9057868
-0 3.0654933 -0
2.6872191 0 1.8020705
3.6893488e+19 3.1823549 -3.6893488e+19
2.8521595 -1.0842022e-19 1.820477
-2 3.0614178 -1.0842022e-19
2.6815712 3.6893488e+19 1.7024847
-2 3.0634427 0
2.6419227 2 1.6285055
-1.0842022e-19 3.0585809 -2
2.7092612 -2 1.4714696
-3.6893488e+19 3.0754387 0
2.6569223 1.0842022e-19 -1.2747278
-3.6893488e+19 3.0602777 2
2.7117867 -3.6893488e+19 -1.5590328
2 3.0650198 -1.0842022e-19
2.6438944 1.0842022e-19 -1.6653585
3.6893488e+19 3.0605245 -3.6893488e+19
2.7121537 -0 -1.7399331
3.6893488e+19 3.0765665 -2
2.6583321 1.0842022e-19 -1.7870524
1.0842022e-19 3.0581498 0
2.7086196 3.6893488e+19 -1.8174028
-2 3.0785823 1.0842022e-19
2.6608529 -0 -1.8648674
-0 3.0492899 -3.6893488e+19
2.6954334 3.6893488e+19 -1.8790739
-0 3.0811481 -0
2.6640611 -1.0842022e-19 -1.9095968
-1.0842022e-19 3.0504887 1.0842022e-19
2.6972177 1.0842022e-19 -1.9153776
-1.0842022e-19 3.0335007 -1.0842022e-19
2.6044836 0 -1.9198009
-1.0842022e-19 2.9824767 2
2.6090353 -0 -1.9115173
-1.0842022e-19 2.9661837 3.6893488e+19
2.5414534 -3.6893488e+19 -1.9168872
-3.6893488e+19 2.7133088 -3.6893488e+19
2.377372 2 -1.8238897
-1.0842022e-19 2.7695053 3.6893488e+19
2.3734877 -0 -1.8677409
2 2.7101321 -2
2.3747845 -1.0842022e-19 -1.8503091
-2 2.678798 -0
2.2971199 0 -1.8434992
-0 2.6276791 -2
2.3076253 3.6893488e+19 -1.8327622
2 2.6100211 3.6893488e+19
2.2489269 -0 -1.8297859
-2 2.5742662 1.0842022e-19
2.2641199 3.6893488e+19 -1.8229921
-2 2.5649662 -3.6893488e+19
2.1864886 1.0842022e-19 -1.8228425
-2 2.5372796 -3.6893488e+19
2.2179873 0 -1.8178046
-2 2.5278301 -0
2.1350245 -0 -1.8160111
0 2.5068944 -2
2.1684885 1.0842022e-19 -1.8129815
3.6893488e+19 2.5007231 3.6893488e+19
2.0974588 -1.0842022e-19 -1.8122803
3.6893488e+19 2.4606729 1.0842022e-19
2.1252251 -0 -1.8075272
-3.6893488e+19 2.4505663 -1.0842022e-19
2.0622034 -0 -1.8066847
-2 2.4209661 -0
2.0928833 -3.6893488e+19 -1.8045855
-3.6893488e+19 2.3734448 -0
1.983474 1.0842022e-19 -1.801652
3.6893488e+19 2.3228748 -3.6893488e+19
1.951858 2 -1.7968678
1.0842022e-19 2.2785618 3.6893488e+19
1.924154 3.6893488e+19 -1.7898492
-0 2.2479703 -0
1.905663 3.6893488e+19 -1.7872146
0 2.1864505 3.6893488e+19
1.9277477 1.0842022e-19 -1.7850093
-3.6893488e+19 2.1484864 3.6893488e+19
1.9122866 3.6893488e+19 -1.7834647
1.0842022e-19 2.1179018 0
1.8998308 2 -1.7827848
-2 2.091032 -1.0842022e-19
1.8888879 3.6893488e+19 -1.7819642
3.6893488e+19 3.1546984 -3.6893488e+19
2.8011563 1.0842022e-19 2.633945
1.0842022e-19 3.1523092 -0
2.7993784 -3.6893488e+19 2.6191351
-2 3.0914595 3.6893488e+19
2.6769543 -1.0842022e-19 2.5524344
-3.6893488e+19 3.1577199 -3.6893488e+19
2.8034048 2 2.6114264
-2 3.0923927 -0
2.6781211 2 2.5428255
2 3.0922277 -0
2.6779146 -2 2.5322852
-1.0842022e-19 3.0934508 -0
2.6794441 0 2.5228848
0 3.171006 -2
2.8132915 1.0842022e-19 2.5841706
-3.6893488e+19 3.0925171 2
2.6782768 1.0842022e-19 2.5117912
1.0842022e-19 3.1330807 -2
2.7850695 1.0842022e-19 2.54229
-2 3.1491942 -1.0842022e-19
2.8251498 -3.6893488e+19 2.5520334
3.6893488e+19 3.151613 -1.0842022e-19
2.8271198 1.0842022e-19 2.5414145
-3.6893488e+19 3.1338348 0
2.8126395 -2 2.5048029
-2 3.1634829 -0
2.7865078 -0 2.5127945
2 3.1629996 -1.0842022e-19
2.7861729 0 2.5000365
-3.6893488e+19 3.2499373 -1.0842022e-19
2.9072065 0 2.5511243
0 3.1688435 3.6893488e+19
2.7902222 2 2.4819498
1.0842022e-19 3.0787778 -1.0842022e-19
2.7677944 -2 2.3758998
1.0842022e-19 3.1810617 2
2.7986884 0 2.470119
-0 3.0802505 2
2.7689941 0 2.3573654
-1.0842022e-19 3.1647012 1.0842022e-19
2.7873521 -2 2.4274182
-3.6893488e+19 3.0971224 -1.0842022e-19
2.6840351 -3.6893488e+19 2.3438988
-3.6893488e+19 3.0895116 -3.6893488e+19
2.7526476 3.6893488e+19 2.3323002
3.6893488e+19 3.0932796 3.6893488e+19
2.67923 -2 2.319768
-1.0842022e-19 3.0870957 2
2.75085 -1.0842022e-19 2.3096311
-1.0842022e-19 3.1522174 -1.0842022e-19
2.7514622 3.6893488e+19 2.350893
-3.6893488e+19 3.091799 2
2.7543499 2 2.2933905
3.6893488e+19 3.147898 -3.6893488e+19
2.7475235 1.0842022e-19 2.3236427
-1.0842022e-19 3.0826113 0
2.7450259 -1.0842022e-19 2.2655277
2 3.0938241 0
2.6799109 -2 2.2593925
2 3.0829661 0
2.7455537 0 2.2416713
0 3.1908443 1.0842022e-19
2.7756114 -3.6893488e+19 2.306639
3.6893488e+19 3.0856404 3.6893488e+19
2.7495339 -2 2.205405
0 3.0582356 -2
2.6354115 0 2.1425488
-2 3.0822251 1.0842022e-19
2.744451 -3.6893488e+19 2.1610014
-2 3.0560107 1.0842022e-19
2.6326299 -3.6893488e+19 2.1037705
-1.0842022e-19 3.0817127 -0
2.7436883 2 2.1206994
1.0842022e-19 3.0676649 3.6893488e+19
2.7587428 -2 2.0900455
-3.6893488e+19 3.1303213 2
2.7635298 2 2.126509
0 3.0702796 0
2.7608726 -1.0842022e-19 2.0541441
3.6893488e+19 3.1326199 2
2.7651224 0 2.0834782
-1.0842022e-19 3.0674458 1.0842022e-19
2.7585645 1.0842022e-19 2.0131173
-1.0842022e-19 3.072547 -0
2.7627194 -3.6893488e+19 1.9784194
-2 3.1524205 -3.6893488e+19
2.7788424 0 2.0055413
-2 3.0709536 2
2.7614217 -3.6893488e+19 1.9385871
-2 3.0615823 -3.6893488e+19
2.6817992 3.6893488e+19 1.9110392
1.0842022e-19 3.0766058 3.6893488e+19
2.7660253 -2 1.9025335
-2 3.0642684 -1.0842022e-19
2.6855216 -3.6893488e+19 1.8752997
0 3.0787139 2
2.7677424 -0 1.8528241
-0 3.0654933 -0
2.6872191 0 1.8020705
3.6893488e+19 3.0763209 2
2.7657933 3.6893488e+19 1.7725368
-2 3.0614178 -1.0842022e-19
2.6815712 3.6893488e+19 1.7024847
-2 3.0634427 0
2.6419227 2 1.6285055
-1.0842022e-19 3.0585809 -2
2.7092612 -2 1.4714696
-3.6893488e+19 3.0754387 0
2.6569223 1.0842022e-19 -1.2747278
-3.6893488e+19 3.0602777 2
2.7117867 -3.6893488e+19 -1.5590328
2 3.0650198 -1.0842022e-19
2.6438944 1.0842022e-19 -1.6653585
3.6893488e+19 3.0605245 -3.6893488e+19
2.7121537 -0 -1.7399331
3.6893488e+19 3.0765665 -2
2.6583321 1.0842022e-19 -1.7870524
1.0842022e-19 3.0581498 0
2.7086196 3.6893488e+19 -1.8174028
-1.0842022e-19 3.0386837 -1.0842022e-19
2.6109643 -0 -1.8357412
-0 3.0492899 -3.6893488e+19
2.6954334 3.6893488e+19 -1.8790739
3.6893488e+19 3.0385435 0
2.6107891 3.6893488e+19 -1.8890635
-0 3.005291 3.6893488e+19
2.6299498 -1.0842022e-19 -1.8905025
-1.0842022e-19 3.0335007 -1.0842022e-19
2.6044836 0 -1.9198009
-1.0842022e-19 2.9824767 2
2.6090353 -0 -1.9115173
-1.0842022e-19 2.9661837 3.6893488e+19
2.5414534 -3.6893488e+19 -1.9168872
-3.6893488e+19 2.7133088 -3.6893488e+19
2.377372 2 -1.8238897
-1.0842022e-19 2.7695053 3.6893488e+19
2.3734877 -0 -1.8677409
2 2.7101321 -2
2.3747845 -1.0842022e-19 -1.8503091
-2 2.678798 -0
2.2971199 0 -1.8434992
-0 2.6276791 -2
2.3076253 3.6893488e+19 -1.8327622
2 2.6100211 3.6893488e+19
2.2489269 -0 -1.8297859
-2 2.5742662 1.0842022e-19
2.2641199 3.6893488e+19 -1.8229921
-2 2.5649662 -3.6893488e+19
2.1864886 1.0842022e-19 -1.8228425
-2 2.5372796 -3.6893488e+19
2.2179873 0 -1.8178046
-2 2.5278301 -0
2.1350245 -0 -1.8160111
0 2.5068944 -2
2.1684885 1.0842022e-19 -1.8129815
3.6893488e+19 2.5007231 3.6893488e+19
2.0974588 -1.0842022e-19 -1.8122803
3.6893488e+19 2.4606729 1.0842022e-19
2.1252251 -0 -1.8075272
-3.6893488e+19 2.4505663 -1.0842022e-19
2.0622034 -0 -1.8066847
-2 2.4209661 -0
2.0928833 -3.6893488e+19 -1.8045855
-3.6893488e+19 2.3734448 -0
1.983474 1.0842022e-19 -1.801652
3.6893488e+19 2.3228748 -3.6893488e+19
1.951858 2 -1.7968678
1.0842022e-19 2.2785618 3.6893488e+19
1.924154 3.6893488e+19 -1.7898492
-0 2.2479703 -0
1.905663 3.6893488e+19 -1.7872146
0 2.1864505 3.6893488e+19
1.9277477 1.0842022e-19 -1.7850093
-3.6893488e+19 2.1484864 3.6893488e+19
1.9122866 3.6893488e+19 -1.7834647
1.0842022e-19 2.1179018 0
1.8998308 2 -1.7827848
-2 2.091032 -1.0842022e-19
1.8888879 3.6893488e+19 -1.7819642
2 3.1546621 1.0842022e-19
2.7987185 -1.0842022e-19 2.633538
-0 3.234587 -1.0842022e-19
2.8577182 -0 2.6941972
2 3.1560493 -3.6893488e+19
2.7997422 -1.0842022e-19 2.609596
-1.0842022e-19 3.0914142 -0
2.6729741 -0 2.5417507
-2 3.1519129 3.6893488e+19
2.796689 -0 2.5934906
-0 3.192734 -3.6893488e+19
2.7742488 -0 2.6148901
3.6893488e+19 3.1505651 0
2.7956941 -0 2.5799701
1.0842022e-19 3.091326 -0
2.6728647 0 2.5209756
-1.0842022e-19 3.174931 1.0842022e-19
2.8136809 3.6893488e+19 2.5869589
-3.6893488e+19 3.0927377 -3.6893488e+19
2.6746137 0 2.5117464
-1.0842022e-19 3.1348667 -2
2.7841055 2 2.5433679
3.6893488e+19 3.1498756 3.6893488e+19
2.8232651 2 2.5522277
-3.6893488e+19 3.1518114 2
2.8248301 1.0842022e-19 2.5412488
-0 3.1455786 -0
2.8197913 3.6893488e+19 2.524513
3.6893488e+19 3.1343863 1.0842022e-19
2.8107433 0 2.5048981
-3.6893488e+19 3.163769 2
2.7842805 -3.6893488e+19 2.5127387
-3.6893488e+19 3.1608567 0
2.7822797 1.0842022e-19 2.4970291
2 3.2506793 -3.6893488e+19
2.9053051 0 2.5516596
-2 3.1654735 -3.6893488e+19
2.7854514 1.0842022e-19 2.4776404
3.6893488e+19 3.0791848 3.6893488e+19
2.7661176 -3.6893488e+19 2.3759654
-0 3.1480732 -3.6893488e+19
2.8218079 -2 2.4302988
2 3.1635213 0
2.7841103 0 2.4258173
1.0842022e-19 3.1910827 3.6893488e+19
2.773226 1.0842022e-19 2.4366305
3.6893488e+19 3.167433 -0
2.8081458 1.0842022e-19 2.40817
1.0842022e-19 3.1562488 1.0842022e-19
2.7516484 0 2.3781161
3.6893488e+19 3.0875981 -1.0842022e-19
2.7484245 -3.6893488e+19 2.3097916
-3.6893488e+19 3.1552174 -3.6893488e+19
2.7510095 1.0842022e-19 2.3532224
-0 3.1341646 -1.0842022e-19
2.7835872 3.6893488e+19 2.3294358
2 3.1482818 -2
2.7434266 -1.0842022e-19 2.3236909
3.6893488e+19 3.147589 2
2.7934971 -1.0842022e-19 2.3170922
1.0842022e-19 3.1916513 -2
2.7735782 2 2.3329253
3.6893488e+19 3.1341693 2
2.7835908 3.6893488e+19 2.2833648
-1.0842022e-19 3.1918581 1.0842022e-19
2.7737064 -2 2.3070939
0 3.1470168 2
2.7930746 -3.6893488e+19 2.2690794
2 3.1480207 0
2.7431033 3.6893488e+19 2.2532401
-3.6893488e+19 3.150034 -2
2.7953019 -2 2.2444088
-3.6893488e+19 3.1458988 -2
2.7404745 2 2.207315
0 3.2553306 1.0842022e-19
2.876966 -3.6893488e+19 2.2850628
1.0842022e-19 3.068234 0
2.7572649 2 2.0902929
-0 3.1302817 -0
2.7612729 1.0842022e-19 2.1261296
-2 3.0720954 -1.0842022e-19
2.7603865 -3.6893488e+19 2.0555437
1.0842022e-19 3.3081436 -3.6893488e+19
2.9234207 2 2.2683246
-0 3.2019174 2
2.8653364 1.0842022e-19 2.1241772
0 3.3086748 1.0842022e-19
2.9241507 3.6893488e+19 2.2146063
2 3.2003207 1.0842022e-19
2.8640456 0 2.0685668
-0 3.1516325 3.6893488e+19
2.7759421 0 2.0048106
-2 3.1998303 -1.0842022e-19
2.8636491 -0 2.0140321
0 3.1452289 -0
2.7715423 2 1.9540868
3.6893488e+19 3.1918457 -0
2.8571942 0 1.9561346
2 3.0645821 -1.0842022e-19
2.6822679 -1.0842022e-19 1.8753115
1.0842022e-19 3.1916575 -0
2.8570421 -2 1.9028888
0 3.0661628 -1.0842022e-19
2.6844399 0 1.8022859
-1.0842022e-19 3.1856537 3.6893488e+19
2.8521886 -3.6893488e+19 1.8217592
-1.0842022e-19 3.0637386 -0
2.681109 -0 1.7038094
3.6893488e+19 3.0661759 2
2.6417067 1.0842022e-19 1.6295204
-1.0842022e-19 3.0589979 -3.6893488e+19
2.7061996 2 1.4715538
2 3.0678833 -2
2.6438217 2 -1.2711325
2 3.0461848 3.6893488e+19
2.6872826 2 -1.5505035
-0 3.0649781 1.0842022e-19
2.6402228 -2 -1.6652019
0 3.0431786 2
2.6828442 2 -1.7263106
-1.0842022e-19 3.0764446 3.6893488e+19
2.6544285 2 -1.78686
1.0842022e-19 3.0441155 -2
2.6842275 -1.0842022e-19 -1.8084619
-2 3.0777161 -1.0842022e-19
2.6560037 -0 -1.8640403
-2 3.0472066 1.0842022e-19
2.6887915 -1.0842022e-19 -1.878051
-2 3.0799859 -2
2.6588156 0 -1.9089072
1.0842022e-19 3.0494914 1.0842022e-19
2.6921644 -2 -1.9146687
-3.6893488e+19 3.0344179 2
2.6023622 -0 -1.9202114
-3.6893488e+19 2.9818907 -2
2.6057279 -3.6893488e+19 -1.9111645
2 2.9617324 1.0842022e-19
2.5360174 -2 -1.915159
3.6893488e+19 2.8558195 3.6893488e+19
2.5126631 1.0842022e-19 -1.8901898
2 2.7142646 2
2.3753181 -2 -1.8240882
-3.6893488e+19 2.772464 0
2.3743937 -2 -1.8701842
2 2.7109685 0
2.3726535 -3.6893488e+19 -1.8504789
-3.6893488e+19 2.6790676 2
2.2947915 1.0842022e-19 -1.8434391
3.6893488e+19 2.6273868 -2
2.3050847 -1.0842022e-19 -1.8323809
2 2.6073978 -1.0842022e-19
2.241101 -2 -1.8281101
-0 2.5749578 1.0842022e-19
2.2627006 -2 -1.8232036
-2 2.5651331 -2
2.1830251 -0 -1.8227684
-0 2.5389717 1.0842022e-19
2.2172177 -2 -1.818734
3.6893488e+19 2.5281992 -0
2.1322742 3.6893488e+19 -1.816092
-3.6893488e+19 2.5082066 3.6893488e+19
2.1674759 -3.6893488e+19 -1.8137411
1.0842022e-19 2.5010676 0
2.0949926 -3.6893488e+19 -1.8123682
2 2.4623168 -0
2.1237433 1.0842022e-19 -1.807984
-3.6893488e+19 2.4514444 -0
2.0601654 3.6893488e+19 -1.8068744
1.0842022e-19 2.4218752 0
2.0910499 -3.6893488e+19 -1.804782
2 3.1546621 1.0842022e-19
2.7987185 -1.0842022e-19 2.633538
-3.6893488e+19 3.1526997 -0
2.7972698 -3.6893488e+19 2.6191351
2 3.1560493 -3.6893488e+19
2.7997422 -1.0842022e-19 2.609596
-1.0842022e-19 3.0914142 -0
2.6729741 -0 2.5417507
-2 3.1519129 3.6893488e+19
2.796689 -0 2.5934906
-1.0842022e-19 3.0920966 2
2.6738195 2 2.5319474
3.6893488e+19 3.1505651 0
2.7956941 -0 2.5799701
1.0842022e-19 3.091326 -0
2.6728647 0 2.5209756
2 3.1560812 -2
2.7997658 0 2.5720115
-3.6893488e+19 3.0927377 -3.6893488e+19
2.6746137 0 2.5117464
-1.0842022e-19 3.1348667 -2
2.7841055 2 2.5433679
3.6893488e+19 3.1498756 3.6893488e+19
2.8232651 2 2.5522277
-3.6893488e+19 3.1518114 2
2.8248301 1.0842022e-19 2.5412488
-0 3.1455786 -0
2.8197913 3.6893488e+19 2.524513
3.6893488e+19 3.1343863 1.0842022e-19
2.8107433 0 2.5048981
-3.6893488e+19 3.163769 2
2.7842805 -3.6893488e+19 2.5127387
-3.6893488e+19 3.1608567 0
2.7822797 1.0842022e-19 2.4970291
2 3.2506793 -3.6893488e+19
2.9053051 0 2.5516596
-2 3.1654735 -3.6893488e+19
2.7854514 1.0842022e-19 2.4776404
3.6893488e+19 3.0791848 3.6893488e+19
2.7661176 -3.6893488e+19 2.3759654
-2 3.0796242 -1.0842022e-19
2.7664728 3.6893488e+19 2.3563087
2 3.1635213 0
2.7841103 0 2.4258173
1.0842022e-19 3.1910827 3.6893488e+19
2.773226 1.0842022e-19 2.4366305
1.0842022e-19 3.0875697 -0
2.7483826 1.0842022e-19 2.3300788
1.0842022e-19 3.1562488 1.0842022e-19
2.7516484 0 2.3781161
3.6893488e+19 3.0875981 -1.0842022e-19
2.7484245 -3.6893488e+19 2.3097916
-3.6893488e+19 3.1552174 -3.6893488e+19
2.7510095 1.0842022e-19 2.3532224
2 3.0944939 0
2.7543027 -0 2.2954166
2 3.1482818 -2
2.7434266 -1.0842022e-19 2.3236909
0 3.0845983 1.0842022e-19
2.7439957 1.0842022e-19 2.2668548
-3.6893488e+19 3.1039453 -0
2.6884987 2 2.2668109
0 3.0826762 -0
2.7411578 -3.6893488e+19 2.2407663
3.6893488e+19 3.105438 -1.0842022e-19
2.6903479 -3.6893488e+19 2.2440629
-3.6893488e+19 3.0891225 -1.0842022e-19
2.7503376 2 2.2096834
-2 3.0593202 3.6893488e+19
2.6332133 1.0842022e-19 2.1436093
-0 3.0907643 -1.0842022e-19
2.7515495 -0 2.1711564
-0 3.0568261 1.0842022e-19
2.6301234 2 2.1044242
0 3.0836732 -2
2.7426298 -1.0842022e-19 2.1225283
1.0842022e-19 3.068234 0
2.7572649 2 2.0902929
-0 3.1302817 -0
2.7612729 1.0842022e-19 2.1261296
-2 3.0720954 -1.0842022e-19
2.7603865 -3.6893488e+19 2.0555437
2 3.1309292 3.6893488e+19
2.7617178 -2 2.0817046
-1.0842022e-19 3.0701563 -1.0842022e-19
2.7588189 1.0842022e-19 2.0150821
0 3.3086748 1.0842022e-19
2.9241507 3.6893488e+19 2.2146063
2 3.0715873 3.6893488e+19
2.7599757 3.6893488e+19 1.9774979
-0 3.1516325 3.6893488e+19
2.7759421 0 2.0048106
-2 3.1998303 -1.0842022e-19
2.8636491 -0 2.0140321
3.6893488e+19 3.0624549 1.0842022e-19
2.6793451 -1.0842022e-19 1.9113443
0 3.0682065 -3.6893488e+19
2.7572424 -2 1.898453
2 3.0645821 -1.0842022e-19
2.6822679 -1.0842022e-19 1.8753115
-3.6893488e+19 3.076659 -0
2.7640758 1.0842022e-19 1.8511596
0 3.0661628 -1.0842022e-19
2.6844399 0 1.8022859
0 3.0831573 -3.6893488e+19
2.7693288 0 1.7754676
-1.0842022e-19 3.0637386 -0
2.681109 -0 1.7038094
3.6893488e+19 3.0661759 2
2.6417067 1.0842022e-19 1.6295204
-1.0842022e-19 3.0589979 -3.6893488e+19
2.7061996 2 1.4715538
2 3.0678833 -2
2.6438217 2 -1.2711325
2 3.0461848 3.6893488e+19
2.6872826 2 -1.5505035
-0 3.0649781 1.0842022e-19
2.6402228 -2 -1.6652019
0 3.0431786 2
2.6828442 2 -1.7263106
-1.0842022e-19 3.0764446 3.6893488e+19
2.6544285 2 -1.78686
1.0842022e-19 3.0441155 -2
2.6842275 -1.0842022e-19 -1.8084619
-2 3.0777161 -1.0842022e-19
2.6560037 -0 -1.8640403
-2 3.0472066 1.0842022e-19
2.6887915 -1.0842022e-19 -1.878051
0 3.041882 -3.6893488e+19
2.611609 2 -1.8905579
2 3.0064766 -0
2.6286581 2 -1.891018
-3.6893488e+19 3.0344179 2
2.6023622 -0 -1.9202114
-3.6893488e+19 2.9818907 -2
2.6057279 -3.6893488e+19 -1.9111645
2 2.9617324 1.0842022e-19
2.5360174 -2 -1.915159
3.6893488e+19 2.8558195 3.6893488e+19
2.5126631 1.0842022e-19 -1.8901898
2 2.7142646 2
2.3753181 -2 -1.8240882
-3.6893488e+19 2.772464 0
2.3743937 -2 -1.8701842
2 2.7109685 0
2.3726535 -3.6893488e+19 -1.8504789
-3.6893488e+19 2.6790676 2
2.2947915 1.0842022e-19 -1.8434391
3.6893488e+19 2.6273868 -2
2.3050847 -1.0842022e-19 -1.8323809
2 2.6073978 -1.0842022e-19
2.241101 -2 -1.8281101
-0 2.5749578 1.0842022e-19
2.2627006 -2 -1.8232036
-2 2.5651331 -2
2.1830251 -0 -1.8227684
-0 2.5389717 1.0842022e-19
2.2172177 -2 -1.818734
3.6893488e+19 2.5281992 -0
2.1322742 3.6893488e+19 -1.816092
-3.6893488e+19 2.5082066 3.6893488e+19
2.1674759 -3.6893488e+19 -1.8137411
1.0842022e-19 2.5010676 0
2.0949926 -3.6893488e+19 -1.8123682
2 2.4623168 -0
2.1237433 1.0842022e-19 -1.807984
-3.6893488e+19 2.4514444 -0
2.0601654 3.6893488e+19 -1.8068744
1.0842022e-19 2.4218752 0
2.0910499 -3.6893488e+19 -1.804782
1.0842022e-19 3.155539 0
2.7969542 -1.0842022e-19 2.6339991
1.0842022e-19 3.2354555 3.6893488e+19
2.8554726 2 2.6945651
2 3.1573598 2
2.7982874 -0 2.6104095
-1.0842022e-19 3.0912802 1.0842022e-19
2.6688926 -3.6893488e+19 2.5414007
-1.0842022e-19 3.152329 3.6893488e+19
2.7946036 -1.0842022e-19 2.5935152
-3.6893488e+19 3.192857 1.0842022e-19
2.7717848 -0 2.614697
-3.6893488e+19 3.1511526 -2
2.7937422 -1.0842022e-19 2.5801361
-0 3.092042 -0
2.6698275 -3.6893488e+19 2.5213246
-1.0842022e-19 3.1752827 3.6893488e+19
2.8114114 -2 2.5869131
0 3.0912514 -2
2.6688569 1.0842022e-19 2.5104008
-0 3.1351798 -1.0842022e-19
2.7820461 -2 2.5433238
2 3.1503263 -0
2.821192 -1.0842022e-19 2.5522492
-0 3.1817 1.0842022e-19
2.7940738 -2 2.5630193
0 3.1517208 2
2.8223109 -1.0842022e-19 2.5408759
1.0842022e-19 3.1300178 3.6893488e+19
2.804898 -2 2.5134363
3.6893488e+19 3.2744534 -0
2.873915 -0 2.6147907
1.0842022e-19 3.134706 2
2.8086596 1.0842022e-19 2.5048411
1.0842022e-19 3.1624434 -2
2.780956 1.0842022e-19 2.5116625
-1.0842022e-19 3.2476282 2
2.89926 1.0842022e-19 2.5643578
-3.6893488e+19 3.2508862 2
2.9025853 2 2.5515904
-2 3.1658752 3.6893488e+19
2.783294 3.6893488e+19 2.477674
1.0842022e-19 3.0803373 -1.0842022e-19
2.765038 3.6893488e+19 2.376884
-0 3.1484933 -0
2.8197215 -2 2.4302988
-0 3.1639507 -0
2.7819829 -0 2.4258776
3.6893488e+19 3.1915576 1.0842022e-19
2.7709873 3.6893488e+19 2.4367478
2 3.1648324 2
2.8037591 -1.0842022e-19 2.4052365
-1.0842022e-19 3.1573489 -0
2.7499862 3.6893488e+19 2.378834
-1.0842022e-19 3.1529579 0
2.7950642 -2 2.3694122
1.0842022e-19 3.1000381 2
2.679642 3.6893488e+19 2.3048768
0 3.1356151 3.6893488e+19
2.7823648 3.6893488e+19 2.3303614
-1.0842022e-19 3.148098 -1.0842022e-19
2.7386315 -3.6893488e+19 2.3232803
-0 3.1359928 -1.0842022e-19
2.7826414 3.6893488e+19 2.3075476
2 3.1042016 -1.0842022e-19
2.6847522 2 2.2667885
-1.0842022e-19 3.1343932 0
2.7814703 -1.0842022e-19 2.283257
-3.6893488e+19 3.1056952 2
2.6865859 3.6893488e+19 2.2440217
3.6893488e+19 3.1488326 -3.6893488e+19
2.7920432 -1.0842022e-19 2.27005
2 3.152483 -2
2.7440135 3.6893488e+19 2.2558725
2 3.0895414 -0
2.7472553 1.0842022e-19 2.1692412
-1.0842022e-19 3.146636 1.0842022e-19
2.7368371 2 2.2077966
1.0842022e-19 3.2554154 -2
2.8740535 -0 2.2848833
2 3.0690908 2
2.7560148 -3.6893488e+19 2.0908494
-0 3.3094532 0
2.9215989 2 2.3058004
2 3.0700607 2
2.756793 -0 2.0532935
-1.0842022e-19 3.3090549 -1.0842022e-19
2.921056 -3.6893488e+19 2.268877
-2 3.072551 -3.6893488e+19
2.758791 -1.0842022e-19 2.0167832
0 3.3092914 1.0842022e-19
2.9213781 0 2.2151175
-0 3.0707965 3.6893488e+19
2.7573833 -2 1.9766992
-0 3.1519926 3.6893488e+19
2.7738371 0 2.0048106
-2 3.1867683 -2
2.8504305 -2 2.0060949
-1.0842022e-19 3.1446369 0
2.7688265 -1.0842022e-19 1.9535986
-1.0842022e-19 3.1906593 -1.0842022e-19
2.8535523 3.6893488e+19 1.9553643
0 3.1473434 -1.0842022e-19
2.7706699 -0 1.9081371
1.0842022e-19 3.0706534 -1.0842022e-19
2.7572684 1.0842022e-19 1.8467675
2 3.0672743 -1.0842022e-19
2.6822541 0 1.8027499
0 3.1861136 -3.6893488e+19
2.849905 -3.6893488e+19 1.8217592
-2 3.0660017 -3.6893488e+19
2.6805203 -2 1.7050956
-3.6893488e+19 3.2147286 2
2.7852075 -1.0842022e-19 1.6902208
-2 3.058826 0
2.7022731 -3.6893488e+19 1.4712174
-2 3.2138708 0
2.7846811 0 -1.3380716
0 3.0457659 0
2.6831465 -3.6893488e+19 -1.5500865
-2 3.0657105 -1.0842022e-19
2.6375079 1.0842022e-19 -1.6654525
-3.6893488e+19 3.0443704 -1.0842022e-19
2.681103 -3.6893488e+19 -1.727012
0 3.0766189 -2
2.6508968 -3.6893488e+19 -1.7868155
-3.6893488e+19 3.0464525 0
2.6841524 1.0842022e-19 -1.8097419
2 3.077981 2
2.6525688 -0 -1.8640403
2 3.0443835 2
2.6811221 -2 -1.8767126
2 3.0778337 -2
2.6523879 -0 -1.9077432
2 3.0059905 2
2.6248958 -1.0842022e-19 -1.8906152
-2 3.0285571 -3.6893488e+19
2.5919051 0 -1.9165695
-1.0842022e-19 2.9810061 -0
2.6022146 3.6893488e+19 -1.9107139
0 2.9643142 0
2.5349531 -3.6893488e+19 -1.9159484
-1.0842022e-19 2.8617904 0
2.5149195 -3.6893488e+19 -1.892405
1.0842022e-19 2.7138276 1.0842022e-19
2.3721409 -3.6893488e+19 -1.8236911
3.6893488e+19 2.7738309 3.6893488e+19
2.3730669 -1.0842022e-19 -1.8711934
1.0842022e-19 2.7123816 0
2.3709807 0 -1.8509318
3.6893488e+19 2.6795704 -1.0842022e-19
2.292623 0 -1.8434992
-3.6893488e+19 2.6280165 2
2.3032925 -2 -1.832508
0 2.6077182 -0
2.2373548 -2 -1.8281101
-1.0842022e-19 2.5751851 -2
2.2609043 3.6893488e+19 -1.8231331
3.6893488e+19 2.5655336 0
2.1798828 1.0842022e-19 -1.8228425
-1.0842022e-19 2.5393922 -2
2.2143738 -0 -1.8188115
3.6893488e+19 2.5284486 3.6893488e+19
2.1293581 3.6893488e+19 -1.816092
-3.6893488e+19 2.5059359 -2
2.1606882 0 -1.8118842
