# .PCD v0.7 - Point Cloud Data file format
VERSION 0.7
FIELDS x y z
SIZE 4 4 4
TYPE F F F
COUNT 1 1 1
WIDTH 1715
HEIGHT 1
VIEWPOINT 0 0 0 1 0 0 0
POINTS 1715
DATA ascii
2.3773472 -1.0842022e-19 2.5341766
-1.0842022e-19 3.1545441 3.6893488e+19
2.2310407 -3.6893488e+19 2.5546992
-1.0842022e-19 3.1191304 3.6893488e+19
2.37831 -2 2.5241597
-3.6893488e+19 3.1684043 3.6893488e+19
2.2475219 -2 2.5530438
0 3.1906321 0
2.5307438 1.0842022e-19 2.5594449
-1.0842022e-19 3.1599357 0
2.3447061 -1.0842022e-19 2.5299542
-2 3.1725225 2
2.5192056 -1.0842022e-19 2.5344515
2 3.1593988 0
2.3442545 1.0842022e-19 2.5177906
3.6893488e+19 3.2012548 -3.6893488e+19
2.5375118 3.6893488e+19 2.5407174
-1.0842022e-19 3.1615112 -0
2.3460307 -0 2.5073435
-3.6893488e+19 3.204246 -2
2.5394177 -2 2.5295069
-3.6893488e+19 3.1054735 -0
2.2989099 -1.0842022e-19 2.4242039
3.6893488e+19 3.1048479 -1.0842022e-19
2.2983837 1.0842022e-19 2.4031396
-0 3.1984687 3.6893488e+19
2.5357368 1.0842022e-19 2.5000949
3.6893488e+19 3.1041105 -3.6893488e+19
2.2977636 -3.6893488e+19 2.3820701
-0 3.123946 3.6893488e+19
2.476511 1.0842022e-19 2.3955772
3.6893488e+19 3.104248 1.0842022e-19
2.2978795 0 2.3620131
-2 3.1229296 -1.0842022e-19
2.4752159 1.0842022e-19 2.3731
-1.0842022e-19 3.1048925 1.0842022e-19
2.2984214 -2 2.342469
-3.6893488e+19 3.1040626 0
2.1710136 1.0842022e-19 2.3306961
3.6893488e+19 3.1268811 -0
2.3862534 -2 2.3431718
3.6893488e+19 3.1062312 3.6893488e+19
2.1735921 -0 2.3125441
1.0842022e-19 3.1209729 0
2.3801982 0 2.3166869
-3.6893488e+19 3.1041999 -3.6893488e+19
2.1711767 -2 2.2907302
-2 3.1170423 -2
2.3761699 0 2.2924767
1.0842022e-19 3.1107419 -1.0842022e-19
2.1789556 2 2.2757313
3.6893488e+19 3.1295404 0
2.388979 -3.6893488e+19 2.2809043
1.0842022e-19 3.1059437 1.0842022e-19
2.1732502 -0 2.2519889
3.6893488e+19 3.1736939 3.6893488e+19
2.4342303 3.6893488e+19 2.2895732
2 3.1084526 0
2.1762335 2 2.217155
2 3.1201928 -2
2.3793986 3.6893488e+19 2.2141173
0 3.1109231 -1.0842022e-19
2.3698983 -1.0842022e-19 2.1616824
3.6893488e+19 3.1760798 1.0842022e-19
2.2533243 -0 2.2094541
-0 3.1132884 0
2.3723228 -2 2.1233404
-0 3.1176288 1.0842022e-19
2.4684613 1.0842022e-19 2.1086242
-2 3.1710935 3.6893488e+19
2.3540883 -1.0842022e-19 2.1342084
-1.0842022e-19 3.1133056 0
2.4629524 1.0842022e-19 2.0632458
3.6893488e+19 3.0833433 0
2.2803011 -1.0842022e-19 2.0166497
-0 3.2115264 2
2.5440564 -3.6893488e+19 2.0956719
-1.0842022e-19 3.0837922 -0
2.2806785 2 1.9794971
-3.6893488e+19 3.1035485 -1.0842022e-19
2.4505191 3.6893488e+19 1.9747913
-3.6893488e+19 3.1682396 1.0842022e-19
2.3516886 -2 1.990575
1.0842022e-19 3.1044388 -3.6893488e+19
2.4516532 -3.6893488e+19 1.9352782
-1.0842022e-19 3.0789881 -3.6893488e+19
2.2766387 -1.0842022e-19 1.9023051
-0 3.1023502 -2
2.448992 1.0842022e-19 1.8943539
1.0842022e-19 3.072428 -2
2.2711225 0 1.8511609
-2 3.0906477 2
2.4340799 3.6893488e+19 1.8271416
-0 3.0743647 -0
2.2727511 -3.6893488e+19 1.7797455
-1.0842022e-19 3.0909915 -2
2.4345179 3.6893488e+19 1.7502953
-0 3.0725567 1.0842022e-19
2.2712309 -1.0842022e-19 1.6630312
3.6893488e+19 3.0381401 2
2.0926254 -3.6893488e+19 1.5365742
2 3.0918932 1.0842022e-19
2.3503954 -2 1.2806922
2 3.0366771 -3.6893488e+19
2.0908856 -2 -1.4415593
3.6893488e+19 3.0841069 1.0842022e-19
2.3424156 0 -1.6312486
-0 3.0395942 -2
2.0943544 0 -1.6779286
-2 3.0861301 -0
2.3444891 0 -1.7666314
1.0842022e-19 3.0398483 0
2.0946567 -3.6893488e+19 -1.7788961
1.0842022e-19 3.0919487 -2
2.3504522 0 -1.8460004
0 3.042238 1.0842022e-19
2.0974982 -1.0842022e-19 -1.8455558
3.6893488e+19 3.1021178 -2
2.3608742 1.0842022e-19 -1.9034076
3.6893488e+19 3.0467308 -2
2.1028404 -3.6893488e+19 -1.8951887
-2 3.0635982 3.6893488e+19
2.3213968 -0 -1.921919
-3.6893488e+19 3.0480306 3.6893488e+19
2.1043863 -2 -1.9291999
0 3.0200026 3.6893488e+19
2.2767169 -3.6893488e+19 -1.9284264
-0 3.0062892 1.0842022e-19
2.0547519 -2 -1.9328117
0 3.0063889 3.6893488e+19
2.2627647 -1.0842022e-19 -1.948315
1.0842022e-19 2.8304286 1.0842022e-19
2.0278502 -2 -1.8960345
-2 2.7888594 -3.6893488e+19
2.1180871 -0 -1.8867456
1.0842022e-19 2.7583911 -1.0842022e-19
1.9672754 -0 -1.8787377
-3.6893488e+19 2.70626 -1.0842022e-19
2.0407009 -1.0842022e-19 -1.86686
1.0842022e-19 2.6706786 -1.0842022e-19
1.9268696 -2 -1.8582826
-0 2.6366005 2
1.9963182 0 -1.8518678
-2 2.6164203 -1.0842022e-19
1.9040574 0 -1.8488517
0 2.5869274 -1.0842022e-19
1.9646695 -2 -1.8418567
2 2.5724845 1.0842022e-19
1.8855851 3.6893488e+19 -1.8402066
-2 2.5465164 -1.0842022e-19
1.9389222 1.0842022e-19 -1.8327056
2 2.5352695 2
1.8648769 -2 -1.8314896
-0 2.5143745 1.0842022e-19
1.9184433 0 -1.8252428
-1.0842022e-19 2.5051398 3.6893488e+19
1.8395416 1.0842022e-19 -1.8241116
-2 2.4822094 -2
1.9036171 3.6893488e+19 -1.8213629
-2 2.4636781 0
1.8199484 0 -1.8190609
-3.6893488e+19 2.4064593 -1.0842022e-19
1.741659 0 -1.8119003
2 2.3506291 1.0842022e-19
1.7084653 -2 -1.8061268
0 2.3065283 -3.6893488e+19
1.6822453 -0 -1.800804
0 2.2753479 3.6893488e+19
1.6637071 2 -1.7986665
2 2.2405581 1.0842022e-19
1.7812768 -0 -1.7954469
1.0842022e-19 2.198559 -1.0842022e-19
1.7678971 2 -1.7939245
-0 2.1649146 0
1.7571791 1.0842022e-19 -1.7934071
-2 2.1241295 0
1.7383726 3.6893488e+19 -1.7878728
1.0842022e-19 3.1514854 -2
2.2104876 -3.6893488e+19 2.6226487
-2 3.1513629 -3.6893488e+19
2.2103472 1.0842022e-19 2.6107337
-2 3.1983235 -1.0842022e-19
2.4499269 -2 2.6484489
-3.6893488e+19 3.1753671 1.0842022e-19
2.2378793 1.0842022e-19 2.6074066
0 3.175245 -3.6893488e+19
2.2377388 1.0842022e-19 2.5949106
2 3.1525524 -0
2.2117114 -2 2.5648081
1.0842022e-19 3.1192269 -0
2.3705473 2 2.5348816
-0 3.1566434 -0
2.2164037 0 2.556222
-3.6893488e+19 3.1183381 0
2.3696556 -3.6893488e+19 2.5234804
-1.0842022e-19 3.1718585 1.0842022e-19
2.233855 0 2.5554874
3.6893488e+19 3.1194129 -1.0842022e-19
2.370734 -1.0842022e-19 2.5135572
-3.6893488e+19 3.1908751 -3.6893488e+19
2.5261641 2 2.5594876
-2 3.159189 -3.6893488e+19
2.3354111 2 2.5293684
2 3.1585896 -2
2.3349197 3.6893488e+19 2.5171885
-1.0842022e-19 3.1646028 -1.0842022e-19
2.3398488 -3.6893488e+19 2.5092063
-1.0842022e-19 3.1050782 -2
2.2910566 -2 2.4236169
-0 3.1042056 -0
2.2903414 0 2.4023006
1.0842022e-19 3.1938524 0
2.5280292 3.6893488e+19 2.4948363
-1.0842022e-19 3.1065176 2
2.2922366 -2 2.3845627
-3.6893488e+19 3.1926143 -0
2.5272536 -2 2.468024
1.0842022e-19 3.1044061 -1.0842022e-19
2.2905056 2 2.362076
-2 3.1999927 -1.0842022e-19
2.5318754 -2 2.450012
3.6893488e+19 3.1057916 1.0842022e-19
2.2916415 0 2.3432434
-1.0842022e-19 3.2897007 -2
2.3322752 -1.0842022e-19 2.52053
1.0842022e-19 3.2212579 1.0842022e-19
2.4729433 -1.0842022e-19 2.4289649
-2 3.2880387 -0
2.330369 -3.6893488e+19 2.5026662
-0 3.2208772 -2
2.4725611 -0 2.4018383
1.0842022e-19 3.1054461 3.6893488e+19
2.1576824 -1.0842022e-19 2.2916973
0 3.1851418 1.0842022e-19
2.436698 -3.6893488e+19 2.346626
1.0842022e-19 3.1100972 1.0842022e-19
2.163017 -1.0842022e-19 2.2751858
-0 3.1799037 1.0842022e-19
2.4314413 -0 2.3180735
-0 3.1401038 -1.0842022e-19
2.1974335 3.6893488e+19 2.2761197
-2 3.1735256 -2
2.4250402 0 2.2893622
-2 3.1444974 0
2.2024729 2 2.2570162
-2 3.1747856 -1.0842022e-19
2.4263048 -2 2.2661922
0 3.1407325 -0
2.1981544 -2 2.2151649
0 3.1755624 -0
2.4270842 0 2.2352514
-2 3.1747305 -0
2.237149 3.6893488e+19 2.2079117
-1.0842022e-19 3.1741526 -3.6893488e+19
2.4256694 2 2.185744
2 3.1964283 -1.0842022e-19
2.5296426 0 2.1853135
0 3.1712081 -3.6893488e+19
2.345263 -1.0842022e-19 2.1342084
0 3.1146071 0
2.2988675 0 2.0415792
1.0842022e-19 3.1711586 -0
2.3452225 -1.0842022e-19 2.0394864
-0 3.1025226 -0
2.4416404 -0 1.9740462
-3.6893488e+19 3.1704969 -0
2.3446803 -0 1.9918077
-1.0842022e-19 3.1029499 -2
2.4421756 3.6893488e+19 1.9344237
-0 3.0775549 0
2.268496 1.0842022e-19 1.9016005
0 3.1758287 -3.6893488e+19
2.5167389 0 1.924385
-1.0842022e-19 3.1684902 -3.6893488e+19
2.3430352 2 1.896731
1.0842022e-19 3.0904801 1.0842022e-19
2.4265535 3.6893488e+19 1.8269585
1.0842022e-19 3.0696971 1.0842022e-19
2.2620549 3.6893488e+19 1.7774773
3.6893488e+19 3.0921514 -1.0842022e-19
2.4286473 2 1.7506695
-0 3.0737946 -2
2.2654135 -3.6893488e+19 1.6636124
-2 3.0365119 2
2.0786178 0 1.5356307
-3.6893488e+19 3.240685 2
2.49244 -1.0842022e-19 1.3483753
1.0842022e-19 3.0369813 0
2.0791562 2 -1.441726
-1.0842022e-19 3.2369864 -0
2.488728 -1.0842022e-19 -1.6912413
2 3.0726883 -2
2.1201105 -0 -1.6982238
2 3.0877922 1.0842022e-19
2.3390002 -1.0842022e-19 -1.7672843
0 3.0727837 1.0842022e-19
2.1202199 -2 -1.7963505
-2 3.0925581 2
2.3437834 2 -1.8463209
-0 3.0409539 1.0842022e-19
2.0837126 2 -1.8445448
1.0842022e-19 3.1033196 0
2.3545833 -1.0842022e-19 -1.90388
0 3.0749834 1.0842022e-19
2.1227429 2 -1.9089822
-1.0842022e-19 3.1055686 1.0842022e-19
2.3568404 2 -1.9448631
2 3.0438516 -3.6893488e+19
2.0870359 1.0842022e-19 -1.9266534
-3.6893488e+19 3.0630317 -0
2.3141513 2 -1.956793
2 3.0057778 3.6893488e+19
2.0433669 -1.0842022e-19 -1.932412
-3.6893488e+19 3.0072482 -1.0842022e-19
2.2581682 0 -1.9489138
-2 2.8290284 -3.6893488e+19
2.0197036 3.6893488e+19 -1.8953762
3.6893488e+19 2.7889173 3.6893488e+19
2.1119556 -2 -1.8867164
-1.0842022e-19 2.7572823 -2
1.9608936 1.0842022e-19 -1.8781505
-1.0842022e-19 2.7064488 -3.6893488e+19
2.0359194 -1.0842022e-19 -1.86686
-0 2.6717854 -2
1.9228681 1.0842022e-19 -1.8588328
3.6893488e+19 2.6377459 2
1.992884 -2 -1.8524457
-1.0842022e-19 2.616272 -0
1.9001161 -1.0842022e-19 -1.8487002
1.0842022e-19 2.5871899 3.6893488e+19
1.9612157 1.0842022e-19 -1.841936
-1.0842022e-19 2.5700936 -1.0842022e-19
1.8811899 -1.0842022e-19 -1.8385531
2 2.5463932 0
1.9356607 -3.6893488e+19 -1.8325332
2 2.5349755 3.6893488e+19
1.8585937 2 -1.8312207
2 2.5144839 0
1.9156728 0 -1.8252428
-0 2.5060756 -0
1.8349046 2 -1.8247875
2 2.4829006 -2
1.9012444 -2 -1.8215629
1.0842022e-19 2.4650412 -0
1.8155965 1.0842022e-19 -1.8195784
1.0842022e-19 3.1514854 -2
2.2104876 -3.6893488e+19 2.6226487
-2 3.1513629 -3.6893488e+19
2.2103472 1.0842022e-19 2.6107337
-2 3.1983235 -1.0842022e-19
2.4499269 -2 2.6484489
-3.6893488e+19 3.1753671 1.0842022e-19
2.2378793 1.0842022e-19 2.6074066
-0 3.1522703 -3.6893488e+19
2.2113879 -1.0842022e-19 2.5762761
2 3.1525524 -0
2.2117114 -2 2.5648081
1.0842022e-19 3.1192269 -0
2.3705473 2 2.5348816
-0 3.1566434 -0
2.2164037 0 2.556222
-3.6893488e+19 3.1183381 0
2.3696556 -3.6893488e+19 2.5234804
-1.0842022e-19 3.1718585 1.0842022e-19
2.233855 0 2.5554874
3.6893488e+19 3.1194129 -1.0842022e-19
2.370734 -1.0842022e-19 2.5135572
-3.6893488e+19 3.1908751 -3.6893488e+19
2.5261641 2 2.5594876
-2 3.159189 -3.6893488e+19
2.3354111 2 2.5293684
2 3.1585896 -2
2.3349197 3.6893488e+19 2.5171885
-2 3.1038115 -3.6893488e+19
2.2900183 -1.0842022e-19 2.4424005
-1.0842022e-19 3.1050782 -2
2.2910566 -2 2.4236169
-0 3.1042056 -0
2.2903414 0 2.4023006
1.0842022e-19 3.1938524 0
2.5280292 3.6893488e+19 2.4948363
-1.0842022e-19 3.1065176 2
2.2922366 -2 2.3845627
-3.6893488e+19 3.1926143 -0
2.5272536 -2 2.468024
1.0842022e-19 3.1044061 -1.0842022e-19
2.2905056 2 2.362076
-2 3.1999927 -1.0842022e-19
2.5318754 -2 2.450012
3.6893488e+19 3.1057916 1.0842022e-19
2.2916415 0 2.3432434
-1.0842022e-19 3.2897007 -2
2.3322752 -1.0842022e-19 2.52053
-3.6893488e+19 3.1232471 -1.0842022e-19
2.3745821 3.6893488e+19 2.3397503
-3.6893488e+19 3.1056795 0
2.1579504 -0 2.3120005
-0 3.2208772 -2
2.4725611 -0 2.4018383
1.0842022e-19 3.1054461 3.6893488e+19
2.1576824 -1.0842022e-19 2.2916973
-0 3.1166089 -2
2.3679199 2 2.2920341
1.0842022e-19 3.1100972 1.0842022e-19
2.163017 -1.0842022e-19 2.2751858
-3.6893488e+19 3.1289253 -2
2.3802805 2 2.2803562
-0 3.1401038 -1.0842022e-19
2.1974335 3.6893488e+19 2.2761197
3.6893488e+19 3.118036 0
2.3693523 -1.0842022e-19 2.2514503
-2 3.1444974 0
2.2024729 2 2.2570162
-3.6893488e+19 3.1157403 1.0842022e-19
2.3670485 -0 2.2083831
2 3.0603168 0
2.105921 -0 2.1194305
2 3.1115687 -2
2.3628616 3.6893488e+19 2.162282
3.6893488e+19 3.0615582 3.6893488e+19
2.1073449 -3.6893488e+19 2.0858979
-0 3.1115215 3.6893488e+19
2.3628144 2 2.1214013
2 3.1964283 -1.0842022e-19
2.5296426 0 2.1853135
-2 3.1155269 1.0842022e-19
2.2996216 1.0842022e-19 2.0834186
0 3.1146071 0
2.2988675 0 2.0415792
1.0842022e-19 3.1711586 -0
2.3452225 -1.0842022e-19 2.0394864
-0 3.1025226 -0
2.4416404 -0 1.9740462
2 3.0777609 -3.6893488e+19
2.2686646 -2 1.9384795
-1.0842022e-19 3.1029499 -2
2.4421756 3.6893488e+19 1.9344237
-0 3.0775549 0
2.268496 1.0842022e-19 1.9016005
2 3.0883913 -0
2.4239366 0 1.8885777
-2 3.0767424 -1.0842022e-19
2.2678299 1.0842022e-19 1.8541249
1.0842022e-19 3.0904801 1.0842022e-19
2.4265535 3.6893488e+19 1.8269585
1.0842022e-19 3.0696971 1.0842022e-19
2.2620549 3.6893488e+19 1.7774773
3.6893488e+19 3.0921514 -1.0842022e-19
2.4286473 2 1.7506695
-0 3.0737946 -2
2.2654135 -3.6893488e+19 1.6636124
-2 3.0365119 2
2.0786178 0 1.5356307
-3.6893488e+19 3.094022 2
2.3452525 1.0842022e-19 1.2816098
1.0842022e-19 3.0369813 0
2.0791562 2 -1.441726
-0 3.0851481 -2
2.3363466 3.6893488e+19 -1.6316139
-0 3.0393379 0
2.0818591 -3.6893488e+19 -1.677737
2 3.0877922 1.0842022e-19
2.3390002 -1.0842022e-19 -1.7672843
-2 3.0403399 -3.6893488e+19
2.0830083 -3.6893488e+19 -1.7791277
-2 3.0925581 2
2.3437834 2 -1.8463209
-0 3.0409539 1.0842022e-19
2.0837126 2 -1.8445448
1.0842022e-19 3.1033196 0
2.3545833 -1.0842022e-19 -1.90388
-0 3.0412107 3.6893488e+19
2.084007 1.0842022e-19 -1.8924606
0 3.0632377 -1.0842022e-19
2.3143578 -1.0842022e-19 -1.9216642
2 3.0438516 -3.6893488e+19
2.0870359 1.0842022e-19 -1.9266534
3.6893488e+19 3.0199683 -3.6893488e+19
2.2709336 2 -1.9283446
2 3.0057778 3.6893488e+19
2.0433669 -1.0842022e-19 -1.932412
-3.6893488e+19 3.0072482 -1.0842022e-19
2.2581682 0 -1.9489138
-2 2.8290284 -3.6893488e+19
2.0197036 3.6893488e+19 -1.8953762
3.6893488e+19 2.7889173 3.6893488e+19
2.1119556 -2 -1.8867164
-1.0842022e-19 2.7572823 -2
1.9608936 1.0842022e-19 -1.8781505
-1.0842022e-19 2.7064488 -3.6893488e+19
2.0359194 -1.0842022e-19 -1.86686
-0 2.6717854 -2
1.9228681 1.0842022e-19 -1.8588328
3.6893488e+19 2.6377459 2
1.992884 -2 -1.8524457
-1.0842022e-19 2.616272 -0
1.9001161 -1.0842022e-19 -1.8487002
1.0842022e-19 2.5871899 3.6893488e+19
1.9612157 1.0842022e-19 -1.841936
-1.0842022e-19 2.5700936 -1.0842022e-19
1.8811899 -1.0842022e-19 -1.8385531
2 2.5463932 0
1.9356607 -3.6893488e+19 -1.8325332
2 2.5349755 3.6893488e+19
1.8585937 2 -1.8312207
2 2.5144839 0
1.9156728 0 -1.8252428
-0 2.5060756 -0
1.8349046 2 -1.8247875
2 2.4829006 -2
1.9012444 -2 -1.8215629
1.0842022e-19 2.4650412 -0
1.8155965 1.0842022e-19 -1.8195784
2 3.1515291 -2
2.1936176 -1.0842022e-19 2.6226206
2 3.1519542 -1.0842022e-19
2.1940873 2 2.6111984
1.0842022e-19 3.1989844 -0
2.4410317 -2 2.6489065
0 3.1627183 -3.6893488e+19
2.2059796 0 2.6087735
3.6893488e+19 3.176178 -3.6893488e+19
2.2208502 -0 2.6080217
-3.6893488e+19 3.1754761 -2
2.2200749 -2 2.5950344
-1.0842022e-19 3.1526265 -2
2.1948302 -2 2.5648081
2 3.1182199 -1.0842022e-19
2.3616977 -2 2.5340121
-0 3.1596599 -3.6893488e+19
2.2026007 0 2.5584366
0 3.1170549 0
2.3605535 -1.0842022e-19 2.522439
1.0842022e-19 3.1762316 1.0842022e-19
2.2209096 2 2.5585971
-1.0842022e-19 3.1193497 1.0842022e-19
2.3628078 -0 2.5134265
0 3.1592669 -1.0842022e-19
2.3268065 3.6893488e+19 2.5293474
-3.6893488e+19 3.1577463 2
2.3255925 3.6893488e+19 2.5165665
-1.0842022e-19 3.165911 3.6893488e+19
2.3321121 3.6893488e+19 2.5099554
-3.6893488e+19 3.1037881 2
2.282506 3.6893488e+19 2.4219661
-3.6893488e+19 3.1046381 0
2.2831848 0 2.4026852
-0 3.1930845 2
2.5227914 -2 2.4937792
0 3.1063657 3.6893488e+19
2.284564 -1.0842022e-19 2.3842969
0 3.1927028 2
2.5225563 3.6893488e+19 2.467927
-2 3.1055179 -0
2.2838871 2 2.3631158
2 3.200084 -2
2.5271006 1.0842022e-19 2.4499202
-2 3.1066885 1.0842022e-19
2.284822 3.6893488e+19 2.3440175
3.6893488e+19 3.1732821 -1.0842022e-19
2.2176509 -0 2.3951988
3.6893488e+19 3.2212262 3.6893488e+19
2.4628797 -2 2.4287965
-3.6893488e+19 3.174607 -2
2.2191148 2 2.3723948
-0 3.220907 2
2.4625661 0 2.4017332
2 3.1756029 -3.6893488e+19
2.2202148 -1.0842022e-19 2.3492072
3.6893488e+19 3.1854684 -3.6893488e+19
2.4277551 -0 2.3467736
-0 3.1748719 -2
2.2194073 2 2.3246269
-1.0842022e-19 3.1806304 -0
2.423003 1.0842022e-19 2.3185077
3.6893488e+19 3.1394305 -2
2.1802509 1.0842022e-19 2.2755923
-3.6893488e+19 3.1217098 1.0842022e-19
2.3651261 3.6893488e+19 2.2538779
2 3.141525 -0
2.182565 3.6893488e+19 2.2550325
0 3.1797481 -0
2.4221361 1.0842022e-19 2.2692144
-1.0842022e-19 3.1767137 -1.0842022e-19
2.2214422 1.0842022e-19 2.2539535
-0 3.1785471 2
2.4209566 1.0842022e-19 2.2384961
2 3.1742802 3.6893488e+19
2.2187536 -0 2.2073417
1.0842022e-19 3.1755908 3.6893488e+19
2.4180524 3.6893488e+19 2.1870792
3.6893488e+19 3.1978123 -3.6893488e+19
2.525702 -0 2.1864853
-2 3.1718163 -3.6893488e+19
2.3368275 -1.0842022e-19 2.1346614
0 3.1596212 3.6893488e+19
2.5021892 1.0842022e-19 2.1028898
1.0842022e-19 3.1724389 3.6893488e+19
2.3373246 0 2.0877383
-3.6893488e+19 3.1699963 1.0842022e-19
2.3353744 -0 2.0386112
3.6893488e+19 3.1023266 2
2.43383 2 1.9738306
1.0842022e-19 3.1709504 2
2.3361361 0 1.9920043
0 3.1025071 0
2.4340522 -0 1.9341173
0 3.183789 3.6893488e+19
2.3463879 1.0842022e-19 1.9507149
-2 3.1747668 -3.6893488e+19
2.5115137 -3.6893488e+19 1.9238793
0 3.181596 -2
2.3446367 -1.0842022e-19 1.901286
0 3.0895996 2
2.4181588 -2 1.8263543
2 3.0700617 3.6893488e+19
2.2555747 -1.0842022e-19 1.7776107
-1.0842022e-19 3.0912097 2
2.4201415 1.0842022e-19 1.7502726
-0 3.0719526 -1.0842022e-19
2.2570846 3.6893488e+19 1.6626385
-2 3.0677402 -0
2.1010461 3.6893488e+19 1.5531057
-1.0842022e-19 3.243202 0
2.4844663 -2 1.3494481
1.0842022e-19 3.070704 -3.6893488e+19
2.1043203 -3.6893488e+19 -1.4642158
-3.6893488e+19 3.2407737 -1.0842022e-19
2.4820809 3.6893488e+19 -1.6926659
-1.0842022e-19 3.0726542 -3.6893488e+19
2.1064751 -1.0842022e-19 -1.6981664
-0 3.0906622 2
2.3346283 -2 -1.7684466
1.0842022e-19 3.0741212 2
2.1080959 0 -1.7970289
0 3.0934451 0
2.3373618 -2 -1.8468215
1.0842022e-19 3.0744188 1.0842022e-19
2.1084247 -1.0842022e-19 -1.8697511
0 3.1039617 -2
2.347692 -2 -1.9041095
-0 3.0753548 0
2.1094589 -3.6893488e+19 -1.9091345
2 3.1052814 0
2.3489885 1.0842022e-19 -1.9446423
0 3.0409462 -2
2.0714433 -2 -1.9248744
3.6893488e+19 3.0626378 1.0842022e-19
2.3071003 3.6893488e+19 -1.9564655
2 3.0058873 2
2.0327096 1.0842022e-19 -1.9324565
-1.0842022e-19 3.0045745 -3.6893488e+19
2.2500653 -0 -1.9467824
-1.0842022e-19 2.8373125 3.6893488e+19
2.0193498 -3.6893488e+19 -1.8989968
1.0842022e-19 2.7880483 0
2.1046822 -1.0842022e-19 -1.8862497
0 2.7600818 0
1.9576797 -1.0842022e-19 -1.8795104
-1.0842022e-19 2.7079906 2
2.0319686 -3.6893488e+19 -1.8675783
-0 2.6730139 -1.0842022e-19
1.9188919 3.6893488e+19 -1.8594518
-2 2.6375339 1.0842022e-19
1.988591 -0 -1.852229
-2 2.6188495 1.0842022e-19
1.8972664 -1.0842022e-19 -1.8502147
2 2.5843713 -2
1.9558605 -1.0842022e-19 -1.8400351
-0 2.5701785 -2
1.877834 -1.0842022e-19 -1.8385531
0 2.5450368 -1.0842022e-19
1.9316436 -2 -1.8314995
-2 2.5348032 1.0842022e-19
1.8524203 -1.0842022e-19 -1.8310415
-3.6893488e+19 2.5143454 0
1.9127482 2 -1.8250566
3.6893488e+19 2.5042865 -0
1.8280522 0 -1.8233391
1.0842022e-19 2.4813762 0
1.8981831 -2 -1.8208627
-0 2.4659066 -3.6893488e+19
1.8110172 -2 -1.8198888
-2 2.4061165 2
1.7243431 1.0842022e-19 -1.8116724
1.0842022e-19 2.3490293 0
1.6928074 0 -1.8052328
-3.6893488e+19 2.3083715 -2
1.6703477 2 -1.8017949
-3.6893488e+19 2.2754512 3.6893488e+19
1.6521622 2 -1.7986665
-3.6893488e+19 2.2390125 -1.0842022e-19
1.7755338 -2 -1.7947705
-0 2.1994131 3.6893488e+19
1.7633438 -3.6893488e+19 -1.7941072
0 2.1638017 3.6893488e+19
1.7523814 -3.6893488e+19 -1.7928175
-2 2.1263692 3.6893488e+19
1.7317172 2 -1.7887135
2 3.1515291 -2
2.1936176 -1.0842022e-19 2.6226206
2 3.1519542 -1.0842022e-19
2.1940873 2 2.6111984
1.0842022e-19 3.1989844 -0
2.4410317 -2 2.6489065
0 3.1627183 -3.6893488e+19
2.2059796 0 2.6087735
3.6893488e+19 3.176178 -3.6893488e+19
2.2208502 -0 2.6080217
-1.0842022e-19 3.1523445 -1.0842022e-19
2.1945186 -1.0842022e-19 2.5762761
-1.0842022e-19 3.1526265 -2
2.1948302 -2 2.5648081
2 3.1182199 -1.0842022e-19
2.3616977 -2 2.5340121
-0 3.1596599 -3.6893488e+19
2.2026007 0 2.5584366
0 3.1170549 0
2.3605535 -1.0842022e-19 2.522439
1.0842022e-19 3.1762316 1.0842022e-19
2.2209096 2 2.5585971
-1.0842022e-19 3.1193497 1.0842022e-19
2.3628078 -0 2.5134265
0 3.1592669 -1.0842022e-19
2.3268065 3.6893488e+19 2.5293474
2 3.1031756 3.6893488e+19
2.2820168 0 2.4617813
-2 3.1037209 0
2.2824523 0 2.4421701
-3.6893488e+19 3.1037881 2
2.282506 3.6893488e+19 2.4219661
-3.6893488e+19 3.1046381 0
2.2831848 0 2.4026852
-0 3.1930845 2
2.5227914 -2 2.4937792
0 3.1063657 3.6893488e+19
2.284564 -1.0842022e-19 2.3842969
0 3.1927028 2
2.5225563 3.6893488e+19 2.467927
-2 3.1055179 -0
2.2838871 2 2.3631158
2 3.200084 -2
2.5271006 1.0842022e-19 2.4499202
-2 3.1066885 1.0842022e-19
2.284822 3.6893488e+19 2.3440175
-1.0842022e-19 3.1039789 -2
2.1410832 2 2.3304937
-0 3.1173277 2
2.3608215 1.0842022e-19 2.3342533
2 3.1072948 2
2.1447468 -1.0842022e-19 2.3133595
-0 3.220907 2
2.4625661 0 2.4017332
-2 3.1068761 -1.0842022e-19
2.1442842 -3.6893488e+19 2.2928169
2 3.1189506 3.6893488e+19
2.3624156 2 2.2938039
1.0842022e-19 3.1100705 3.6893488e+19
2.1478133 2 2.2751148
1.0842022e-19 3.1187942 -3.6893488e+19
2.3622618 1.0842022e-19 2.2727716
3.6893488e+19 3.1394305 -2
2.1802509 1.0842022e-19 2.2755923
-3.6893488e+19 3.1217098 1.0842022e-19
2.3651261 3.6893488e+19 2.2538779
2 3.141525 -0
2.182565 3.6893488e+19 2.2550325
-3.6893488e+19 3.1191063 -0
2.3625686 -1.0842022e-19 2.2124512
2 3.1414263 1.0842022e-19
2.182456 0 2.2159052
-3.6893488e+19 3.0834072 -1.0842022e-19
2.3275018 -0 2.1300471
-0 3.0615535 2
2.0942109 -1.0842022e-19 2.0858309
-1.0842022e-19 3.0800037 2
2.3241587 2 2.088912
3.6893488e+19 3.1978123 -3.6893488e+19
2.525702 -0 2.1864853
-3.6893488e+19 3.112395 -2
2.2893786 -2 2.0804741
0 3.1596212 3.6893488e+19
2.5021892 1.0842022e-19 2.1028898
3.6893488e+19 3.1136477 -2
2.2903788 0 2.040735
-3.6893488e+19 3.1699963 1.0842022e-19
2.3353744 -0 2.0386112
3.6893488e+19 3.1023266 2
2.43383 2 1.9738306
-3.6893488e+19 3.0732174 0
2.2580948 -2 1.9358176
0 3.1025071 0
2.4340522 -0 1.9341173
-1.0842022e-19 3.0799108 3.6893488e+19
2.2634394 1.0842022e-19 1.9026504
0 3.0888996 0
2.4172969 3.6893488e+19 1.8887293
0 3.0776997 3.6893488e+19
2.2616737 2 1.8547351
0 3.0895996 2
2.4181588 -2 1.8263543
2 3.0700617 3.6893488e+19
2.2555747 -1.0842022e-19 1.7776107
-1.0842022e-19 3.0912097 2
2.4201415 1.0842022e-19 1.7502726
-0 3.0719526 -1.0842022e-19
2.2570846 3.6893488e+19 1.6626385
1.0842022e-19 3.0360661 3.6893488e+19
2.0660517 -0 1.535351
-0 3.092211 1.0842022e-19
2.3361497 0 1.2807347
-1.0842022e-19 3.0370965 -3.6893488e+19
2.0671902 -1.0842022e-19 -1.4417676
-2 3.0856292 -0
2.3296845 0 -1.63176
0 3.0367727 -2
2.0668323 -0 -1.6761287
-0 3.0906622 2
2.3346283 -2 -1.7684466
-0 3.0389285 1.0842022e-19
2.0692143 0 -1.7783502
0 3.0934451 0
2.3373618 -2 -1.8468215
0 3.0396051 0
2.0699618 2 -1.8434867
0 3.1039617 -2
2.347692 -2 -1.9041095
1.0842022e-19 3.0403919 1.0842022e-19
2.0708311 2 -1.8920338
-3.6893488e+19 3.0595264 -2
2.304044 -1.0842022e-19 -1.9195753
0 3.0409462 -2
2.0714433 -2 -1.9248744
-1.0842022e-19 3.020087 -0
2.2653031 -2 -1.928365
2 3.0058873 2
2.0327096 1.0842022e-19 -1.9324565
-1.0842022e-19 3.0045745 -3.6893488e+19
2.2500653 -0 -1.9467824
-1.0842022e-19 2.8373125 3.6893488e+19
2.0193498 -3.6893488e+19 -1.8989968
1.0842022e-19 2.7880483 0
2.1046822 -1.0842022e-19 -1.8862497
0 2.7600818 0
1.9576797 -1.0842022e-19 -1.8795104
-1.0842022e-19 2.7079906 2
2.0319686 -3.6893488e+19 -1.8675783
-0 2.6730139 -1.0842022e-19
1.9188919 3.6893488e+19 -1.8594518
-2 2.6375339 1.0842022e-19
1.988591 -0 -1.852229
-2 2.6188495 1.0842022e-19
1.8972664 -1.0842022e-19 -1.8502147
2 2.5843713 -2
1.9558605 -1.0842022e-19 -1.8400351
-0 2.5701785 -2
1.877834 -1.0842022e-19 -1.8385531
0 2.5450368 -1.0842022e-19
1.9316436 -2 -1.8314995
-2 2.5348032 1.0842022e-19
1.8524203 -1.0842022e-19 -1.8310415
-3.6893488e+19 2.5143454 0
1.9127482 2 -1.8250566
3.6893488e+19 2.5042865 -0
1.8280522 0 -1.8233391
1.0842022e-19 2.4813762 0
1.8981831 -2 -1.8208627
-0 2.4659066 -3.6893488e+19
1.8110172 -2 -1.8198888
-2 2.4061165 2
1.7243431 1.0842022e-19 -1.8116724
1.0842022e-19 2.3490293 0
1.6928074 0 -1.8052328
-3.6893488e+19 2.3083715 -2
1.6703477 2 -1.8017949
-3.6893488e+19 2.2754512 3.6893488e+19
1.6521622 2 -1.7986665
-3.6893488e+19 2.2390125 -1.0842022e-19
1.7755338 -2 -1.7947705
-0 2.1994131 3.6893488e+19
1.7633438 -3.6893488e+19 -1.7941072
0 2.1638017 3.6893488e+19
1.7523814 -3.6893488e+19 -1.7928175
-2 2.1263692 3.6893488e+19
1.7317172 2 -1.7887135
3.6893488e+19 3.1513269 1.0842022e-19
2.1764977 -1.0842022e-19 2.6223669
-2 3.1534715 -2
2.3877456 -1.0842022e-19 2.6202555
-0 3.1521776 0
2.1774018 -0 2.611335
-0 3.1551325 -3.6893488e+19
2.3893418 1.0842022e-19 2.6098313
0 3.175956 -1.0842022e-19
2.2026713 2 2.6202152
1.0842022e-19 3.2070591 -1.0842022e-19
2.4392445 -3.6893488e+19 2.6425102
3.6893488e+19 3.1749413 1.0842022e-19
2.2015932 3.6893488e+19 2.6069195
-1.0842022e-19 3.3133616 -0
2.5511479 -2 2.7599187
-3.6893488e+19 3.1757655 -0
2.2024691 3.6893488e+19 2.5952079
-3.6893488e+19 3.1530039 -2
2.1782799 2 2.5650475
-0 3.1178493 -3.6893488e+19
2.3535118 -2 2.5336361
2 3.1185143 -3.6893488e+19
2.3541508 0 2.5234354
-2 3.1765833 3.6893488e+19
2.2033381 -1.0842022e-19 2.5587969
2 3.1187646 0
2.3543916 0 2.5129256
1.0842022e-19 3.1594338 0
2.3182771 -3.6893488e+19 2.5293891
-2 3.1578822 3.6893488e+19
2.317071 -0 2.5165865
0 3.2137372 -2
2.5305345 3.6893488e+19 2.5483947
0 3.160517 -0
2.319119 -2 2.5065176
2 3.1042795 -0
2.2754023 -1.0842022e-19 2.4224429
-2 3.2912414 -0
2.6023691 -3.6893488e+19 2.5911899
2 3.1059 2
2.2766621 2 2.4040136
0 3.1931698 -1.0842022e-19
2.5180924 -1.0842022e-19 2.4936769
2 3.1071358 2
2.2776227 3.6893488e+19 2.3850281
-1.0842022e-19 3.1061342 -3.6893488e+19
2.276844 -2 2.3636513
3.6893488e+19 3.1991599 -0
2.5217161 2 2.448817
-2 3.1072438 -2
2.2777066 -2 2.3444641
3.6893488e+19 3.1727378 -0
2.1992514 2 2.3946207
-1.0842022e-19 3.1179996 3.6893488e+19
2.3536563 -1.0842022e-19 2.334758
2 3.1757674 3.6893488e+19
2.202471 3.6893488e+19 2.3733461
3.6893488e+19 3.3425167 1.0842022e-19
2.5791667 1.0842022e-19 2.5421097
-0 3.1763918 -3.6893488e+19
2.2031345 -0 2.3497925
1.0842022e-19 3.1855762 -0
2.4185989 3.6893488e+19 2.3467491
-2 3.1765614 -2
2.2033148 1.0842022e-19 2.32586
2 3.1233916 -1.0842022e-19
2.3588381 0 2.2760842
-3.6893488e+19 3.1767411 1.0842022e-19
2.203506 1.0842022e-19 2.3019428
3.6893488e+19 3.1107912 -0
2.3467288 1.0842022e-19 2.2426841
-0 3.1403513 0
2.1648338 -1.0842022e-19 2.2542229
0 3.1806891 3.6893488e+19
2.4139023 -1.0842022e-19 2.2697179
-3.6893488e+19 3.1764784 0
2.2032268 1.0842022e-19 2.2537684
-3.6893488e+19 3.0835133 -0
2.3205142 -0 2.1300471
-0 3.1745732 -0
2.2012019 0 2.2075765
-1.0842022e-19 3.1768098 2
2.4101744 1.0842022e-19 2.1881919
0 3.1984849 -1.0842022e-19
2.5213077 1.0842022e-19 2.1869662
2 3.1790676 -1.0842022e-19
2.3335395 -3.6893488e+19 2.1411729
3.6893488e+19 3.1740079 -1.0842022e-19
2.3296063 -3.6893488e+19 2.0889051
-3.6893488e+19 3.1691413 -1.0842022e-19
2.3258233 -1.0842022e-19 2.0379493
-3.6893488e+19 3.1706548 2
2.3269999 -2 1.9917719
-1.0842022e-19 3.1859217 -0
2.3388677 1.0842022e-19 1.9516498
-2 3.1765428 0
2.5080342 2 1.9245366
-3.6893488e+19 3.0678954 -2
2.2442379 -3.6893488e+19 1.8478044
1.0842022e-19 3.0900443 2
2.4114149 -2 1.8265374
3.6893488e+19 3.0702064 -2
2.2478306 2 1.7776403
1.0842022e-19 3.0920568 0
2.4138498 -2 1.7505333
-0 3.0680234 0
2.244437 -0 1.6606122
3.6893488e+19 3.0689192 -3.6893488e+19
2.0889213 -1.0842022e-19 1.5537348
1.0842022e-19 3.2441037 -1.0842022e-19
2.4748452 -0 1.3497869
-3.6893488e+19 3.0703242 -3.6893488e+19
2.0904145 2 -1.4639243
3.6893488e+19 3.2419538 2
2.4727793 1.0842022e-19 -1.6930678
-1.0842022e-19 3.0717449 3.6893488e+19
2.0919244 -0 -1.6975728
-0 3.0901191 1.0842022e-19
2.3268626 1.0842022e-19 -1.7681724
0 3.0726199 -3.6893488e+19
2.092854 -2 -1.7962016
-2 3.0995722 0
2.3359473 -3.6893488e+19 -1.8507072
-2 3.0731046 2
2.0933695 0 -1.8687166
-2 3.103826 -1.0842022e-19
2.3400352 -3.6893488e+19 -1.9040015
-2 3.0758488 1.0842022e-19
2.0962858 -2 -1.9093479
1.0842022e-19 3.1046193 2
2.3407974 -1.0842022e-19 -1.9442177
-0 3.074681 -2
2.0950446 2 -1.9451164
3.6893488e+19 3.0579631 -3.6893488e+19
2.2959597 -2 -1.9533136
-3.6893488e+19 3.0045619 3.6893488e+19
2.0205278 3.6893488e+19 -1.9314793
-2 3.0041287 0
2.2384477 -0 -1.9463753
1.0842022e-19 2.8343561 3.6893488e+19
2.0099146 2 -1.8976529
2 2.7891505 1.0842022e-19
2.0998392 -2 -1.8867164
3.6893488e+19 2.760273 2
1.9523256 3.6893488e+19 -1.8795723
1.0842022e-19 2.7080505 -1.0842022e-19
2.0270944 1.0842022e-19 -1.8675131
2 2.6731231 -2
1.9144592 3.6893488e+19 -1.8594518
0 2.6360865 2
1.9835603 3.6893488e+19 -1.8512897
2 2.6186967 3.6893488e+19
1.8933048 1.0842022e-19 -1.8500633
2 2.5853674 2
1.9528782 3.6893488e+19 -1.8405895
2 2.5711291 3.6893488e+19
1.8746326 3.6893488e+19 -1.8391318
-2 2.5451546 3.6893488e+19
1.9285518 -2 -1.8314995
-2 2.5345049 2
1.8461626 1.0842022e-19 -1.8307726
1.0842022e-19 2.5144513 -1.0842022e-19
1.9099779 2 -1.8250566
2 2.5042284 3.6893488e+19
1.8226267 0 -1.8232425
3.6893488e+19 2.4808307 2
1.8954376 3.6893488e+19 -1.8205626
2 2.4595921 1.0842022e-19
1.803634 1.0842022e-19 -1.8171979
3.6893488e+19 3.1513269 1.0842022e-19
2.1764977 -1.0842022e-19 2.6223669
-2 3.1534715 -2
2.3877456 -1.0842022e-19 2.6202555
-0 3.1521776 0
2.1774018 -0 2.611335
-0 3.1551325 -3.6893488e+19
2.3893418 1.0842022e-19 2.6098313
0 3.1606889 3.6893488e+19
2.1864467 -3.6893488e+19 2.6069458
1.0842022e-19 3.2070591 -1.0842022e-19
2.4392445 -3.6893488e+19 2.6425102
3.6893488e+19 3.1749413 1.0842022e-19
2.2015932 3.6893488e+19 2.6069195
-1.0842022e-19 3.3133616 -0
2.5511479 -2 2.7599187
-1.0842022e-19 3.1525075 -3.6893488e+19
2.1777523 -0 2.5763505
-3.6893488e+19 3.1530039 -2
2.1782799 2 2.5650475
-0 3.1178493 -3.6893488e+19
2.3535118 -2 2.5336361
2 3.1185143 -3.6893488e+19
2.3541508 0 2.5234354
-2 3.1765833 3.6893488e+19
2.2033381 -1.0842022e-19 2.5587969
2 3.1187646 0
2.3543916 0 2.5129256
1.0842022e-19 3.1594338 0
2.3182771 -3.6893488e+19 2.5293891
-2 3.1030824 -3.6893488e+19
2.2744718 0 2.4615405
0 3.2137372 -2
2.5305345 3.6893488e+19 2.5483947
3.6893488e+19 3.1028595 -2
2.2742984 0 2.4409795
2 3.1042795 -0
2.2754023 -1.0842022e-19 2.4224429
-2 3.2912414 -0
2.6023691 -3.6893488e+19 2.5911899
2 3.1059 2
2.2766621 2 2.4040136
0 3.1931698 -1.0842022e-19
2.5180924 -1.0842022e-19 2.4936769
2 3.1071358 2
2.2776227 3.6893488e+19 2.3850281
-1.0842022e-19 3.1061342 -3.6893488e+19
2.276844 -2 2.3636513
3.6893488e+19 3.1991599 -0
2.5217161 2 2.448817
-2 3.1072438 -2
2.2777066 -2 2.3444641
-3.6893488e+19 3.1140146 2
2.1368454 -3.6893488e+19 2.3398032
-1.0842022e-19 3.1179996 3.6893488e+19
2.3536563 -1.0842022e-19 2.334758
-2 3.1095588 -3.6893488e+19
2.1321099 -2 2.3152893
2 3.1232479 0
2.3587 -2 2.3183181
2 3.1048613 -1.0842022e-19
2.1271176 -2 2.2911119
3.6893488e+19 3.1206427 1.0842022e-19
2.3561964 1.0842022e-19 2.2950575
1.0842022e-19 3.117491 0
2.1405396 0 2.2807348
2 3.1233916 -1.0842022e-19
2.3588381 0 2.2760842
-2 3.1111412 1.0842022e-19
2.1337917 2 2.2555273
3.6893488e+19 3.1107912 -0
2.3467288 1.0842022e-19 2.2426841
-2 3.1075008 -0
2.1299229 -3.6893488e+19 2.215657
3.6893488e+19 3.1310096 3.6893488e+19
2.3661592 1.0842022e-19 2.2272129
3.6893488e+19 3.1424286 2
2.1670413 -0 2.2170153
-3.6893488e+19 3.0835133 -0
2.3205142 -0 2.1300471
-0 3.1745732 -0
2.2012019 0 2.2075765
3.6893488e+19 3.0819666 -3.6893488e+19
2.3190277 -0 2.0908194
-3.6893488e+19 3.1567852 1.0842022e-19
2.4921641 1.0842022e-19 2.1463377
2 3.1790676 -1.0842022e-19
2.3335395 -3.6893488e+19 2.1411729
3.6893488e+19 3.1740079 -1.0842022e-19
2.3296063 -3.6893488e+19 2.0889051
-3.6893488e+19 3.1691413 -1.0842022e-19
2.3258233 -1.0842022e-19 2.0379493
-2 3.0674882 0
2.2436049 0 1.9324769
1.0842022e-19 3.0697982 -3.6893488e+19
2.247196 -1.0842022e-19 1.897933
-1.0842022e-19 3.0881701 0
2.4091475 -1.0842022e-19 1.8883754
-3.6893488e+19 3.0678954 -2
2.2442379 -3.6893488e+19 1.8478044
1.0842022e-19 3.0900443 2
2.4114149 -2 1.8265374
3.6893488e+19 3.0702064 -2
2.2478306 2 1.7776403
1.0842022e-19 3.0920568 0
2.4138498 -2 1.7505333
-0 3.0680234 0
2.244437 -0 1.6606122
2 3.0381124 -1.0842022e-19
2.0561824 3.6893488e+19 1.5364695
-1.0842022e-19 3.090148 -0
2.3268902 2 1.2797465
2 3.0380206 3.6893488e+19
2.0560849 -2 -1.4423506
3.6893488e+19 3.0886526 -3.6893488e+19
2.325453 -0 -1.6329045
1.0842022e-19 3.0386944 -0
2.0568008 2 -1.6772776
-0 3.0901191 1.0842022e-19
2.3268626 1.0842022e-19 -1.7681724
2 3.0398216 1.0842022e-19
2.0579989 2 -1.7787969
-2 3.0995722 0
2.3359473 -3.6893488e+19 -1.8507072
3.6893488e+19 3.0405293 -0
2.0587509 1.0842022e-19 -1.8441451
-2 3.103826 -1.0842022e-19
2.3400352 -3.6893488e+19 -1.9040015
0 3.0402565 2
2.058461 1.0842022e-19 -1.8919424
0 3.0606484 -0
2.2985404 -3.6893488e+19 -1.9201357
1.0842022e-19 3.0406239 1.0842022e-19
2.0588515 -2 -1.9246497
2 3.02039 1.0842022e-19
2.2598512 -1.0842022e-19 -1.9285083
-3.6893488e+19 3.0045619 3.6893488e+19
2.0205278 3.6893488e+19 -1.9314793
-2 3.0041287 0
2.2384477 -0 -1.9463753
1.0842022e-19 2.8343561 3.6893488e+19
2.0099146 2 -1.8976529
2 2.7891505 1.0842022e-19
2.0998392 -2 -1.8867164
3.6893488e+19 2.760273 2
1.9523256 3.6893488e+19 -1.8795723
1.0842022e-19 2.7080505 -1.0842022e-19
2.0270944 1.0842022e-19 -1.8675131
2 2.6731231 -2
1.9144592 3.6893488e+19 -1.8594518
0 2.6360865 2
1.9835603 3.6893488e+19 -1.8512897
2 2.6186967 3.6893488e+19
1.8933048 1.0842022e-19 -1.8500633
2 2.5853674 2
1.9528782 3.6893488e+19 -1.8405895
2 2.5711291 3.6893488e+19
1.8746326 3.6893488e+19 -1.8391318
-2 2.5451546 3.6893488e+19
1.9285518 -2 -1.8314995
-2 2.5345049 2
1.8461626 1.0842022e-19 -1.8307726
1.0842022e-19 2.5144513 -1.0842022e-19
1.9099779 2 -1.8250566
2 2.5042284 3.6893488e+19
1.8226267 0 -1.8232425
3.6893488e+19 2.4808307 2
1.8954376 3.6893488e+19 -1.8205626
2 2.4595921 1.0842022e-19
1.803634 1.0842022e-19 -1.8171979
3.6893488e+19 3.1522157 -3.6893488e+19
2.1605139 -2 2.6231279
2 3.1528709 -2
2.378607 1.0842022e-19 2.6195893
-2 3.1527026 -0
2.161011 3.6893488e+19 2.6117451
2 3.1567135 0
2.3822184 1.0842022e-19 2.6111231
0 3.1573758 0
2.1657805 0 2.6040061
-1.0842022e-19 3.2043176 1.0842022e-19
2.4269555 2 2.6400347
0 3.174556 -2
2.183315 -1.0842022e-19 2.606535
-3.6893488e+19 3.3134439 -1.0842022e-19
2.5445662 -3.6893488e+19 2.7599061
3.6893488e+19 3.1560609 -2
2.1644385 -3.6893488e+19 2.5791752
-3.6893488e+19 3.1547868 0
2.1631384 -3.6893488e+19 2.5663872
-1.0842022e-19 3.1190867 3.6893488e+19
2.3468578 3.6893488e+19 2.5237749
3.6893488e+19 3.1770551 3.6893488e+19
2.1858659 -3.6893488e+19 2.5590856
3.6893488e+19 3.334146 -0
2.5640213 -1.0842022e-19 2.7263374
-1.0842022e-19 3.1607327 1.0842022e-19
2.310601 -3.6893488e+19 2.5302052
3.6893488e+19 3.158906 -2
2.3092194 3.6893488e+19 2.5171885
2 3.214133 1.0842022e-19
2.5258019 -3.6893488e+19 2.548532
0 3.1029482 -1.0842022e-19
2.2669034 0 2.4409795
3.6893488e+19 3.1043684 -1.0842022e-19
2.2679775 -1.0842022e-19 2.4224429
1.0842022e-19 3.2921054 0
2.5971558 1.0842022e-19 2.5920677
1.0842022e-19 3.1061435 3.6893488e+19
2.2693198 -0 2.4041884
-3.6893488e+19 3.1936805 0
2.5136485 -3.6893488e+19 2.4940519
-3.6893488e+19 3.1073794 1.0842022e-19
2.2702546 2 2.3851943
1.0842022e-19 3.1053596 0
2.2687271 -1.0842022e-19 2.3627691
-3.6893488e+19 3.1970353 -0
2.5156419 1.0842022e-19 2.4465189
-2 3.1097429 3.6893488e+19
2.2720418 -1.0842022e-19 2.3467867
0 3.1150682 0
2.1226001 -0 2.3407285
-1.0842022e-19 3.3591857 3.6893488e+19
2.587553 -0 2.5766387
-1.0842022e-19 3.1081321 3.6893488e+19
2.115521 -2 2.3139846
-0 3.3457251 -1.0842022e-19
2.574903 1.0842022e-19 2.5447543
-1.0842022e-19 3.1077449 0
2.1151259 3.6893488e+19 2.2934277
-0 3.1842291 -1.0842022e-19
2.4080768 -2 2.3455691
-0 3.1171811 3.6893488e+19
2.1247566 3.6893488e+19 2.2804501
2 3.1271548 -3.6893488e+19
2.3544397 -2 2.2787797
1.0842022e-19 3.1921606 3.6893488e+19
2.201283 3.6893488e+19 2.3127995
2 3.1754456 1.0842022e-19
2.3998222 3.6893488e+19 2.2903965
-1.0842022e-19 3.1422207 2
2.1503129 -1.0842022e-19 2.2553968
0 3.1793997 1.0842022e-19
2.4035382 1.0842022e-19 2.268827
-0 3.110337 0
2.1177714 -3.6893488e+19 2.178751
3.6893488e+19 3.1767569 0
2.4010546 2 2.1880012
-1.0842022e-19 3.1997716 2
2.5172679 -1.0842022e-19 2.1880479
-2 3.1803555 3.6893488e+19
2.3254399 1.0842022e-19 2.1422489
-2 3.1730578 -0
2.3199213 0 2.0880611
0 3.2302115 -1.0842022e-19
2.535356 3.6893488e+19 2.109087
0 3.1711428 1.0842022e-19
2.3184731 -2 2.0392516
-3.6893488e+19 3.1707604 -2
2.3181839 -2 1.9917719
-0 3.1849427 -2
2.3289087 -1.0842022e-19 1.9511464
-1.0842022e-19 3.1772356 -3.6893488e+19
2.5038762 -1.0842022e-19 1.9247514
-1.0842022e-19 3.0710857 3.6893488e+19
2.2356176 -0 1.8499839
2 3.0889416 2
2.4028187 0 1.8258051
-0 3.0697579 -0
2.2336094 1.0842022e-19 1.7773883
2 3.0927474 -2
2.4073417 0 1.7507375
-3.6893488e+19 3.0680099 0
2.2309659 1.0842022e-19 1.6605651
-1.0842022e-19 3.0687864 -2
2.0753634 0 1.55363
0 3.2467093 0
2.466794 -3.6893488e+19 1.350902
-3.6893488e+19 3.0691314 -2
2.0757155 -3.6893488e+19 -1.4630913
-2 3.2453346 -3.6893488e+19
2.465502 -3.6893488e+19 -1.694334
1.0842022e-19 3.0701783 -1.0842022e-19
2.0767839 -2 -1.6965772
3.6893488e+19 3.0909698 -3.6893488e+19
2.3204341 3.6893488e+19 -1.7684858
3.6893488e+19 3.0715523 -2
2.0781863 3.6893488e+19 -1.795606
3.6893488e+19 3.1016049 1.0842022e-19
2.3304288 -2 -1.851949
0 3.0736899 3.6893488e+19
2.080368 1.0842022e-19 -1.8691163
3.6893488e+19 3.1034398 -2
2.3321531 -3.6893488e+19 -1.9037855
1.0842022e-19 3.0739095 -0
2.0805922 1.0842022e-19 -1.9083725
-1.0842022e-19 3.0638468 -1.0842022e-19
2.2949448 1.0842022e-19 -1.9218341
3.6893488e+19 3.0740197 3.6893488e+19
2.0807047 -0 -1.9446857
-1.0842022e-19 3.0590823 1.0842022e-19
2.2904673 3.6893488e+19 -1.953989
1.0842022e-19 3.004107 2
2.0093496 -2 -1.931124
3.6893488e+19 3.0053549 0
2.2299514 3.6893488e+19 -1.9472613
2 2.8320169 -0
2.001075 -1.0842022e-19 -1.8965831
-0 2.7880297 -1.0842022e-19
2.0923119 0 -1.8861331
1.0842022e-19 2.7576058 -3.6893488e+19
1.9448044 -1.0842022e-19 -1.8782122
1.0842022e-19 2.7095876 0
2.0231009 3.6893488e+19 -1.8682313
-3.6893488e+19 2.6732292 3.6893488e+19
1.9100255 3.6893488e+19 -1.8594518
3.6893488e+19 2.6353748 1.0842022e-19
1.9790014 -3.6893488e+19 -1.8507839
-0 2.6155629 1.0842022e-19
1.8882215 -0 -1.8480943
-0 2.5862386 0
1.9498032 -2 -1.8410647
-1.0842022e-19 2.5713336 2
1.8679963 -3.6893488e+19 -1.8392144
-1.0842022e-19 2.5457633 -3.6893488e+19
1.9257514 -0 -1.8318441
3.6893488e+19 2.5345764 1.0842022e-19
1.8402001 1.0842022e-19 -1.8307726
1.0842022e-19 2.5146782 -3.6893488e+19
1.9072797 1.0842022e-19 -1.8251497
3.6893488e+19 2.5039206 -1.0842022e-19
1.8170177 0 -1.8229529
-1.0842022e-19 2.4802814 1.0842022e-19
1.8926989 0 -1.8202626
-1.0842022e-19 2.4592123 -1.0842022e-19
1.7986308 -2 -1.8169909
-1.0842022e-19 2.447999 0
1.728621 3.6893488e+19 -1.8181788
-0 2.4057622 -3.6893488e+19
1.7070668 3.6893488e+19 -1.8114446
-0 2.3496456 -3.6893488e+19
1.6784296 1.0842022e-19 -1.8054882
3.6893488e+19 2.3072441 -1.0842022e-19
1.6567914 3.6893488e+19 -1.8010871
1.0842022e-19 2.2725897 -0
1.6391068 -1.0842022e-19 -1.7968024
-0 2.2423248 0
1.7712772 3.6893488e+19 -1.7957851
0 2.1992831 3.6893488e+19
1.7584888 2 -1.7939245
-1.0842022e-19 2.1655843 -2
1.7469528 1.0842022e-19 -1.7934071
-2 2.125217 1.0842022e-19
1.7229654 3.6893488e+19 -1.788083
3.6893488e+19 3.1522157 -3.6893488e+19
2.1605139 -2 2.6231279
2 3.1528709 -2
2.378607 1.0842022e-19 2.6195893
-2 3.1527026 -0
2.161011 3.6893488e+19 2.6117451
2 3.1567135 0
2.3822184 1.0842022e-19 2.6111231
0 3.1573758 0
2.1657805 0 2.6040061
-1.0842022e-19 3.2043176 1.0842022e-19
2.4269555 2 2.6400347
0 3.174556 -2
2.183315 -1.0842022e-19 2.606535
-3.6893488e+19 3.3134439 -1.0842022e-19
2.5445662 -3.6893488e+19 2.7599061
3.6893488e+19 3.1560609 -2
2.1644385 -3.6893488e+19 2.5791752
-3.6893488e+19 3.1547868 0
2.1631384 -3.6893488e+19 2.5663872
-1.0842022e-19 3.1190867 3.6893488e+19
2.3468578 3.6893488e+19 2.5237749
3.6893488e+19 3.1770551 3.6893488e+19
2.1858659 -3.6893488e+19 2.5590856
0 3.1174736 2
2.3453417 1.0842022e-19 2.5119236
-1.0842022e-19 3.1607327 1.0842022e-19
2.310601 -3.6893488e+19 2.5302052
2 3.1058121 3.6893488e+19
2.2690692 -0 2.4649916
2 3.214133 1.0842022e-19
2.5258019 -3.6893488e+19 2.548532
0 3.1029482 -1.0842022e-19
2.2669034 0 2.4409795
3.6893488e+19 3.1043684 -1.0842022e-19
2.2679775 -1.0842022e-19 2.4224429
1.0842022e-19 3.2921054 0
2.5971558 1.0842022e-19 2.5920677
1.0842022e-19 3.1061435 3.6893488e+19
2.2693198 -0 2.4041884
-3.6893488e+19 3.1936805 0
2.5136485 -3.6893488e+19 2.4940519
-3.6893488e+19 3.1073794 1.0842022e-19
2.2702546 2 2.3851943
1.0842022e-19 3.1053596 0
2.2687271 -1.0842022e-19 2.3627691
-3.6893488e+19 3.1970353 -0
2.5156419 1.0842022e-19 2.4465189
-2 3.1097429 3.6893488e+19
2.2720418 -1.0842022e-19 2.3467867
0 3.1150682 0
2.1226001 -0 2.3407285
-3.6893488e+19 3.1170654 1.0842022e-19
2.3449583 0 2.3338046
-1.0842022e-19 3.1081321 3.6893488e+19
2.115521 -2 2.3139846
-1.0842022e-19 3.1018207 -3.6893488e+19
2.3306315 -2 2.2999511
-1.0842022e-19 3.1077449 0
2.1151259 3.6893488e+19 2.2934277
-1.0842022e-19 3.1056855 -1.0842022e-19
2.3342636 3.6893488e+19 2.2830625
-0 3.1171811 3.6893488e+19
2.1247566 3.6893488e+19 2.2804501
2 3.1271548 -3.6893488e+19
2.3544397 -2 2.2787797
2 3.1048965 0
2.1122186 0 2.251066
2 3.1098211 -1.0842022e-19
2.33815 2 2.2412064
0 3.1070957 1.0842022e-19
2.1144631 1.0842022e-19 2.21505
0 3.1793997 1.0842022e-19
2.4035382 1.0842022e-19 2.268827
-0 3.110337 0
2.1177714 -3.6893488e+19 2.178751
0 3.0820081 2
2.3120122 -3.6893488e+19 2.0907557
-1.0842022e-19 3.1997716 2
2.5172679 -1.0842022e-19 2.1880479
-2 3.0764241 1.0842022e-19
2.2436917 -1.0842022e-19 2.0475202
-0 3.0758617 0
2.242841 1.0842022e-19 2.0103927
0 3.2302115 -1.0842022e-19
2.535356 3.6893488e+19 2.109087
0 3.1711428 1.0842022e-19
2.3184731 -2 2.0392516
-3.6893488e+19 3.1707604 -2
2.3181839 -2 1.9917719
0 3.0679505 1.0842022e-19
2.2308757 -2 1.8970413
-3.6893488e+19 3.0873449 -3.6893488e+19
2.4009211 -2 1.8879836
-1.0842022e-19 3.0710857 3.6893488e+19
2.2356176 -0 1.8499839
2 3.0889416 2
2.4028187 0 1.8258051
-0 3.0697579 -0
2.2336094 1.0842022e-19 1.7773883
2 3.0927474 -2
2.4073417 0 1.7507375
-3.6893488e+19 3.0680099 0
2.2309659 1.0842022e-19 1.6605651
-2 3.0352299 0
2.0411148 -3.6893488e+19 1.5348268
-1.0842022e-19 3.0879881 2
2.3176322 -0 1.2787161
-0 3.0369158 -1.0842022e-19
2.0428352 -0 -1.4415802
-3.6893488e+19 3.0922029 -2
2.321593 2 -1.6342561
-1.0842022e-19 3.043889 2
2.0499525 3.6893488e+19 -1.6804367
3.6893488e+19 3.0909698 -3.6893488e+19
2.3204341 3.6893488e+19 -1.7684858
0 3.0418668 -1.0842022e-19
2.0478883 -0 -1.7798557
3.6893488e+19 3.1016049 1.0842022e-19
2.3304288 -2 -1.851949
-1.0842022e-19 3.0373986 -0
2.043328 0 -1.8417467
3.6893488e+19 3.1034398 -2
2.3321531 -3.6893488e+19 -1.9037855
-3.6893488e+19 3.0396512 -2
2.0456271 2 -1.8916223
-1.0842022e-19 3.0638468 -1.0842022e-19
2.2949448 1.0842022e-19 -1.9218341
3.6893488e+19 3.0386789 0
2.0446348 -2 -1.9234513
-2 3.0156674 -0
2.2493343 -0 -1.925336
1.0842022e-19 3.004107 2
2.0093496 -2 -1.931124
3.6893488e+19 3.0053549 0
2.2299514 3.6893488e+19 -1.9472613
2 2.8320169 -0
2.001075 -1.0842022e-19 -1.8965831
-0 2.7880297 -1.0842022e-19
2.0923119 0 -1.8861331
1.0842022e-19 2.7576058 -3.6893488e+19
1.9448044 -1.0842022e-19 -1.8782122
1.0842022e-19 2.7095876 0
2.0231009 3.6893488e+19 -1.8682313
-3.6893488e+19 2.6732292 3.6893488e+19
1.9100255 3.6893488e+19 -1.8594518
3.6893488e+19 2.6353748 1.0842022e-19
1.9790014 -3.6893488e+19 -1.8507839
-0 2.6155629 1.0842022e-19
1.8882215 -0 -1.8480943
-0 2.5862386 0
1.9498032 -2 -1.8410647
-1.0842022e-19 2.5713336 2
1.8679963 -3.6893488e+19 -1.8392144
-1.0842022e-19 2.5457633 -3.6893488e+19
1.9257514 -0 -1.8318441
3.6893488e+19 2.5345764 1.0842022e-19
1.8402001 1.0842022e-19 -1.8307726
1.0842022e-19 2.5146782 -3.6893488e+19
1.9072797 1.0842022e-19 -1.8251497
3.6893488e+19 2.5039206 -1.0842022e-19
1.8170177 0 -1.8229529
-1.0842022e-19 2.4802814 1.0842022e-19
1.8926989 0 -1.8202626
-1.0842022e-19 2.4592123 -1.0842022e-19
1.7986308 -2 -1.8169909
-1.0842022e-19 2.447999 0
1.728621 3.6893488e+19 -1.8181788
-0 2.4057622 -3.6893488e+19
1.7070668 3.6893488e+19 -1.8114446
-0 2.3496456 -3.6893488e+19
1.6784296 1.0842022e-19 -1.8054882
3.6893488e+19 2.3072441 -1.0842022e-19
1.6567914 3.6893488e+19 -1.8010871
1.0842022e-19 2.2725897 -0
1.6391068 -1.0842022e-19 -1.7968024
-0 2.2423248 0
1.7712772 3.6893488e+19 -1.7957851
0 2.1992831 3.6893488e+19
1.7584888 2 -1.7939245
-1.0842022e-19 2.1655843 -2
1.7469528 1.0842022e-19 -1.7934071
-2 2.125217 1.0842022e-19
1.7229654 3.6893488e+19 -1.788083
3.6893488e+19 3.1530716 -2
2.1444201 -0 2.6238608
-2 3.1529934 2
2.3701594 1.0842022e-19 2.6195893
2 3.1546557 0
2.1459703 2 2.61344
-2 3.1566553 -3.6893488e+19
2.3735228 0 2.6109617
-0 3.1575034 -2
2.1487567 2 2.604059
-2 3.2039397 2
2.4169548 1.0842022e-19 2.6395917
2 3.1757245 2
2.1665869 1.0842022e-19 2.6074579
-3.6893488e+19 3.3135545 -1.0842022e-19
2.5380075 -2 2.7599187
-1.0842022e-19 3.1560357 0
2.1473207 1.0842022e-19 2.5791011
-3.6893488e+19 3.1541796 3.6893488e+19
2.1455045 1.0842022e-19 2.565861
-2 3.1736033 -2
2.1645112 3.6893488e+19 2.5687716
1.0842022e-19 3.1778924 0
2.1687083 0 2.5596411
0 3.3349204 -0
2.5576324 -3.6893488e+19 2.7272959
2 3.1635637 -0
2.3039956 -3.6893488e+19 2.5320675
3.6893488e+19 3.1590059 3.6893488e+19
2.3006454 3.6893488e+19 2.5171885
-0 3.2142816 2
2.5209177 -0 2.5485125
3.6893488e+19 3.1045411 0
2.2606103 -3.6893488e+19 2.4428613
1.0842022e-19 3.1043627 0
2.2604792 0 2.422333
3.6893488e+19 3.2897851 1.0842022e-19
2.588191 -2 2.5892196
-1.0842022e-19 3.106292 -0
2.2618973 -2 2.4042583
-2 3.1945257 -2
2.5093896 2 2.4948022
-2 3.1070042 2
2.2624209 3.6893488e+19 2.3846958
-0 3.1034088 2
2.259778 -2 2.3606896
0 3.1965942 0
2.5105968 -2 2.4459059
2 3.1089349 3.6893488e+19
2.26384 -1.0842022e-19 2.3459232
-0 3.1146941 -2
2.1068664 -2 2.3403237
-1.0842022e-19 3.3574903 1.0842022e-19
2.5783637 -3.6893488e+19 2.5749979
-3.6893488e+19 3.2295592 2
2.4404869 -3.6893488e+19 2.4087324
0 3.108145 -3.6893488e+19
2.1004577 -0 2.2937076
-3.6893488e+19 3.1032603 -3.6893488e+19
2.3244781 -0 2.2810469
-2 3.1150365 1.0842022e-19
2.1072016 -3.6893488e+19 2.2787664
-2 3.123034 -0
2.3426409 -0 2.27565
-2 3.1748016 -1.0842022e-19
2.3901906 0 2.2898688
3.6893488e+19 3.070935 1.0842022e-19
2.0640466 3.6893488e+19 2.1678891
-2 3.1778898 2
2.3930273 -1.0842022e-19 2.2678001
-1.0842022e-19 3.0832851 -2
2.3061304 -0 2.1295533
3.6893488e+19 3.1768558 2
2.3920774 -2 2.1879692
3.6893488e+19 3.2432206 2
2.5378041 -3.6893488e+19 2.2301788
-2 3.0727756 -1.0842022e-19
2.2245214 2 2.0441229
2 3.2416863 2
2.5369089 -3.6893488e+19 2.1730902
-2 3.1719179 -0
2.3101366 1.0842022e-19 2.0870678
-1.0842022e-19 3.2303658 -3.6893488e+19
2.530303 -0 2.1090639
2 3.1718364 -3.6893488e+19
2.3100765 0 2.0396574
3.6893488e+19 3.1943431 0
2.3266206 -1.0842022e-19 2.0052602
-2 3.1937897 1.0842022e-19
2.3262138 -2 1.9551877
-2 3.1778023 0
2.4992628 0 1.9249158
-3.6893488e+19 3.1677654 0
2.3070843 0 1.8963279
1.0842022e-19 3.0911438 -1.0842022e-19
2.3981285 -2 1.8270317
3.6893488e+19 3.167881 2
2.3071692 -0 1.8241025
-0 3.1764584 0
2.4976943 -2 1.7813866
0 3.0684612 0
2.2181785 3.6893488e+19 1.6607536
-3.6893488e+19 3.0359004 -1.0842022e-19
2.0297639 -1.0842022e-19 1.5351763
-2 3.0891466 -3.6893488e+19
2.3115144 -0 1.279196
1.0842022e-19 3.0359335 -3.6893488e+19
2.0297961 -3.6893488e+19 -1.4408929
-2 3.0901339 -0
2.3124213 2 -1.6334038
1.0842022e-19 3.0675795 0
2.0607631 -1.0842022e-19 -1.6949497
-2 3.0901423 -1.0842022e-19
2.312429 -3.6893488e+19 -1.7680939
0 3.073102 -1.0842022e-19
2.0661669 1.0842022e-19 -1.7964002
1.0842022e-19 3.0995393 -2
2.3210602 -1.0842022e-19 -1.850547
3.6893488e+19 3.073431 2
2.066489 -1.0842022e-19 -1.8688811
3.6893488e+19 3.1012509 1.0842022e-19
2.3226326 1.0842022e-19 -1.9027866
