# .PCD v0.7 - Point Cloud Data file format
VERSION 0.7
FIELDS x y z
SIZE 4 4 4
TYPE F F F
COUNT 1 1 1
WIDTH 1687
HEIGHT 1
VIEWPOINT 0 0 0 1 0 0 0
POINTS 1687
DATA ascii
3.6893488e+19 3.0512762 -1.0842022e-19
-2.2953727 2 2.0016689
1.0842022e-19 3.0744779 -0
-2.1072807 3.6893488e+19 2.0014915
0 3.0719628 -3.6893488e+19
-2.1045113 3.6893488e+19 1.9634703
1.0842022e-19 3.048892 2
-2.2930353 -2 1.932367
3.6893488e+19 3.2417023 -1.0842022e-19
-2.2707052 -0 2.0209658
3.6893488e+19 3.2396641 -1.0842022e-19
-2.4800692 -1.0842022e-19 1.9936811
2 3.2350767 -3.6893488e+19
-2.2670574 -0 1.9630252
-0 3.1315358 -0
-2.3740597 0 1.8969607
-1.0842022e-19 3.231791 0
-2.2652488 0 1.9076918
1.0842022e-19 3.1300704 -0
-2.372623 -2 1.8323464
0 3.2284813 0
-2.2634265 2 1.8311858
-2 3.0514793 2
-2.295572 2 1.6933932
-2 3.1406245 -1.0842022e-19
-2.4802458 -2 1.6634783
3.6893488e+19 3.1211936 0
-2.2957094 2 1.5171267
1.0842022e-19 3.1396444 -2
-2.4790406 -0 -1.2053115
-3.6893488e+19 3.0600886 1.0842022e-19
-2.244061 -0 -1.5343044
2 3.1638176 -0
-2.50438 -0 -1.7004056
3.6893488e+19 3.0597928 0
-2.2435894 -2 -1.7184956
-0 3.0338254 3.6893488e+19
-2.3489437 -3.6893488e+19 -1.757798
-0 3.0590775 -0
-2.2424498 3.6893488e+19 -1.803292
-2 3.0362294 0
-2.3518994 0 -1.8235378
-1.0842022e-19 3.0619845 -1.0842022e-19
-2.2470815 2 -1.8749484
1.0842022e-19 3.0417991 0
-2.3587468 2 -1.8841529
-2 3.0656524 -0
-2.2514627 -0 -1.9118499
-1.0842022e-19 2.9993837 -3.6893488e+19
-2.3069787 0 -1.8930029
-2 3.0116012 3.6893488e+19
-2.1668065 1.0842022e-19 -1.9134977
-0 2.8916714 -3.6893488e+19
-2.2315328 2 -1.8842893
-1.0842022e-19 2.8592811 -3.6893488e+19
-2.0362191 0 -1.8824432
-1.0842022e-19 2.819355 -2
-1.92582 -2 -1.8763716
0 2.7862685 -2
-2.030659 -1.0842022e-19 -1.868839
0 2.7676291 2
-1.8973424 0 -1.8668085
2 2.7362361 3.6893488e+19
-1.9883542 1.0842022e-19 -1.8594934
1.0842022e-19 2.6970448 3.6893488e+19
-1.8711193 -3.6893488e+19 -1.8520392
-2 2.655678 -0
-1.9488645 1.0842022e-19 -1.843526
3.6893488e+19 2.627547 0
-1.8328575 -0 -1.8379411
0 2.5985613 0
-1.9208657 2 -1.832442
1.0842022e-19 2.5859497 -1.0842022e-19
-1.8099561 0 -1.8333638
-1.0842022e-19 2.5636225 1.0842022e-19
-1.9037386 -3.6893488e+19 -1.8293736
-3.6893488e+19 2.5426407 -1.0842022e-19
-1.7861125 -0 -1.8229668
-3.6893488e+19 2.5278425 0
-1.8861992 -1.0842022e-19 -1.821781
2 2.5153887 -0
-1.771109 3.6893488e+19 -1.8194827
3.6893488e+19 2.5013566 -2
-1.8714314 -3.6893488e+19 -1.8172617
1.0842022e-19 2.4857485 2
-1.7587137 -3.6893488e+19 -1.816684
0 2.4559581 -0
-1.8485118 -2 -1.8123149
1.0842022e-19 3.1099946 -2
-2.4425883 1.0842022e-19 2.5904119
-3.6893488e+19 3.0987327 2
-2.4287429 -1.0842022e-19 2.5694048
2 3.0987315 3.6893488e+19
-2.4287412 -0 2.5590765
-0 3.1381376 1.0842022e-19
-2.3092077 0 2.5633025
3.6893488e+19 3.1305046 3.6893488e+19
-2.3031268 2 2.5350165
-1.0842022e-19 3.1378548 2
-2.4768407 3.6893488e+19 2.5368295
-1.0842022e-19 3.0736489 -0
-2.1063681 -1.0842022e-19 2.4555848
3.6893488e+19 3.1236486 -1.0842022e-19
-2.366327 -1.0842022e-19 2.5089192
-3.6893488e+19 3.0764351 1.0842022e-19
-2.109436 2 2.4407175
-1.0842022e-19 3.1267195 -0
-2.3693378 1.0842022e-19 2.5001631
-3.6893488e+19 3.0779798 2
-2.1111369 -0 2.4239726
-0 3.1267447 2
-2.3693626 0 2.4786439
-2 3.0772004 -0
-2.1102786 -0 2.404218
0 3.077359 -3.6893488e+19
-2.1104529 0 2.3857014
1.0842022e-19 3.1282117 2
-2.3708007 -3.6893488e+19 2.4370394
2 3.0741355 3.6893488e+19
-2.1069038 3.6893488e+19 2.3634098
3.6893488e+19 3.1254148 3.6893488e+19
-2.3680587 -3.6893488e+19 2.4123042
-2 3.077534 -3.6893488e+19
-2.1106458 -0 2.3485725
0 3.1292078 2
-2.3717773 0 2.3947864
-2 3.0744264 3.6893488e+19
-2.1072242 -3.6893488e+19 2.3268251
-3.6893488e+19 3.1289856 -0
-2.3715596 -0 2.3729274
0 3.1217825 1.0842022e-19
-2.4570808 2 2.3567462
-0 3.0528703 1.0842022e-19
-2.2325599 -1.0842022e-19 2.2800641
-1.0842022e-19 3.1188881 -1.0842022e-19
-2.4535224 -3.6893488e+19 2.3328774
1.0842022e-19 3.050818 -1.0842022e-19
-2.2292898 -1.0842022e-19 2.2610991
-2 3.0438089 -3.6893488e+19
-2.3612177 -0 2.2467098
1.0842022e-19 3.0491807 3.6893488e+19
-2.2266812 2 2.2354522
2 3.0448151 3.6893488e+19
-2.3624547 1.0842022e-19 2.2148061
-1.0842022e-19 3.0517058 -2
-2.2307045 1.0842022e-19 2.2054141
-3.6893488e+19 3.0632191 3.6893488e+19
-2.3850813 1.0842022e-19 2.2081611
-2 3.0540025 0
-2.234364 0 2.1745238
3.6893488e+19 3.109426 -3.6893488e+19
-2.4418893 3.6893488e+19 2.2348878
2 3.0552952 1.0842022e-19
-2.2364235 1.0842022e-19 2.1418741
-2 3.2173288 2
-2.3722949 -0 2.2445264
-3.6893488e+19 3.0756278 -3.6893488e+19
-2.108547 1.0842022e-19 2.0754182
-0 3.0513148 -1.0842022e-19
-2.2954106 1.0842022e-19 2.0356677
3.6893488e+19 3.0765085 -2
-2.1095166 -3.6893488e+19 2.0396712
3.6893488e+19 3.0512762 -1.0842022e-19
-2.2953727 2 2.0016689
1.0842022e-19 3.0744779 -0
-2.1072807 3.6893488e+19 2.0014915
0 3.0719628 -3.6893488e+19
-2.1045113 3.6893488e+19 1.9634703
1.0842022e-19 3.048892 2
-2.2930353 -2 1.932367
-3.6893488e+19 3.0802109 2
-2.1135936 1.0842022e-19 1.9319718
-0 3.0508237 -3.6893488e+19
-2.294929 1.0842022e-19 1.8997048
2 3.0819027 -3.6893488e+19
-2.1154561 -0 1.8957577
-1.0842022e-19 3.0480282 -3.6893488e+19
-2.2921884 0 1.8545903
-1.0842022e-19 3.0816462 -0
-2.1151738 1.0842022e-19 1.8420979
-1.0842022e-19 3.0492802 -3.6893488e+19
-2.2934158 -3.6893488e+19 1.7882715
-1.0842022e-19 3.0812178 -3.6893488e+19
-2.114702 2 1.7677275
-2 3.0514793 2
-2.295572 2 1.6933932
3.6893488e+19 3.0343742 2
-2.3496184 -1.0842022e-19 1.613024
3.6893488e+19 3.0589082 -3.6893488e+19
-2.2421799 -1.0842022e-19 1.4865563
1.0842022e-19 3.0392604 0
-2.3556256 2 -1.1524172
-3.6893488e+19 3.0600886 1.0842022e-19
-2.244061 -0 -1.5343044
-1.0842022e-19 3.0358238 -0
-2.3514006 -3.6893488e+19 -1.6384201
3.6893488e+19 3.0597928 0
-2.2435894 -2 -1.7184956
-0 3.0338254 3.6893488e+19
-2.3489437 -3.6893488e+19 -1.757798
-0 3.0590775 -0
-2.2424498 3.6893488e+19 -1.803292
-2 3.0362294 0
-2.3518994 0 -1.8235378
-1.0842022e-19 3.0619845 -1.0842022e-19
-2.2470815 2 -1.8749484
1.0842022e-19 3.0109241 0
-2.3207881 0 -1.8649167
-3.6893488e+19 3.016017 -2
-2.173842 0 -1.8863995
-1.0842022e-19 2.9993837 -3.6893488e+19
-2.3069787 0 -1.8930029
-2 3.0116012 3.6893488e+19
-2.1668065 1.0842022e-19 -1.9134977
-0 2.8916714 -3.6893488e+19
-2.2315328 2 -1.8842893
-1.0842022e-19 2.8592811 -3.6893488e+19
-2.0362191 0 -1.8824432
-1.0842022e-19 2.819355 -2
-1.92582 -2 -1.8763716
0 2.7862685 -2
-2.030659 -1.0842022e-19 -1.868839
0 2.7676291 2
-1.8973424 0 -1.8668085
2 2.7362361 3.6893488e+19
-1.9883542 1.0842022e-19 -1.8594934
1.0842022e-19 2.6970448 3.6893488e+19
-1.8711193 -3.6893488e+19 -1.8520392
-2 2.655678 -0
-1.9488645 1.0842022e-19 -1.843526
3.6893488e+19 2.627547 0
-1.8328575 -0 -1.8379411
0 2.5985613 0
-1.9208657 2 -1.832442
1.0842022e-19 2.5859497 -1.0842022e-19
-1.8099561 0 -1.8333638
-1.0842022e-19 2.5636225 1.0842022e-19
-1.9037386 -3.6893488e+19 -1.8293736
-3.6893488e+19 2.5426407 -1.0842022e-19
-1.7861125 -0 -1.8229668
-3.6893488e+19 2.5278425 0
-1.8861992 -1.0842022e-19 -1.821781
2 2.5153887 -0
-1.771109 3.6893488e+19 -1.8194827
3.6893488e+19 2.5013566 -2
-1.8714314 -3.6893488e+19 -1.8172617
1.0842022e-19 2.4857485 2
-1.7587137 -3.6893488e+19 -1.816684
0 2.4559581 -0
-1.8485118 -2 -1.8123149
-3.6893488e+19 3.1081142 -2
-2.447453 2 2.5887623
1.0842022e-19 3.1478982 3.6893488e+19
-2.3248491 2 2.6179438
-3.6893488e+19 3.0985103 -1.0842022e-19
-2.4354532 -0 2.5693221
-3.6893488e+19 3.1493759 0
-2.3260558 1.0842022e-19 2.6075439
-0 3.0983882 -0
-2.4353006 3.6893488e+19 2.5588894
2 3.1404433 -2
-2.3187628 -1.0842022e-19 2.5880768
-2 3.0971293 -1.0842022e-19
-2.4337277 -1.0842022e-19 2.547523
-2 3.1426635 -1.0842022e-19
-2.3205755 -1.0842022e-19 2.5784988
-0 3.1377676 3.6893488e+19
-2.3165784 1.0842022e-19 2.563081
3.6893488e+19 3.0636172 -1.0842022e-19
-2.3918552 -0 2.5003576
1.0842022e-19 3.1404986 1.0842022e-19
-2.3188081 -1.0842022e-19 2.5539138
-1.0842022e-19 3.0636463 3.6893488e+19
-2.3918917 -1.0842022e-19 2.482393
0 3.1313889 -1.0842022e-19
-2.3113706 -2 2.5357492
0 3.1377687 -2
-2.4845052 -3.6893488e+19 2.5368743
-0 3.1291208 -0
-2.3095191 1.0842022e-19 2.5230677
-2 3.1382201 -0
-2.1927361 0 2.5232861
2 3.1241162 2
-2.3742189 -2 2.5093217
3.6893488e+19 3.1393621 -2
-2.1940384 3.6893488e+19 2.5128822
-3.6893488e+19 3.1270337 2
-2.3771374 -0 2.5004475
-1.0842022e-19 3.1342087 -2
-2.1881614 -1.0842022e-19 2.4967434
0 3.0767441 0
-2.1226273 0 2.4037232
-2 3.1179187 2
-2.169584 3.6893488e+19 2.4335642
0 3.1240149 -3.6893488e+19
-2.3741174 -2 2.4323206
-1.0842022e-19 3.1205711 3.6893488e+19
-2.1726089 2 2.4155431
3.6893488e+19 3.1239493 1.0842022e-19
-2.374052 -1.0842022e-19 2.4108191
-3.6893488e+19 3.1169989 -1.0842022e-19
-2.168535 -1.0842022e-19 2.3906393
-2 3.1159997 0
-2.1673956 0 2.3687692
2 3.0459397 -0
-2.3697677 3.6893488e+19 2.2840784
-2 3.1346714 -1.0842022e-19
-2.3140507 -0 2.3557935
0 3.0392115 1.0842022e-19
-2.361361 -0 2.2610776
2 3.1333015 1.0842022e-19
-2.3129323 -2 2.3327739
2 3.0436363 3.6893488e+19
-2.3668897 -3.6893488e+19 2.2466059
-3.6893488e+19 3.1311679 -1.0842022e-19
-2.3111904 -1.0842022e-19 2.3093188
-3.6893488e+19 3.1170731 -2
-2.4586468 -0 2.2894738
-3.6893488e+19 3.1203148 -1.0842022e-19
-2.3023298 -2 2.2795572
0 3.1143923 -2
-2.455297 -3.6893488e+19 2.266608
-3.6893488e+19 3.1197739 1.0842022e-19
-2.3018882 -2 2.2582486
-0 3.1078436 1.0842022e-19
-2.4471149 2 2.2329361
-3.6893488e+19 3.2265322 0
-2.3890471 -0 2.3059115
3.6893488e+19 3.0399439 0
-2.3622763 0 2.108357
1.0842022e-19 3.0424013 0
-2.3653467 -0 2.078213
0 3.2236972 3.6893488e+19
-2.3867323 -3.6893488e+19 2.2506943
0 3.0754478 -1.0842022e-19
-2.1211488 -0 2.0752938
-0 3.0512855 -0
-2.3013682 3.6893488e+19 2.0357263
-0 3.153265 -0
-2.2098937 2 2.1078293
1.0842022e-19 3.0508134 -1.0842022e-19
-2.3008959 -3.6893488e+19 2.0013583
-0 3.1571157 -0
-2.2142851 3.6893488e+19 2.0655954
-3.6893488e+19 3.0709732 1.0842022e-19
-2.1160462 -3.6893488e+19 1.9628507
1.0842022e-19 3.0545959 0
-2.3046796 2 1.9359035
2 3.2402163 -2
-2.2795274 -2 2.0201931
3.6893488e+19 3.2401047 -3.6893488e+19
-2.4902391 -1.0842022e-19 1.9939742
1.0842022e-19 3.2341523 -3.6893488e+19
-2.2760696 -2 1.9626557
1.0842022e-19 3.0492711 -3.6893488e+19
-2.2993531 -3.6893488e+19 1.8556174
-3.6893488e+19 3.2325499 -3.6893488e+19
-2.275156 -1.0842022e-19 1.9079672
3.6893488e+19 3.0498097 -1.0842022e-19
-2.2998919 3.6893488e+19 1.78861
0 3.2286487 0
-2.2729316 -1.0842022e-19 1.8312932
0 3.0538068 0
-2.3038902 -2 1.6949451
0 3.1406002 -0
-2.4880431 -0 1.66353
3.6893488e+19 3.1220348 -3.6893488e+19
-2.3037338 -1.0842022e-19 1.5174838
3.6893488e+19 3.1398981 2
-2.4871659 3.6893488e+19 -1.2055231
1.0842022e-19 3.1182718 1.0842022e-19
-2.3006618 2 -1.5642419
0 3.1400726 3.6893488e+19
-2.4873838 0 -1.6889778
-1.0842022e-19 3.0613017 -2
-2.2541506 2 -1.7196141
-0 3.0347984 1.0842022e-19
-2.3558471 -0 -1.7583038
-3.6893488e+19 3.0618298 3.6893488e+19
-2.2545819 2 -1.8049241
-1.0842022e-19 3.0352566 -2
-2.3564196 -3.6893488e+19 -1.822938
-1.0842022e-19 3.0088499 0
-2.3234253 -1.0842022e-19 -1.8630997
-3.6893488e+19 3.0618458 0
-2.254595 -0 -1.9099375
-2 3.0000291 -0
-2.3124039 2 -1.8932503
-0 3.012624 0
-2.1788194 -3.6893488e+19 -1.9141773
0 2.8877597 2
-2.234494 -3.6893488e+19 -1.8829983
-2 2.8620496 0
-2.0455821 3.6893488e+19 -1.8834966
3.6893488e+19 2.818989 -3.6893488e+19
-1.9318916 1.0842022e-19 -1.8762485
-0 2.7866771 -1.0842022e-19
-2.0367558 -2 -1.8692611
0 2.7687659 -2
-1.9032537 0 -1.8678772
-2 2.7344792 -2
-1.9923061 -1.0842022e-19 -1.8587168
1.0842022e-19 2.693733 1.0842022e-19
-1.8765111 1.0842022e-19 -1.8503959
-2 2.6543176 3.6893488e+19
-1.9522144 2 -1.8428591
0 2.6271093 -1.0842022e-19
-1.8400325 -2 -1.8377305
0 2.5979609 -3.6893488e+19
-1.9240282 3.6893488e+19 -1.8321475
1.0842022e-19 2.5885026 -3.6893488e+19
-1.8180184 -0 -1.8349831
0 2.5625386 0
-1.9063122 -1.0842022e-19 -1.8287289
-0 2.5468149 -3.6893488e+19
-1.7942476 2 -1.825825
3.6893488e+19 2.5280056 -1.0842022e-19
-1.8890409 1.0842022e-19 -1.8219562
-0 2.5148466 -2
-1.7760189 -2 -1.8191186
2 2.5012805 -1.0842022e-19
-1.8756747 -3.6893488e+19 -1.8172617
-0 2.4874024 1.0842022e-19
-1.7639616 3.6893488e+19 -1.8173697
-0 2.4570539 0
-1.8535898 3.6893488e+19 -1.812822
2 2.4035306 -2
-1.8760498 2 -1.8088207
-1.0842022e-19 2.3415964 0
-1.8384073 -0 -1.8001652
-2 2.3020699 -0
-1.8137137 1.0842022e-19 -1.7972523
0 2.2675195 -1.0842022e-19
-1.7921287 0 -1.7929811
3.6893488e+19 2.2348442 -2
-1.6382321 -0 -1.7896911
-0 2.1944103 2
-1.6267042 2 -1.7887678
2 2.1589835 3.6893488e+19
-1.6082076 -2 -1.7875632
-0 2.1241541 -0
-1.5883474 3.6893488e+19 -1.7846206
-3.6893488e+19 3.1081142 -2
-2.447453 2 2.5887623
1.0842022e-19 3.1478982 3.6893488e+19
-2.3248491 2 2.6179438
-3.6893488e+19 3.0985103 -1.0842022e-19
-2.4354532 -0 2.5693221
-3.6893488e+19 3.1493759 0
-2.3260558 1.0842022e-19 2.6075439
-0 3.0983882 -0
-2.4353006 3.6893488e+19 2.5588894
2 3.1404433 -2
-2.3187628 -1.0842022e-19 2.5880768
-2 3.0971293 -1.0842022e-19
-2.4337277 -1.0842022e-19 2.547523
-2 3.1426635 -1.0842022e-19
-2.3205755 -1.0842022e-19 2.5784988
-0 3.1377676 3.6893488e+19
-2.3165784 1.0842022e-19 2.563081
3.6893488e+19 3.0636172 -1.0842022e-19
-2.3918552 -0 2.5003576
1.0842022e-19 3.1404986 1.0842022e-19
-2.3188081 -1.0842022e-19 2.5539138
-1.0842022e-19 3.0636463 3.6893488e+19
-2.3918917 -1.0842022e-19 2.482393
0 3.1313889 -1.0842022e-19
-2.3113706 -2 2.5357492
0 3.1377687 -2
-2.4845052 -3.6893488e+19 2.5368743
-0 3.1291208 -0
-2.3095191 1.0842022e-19 2.5230677
1.0842022e-19 3.073041 1.0842022e-19
-2.1184042 2 2.4548068
2 3.1241162 2
-2.3742189 -2 2.5093217
0 3.0761027 3.6893488e+19
-2.1218958 3.6893488e+19 2.4403439
-3.6893488e+19 3.1270337 2
-2.3771374 -0 2.5004475
2 3.0762312 3.6893488e+19
-2.1220424 2 2.4217844
0 3.0767441 0
-2.1226273 0 2.4037232
-3.6893488e+19 3.078012 -3.6893488e+19
-2.1240733 -3.6893488e+19 2.3865371
0 3.1240149 -3.6893488e+19
-2.3741174 -2 2.4323206
2 3.0800381 -0
-2.1263838 0 2.370091
3.6893488e+19 3.1239493 1.0842022e-19
-2.374052 -1.0842022e-19 2.4108191
0 3.0779724 -1.0842022e-19
-2.124028 -2 2.3490987
1.0842022e-19 3.073103 -1.0842022e-19
-2.1184747 1.0842022e-19 2.3255477
2 3.0459397 -0
-2.3697677 3.6893488e+19 2.2840784
0 3.0522089 -2
-2.2434542 1.0842022e-19 2.2795215
0 3.0392115 1.0842022e-19
-2.361361 -0 2.2610776
-0 3.0505273 2
-2.2407088 -2 2.2609112
2 3.0436363 3.6893488e+19
-2.3668897 -3.6893488e+19 2.2466059
1.0842022e-19 3.0517361 1.0842022e-19
-2.2426825 0 2.2397194
-0 3.0448263 -2
-2.3683765 3.6893488e+19 2.2149999
-2 3.0508885 3.6893488e+19
-2.2412987 -3.6893488e+19 2.2042923
2 3.0551362 2
-2.3812585 -1.0842022e-19 2.1965067
-2 3.0543921 -3.6893488e+19
-2.2470193 -1.0842022e-19 2.1751726
-0 3.0577209 1.0842022e-19
-2.3844881 -1.0842022e-19 2.1652918
-3.6893488e+19 3.0558085 -2
-2.2493322 -2 2.1426299
3.6893488e+19 3.0399439 0
-2.3622763 0 2.108357
1.0842022e-19 3.0424013 0
-2.3653467 -0 2.078213
-1.0842022e-19 3.0500081 2
-2.239861 0 2.0675464
0 3.0754478 -1.0842022e-19
-2.1211488 -0 2.0752938
-0 3.0512855 -0
-2.3013682 3.6893488e+19 2.0357263
-3.6893488e+19 3.074554 1.0842022e-19
-2.1201298 1.0842022e-19 2.0379868
1.0842022e-19 3.0508134 -1.0842022e-19
-2.3008959 -3.6893488e+19 2.0013583
2 3.0739553 -3.6893488e+19
-2.1194468 0 2.0011296
-3.6893488e+19 3.0709732 1.0842022e-19
-2.1160462 -3.6893488e+19 1.9628507
1.0842022e-19 3.0545959 0
-2.3046796 2 1.9359035
3.6893488e+19 3.0765719 1.0842022e-19
-2.122431 0 1.9299972
-0 3.0516315 -3.6893488e+19
-2.3017142 -0 1.9001522
-3.6893488e+19 3.0826559 0
-2.1293695 -0 1.8961135
1.0842022e-19 3.0492711 -3.6893488e+19
-2.2993531 -3.6893488e+19 1.8556174
0 3.0813091 -3.6893488e+19
-2.1278331 -2 1.8419142
3.6893488e+19 3.0498097 -1.0842022e-19
-2.2998919 3.6893488e+19 1.78861
-2 3.0812545 -0
-2.1277711 1.0842022e-19 1.7677678
0 3.0538068 0
-2.3038902 -2 1.6949451
-2 3.0350382 3.6893488e+19
-2.3561468 1.0842022e-19 1.6136703
2 3.0600445 -0
-2.2531242 1.0842022e-19 1.4874851
2 3.038101 -0
-2.3599734 3.6893488e+19 -1.1518638
1.0842022e-19 3.1182718 1.0842022e-19
-2.3006618 2 -1.5642419
-0 3.0409334 -0
-2.3635125 2 -1.6409481
-1.0842022e-19 3.0613017 -2
-2.2541506 2 -1.7196141
-0 3.0347984 1.0842022e-19
-2.3558471 -0 -1.7583038
-3.6893488e+19 3.0618298 3.6893488e+19
-2.2545819 2 -1.8049241
-1.0842022e-19 3.0352566 -2
-2.3564196 -3.6893488e+19 -1.822938
-1.0842022e-19 3.0088499 0
-2.3234253 -1.0842022e-19 -1.8630997
2 3.0157962 2
-2.1839988 -2 -1.8863198
-2 3.0000291 -0
-2.3124039 2 -1.8932503
-0 3.012624 0
-2.1788194 -3.6893488e+19 -1.9141773
0 2.8877597 2
-2.234494 -3.6893488e+19 -1.8829983
-2 2.8620496 0
-2.0455821 3.6893488e+19 -1.8834966
3.6893488e+19 2.818989 -3.6893488e+19
-1.9318916 1.0842022e-19 -1.8762485
-0 2.7866771 -1.0842022e-19
-2.0367558 -2 -1.8692611
0 2.7687659 -2
-1.9032537 0 -1.8678772
-2 2.7344792 -2
-1.9923061 -1.0842022e-19 -1.8587168
1.0842022e-19 2.693733 1.0842022e-19
-1.8765111 1.0842022e-19 -1.8503959
-2 2.6543176 3.6893488e+19
-1.9522144 2 -1.8428591
0 2.6271093 -1.0842022e-19
-1.8400325 -2 -1.8377305
0 2.5979609 -3.6893488e+19
-1.9240282 3.6893488e+19 -1.8321475
1.0842022e-19 2.5885026 -3.6893488e+19
-1.8180184 -0 -1.8349831
0 2.5625386 0
-1.9063122 -1.0842022e-19 -1.8287289
-0 2.5468149 -3.6893488e+19
-1.7942476 2 -1.825825
3.6893488e+19 2.5280056 -1.0842022e-19
-1.8890409 1.0842022e-19 -1.8219562
-0 2.5148466 -2
-1.7760189 -2 -1.8191186
2 2.5012805 -1.0842022e-19
-1.8756747 -3.6893488e+19 -1.8172617
-0 2.4874024 1.0842022e-19
-1.7639616 3.6893488e+19 -1.8173697
-0 2.4570539 0
-1.8535898 3.6893488e+19 -1.812822
2 2.4035306 -2
-1.8760498 2 -1.8088207
-1.0842022e-19 2.3415964 0
-1.8384073 -0 -1.8001652
-2 2.3020699 -0
-1.8137137 1.0842022e-19 -1.7972523
0 2.2675195 -1.0842022e-19
-1.7921287 0 -1.7929811
3.6893488e+19 2.2348442 -2
-1.6382321 -0 -1.7896911
-0 2.1944103 2
-1.6267042 2 -1.7887678
2 2.1589835 3.6893488e+19
-1.6082076 -2 -1.7875632
-0 2.1241541 -0
-1.5883474 3.6893488e+19 -1.7846206
-1.0842022e-19 3.1042099 -0
-2.4501812 -3.6893488e+19 2.585207
-0 3.1478207 -2
-2.3332112 -2 2.6179717
2 3.1477511 0
-2.333153 -3.6893488e+19 2.6061854
1.0842022e-19 3.0951996 -0
-2.4387295 1.0842022e-19 2.5561886
-0 3.1419175 0
-2.3282669 1.0842022e-19 2.5894454
2 3.0963824 -1.0842022e-19
-2.4402328 -2 2.5470052
3.6893488e+19 3.137141 -1.0842022e-19
-2.324266 1.0842022e-19 2.5739665
-3.6893488e+19 3.1369007 -2
-2.3240647 -0 2.5624657
-2 3.0631547 -1.0842022e-19
-2.3980024 -3.6893488e+19 2.5000916
-2 3.1404843 3.6893488e+19
-2.3270664 -0 2.5539851
2 3.1409867 1.0842022e-19
-2.4969225 -1.0842022e-19 2.5507958
-3.6893488e+19 3.1365101 -2
-2.3237376 0 2.539665
2 3.1383374 3.6893488e+19
-2.4935553 -3.6893488e+19 2.5374136
2 3.1296301 -3.6893488e+19
-2.3179748 0 2.5235085
0 3.1369493 3.6893488e+19
-2.2075891 -2 2.5224431
1.0842022e-19 3.1280861 -1.0842022e-19
-2.3862391 3.6893488e+19 2.5121603
-3.6893488e+19 3.1361532 -3.6893488e+19
-2.2066479 -2 2.5107653
1.0842022e-19 3.1285608 -0
-2.386724 -1.0842022e-19 2.501545
-1.0842022e-19 3.1344125 -2
-2.2045894 -0 2.4971015
0 3.1207283 0
-2.1884069 -0 2.4581568
-0 3.1183422 -1.0842022e-19
-2.1855853 2 2.4341457
-2 3.1211293 1.0842022e-19
-2.3791325 -1.0842022e-19 2.4291275
3.6893488e+19 3.1202538 1.0842022e-19
-2.1878459 -2 2.415266
-0 3.123457 3.6893488e+19
-2.3815103 -2 2.410414
-0 3.1168983 0
-2.1838779 -1.0842022e-19 2.3906064
3.6893488e+19 3.1199906 -1.0842022e-19
-2.377969 -0 2.3854346
2 3.1157756 1.0842022e-19
-2.1825502 -0 2.3686132
3.6893488e+19 3.0405154 2
-2.3692291 0 2.2789867
-3.6893488e+19 3.1298122 2
-2.3181276 -2 2.3513942
0 3.036761 3.6893488e+19
-2.3644574 3.6893488e+19 2.2589724
-2 3.1302311 -3.6893488e+19
-2.3184783 -1.0842022e-19 2.3301978
-2 3.039187 0
-2.3675408 -0 2.2392831
-3.6893488e+19 3.1288073 -3.6893488e+19
-2.3172858 1.0842022e-19 2.3074865
-2 3.0447967 1.0842022e-19
-2.3746705 1.0842022e-19 2.2151453
0 3.0525711 -0
-2.2534308 -1.0842022e-19 2.2069561
-0 3.1142726 0
-2.4629705 3.6893488e+19 2.2666306
3.6893488e+19 3.119581 3.6893488e+19
-2.3095579 -1.0842022e-19 2.2581837
-0 3.1078191 0
-2.4547684 1.0842022e-19 2.2331023
-2 3.221756 0
-2.395139 2 2.3029275
-1.0842022e-19 3.2024004 3.6893488e+19
-2.537488 0 2.2796881
-2 3.0426192 -1.0842022e-19
-2.3719029 -2 2.0785933
3.6893488e+19 3.2213049 0
-2.3947611 2 2.248992
2 3.216881 0
-2.2760565 2 2.216749
3.6893488e+19 3.1850531 3.6893488e+19
-2.4444346 2 2.1627223
-0 3.2181304 -0
-2.2767951 2 2.1654654
2 3.1854377 -3.6893488e+19
-2.4448273 3.6893488e+19 2.1139703
2 3.157661 -0
-2.2320819 0 2.0660782
1.0842022e-19 3.0490191 2
-2.3054671 -1.0842022e-19 1.9662437
1.0842022e-19 3.0732477 -0
-2.1322584 -1.0842022e-19 1.9643997
0 3.2471356 0
-2.5039279 1.0842022e-19 2.0535164
-1.0842022e-19 3.2379427 1.0842022e-19
-2.2885098 -0 2.0189912
0 3.2414298 0
-2.5010135 1.0842022e-19 1.9947149
-3.6893488e+19 3.2341535 1.0842022e-19
-2.2862694 1.0842022e-19 1.9626968
0 3.2332184 2
-2.4936385 3.6893488e+19 1.936245
1.0842022e-19 3.2322402 -1.0842022e-19
-2.2851379 -1.0842022e-19 1.9078958
3.6893488e+19 3.2313964 0
-2.4917774 2 1.8813956
0 3.2283707 1.0842022e-19
-2.28285 -1.0842022e-19 1.8312126
-0 3.2277839 2
-2.4880869 -3.6893488e+19 1.7783417
-1.0842022e-19 3.0343652 2
-2.3614125 -1.0842022e-19 1.613205
0 3.1595409 -2
-2.3430278 1.0842022e-19 1.5318906
3.6893488e+19 3.1399841 0
-2.4956484 -1.0842022e-19 -1.2056533
-3.6893488e+19 3.1195705 -3.6893488e+19
-2.3095491 -2 -1.5649607
3.6893488e+19 3.1400659 -3.6893488e+19
-2.4957521 3.6893488e+19 -1.6890526
-2 3.0656927 -3.6893488e+19
-2.2644215 -2 -1.7227721
1.0842022e-19 3.0335083 0
-2.3603234 2 -1.7577547
2 3.0635478 -0
-2.262625 2 -1.8059644
1.0842022e-19 3.0351391 1.0842022e-19
-2.362396 -3.6893488e+19 -1.822938
-2 3.057349 -0
-2.2574329 -3.6893488e+19 -1.871362
2 3.068223 -2
-2.4044437 1.0842022e-19 -1.896417
0 3.0566981 1.0842022e-19
-2.2568877 -3.6893488e+19 -1.9073398
1.0842022e-19 3.0000803 -0
-2.3178382 -2 -1.8933387
0 3.0115592 -1.0842022e-19
-2.1881595 -2 -1.9135559
0 2.8948152 3.6893488e+19
-2.2508941 0 -1.8854743
-1.0842022e-19 2.8549969 0
-2.0473425 2 -1.8809316
2 2.8190529 -2
-1.9386489 -1.0842022e-19 -1.8762977
3.6893488e+19 2.7850964 3.6893488e+19
-2.0412443 1.0842022e-19 -1.8679948
0 2.7665367 0
-1.9075973 -0 -1.8659085
3.6893488e+19 2.7360518 0
-1.9982666 2 -1.8595531
0 2.6957636 -1.0842022e-19
-1.881785 -3.6893488e+19 -1.8514704
1.0842022e-19 2.6507199 -2
-1.9546804 1.0842022e-19 -1.840992
-1.0842022e-19 2.6266644 0
-1.8477135 1.0842022e-19 -1.8375201
-2 2.5979693 2
-1.9277365 0 -1.8322212
-3.6893488e+19 2.5883138 -0
-1.8250376 -2 -1.834906
-2 2.5619407 -1.0842022e-19
-1.9093337 -1.0842022e-19 -1.8284066
-2 2.5470068 -2
-1.8006136 -0 -1.8259931
2 2.5272961 -1.0842022e-19
-1.8916378 -1.0842022e-19 -1.8215184
-1.0842022e-19 2.5142996 -2
-1.7812746 1.0842022e-19 -1.8187547
1.0842022e-19 2.5013208 1.0842022e-19
-1.8783702 3.6893488e+19 -1.8173562
-0 2.4875579 -2
-1.7691411 1.0842022e-19 -1.8174677
1.0842022e-19 2.4569027 2
-1.8583777 3.6893488e+19 -1.812822
-1.0842022e-19 3.1042099 -0
-2.4501812 -3.6893488e+19 2.585207
-0 3.1478207 -2
-2.3332112 -2 2.6179717
2 3.1477511 0
-2.333153 -3.6893488e+19 2.6061854
1.0842022e-19 3.0951996 -0
-2.4387295 1.0842022e-19 2.5561886
-0 3.1419175 0
-2.3282669 1.0842022e-19 2.5894454
2 3.0963824 -1.0842022e-19
-2.4402328 -2 2.5470052
3.6893488e+19 3.137141 -1.0842022e-19
-2.324266 1.0842022e-19 2.5739665
-3.6893488e+19 3.1369007 -2
-2.3240647 -0 2.5624657
-2 3.0631547 -1.0842022e-19
-2.3980024 -3.6893488e+19 2.5000916
-2 3.1404843 3.6893488e+19
-2.3270664 -0 2.5539851
-0 3.0606365 -0
-2.3948019 3.6893488e+19 2.4779611
-3.6893488e+19 3.1365101 -2
-2.3237376 0 2.539665
2 3.1383374 3.6893488e+19
-2.4935553 -3.6893488e+19 2.5374136
2 3.1296301 -3.6893488e+19
-2.3179748 0 2.5235085
-1.0842022e-19 3.07212 -0
-2.1309249 0 2.4535966
1.0842022e-19 3.1280861 -1.0842022e-19
-2.3862391 3.6893488e+19 2.5121603
3.6893488e+19 3.072783 0
-2.1317091 -2 2.4359441
1.0842022e-19 3.1285608 -0
-2.386724 -1.0842022e-19 2.501545
-3.6893488e+19 3.0759537 3.6893488e+19
-2.1354587 0 2.4215059
3.6893488e+19 3.0753882 -1.0842022e-19
-2.1347897 2 2.4021244
-0 3.0787206 3.6893488e+19
-2.1387305 -1.0842022e-19 2.3874457
-2 3.1211293 1.0842022e-19
-2.3791325 -1.0842022e-19 2.4291275
0 3.0784938 3.6893488e+19
-2.1384623 -1.0842022e-19 2.3684292
-0 3.123457 3.6893488e+19
-2.3815103 -2 2.410414
-3.6893488e+19 3.0766432 2
-2.1362741 -2 2.3477502
3.6893488e+19 3.1199906 -1.0842022e-19
-2.377969 -0 2.3854346
3.6893488e+19 3.0783291 -1.0842022e-19
-2.1382675 1.0842022e-19 2.3308764
3.6893488e+19 3.0405154 2
-2.3692291 0 2.2789867
-3.6893488e+19 3.1298122 2
-2.3181276 -2 2.3513942
0 3.036761 3.6893488e+19
-2.3644574 3.6893488e+19 2.2589724
0 3.0519602 -1.0842022e-19
-2.2529192 -2 2.2622261
-2 3.039187 0
-2.3675408 -0 2.2392831
2 3.0516853 1.0842022e-19
-2.2526891 -1.0842022e-19 2.2397695
-2 3.0447967 1.0842022e-19
-2.3746705 1.0842022e-19 2.2151453
0 3.0525711 -0
-2.2534308 -1.0842022e-19 2.2069561
-0 3.055748 1.0842022e-19
-2.3885889 2 2.1975868
-1.0842022e-19 3.0534737 1.0842022e-19
-2.2541871 -1.0842022e-19 2.1740046
1.0842022e-19 3.0583014 -0
-2.391834 -0 2.1662469
1.0842022e-19 3.0554471 -0
-2.2558398 -3.6893488e+19 2.1422718
-1.0842022e-19 3.2024004 3.6893488e+19
-2.537488 0 2.2796881
-2 3.0426192 -1.0842022e-19
-2.3719029 -2 2.0785933
-2 3.0478489 -0
-2.2489517 -2 2.0653462
-0 3.0757279 1.0842022e-19
-2.1351917 1.0842022e-19 2.0756359
3.6893488e+19 3.1850531 3.6893488e+19
-2.4444346 2 2.1627223
-0 3.076515 -2
-2.1361222 2 2.0397818
3.6893488e+19 3.0517354 2
-2.3082421 3.6893488e+19 2.0022123
2 3.157661 -0
-2.2320819 0 2.0660782
1.0842022e-19 3.0490191 2
-2.3054671 -1.0842022e-19 1.9662437
1.0842022e-19 3.0732477 -0
-2.1322584 -1.0842022e-19 1.9643997
-1.0842022e-19 3.0511806 2
-2.3076754 2 1.93388
0 3.0754821 2
-2.1349008 -3.6893488e+19 1.9294305
2 3.0538554 -3.6893488e+19
-2.3104076 3.6893488e+19 1.9013094
-3.6893488e+19 3.0786362 3.6893488e+19
-2.1386309 -3.6893488e+19 1.8943753
-2 3.0477154 0
-2.3041356 -0 1.8544947
-3.6893488e+19 3.0798438 -3.6893488e+19
-2.1400588 -0 1.840996
2 3.0501754 0
-2.3066485 3.6893488e+19 1.7888638
-1.0842022e-19 3.0800385 -2
-2.1402891 -3.6893488e+19 1.7672707
3.6893488e+19 3.0570228 -0
-2.3136435 3.6893488e+19 1.6970741
-1.0842022e-19 3.0343652 2
-2.3614125 -1.0842022e-19 1.613205
-3.6893488e+19 3.0580335 2
-2.2580063 2 1.4860086
-3.6893488e+19 3.0359142 0
-2.3633814 1.0842022e-19 -1.1507734
-1.0842022e-19 3.0662997 2
-2.26493 3.6893488e+19 -1.5375793
3.6893488e+19 3.0395789 0
-2.3680389 2 -1.6403497
-2 3.0656927 -3.6893488e+19
-2.2644215 -2 -1.7227721
1.0842022e-19 3.0335083 0
-2.3603234 2 -1.7577547
2 3.0635478 -0
-2.262625 2 -1.8059644
1.0842022e-19 3.0351391 1.0842022e-19
-2.362396 -3.6893488e+19 -1.822938
-2 3.057349 -0
-2.2574329 -3.6893488e+19 -1.871362
0 3.0085273 -2
-2.3285737 -1.0842022e-19 -1.862901
1.0842022e-19 3.0163455 1.0842022e-19
-2.1961775 3.6893488e+19 -1.8866385
1.0842022e-19 3.0000803 -0
-2.3178382 -2 -1.8933387
0 3.0115592 -1.0842022e-19
-2.1881595 -2 -1.9135559
0 2.8948152 3.6893488e+19
-2.2508941 0 -1.8854743
-1.0842022e-19 2.8549969 0
-2.0473425 2 -1.8809316
2 2.8190529 -2
-1.9386489 -1.0842022e-19 -1.8762977
3.6893488e+19 2.7850964 3.6893488e+19
-2.0412443 1.0842022e-19 -1.8679948
0 2.7665367 0
-1.9075973 -0 -1.8659085
3.6893488e+19 2.7360518 0
-1.9982666 2 -1.8595531
0 2.6957636 -1.0842022e-19
-1.881785 -3.6893488e+19 -1.8514704
1.0842022e-19 2.6507199 -2
-1.9546804 1.0842022e-19 -1.840992
-1.0842022e-19 2.6266644 0
-1.8477135 1.0842022e-19 -1.8375201
-2 2.5979693 2
-1.9277365 0 -1.8322212
-3.6893488e+19 2.5883138 -0
-1.8250376 -2 -1.834906
-2 2.5619407 -1.0842022e-19
-1.9093337 -1.0842022e-19 -1.8284066
-2 2.5470068 -2
-1.8006136 -0 -1.8259931
2 2.5272961 -1.0842022e-19
-1.8916378 -1.0842022e-19 -1.8215184
-1.0842022e-19 2.5142996 -2
-1.7812746 1.0842022e-19 -1.8187547
1.0842022e-19 2.5013208 1.0842022e-19
-1.8783702 3.6893488e+19 -1.8173562
-0 2.4875579 -2
-1.7691411 1.0842022e-19 -1.8174677
1.0842022e-19 2.4569027 2
-1.8583777 3.6893488e+19 -1.812822
2 3.1022921 2
-2.4551578 -2 2.583529
-3.6893488e+19 3.1477427 -3.6893488e+19
-2.3413987 2 2.6179998
-3.6893488e+19 3.1474912 2
-2.3411829 1.0842022e-19 2.6060498
-2 3.1358573 -1.0842022e-19
-2.331197 -1.0842022e-19 2.5842874
1.0842022e-19 3.1367924 -0
-2.3319995 -2 2.5737627
3.6893488e+19 3.0858617 1.0842022e-19
-2.4339299 -3.6893488e+19 2.5282042
1.0842022e-19 3.1399639 1.0842022e-19
-2.3347218 3.6893488e+19 2.5650251
-2 3.0619969 -1.0842022e-19
-2.4030969 -1.0842022e-19 2.498539
3.6893488e+19 3.1398292 3.6893488e+19
-2.3346062 0 2.5535576
0 3.1411595 2
-2.502687 -2 2.5510523
-3.6893488e+19 3.137291 0
-2.3324277 2 2.540329
2 3.1381779 -1.0842022e-19
-2.5007608 -3.6893488e+19 2.5374136
1.0842022e-19 3.1307809 2
-2.3268397 3.6893488e+19 2.5244122
0 3.1366599 -3.6893488e+19
-2.2232039 2 2.5222919
-3.6893488e+19 3.128083 0
-2.3941231 -2 2.5122449
-1.0842022e-19 3.1360481 3.6893488e+19
-2.2224555 -1.0842022e-19 2.5107446
1.0842022e-19 3.1289859 -3.6893488e+19
-2.3950639 0 2.5019109
3.6893488e+19 3.1352613 3.6893488e+19
-2.2214925 -3.6893488e+19 2.4982951
-3.6893488e+19 3.0599575 -2
-2.3231072 3.6893488e+19 2.3941727
2 3.1208723 -3.6893488e+19
-2.2038827 1.0842022e-19 2.4584234
1.0842022e-19 3.1254377 -0
-2.3913653 1.0842022e-19 2.4558256
2 3.1189494 -2
-2.2015295 -2 2.4349451
-0 3.122571 -2
-2.388377 1.0842022e-19 2.4309371
-3.6893488e+19 3.0786154 3.6893488e+19
-2.152168 -2 2.3686368
2 3.1230571 0
-2.3888838 -1.0842022e-19 2.4101102
-1.0842022e-19 3.1167657 2
-2.1988573 -2 2.3905406
-0 3.1193764 2
-2.385047 2 2.3849223
-3.6893488e+19 3.1159523 -2
-2.1978617 1.0842022e-19 2.3688626
0 3.1161935 3.6893488e+19
-2.3817289 0 2.3606875
1.0842022e-19 3.1274867 -1.0842022e-19
-2.324012 1.0842022e-19 2.3493376
2 3.0352635 -2
-2.3685575 2 2.257726
-0 3.1287377 -1.0842022e-19
-2.3250859 -3.6893488e+19 2.3289902
0 3.205986 -1.0842022e-19
-2.5445645 3.6893488e+19 2.3859057
-2 3.1276224 -0
-2.3241286 2 2.306608
3.6893488e+19 3.0420043 3.6893488e+19
-2.3772666 0 2.2109287
0 3.0519938 -0
-2.2592134 2 2.2062085
-2 3.1144302 2
-2.4708402 0 2.2668557
-2 3.120471 -1.0842022e-19
-2.3179903 -2 2.2588758
1.0842022e-19 3.1122837 -2
-2.4680667 3.6893488e+19 2.239331
-3.6893488e+19 3.2174773 1.0842022e-19
-2.4012549 0 2.3002617
-0 3.2027683 -0
-2.542486 3.6893488e+19 2.2800305
1.0842022e-19 3.0430224 -2
-2.3785818 0 2.0791812
0 3.2203708 2
-2.4037383 -0 2.2481382
-0 3.0744212 3.6893488e+19
-2.1470349 1.0842022e-19 2.0743921
1.0842022e-19 3.1906631 -1.0842022e-19
-2.4593577 3.6893488e+19 2.1681826
-2 3.0774786 0
-2.1507769 -2 2.040693
-1.0842022e-19 3.1853244 2
-2.4537928 -3.6893488e+19 2.113996
-3.6893488e+19 3.1578934 -3.6893488e+19
-2.2491903 3.6893488e+19 2.0663195
1.0842022e-19 3.2066767 1.0842022e-19
-2.4760509 -3.6893488e+19 2.0803673
-2 3.0694804 2
-2.1409883 -2 1.961942
1.0842022e-19 3.2474666 -1.0842022e-19
-2.5092854 2 2.0538189
-1.0842022e-19 3.0704367 -3.6893488e+19
-2.1421585 2 1.9266833
1.0842022e-19 3.2395017 -0
-2.5051341 -3.6893488e+19 1.9938353
-0 3.2336864 -1.0842022e-19
-2.2959738 3.6893488e+19 1.9625325
3.6893488e+19 3.2340498 1.0842022e-19
-2.5022926 -2 1.9366271
1.0842022e-19 3.2309322 -1.0842022e-19
-2.2942884 -3.6893488e+19 1.9074979
-0 3.2312062 -1.0842022e-19
-2.5008104 2 1.8813871
0 3.2262533 -1.0842022e-19
-2.2914252 0 1.8303396
2 3.229733 0
-2.5000427 -1.0842022e-19 1.7790182
2 3.0339708 -1.0842022e-19
-2.3668873 -3.6893488e+19 1.6129723
-1.0842022e-19 3.1191297 -0
-2.316839 1.0842022e-19 1.516448
2 3.0346246 1.0842022e-19
-2.367732 1.0842022e-19 -1.1501549
-0 3.1196566 3.6893488e+19
-2.3172913 -2 -1.5650566
-1.0842022e-19 3.0293105 -0
-2.3608663 -2 -1.6354285
2 3.0636806 -3.6893488e+19
-2.2692447 -1.0842022e-19 -1.7214124
0 3.0300913 0
-2.3618751 0 -1.7562085
-3.6893488e+19 3.0628412 1.0842022e-19
-2.2685244 3.6893488e+19 -1.8056056
1.0842022e-19 3.0349603 1.0842022e-19
-2.3681657 -1.0842022e-19 -1.8228952
0 3.0566754 -3.6893488e+19
-2.2632318 3.6893488e+19 -1.8708888
-2 3.0682464 2
-2.4111712 -0 -1.896488
-0 3.0589128 0
-2.2651525 -1.0842022e-19 -1.9085191
1.0842022e-19 3.0001626 -1.0842022e-19
-2.3232074 -0 -1.8934448
-3.6893488e+19 3.0108049 3.6893488e+19
-2.1977191 -3.6893488e+19 -1.9131286
-0 2.817373 -1.0842022e-19
-1.9442046 -3.6893488e+19 -1.875657
2 2.7856829 -1.0842022e-19
-2.0478027 3.6893488e+19 -1.8685752
-2 2.7675428 -3.6893488e+19
-1.9137129 -3.6893488e+19 -1.8668647
-0 2.7335401 -2
-2.0020268 -0 -1.8584182
0 2.6994092 2
-1.8874996 3.6893488e+19 -1.8533666
3.6893488e+19 2.6504636 -2
-1.9587264 -2 -1.8409252
-3.6893488e+19 2.6265917 0
-1.8554413 1.0842022e-19 -1.8375201
1.0842022e-19 2.5987196 2
-1.9317569 1.0842022e-19 -1.8327366
3.6893488e+19 2.5852664 -1.0842022e-19
-1.8301537 -0 -1.8330553
-0 2.5622082 -3.6893488e+19
-1.9127266 -1.0842022e-19 -1.8286483
0 2.5476949 3.6893488e+19
-1.8071632 -0 -1.8264974
2 2.5273278 0
-1.8945466 -3.6893488e+19 -1.8216059
2 2.5143728 1.0842022e-19
-1.7867731 -0 -1.8188456
1.0842022e-19 2.5007441 -0
-1.8806908 2 -1.8169783
-0 2.4872158 -2
-1.7740667 3.6893488e+19 -1.8173697
1.0842022e-19 2.4567516 -0
-1.8630644 3.6893488e+19 -1.812822
1.0842022e-19 2.4031985 -3.6893488e+19
-1.880232 2 -1.8088207
0 2.3432741 -1.0842022e-19
-1.8467532 1.0842022e-19 -1.8011705
-2 2.300355 -2
-1.8190278 1.0842022e-19 -1.7964154
-0 2.2663236 -0
-1.7970437 1.0842022e-19 -1.7923681
-3.6893488e+19 2.2385907 -3.6893488e+19
-1.6494874 -1.0842022e-19 -1.7910273
0 2.1976726 1.0842022e-19
-1.6369683 -0 -1.7900331
3.6893488e+19 2.162739 -1.0842022e-19
-1.6262801 3.6893488e+19 -1.7891189
3.6893488e+19 2.1274242 1.0842022e-19
-1.6059507 -2 -1.7860774
2 3.1022921 2
-2.4551578 -2 2.583529
-3.6893488e+19 3.1477427 -3.6893488e+19
-2.3413987 2 2.6179998
-3.6893488e+19 3.1474912 2
-2.3411829 1.0842022e-19 2.6060498
-2 3.1358573 -1.0842022e-19
-2.331197 -1.0842022e-19 2.5842874
1.0842022e-19 3.1367924 -0
-2.3319995 -2 2.5737627
3.6893488e+19 3.0858617 1.0842022e-19
-2.4339299 -3.6893488e+19 2.5282042
1.0842022e-19 3.1399639 1.0842022e-19
-2.3347218 3.6893488e+19 2.5650251
-2 3.0619969 -1.0842022e-19
-2.4030969 -1.0842022e-19 2.498539
3.6893488e+19 3.1398292 3.6893488e+19
-2.3346062 0 2.5535576
-2 3.0618727 -0
-2.4029365 -3.6893488e+19 2.4800603
-3.6893488e+19 3.137291 0
-2.3324277 2 2.540329
2 3.1381779 -1.0842022e-19
-2.5007608 -3.6893488e+19 2.5374136
1.0842022e-19 3.1307809 2
-2.3268397 3.6893488e+19 2.5244122
-1.0842022e-19 3.0722113 -3.6893488e+19
-2.1443303 -0 2.4538126
1.0842022e-19 3.0548792 2
-2.3178134 2 2.4229391
-1.0842022e-19 3.0733967 -2
-2.145781 -2 2.4368572
2 3.0550232 1.0842022e-19
-2.3179636 -3.6893488e+19 2.4054961
0 3.0757987 1.0842022e-19
-2.1487207 3.6893488e+19 2.4213865
-3.6893488e+19 3.0599575 -2
-2.3231072 3.6893488e+19 2.3941727
-0 3.0783741 3.6893488e+19
-2.1518726 3.6893488e+19 2.4058928
-1.0842022e-19 3.0587585 0
-2.3218575 -2 2.3748691
-2 3.0796127 -0
-2.1533885 0 2.3885725
-0 3.0575106 -3.6893488e+19
-2.3205564 0 2.3556845
-3.6893488e+19 3.0786154 3.6893488e+19
-2.152168 -2 2.3686368
2 3.1230571 0
-2.3888838 -1.0842022e-19 2.4101102
-2 3.0741401 -2
-2.1466908 -0 2.3451519
-0 3.0409772 0
-2.3033218 0 2.3032236
1.0842022e-19 3.0757926 3.6893488e+19
-2.1487131 -3.6893488e+19 2.3283832
2 3.0444927 2
-2.3069863 1.0842022e-19 2.2900648
-2 3.0745168 -3.6893488e+19
-2.2785459 0 2.3003178
2 3.0352635 -2
-2.3685575 2 2.257726
2 3.0479548 -0
-2.2557466 -2 2.2588181
0 3.0383012 -2
-2.3724821 -2 2.2379847
-1.0842022e-19 3.0512941 -3.6893488e+19
-2.2586129 0 2.2392676
3.6893488e+19 3.0420043 3.6893488e+19
-2.3772666 0 2.2109287
0 3.0519938 -0
-2.2592134 2 2.2062085
3.6893488e+19 3.047173 3.6893488e+19
-2.3839445 1.0842022e-19 2.1852126
3.6893488e+19 3.0536389 3.6893488e+19
-2.2606256 1.0842022e-19 2.1743507
1.0842022e-19 3.1122837 -2
-2.4680667 3.6893488e+19 2.239331
-0 3.0562932 3.6893488e+19
-2.2629039 -0 2.1434655
-0 3.2027683 -0
-2.542486 3.6893488e+19 2.2800305
1.0842022e-19 3.0430224 -2
-2.3785818 0 2.0791812
-1.0842022e-19 3.0473959 0
-2.2552671 0 2.0649524
-0 3.0744212 3.6893488e+19
-2.1470349 1.0842022e-19 2.0743921
-2 3.0526328 2
-2.3154719 -2 2.037194
-2 3.0774786 0
-2.1507769 -2 2.040693
0 3.052038 -1.0842022e-19
-2.3148515 2 2.0025487
3.6893488e+19 3.0713725 1.0842022e-19
-2.1433039 2 1.9992229
1.0842022e-19 3.2066767 1.0842022e-19
-2.4760509 -3.6893488e+19 2.0803673
-2 3.0694804 2
-2.1409883 -2 1.961942
1.0842022e-19 3.2474666 -1.0842022e-19
-2.5092854 2 2.0538189
-1.0842022e-19 3.0704367 -3.6893488e+19
-2.1421585 2 1.9266833
-1.0842022e-19 3.0565734 3.6893488e+19
-2.3195796 1.0842022e-19 1.9027134
-3.6893488e+19 3.0774515 -2
-2.1507435 -3.6893488e+19 1.8938826
0 3.052295 3.6893488e+19
-2.3151195 3.6893488e+19 1.8581018
0 3.0796869 2
-2.1534791 -3.6893488e+19 1.8409348
-0 3.0515323 2
-2.3143246 1.0842022e-19 1.789659
3.6893488e+19 3.079788 -1.0842022e-19
-2.1536028 -1.0842022e-19 1.7671901
-0 3.0567663 -0
-2.3197806 -3.6893488e+19 1.6969745
2 3.0339708 -1.0842022e-19
-2.3668873 -3.6893488e+19 1.6129723
0 3.0644128 -1.0842022e-19
-2.2698731 -1.0842022e-19 1.4909617
2 3.0346246 1.0842022e-19
-2.367732 1.0842022e-19 -1.1501549
-0 3.1196566 3.6893488e+19
-2.3172913 -2 -1.5650566
-1.0842022e-19 3.0293105 -0
-2.3608663 -2 -1.6354285
2 3.0636806 -3.6893488e+19
-2.2692447 -1.0842022e-19 -1.7214124
0 3.0300913 0
-2.3618751 0 -1.7562085
-3.6893488e+19 3.0628412 1.0842022e-19
-2.2685244 3.6893488e+19 -1.8056056
1.0842022e-19 3.0349603 1.0842022e-19
-2.3681657 -1.0842022e-19 -1.8228952
0 3.0566754 -3.6893488e+19
-2.2632318 3.6893488e+19 -1.8708888
1.0842022e-19 3.0084519 -0
-2.3339171 -3.6893488e+19 -1.8629293
0 3.0156209 0
-2.2059865 0 -1.8863039
1.0842022e-19 3.0001626 -1.0842022e-19
-2.3232074 -0 -1.8934448
-3.6893488e+19 3.0108049 3.6893488e+19
-2.1977191 -3.6893488e+19 -1.9131286
-0 2.817373 -1.0842022e-19
-1.9442046 -3.6893488e+19 -1.875657
2 2.7856829 -1.0842022e-19
-2.0478027 3.6893488e+19 -1.8685752
-2 2.7675428 -3.6893488e+19
-1.9137129 -3.6893488e+19 -1.8668647
-0 2.7335401 -2
-2.0020268 -0 -1.8584182
0 2.6994092 2
-1.8874996 3.6893488e+19 -1.8533666
3.6893488e+19 2.6504636 -2
-1.9587264 -2 -1.8409252
-3.6893488e+19 2.6265917 0
-1.8554413 1.0842022e-19 -1.8375201
1.0842022e-19 2.5987196 2
-1.9317569 1.0842022e-19 -1.8327366
3.6893488e+19 2.5852664 -1.0842022e-19
-1.8301537 -0 -1.8330553
-0 2.5622082 -3.6893488e+19
-1.9127266 -1.0842022e-19 -1.8286483
0 2.5476949 3.6893488e+19
-1.8071632 -0 -1.8264974
2 2.5273278 0
-1.8945466 -3.6893488e+19 -1.8216059
2 2.5143728 1.0842022e-19
-1.7867731 -0 -1.8188456
1.0842022e-19 2.5007441 -0
-1.8806908 2 -1.8169783
-0 2.4872158 -2
-1.7740667 3.6893488e+19 -1.8173697
1.0842022e-19 2.4567516 -0
-1.8630644 3.6893488e+19 -1.812822
1.0842022e-19 2.4031985 -3.6893488e+19
-1.880232 2 -1.8088207
0 2.3432741 -1.0842022e-19
-1.8467532 1.0842022e-19 -1.8011705
-2 2.300355 -2
-1.8190278 1.0842022e-19 -1.7964154
-0 2.2663236 -0
-1.7970437 1.0842022e-19 -1.7923681
-3.6893488e+19 2.2385907 -3.6893488e+19
-1.6494874 -1.0842022e-19 -1.7910273
0 2.1976726 1.0842022e-19
-1.6369683 -0 -1.7900331
3.6893488e+19 2.162739 -1.0842022e-19
-1.6262801 3.6893488e+19 -1.7891189
3.6893488e+19 2.1274242 1.0842022e-19
-1.6059507 -2 -1.7860774
2 3.1020818 1.0842022e-19
-2.4624596 1.0842022e-19 2.5834723
2 3.1477811 -0
-2.3498654 -2 2.6181397
1.0842022e-19 3.1469841 1.0842022e-19
-2.3491645 -2 2.6056964
1.0842022e-19 3.1363854 -3.6893488e+19
-2.3398423 -0 2.5848401
0 3.1365912 -3.6893488e+19
-2.3400233 3.6893488e+19 2.5736864
1.0842022e-19 3.0849028 0
-2.4398949 -1.0842022e-19 2.5275283
-1.0842022e-19 3.1397614 -1.0842022e-19
-2.3428118 -2 2.5649512
-0 3.062227 -3.6893488e+19
-2.4101102 -3.6893488e+19 2.4991193
3.6893488e+19 3.1389253 -3.6893488e+19
-2.3420763 -1.0842022e-19 2.5529399
-2 3.1412349 0
-2.5069437 -0 2.551239
-3.6893488e+19 3.1365395 -2
-2.339978 3.6893488e+19 2.5398481
1.0842022e-19 3.1242516 3.6893488e+19
-2.3291702 -0 2.5197835
-1.0842022e-19 3.1359673 1.0842022e-19
-2.2386303 2 2.5218596
-1.0842022e-19 3.1281664 -2
-2.4022715 -2 2.5123932
-0 3.1362152 -1.0842022e-19
-2.2389441 0 2.5109107
2 3.1270213 2
-2.4010534 -0 2.5006914
-1.0842022e-19 3.0758245 -2
-2.1624901 0 2.4215059
-1.0842022e-19 3.1252725 1.0842022e-19
-2.3991933 3.6893488e+19 2.4773982
0 3.1183028 3.6893488e+19
-2.2162671 -3.6893488e+19 2.4553399
-3.6893488e+19 3.1252775 -1.0842022e-19
-2.3991985 0 2.4557884
-1.0842022e-19 3.1197371 2
-2.2180831 -3.6893488e+19 2.4359627
-1.0842022e-19 3.1221359 -0
-2.3958566 0 2.4305823
2 3.127635 0
-2.2280817 2 2.4237127
-1.0842022e-19 3.1228364 -2
-2.3966017 -3.6893488e+19 2.4100089
1.0842022e-19 3.1149309 -1.0842022e-19
-2.2119982 -0 2.3886659
-1.0842022e-19 3.1250248 -3.6893488e+19
-2.3989296 -2 2.3909431
1.0842022e-19 3.1172688 -3.6893488e+19
-2.214958 -2 2.3702648
-0 3.1171434 -1.0842022e-19
-2.3905458 -1.0842022e-19 2.3617477
-2 3.1271014 0
-2.331677 -1.0842022e-19 2.3490803
0 3.1285374 0
-2.3329399 2 2.3289099
1.0842022e-19 3.2037673 0
-2.5480118 -3.6893488e+19 2.3841918
1.0842022e-19 3.2270319 2
-2.41957 0 2.3874331
-1.0842022e-19 3.0419412 -3.6893488e+19
-2.3834648 -1.0842022e-19 2.2110255
1.0842022e-19 3.2254694 -2
-2.4181955 -1.0842022e-19 2.3592372
-2 3.0471997 -1.0842022e-19
-2.390372 -1.0842022e-19 2.1854374
-1.0842022e-19 3.2242835 2
-2.4171526 -1.0842022e-19 2.3315117
-2 3.2230728 0
-2.4160879 -2 2.303942
-3.6893488e+19 3.2227359 3.6893488e+19
-2.4157915 1.0842022e-19 2.2770457
-3.6893488e+19 3.042805 0
-2.3845997 -3.6893488e+19 2.0790772
1.0842022e-19 3.2218177 -0
-2.4149837 3.6893488e+19 2.2498128
-0 3.0733912 -3.6893488e+19
-2.1594095 -3.6893488e+19 2.0734279
3.6893488e+19 3.1931705 -1.0842022e-19
-2.4714191 -0 2.1707072
-1.0842022e-19 3.0526452 0
-2.3219366 -0 2.0031438
-1.0842022e-19 3.1592417 0
-2.2590477 -3.6893488e+19 2.0674295
2 3.2069216 -3.6893488e+19
-2.4860466 0 2.0806587
-1.0842022e-19 3.0691352 0
-2.1540217 -0 1.9617561
0 3.2474809 -1.0842022e-19
-2.5145955 2 2.0539324
-0 3.0710564 1.0842022e-19
-2.1564538 -3.6893488e+19 1.927061
3.6893488e+19 3.238373 -3.6893488e+19
-2.5097513 -1.0842022e-19 1.9933571
-0 3.2184534 3.6893488e+19
-2.2965283 -3.6893488e+19 1.955881
-2 3.050797 0
-2.3199706 -3.6893488e+19 1.8570268
-2 3.2194657 2
-2.2971692 1.0842022e-19 1.9037743
3.6893488e+19 3.0532248 -1.0842022e-19
-2.3225529 1.0842022e-19 1.7906404
-2 3.0788174 -3.6893488e+19
-2.1662791 -3.6893488e+19 1.7668005
3.6893488e+19 3.2284834 -3.6893488e+19
-2.5044913 -2 1.77867
1.0842022e-19 3.0314753 -0
-2.3697178 0 1.6109817
1.0842022e-19 3.065659 3.6893488e+19
-2.2776356 1.0842022e-19 1.4919857
-1.0842022e-19 3.0343797 1.0842022e-19
-2.373533 0 -1.1500899
2 3.063235 1.0842022e-19
-2.2755036 -0 -1.5360936
-0 3.0279579 -3.6893488e+19
-2.3650978 -2 -1.6348302
-1.0842022e-19 3.0599883 -3.6893488e+19
-2.2726479 2 -1.7188685
1.0842022e-19 3.0302801 -3.6893488e+19
-2.3681479 1.0842022e-19 -1.756353
2 3.0605161 -3.6893488e+19
-2.2731121 -3.6893488e+19 -1.8043143
0 3.0349004 0
-2.3742168 -3.6893488e+19 -1.822938
-0 3.061805 -2
-2.2742457 0 -1.8750365
1.0842022e-19 3.0076327 -1.0842022e-19
-2.3384006 -1.0842022e-19 -1.8622764
0 3.0626438 -1.0842022e-19
-2.2749834 -2 -1.9104793
-2 2.9983859 2
-2.3273151 1.0842022e-19 -1.8929498
-2 3.0107617 -2
-2.2087023 -1.0842022e-19 -1.913148
2 2.8184907 -0
-1.9516028 -0 -1.8761252
-1.0842022e-19 2.7870073 1.0842022e-19
-2.0553019 2 -1.8697889
0 2.7676129 -3.6893488e+19
-1.9193974 -0 -1.8669772
3.6893488e+19 2.7327549 -2
-2.0067632 2 -1.8581196
-3.6893488e+19 2.6986957 3.6893488e+19
-1.8920109 3.6893488e+19 -1.8530506
-3.6893488e+19 2.650449 3.6893488e+19
-1.9629873 1.0842022e-19 -1.840992
1.0842022e-19 2.6275096 -3.6893488e+19
-1.8639613 -1.0842022e-19 -1.8380814
2 2.5987229 -1.0842022e-19
-1.9354756 -3.6893488e+19 -1.8328102
0 2.5842042 -1.0842022e-19
-1.8365493 3.6893488e+19 -1.8324383
1.0842022e-19 2.5632122 -1.0842022e-19
-1.9165884 -3.6893488e+19 -1.8293736
-3.6893488e+19 2.5480065 3.6893488e+19
-1.8136365 1.0842022e-19 -1.8267497
1.0842022e-19 2.5273557 1.0842022e-19
-1.8975174 3.6893488e+19 -1.8216935
-3.6893488e+19 2.5124574 3.6893488e+19
-1.7911341 0 -1.8174806
2 2.5005343 -0
-1.8832519 -3.6893488e+19 -1.8168838
3.6893488e+19 2.4891007 2
-1.779799 -1.0842022e-19 -1.8181533
-2 2.4568405 -2
-1.8679802 0 -1.8129234
2 3.1020818 1.0842022e-19
-2.4624596 1.0842022e-19 2.5834723
2 3.1477811 -0
-2.3498654 -2 2.6181397
1.0842022e-19 3.1469841 1.0842022e-19
-2.3491645 -2 2.6056964
1.0842022e-19 3.1363854 -3.6893488e+19
-2.3398423 -0 2.5848401
0 3.1365912 -3.6893488e+19
-2.3400233 3.6893488e+19 2.5736864
1.0842022e-19 3.0849028 0
-2.4398949 -1.0842022e-19 2.5275283
-1.0842022e-19 3.1397614 -1.0842022e-19
-2.3428118 -2 2.5649512
-0 3.062227 -3.6893488e+19
-2.4101102 -3.6893488e+19 2.4991193
3.6893488e+19 3.1389253 -3.6893488e+19
-2.3420763 -1.0842022e-19 2.5529399
-0 3.0620124 -2
-2.4098284 0 2.4804804
-3.6893488e+19 3.1365395 -2
-2.339978 3.6893488e+19 2.5398481
1.0842022e-19 3.1242516 3.6893488e+19
-2.3291702 -0 2.5197835
-3.6893488e+19 3.0727899 -1.0842022e-19
-2.1586485 -1.0842022e-19 2.4547203
-2 3.0551097 0
-2.3245583 -3.6893488e+19 2.4234049
-0 3.0744982 -3.6893488e+19
-2.1608109 2 2.4384346
-2 3.0549791 0
-2.3244193 -2 2.4055774
-1.0842022e-19 3.0758245 -2
-2.1624901 0 2.4215059
3.6893488e+19 3.0541286 2
-2.3235145 -1.0842022e-19 2.3868933
-0 3.0786459 2
-2.1660621 -2 2.4063115
2 3.0577025 -1.0842022e-19
-2.327316 3.6893488e+19 2.3737159
-1.0842022e-19 3.1197371 2
-2.2180831 -3.6893488e+19 2.4359627
1.0842022e-19 3.0557182 -3.6893488e+19
-2.3252051 2 2.3537331
0 3.0785487 1.0842022e-19
-2.1659389 -2 2.3686368
-0 3.0713937 3.6893488e+19
-2.3418801 3.6893488e+19 2.3534374
-3.6893488e+19 3.0742593 -3.6893488e+19
-2.1605086 2 2.3453493
2 3.0435805 1.0842022e-19
-2.312294 -2 2.3060417
3.6893488e+19 3.0743661 3.6893488e+19
-2.1606438 0 2.3270123
-3.6893488e+19 3.0440221 -2
-2.3127637 2 2.2897012
-2 3.0693944 -2
-2.280921 0 2.2956614
-0 3.0509274 -1.0842022e-19
-2.2646785 3.6893488e+19 2.2614748
-0 3.0379941 -2
-2.3782804 -1.0842022e-19 2.237673
1.0842022e-19 3.0509613 1.0842022e-19
-2.2647083 -1.0842022e-19 2.2388659
-1.0842022e-19 3.0419412 -3.6893488e+19
-2.3834648 -1.0842022e-19 2.2110255
-0 3.0512583 3.6893488e+19
-2.2649696 0 2.2052271
-2 3.0471997 -1.0842022e-19
-2.390372 -1.0842022e-19 2.1854374
-3.6893488e+19 3.0532739 3.6893488e+19
-2.2667425 0 2.1739614
0 3.0554321 2
-2.2686405 2 2.1424708
-2 3.0556564 -0
-2.2688379 1.0842022e-19 2.1082585
-3.6893488e+19 3.042805 0
-2.3845997 -3.6893488e+19 2.0790772
1.0842022e-19 3.0481794 -1.0842022e-19
-2.2622614 2 2.0658717
-0 3.0733912 -3.6893488e+19
-2.1594095 -3.6893488e+19 2.0734279
1.0842022e-19 3.0529616 0
-2.322273 -1.0842022e-19 2.037605
-1.0842022e-19 3.0526452 0
-2.3219366 -0 2.0031438
2 3.0712759 -2
-2.1567316 0 1.9991988
0 3.0581629 3.6893488e+19
-2.3278058 -1.0842022e-19 1.973007
-1.0842022e-19 3.0691352 0
-2.1540217 -0 1.9617561
0 3.2474809 -1.0842022e-19
-2.5145955 2 2.0539324
-0 3.0710564 1.0842022e-19
-2.1564538 -3.6893488e+19 1.927061
-2 3.0561271 0
-2.3256404 3.6893488e+19 1.9025437
2 3.077852 2
-2.1650569 0 1.894088
-2 3.050797 0
-2.3199706 -3.6893488e+19 1.8570268
0 3.0787787 -3.6893488e+19
-2.16623 -1.0842022e-19 1.8403839
3.6893488e+19 3.0532248 -1.0842022e-19
-2.3225529 1.0842022e-19 1.7906404
-2 3.0788174 -3.6893488e+19
-2.1662791 -3.6893488e+19 1.7668005
-0 3.0584261 3.6893488e+19
-2.3280859 3.6893488e+19 1.6981087
1.0842022e-19 3.0314753 -0
-2.3697178 0 1.6109817
1.0842022e-19 3.065659 3.6893488e+19
-2.2776356 1.0842022e-19 1.4919857
-1.0842022e-19 3.0343797 1.0842022e-19
-2.373533 0 -1.1500899
2 3.063235 1.0842022e-19
-2.2755036 -0 -1.5360936
-0 3.0279579 -3.6893488e+19
-2.3650978 -2 -1.6348302
-1.0842022e-19 3.0599883 -3.6893488e+19
-2.2726479 2 -1.7188685
1.0842022e-19 3.0302801 -3.6893488e+19
-2.3681479 1.0842022e-19 -1.756353
2 3.0605161 -3.6893488e+19
-2.2731121 -3.6893488e+19 -1.8043143
0 3.0349004 0
-2.3742168 -3.6893488e+19 -1.822938
-0 3.061805 -2
-2.2742457 0 -1.8750365
1.0842022e-19 3.0076327 -1.0842022e-19
-2.3384006 -1.0842022e-19 -1.8622764
-2 3.0146449 -3.6893488e+19
-2.215533 1.0842022e-19 -1.8858417
-2 2.9983859 2
