# .PCD v0.7 - Point Cloud Data file format
VERSION 0.7
FIELDS x y z
SIZE 4 4 4
TYPE F F F
COUNT 1 1 1
WIDTH 1743
HEIGHT 1
VIEWPOINT 0 0 0 1 0 0 0
POINTS 1743
DATA ascii
1.876479 2 -1.8206052
-3.6893488e+19 2.5320311 3.6893488e+19
1.8476716 2 -1.8130888
2 2.5046043 0
1.8260174 0 -1.8091737
-0 2.4583607 -1.0842022e-19
1.8059443 1.0842022e-19 -1.8037369
0 3.1167498 -2
2.148633 1.0842022e-19 2.5903194
-3.6893488e+19 3.1192186 -3.6893488e+19
2.1513166 -0 2.5817568
3.6893488e+19 3.126219 -3.6893488e+19
2.3661563 -3.6893488e+19 2.5842116
-1.0842022e-19 3.11677 -2
2.1486552 -0 2.5688066
2 3.1131353 -0
2.3534226 -1.0842022e-19 2.5619078
-0 3.1159422 -2
2.1477554 -2 2.5573957
2 3.1100504 -0
2.3504202 -3.6893488e+19 2.5486991
-3.6893488e+19 3.1002021 0
2.3408356 -1.0842022e-19 2.5200782
2 3.1115823 -2
2.1430163 2 2.5222178
-0 3.1038032 -2
2.3443401 -0 2.5125675
1.0842022e-19 3.1091321 1.0842022e-19
2.1403532 -3.6893488e+19 2.5099962
2 3.1055319 3.6893488e+19
2.3460226 2 2.5035369
-1.0842022e-19 3.1232543 -3.6893488e+19
2.4561982 2 2.5118675
2 3.1239707 2
2.4570739 -0 2.5015159
3.6893488e+19 3.1198823 -1.0842022e-19
2.2920325 3.6893488e+19 2.483572
3.6893488e+19 3.1227818 1.0842022e-19
2.2943218 -1.0842022e-19 2.4659455
-2 3.1102939 2
2.4403579 -0 2.4429533
0 3.1123486 0
2.2860844 2 2.4321282
2 3.1080375 -1.0842022e-19
2.4375999 -1.0842022e-19 2.4195375
-1.0842022e-19 3.1142232 -1.0842022e-19
2.2875645 0 2.4135232
-0 3.1120625 -0
2.4425194 -3.6893488e+19 2.4034183
-2 3.1092405 3.6893488e+19
2.2836306 2 2.3873546
3.6893488e+19 3.1140859 2
2.4449925 2 2.3847651
0 3.1069148 -3.6893488e+19
2.2817941 -2 2.364502
-1.0842022e-19 3.1131208 0
2.4438131 -1.0842022e-19 2.3629267
-3.6893488e+19 3.1059868 -2
2.2810616 -3.6893488e+19 2.3433027
0 3.0706215 -3.6893488e+19
2.0984945 -1.0842022e-19 2.2993264
0 3.0445681 3.6893488e+19
2.2866893 0 2.2680085
-1.0842022e-19 3.0719585 1.0842022e-19
2.0999482 -1.0842022e-19 2.282347
3.6893488e+19 3.0444841 1.0842022e-19
2.2866077 -1.0842022e-19 2.2511916
-1.0842022e-19 3.0725994 -2
2.1006446 3.6893488e+19 2.2646728
0 3.1173029 -2
2.3574786 -3.6893488e+19 2.2924519
-2 3.0729768 -0
2.1010549 2 2.2435088
-0 3.1179175 3.6893488e+19
2.358077 -0 2.2720861
-1.0842022e-19 3.0743637 1.0842022e-19
2.1025624 1.0842022e-19 2.2090569
-2 3.154371 0
2.3935556 -0 2.2761478
-3.6893488e+19 3.0732191 0
2.1013184 0 2.1710467
-1.0842022e-19 3.07128 3.6893488e+19
2.3126869 -1.0842022e-19 2.1524751
1.0842022e-19 3.0693524 2
2.0971153 1.0842022e-19 2.1300883
2 3.0724366 2
2.3138125 3.6893488e+19 2.1174917
1.0842022e-19 3.06727 0
2.094852 2 2.0919669
-0 3.1204185 -1.0842022e-19
2.3605111 0 2.1303661
0 3.0618725 1.0842022e-19
2.3811762 -0 2.053932
-0 3.0249701 2
2.1841934 1.0842022e-19 2.0007222
1.0842022e-19 3.0532658 -0
2.370657 0 2.0112197
-0 3.0228357 -2
2.1808231 2 1.9681071
1.0842022e-19 3.0218363 -1.0842022e-19
2.1792448 -1.0842022e-19 1.9367785
1.0842022e-19 3.0535848 -2
2.3710468 -3.6893488e+19 1.9428322
-3.6893488e+19 3.020139 -0
2.1765649 -0 1.9052857
-2 3.0206039 -0
2.177299 2 1.8751951
-1.0842022e-19 3.0549257 2
2.3726859 3.6893488e+19 1.8746016
-2 3.0215533 1.0842022e-19
2.1787982 -0 1.8153526
1.0842022e-19 3.0336297 -0
2.3466573 -1.0842022e-19 1.7931401
-2 3.0231116 0
2.1812589 2 1.7552098
1.0842022e-19 3.0339987 -1.0842022e-19
2.3471084 -3.6893488e+19 1.7085004
2 3.0224802 -3.6893488e+19
2.1802616 -3.6893488e+19 1.6376317
-1.0842022e-19 3.0294468 0
2.0537407 -0 1.5316288
-2 3.0253446 -1.0842022e-19
2.2679801 -1.0842022e-19 1.2502878
3.6893488e+19 3.0267985 0
2.0508621 2 -1.4348749
-1.0842022e-19 3.0252776 1.0842022e-19
2.267915 -0 -1.5911053
2 3.0261009 -0
2.0501037 2 -1.6695615
-1.0842022e-19 3.0246699 1.0842022e-19
2.2673235 -1.0842022e-19 -1.7312855
-1.0842022e-19 3.0315311 -3.6893488e+19
2.056006 2 -1.7744126
0 3.0480237 -2
2.2900524 -0 -1.817459
-3.6893488e+19 3.0264423 -1.0842022e-19
2.0504749 -1.0842022e-19 -1.8335404
2 3.042424 1.0842022e-19
2.2846026 1.0842022e-19 -1.8772997
3.6893488e+19 3.0250192 1.0842022e-19
2.048928 -1.0842022e-19 -1.8845046
0 2.9979763 3.6893488e+19
2.234657 1.0842022e-19 -1.8863906
-2 2.9587448 -2
1.9993129 0 -1.8878548
-2 2.9409387 -2
2.1791451 -0 -1.8955778
-0 2.9388664 2
1.9885097 0 -1.9064516
0 2.8373721 -0
2.0783484 -2 -1.880374
0 2.7849994 0
2.0983315 -3.6893488e+19 -1.862318
-3.6893488e+19 2.7572353 -2
1.9530946 3.6893488e+19 -1.8522258
-3.6893488e+19 2.7093768 0
2.0307295 1.0842022e-19 -1.8422529
0 2.6722605 -3.6893488e+19
1.9166932 -0 -1.8352458
3.6893488e+19 2.6361835 3.6893488e+19
1.9860003 0 -1.8295102
-3.6893488e+19 2.6124992 -2
1.8931017 -3.6893488e+19 -1.8258898
-3.6893488e+19 2.5703912 0
1.876479 2 -1.8206052
-3.6893488e+19 2.5320311 3.6893488e+19
1.8476716 2 -1.8130888
2 2.5046043 0
1.8260174 0 -1.8091737
-0 2.4583607 -1.0842022e-19
1.8059443 1.0842022e-19 -1.8037369
0 3.1200645 -3.6893488e+19
2.1366658 -3.6893488e+19 2.5933352
3.6893488e+19 3.1200743 1.0842022e-19
2.1366763 -1.0842022e-19 2.5824676
2 3.1268528 -1.0842022e-19
2.3587661 -2 2.5846691
3.6893488e+19 3.1171083 0
2.1335773 2 2.5690451
-3.6893488e+19 3.1133406 2
2.3459027 -0 2.561986
-1.0842022e-19 3.1149073 1.0842022e-19
2.1312776 1.0842022e-19 2.556473
-2 3.1098294 -3.6893488e+19
2.3425598 0 2.5484221
-3.6893488e+19 3.1000991 -2
2.3332965 -2 2.5199137
0 3.112381 1.0842022e-19
2.1286378 -0 2.5227714
2 3.1037621 -2
2.3367836 -3.6893488e+19 2.5124543
0 3.1095936 -1.0842022e-19
2.1257253 -3.6893488e+19 2.5102849
1.0842022e-19 3.1056745 -1.0842022e-19
2.3386042 -0 2.5035586
0 3.1241941 1.0842022e-19
2.4493301 0 2.5124228
0 3.112464 -0
2.278512 1.0842022e-19 2.4946229
1.0842022e-19 3.1241496 -2
2.4492764 -0 2.5015364
-3.6893488e+19 3.1187177 0
2.2833176 3.6893488e+19 2.4819267
-0 3.1227427 2
2.4475873 3.6893488e+19 2.4796071
2 3.1099174 -2
2.4321866 1.0842022e-19 2.4423151
0 3.110687 -2
2.2771466 -0 2.430037
0 3.1115744 -3.6893488e+19
2.4341762 2 2.4235141
1.0842022e-19 3.1143162 2
2.2799354 0 2.4135232
-3.6893488e+19 3.1179922 0
2.4418831 -0 2.409863
0 3.1098256 -1.0842022e-19
2.2764847 -1.0842022e-19 2.3878863
3.6893488e+19 3.1191332 3.6893488e+19
2.443253 2 2.3899446
1.0842022e-19 3.1058331 3.6893488e+19
2.273417 0 2.3633049
1.0842022e-19 3.1128662 0
2.4357276 -2 2.3625283
-3.6893488e+19 3.1063247 2
2.2737949 0 2.3435411
0 3.0712349 0
2.0856459 3.6893488e+19 2.2998469
3.6893488e+19 3.1141324 3.6893488e+19
2.3466563 1.0842022e-19 2.3311963
-3.6893488e+19 3.1023004 3.6893488e+19
2.1181052 3.6893488e+19 2.308902
-1.0842022e-19 3.1124351 2
2.3450406 2 2.3090558
3.6893488e+19 3.1029949 3.6893488e+19
2.1188307 1.0842022e-19 2.2895598
-0 3.109513 3.6893488e+19
2.3422587 3.6893488e+19 2.2861595
3.6893488e+19 3.1058457 -3.6893488e+19
2.1218092 -1.0842022e-19 2.2718186
0 3.1184044 0
2.3507233 3.6893488e+19 2.2723603
2 3.1079993 0
2.1240597 0 2.2532856
0 3.0417943 -2
2.2777898 1.0842022e-19 2.1484113
-2 3.1191514 -3.6893488e+19
2.1357119 -3.6893488e+19 2.2307971
-1.0842022e-19 3.11324 2
2.3458068 1.0842022e-19 2.2048962
0 3.0666404 -0
2.0808451 0 2.1267948
-0 3.1240761 -3.6893488e+19
2.3561227 -1.0842022e-19 2.1762128
3.6893488e+19 3.0683832 -2
2.0826662 -3.6893488e+19 2.0931067
-3.6893488e+19 3.1194513 1.0842022e-19
2.3517201 2 2.1292534
-1.0842022e-19 3.1259747 3.6893488e+19
2.4514682 -1.0842022e-19 2.116257
-3.6893488e+19 3.1240807 0
2.2874384 -3.6893488e+19 2.0910058
0 3.0543427 -3.6893488e+19
2.3654528 -3.6893488e+19 2.0120432
3.6893488e+19 3.1244371 3.6893488e+19
2.2877121 -2 2.0492516
-0 3.0420072 -1.0842022e-19
2.3506405 -3.6893488e+19 1.968403
0 3.123035 2
2.2866347 1.0842022e-19 2.0062468
2 3.0449352 2
2.3541565 -0 1.937264
2 3.1241007 1.0842022e-19
2.2874537 2 1.9649918
1.0842022e-19 3.1261508 1.0842022e-19
2.4516797 -3.6893488e+19 1.9463552
-2 3.1254907 2
2.2885218 -3.6893488e+19 1.9236767
-0 3.1235385 -0
2.4485428 -2 1.9028221
-0 3.0237062 3.6893488e+19
2.170624 -2 1.8168128
-2 3.1329575 -0
2.4598532 -3.6893488e+19 1.8519332
3.6893488e+19 3.0234923 -1.0842022e-19
2.1702952 -3.6893488e+19 1.755358
2 3.0318246 -1.0842022e-19
2.3384132 -0 1.7068223
-0 3.0230784 0
2.1696594 0 1.6378988
-2 3.0289655 2
2.0414803 -0 1.5313318
-2 3.0252762 -0
2.2620647 -0 1.2502172
-3.6893488e+19 3.0279069 3.6893488e+19
2.0403743 -0 -1.4355829
-3.6893488e+19 3.0252712 -1.0842022e-19
2.2620599 -1.0842022e-19 -1.5910323
1.0842022e-19 3.0283942 1.0842022e-19
2.0408833 -0 -1.67094
2 3.025377 -2
2.2621605 -1.0842022e-19 -1.7318078
2 3.027184 -1.0842022e-19
2.0396187 -1.0842022e-19 -1.7720798
3.6893488e+19 3.0502272 -0
2.2858181 -1.0842022e-19 -1.818821
2 3.0271142 -0
2.0395458 -1.0842022e-19 -1.8340107
2 3.0435088 -2
2.279422 0 -1.8777317
-0 3.0260022 3.6893488e+19
2.038384 2 -1.8849618
1.0842022e-19 3.0428882 -1.0842022e-19
2.2788312 -1.0842022e-19 -1.9103875
0 3.0263731 -2
2.0387714 -3.6893488e+19 -1.9160736
-1.0842022e-19 2.9412637 1.0842022e-19
2.1700859 -0 -1.8956392
0 2.93751 -0
1.9785686 2 -1.9059408
1.0842022e-19 2.9401352 -2
2.1690114 0 -1.9200323
3.6893488e+19 2.7848036 -2
2.0919905 -2 -1.8620611
3.6893488e+19 2.7561207 3.6893488e+19
1.9467995 -2 -1.8511834
-3.6893488e+19 2.709559 -3.6893488e+19
2.0259178 1.0842022e-19 -1.8422529
-2 2.6731131 -3.6893488e+19
1.912557 -3.6893488e+19 -1.8356167
1.0842022e-19 2.6372001 -3.6893488e+19
1.9824737 2 -1.8299673
-0 2.6125917 -2
1.8893051 -3.6893488e+19 -1.8258898
2 2.3121758 0
1.8124294 -1.0842022e-19 -1.6829392
1.0842022e-19 2.5707211 3.6893488e+19
1.8714375 -1.0842022e-19 -1.8207566
-0 2.5333431 -1.0842022e-19
1.8427168 -1.0842022e-19 -1.8139155
-2 2.3120763 0
1.8123698 -3.6893488e+19 -1.7183019
1.0842022e-19 2.5049171 2
1.8208747 -1.0842022e-19 -1.8093529
0 2.4597161 0
1.8016196 2 -1.8042197
-2 2.3111777 1.0842022e-19
1.8118303 0 -1.7515405
-2 2.3767247 -3.6893488e+19
1.6968125 0 -1.7981191
-0 2.3243742 2
1.669463 0 -1.7924594
-3.6893488e+19 2.2889392 1.0842022e-19
1.6509508 -1.0842022e-19 -1.7906125
1.0842022e-19 2.2535872 3.6893488e+19
1.6324817 0 -1.7848415
0 2.2110243 3.6893488e+19
1.7633988 -2 -1.784963
-1.0842022e-19 2.172931 2
1.7519633 2 -1.7840523
3.6893488e+19 2.137856 -0
1.7328676 -3.6893488e+19 -1.7822061
-0 2.1091797 -2
1.7156504 3.6893488e+19 -1.7811477
0 3.1200645 -3.6893488e+19
2.1366658 -3.6893488e+19 2.5933352
3.6893488e+19 3.1200743 1.0842022e-19
2.1366763 -1.0842022e-19 2.5824676
2 3.1268528 -1.0842022e-19
2.3587661 -2 2.5846691
3.6893488e+19 3.1171083 0
2.1335773 2 2.5690451
-3.6893488e+19 3.1133406 2
2.3459027 -0 2.561986
-1.0842022e-19 3.1149073 1.0842022e-19
2.1312776 1.0842022e-19 2.556473
-2 3.1098294 -3.6893488e+19
2.3425598 0 2.5484221
-3.6893488e+19 3.1000991 -2
2.3332965 -2 2.5199137
0 3.112381 1.0842022e-19
2.1286378 -0 2.5227714
2 3.1037621 -2
2.3367836 -3.6893488e+19 2.5124543
0 3.1095936 -1.0842022e-19
2.1257253 -3.6893488e+19 2.5102849
1.0842022e-19 3.1056745 -1.0842022e-19
2.3386042 -0 2.5035586
0 3.1241941 1.0842022e-19
2.4493301 0 2.5124228
0 3.112464 -0
2.278512 1.0842022e-19 2.4946229
1.0842022e-19 3.1241496 -2
2.4492764 -0 2.5015364
-3.6893488e+19 3.1187177 0
2.2833176 3.6893488e+19 2.4819267
-0 3.1227427 2
2.4475873 3.6893488e+19 2.4796071
2 3.1099174 -2
2.4321866 1.0842022e-19 2.4423151
0 3.110687 -2
2.2771466 -0 2.430037
0 3.1115744 -3.6893488e+19
2.4341762 2 2.4235141
1.0842022e-19 3.1143162 2
2.2799354 0 2.4135232
-3.6893488e+19 3.1179922 0
2.4418831 -0 2.409863
0 3.1098256 -1.0842022e-19
2.2764847 -1.0842022e-19 2.3878863
3.6893488e+19 3.1191332 3.6893488e+19
2.443253 2 2.3899446
1.0842022e-19 3.1058331 3.6893488e+19
2.273417 0 2.3633049
1.0842022e-19 3.1128662 0
2.4357276 -2 2.3625283
-3.6893488e+19 3.1063247 2
2.2737949 0 2.3435411
0 3.0712349 0
2.0856459 3.6893488e+19 2.2998469
-0 3.0475593 -1.0842022e-19
2.2832782 -1.0842022e-19 2.2706447
-2 3.0712087 -3.6893488e+19
2.0856185 -1.0842022e-19 2.2816403
2 3.0460582 -1.0842022e-19
2.2818491 3.6893488e+19 2.2524548
-1.0842022e-19 3.0728729 -3.6893488e+19
2.0873573 -0 2.2648509
-3.6893488e+19 3.0464237 -2
2.2821972 -2 2.2218854
-2 3.0739024 -2
2.088433 1.0842022e-19 2.2448368
0 3.1184044 0
2.3507233 3.6893488e+19 2.2723603
-1.0842022e-19 3.0735195 -1.0842022e-19
2.088033 -3.6893488e+19 2.207782
0 3.0417943 -2
2.2777898 1.0842022e-19 2.1484113
-0 3.0669661 2
2.0811856 -0 2.1628289
-2 3.042145 -3.6893488e+19
2.2781239 3.6893488e+19 2.1158619
0 3.0666404 -0
2.0808451 0 2.1267948
-2 3.0434105 0
2.2793288 -0 2.0843046
3.6893488e+19 3.0683832 -2
2.0826662 -3.6893488e+19 2.0931067
2 3.0455921 -0
2.2814054 -2 2.0534344
-2 3.0610397 -3.6893488e+19
2.3734946 2 2.0530005
3.6893488e+19 3.0246675 3.6893488e+19
2.1721013 3.6893488e+19 2.0003824
0 3.0543427 -3.6893488e+19
2.3654528 -3.6893488e+19 2.0120432
-3.6893488e+19 3.0236819 1.0842022e-19
2.1705868 3.6893488e+19 1.9687278
-0 3.0420072 -1.0842022e-19
2.3506405 -3.6893488e+19 1.968403
-3.6893488e+19 3.0236769 -2
2.170579 3.6893488e+19 1.9379954
2 3.0449352 2
2.3541565 -0 1.937264
1.0842022e-19 3.0196795 2
2.1644359 -2 1.904982
-3.6893488e+19 3.0510626 3.6893488e+19
2.3615143 -0 1.9071584
-3.6893488e+19 3.0254924 2
2.1733692 1.0842022e-19 1.8774244
-2 3.0548921 -0
2.3661127 1.0842022e-19 1.8744752
-0 3.0237062 3.6893488e+19
2.170624 -2 1.8168128
1.0842022e-19 3.0302505 -2
2.3365231 -0 1.7910711
3.6893488e+19 3.0234923 -1.0842022e-19
2.1702952 -3.6893488e+19 1.755358
2 3.0318246 -1.0842022e-19
2.3384132 -0 1.7068223
-0 3.0230784 0
2.1696594 0 1.6378988
-2 3.0289655 2
2.0414803 -0 1.5313318
-2 3.0252762 -0
2.2620647 -0 1.2502172
-3.6893488e+19 3.0279069 3.6893488e+19
2.0403743 -0 -1.4355829
-3.6893488e+19 3.0252712 -1.0842022e-19
2.2620599 -1.0842022e-19 -1.5910323
1.0842022e-19 3.0283942 1.0842022e-19
2.0408833 -0 -1.67094
2 3.025377 -2
2.2621605 -1.0842022e-19 -1.7318078
2 3.027184 -1.0842022e-19
2.0396187 -1.0842022e-19 -1.7720798
0 3.0226462 2
2.2595608 -1.0842022e-19 -1.8010151
2 3.0271142 -0
2.0395458 -1.0842022e-19 -1.8340107
2 3.0435088 -2
2.279422 0 -1.8777317
-0 3.0260022 3.6893488e+19
2.038384 2 -1.8849618
-3.6893488e+19 2.9767339 1.0842022e-19
2.2038538 1.0842022e-19 -1.8805314
-2 2.9630628 3.6893488e+19
1.9919182 3.6893488e+19 -1.8891281
-1.0842022e-19 2.9412637 1.0842022e-19
2.1700859 -0 -1.8956392
0 2.93751 -0
1.9785686 2 -1.9059408
-1.0842022e-19 2.8357425 -0
2.069629 -2 -1.8797034
3.6893488e+19 2.7848036 -2
2.0919905 -2 -1.8620611
3.6893488e+19 2.7561207 3.6893488e+19
1.9467995 -2 -1.8511834
-3.6893488e+19 2.709559 -3.6893488e+19
2.0259178 1.0842022e-19 -1.8422529
-2 2.6731131 -3.6893488e+19
1.912557 -3.6893488e+19 -1.8356167
1.0842022e-19 2.6372001 -3.6893488e+19
1.9824737 2 -1.8299673
-0 2.6125917 -2
1.8893051 -3.6893488e+19 -1.8258898
2 2.3121758 0
1.8124294 -1.0842022e-19 -1.6829392
1.0842022e-19 2.5707211 3.6893488e+19
1.8714375 -1.0842022e-19 -1.8207566
-0 2.5333431 -1.0842022e-19
1.8427168 -1.0842022e-19 -1.8139155
-2 2.3120763 0
1.8123698 -3.6893488e+19 -1.7183019
1.0842022e-19 2.5049171 2
1.8208747 -1.0842022e-19 -1.8093529
0 2.4597161 0
1.8016196 2 -1.8042197
-2 2.3111777 1.0842022e-19
1.8118303 0 -1.7515405
-2 2.3767247 -3.6893488e+19
1.6968125 0 -1.7981191
-0 2.3243742 2
1.669463 0 -1.7924594
-3.6893488e+19 2.2889392 1.0842022e-19
1.6509508 -1.0842022e-19 -1.7906125
1.0842022e-19 2.2535872 3.6893488e+19
1.6324817 0 -1.7848415
0 2.2110243 3.6893488e+19
1.7633988 -2 -1.784963
-1.0842022e-19 2.172931 2
1.7519633 2 -1.7840523
3.6893488e+19 2.137856 -0
1.7328676 -3.6893488e+19 -1.7822061
-0 2.1091797 -2
1.7156504 3.6893488e+19 -1.7811477
2 3.1198833 -3.6893488e+19
2.1209276 0 2.5931098
1.0842022e-19 3.113215 0
2.3380744 3.6893488e+19 2.5831661
-1.0842022e-19 3.1170015 1.0842022e-19
2.1180379 -3.6893488e+19 2.5796518
0 3.1304245 -2
2.3540926 3.6893488e+19 2.5877371
0 3.1173832 1.0842022e-19
2.1184206 -3.6893488e+19 2.5692303
0 3.114151 1.0842022e-19
2.3389456 -0 2.5625854
0 3.1158538 0
2.1168869 1.0842022e-19 2.5572164
0 3.1090891 -2
2.334234 -2 2.5477161
0 3.1009388 -3.6893488e+19
2.3266478 0 2.5204778
2 3.1125336 -3.6893488e+19
2.1135571 -2 2.5228405
0 3.1022532 2
2.3278713 -2 2.5112543
2 3.1095617 -2
2.1105769 3.6893488e+19 2.5102184
-0 3.1044085 0
2.3298776 0 2.5025785
-2 3.1245224 0
2.4417112 3.6893488e+19 2.5125508
-1.0842022e-19 3.1142101 2
2.2721615 -2 2.4968827
1.0842022e-19 3.1246612 -2
2.4418745 1.0842022e-19 2.5017824
1.0842022e-19 3.1118071 1.0842022e-19
2.2703657 3.6893488e+19 2.4727769
2 3.1229184 -0
2.4398191 1.0842022e-19 2.4796464
3.6893488e+19 3.1076581 -0
2.2672653 2 2.4468176
-1.0842022e-19 3.1090794 -2
2.4234974 -0 2.4411135
-0 3.1092682 -3.6893488e+19
2.2684684 -2 2.4282393
-3.6893488e+19 3.1109195 -1.0842022e-19
2.4256678 -0 2.4225826
0 3.1180744 3.6893488e+19
2.4341061 -0 2.4097948
-2 3.128726 -3.6893488e+19
2.2830086 2 2.4081597
-1.0842022e-19 3.105489 1.0842022e-19
2.2656446 0 2.3628638
-0 3.1119335 2
2.4268637 -0 2.3614559
2 3.1063514 -1.0842022e-19
2.2662888 2 2.3434815
-1.0842022e-19 3.1243565 3.6893488e+19
2.1254137 0 2.3493733
-3.6893488e+19 3.1135967 -3.6893488e+19
2.3384297 -1.0842022e-19 2.3306072
-0 3.1033516 3.6893488e+19
2.1043494 3.6893488e+19 2.3097718
-0 3.1091821 1.0842022e-19
2.3343208 1.0842022e-19 2.3061876
-0 3.1035814 1.0842022e-19
2.1045799 -1.0842022e-19 2.2899923
3.6893488e+19 3.1098709 1.0842022e-19
2.3349619 1.0842022e-19 2.2863562
-3.6893488e+19 3.1062467 0
2.1072528 -1.0842022e-19 2.2720795
3.6893488e+19 3.0474849 -2
2.2768939 -0 2.1897242
-3.6893488e+19 3.1104825 2
2.1115005 -3.6893488e+19 2.2549996
3.6893488e+19 3.0397809 3.6893488e+19
2.2697232 1.0842022e-19 2.1455405
0 3.1214826 -2
2.1225314 -1.0842022e-19 2.2337523
0 3.1111548 0
2.3361568 3.6893488e+19 2.2021453
-2 3.065418 3.6893488e+19
2.0663087 2 2.1252775
0 3.1314678 -2
2.3550637 -2 2.1845007
3.6893488e+19 3.0655425 -0
2.0664334 0 2.0899887
0 3.1312129 -2
2.3548265 -3.6893488e+19 2.1412063
1.0842022e-19 3.124177 2
2.4413035 0 2.1143639
3.6893488e+19 3.1249812 2
2.2802103 1.0842022e-19 2.091742
-3.6893488e+19 3.0546463 -3.6893488e+19
2.3592992 -0 2.0122027
3.6893488e+19 3.1239705 -1.0842022e-19
2.2794549 0 2.0488048
1.0842022e-19 3.1299827 -3.6893488e+19
2.4481506 -1.0842022e-19 2.0340924
3.6893488e+19 3.126951 1.0842022e-19
2.2816823 -3.6893488e+19 2.0088725
-0 3.1184804 3.6893488e+19
2.4345851 -0 1.9838692
1.0842022e-19 3.0211146 1.0842022e-19
2.1551888 0 1.9057682
-2 3.1223111 0
2.4391031 -3.6893488e+19 1.9442753
1.0842022e-19 3.1339502 -0
2.2869124 3.6893488e+19 1.9275455
2 3.1219532 2
2.4386809 3.6893488e+19 1.9021144
-0 3.1319337 3.6893488e+19
2.2854056 -1.0842022e-19 1.883796
-2 3.0545626 -2
2.3592005 2 1.8054078
-1.0842022e-19 3.1344402 3.6893488e+19
2.2872787 1.0842022e-19 1.8081951
-1.0842022e-19 3.0511317 0
2.3551543 -3.6893488e+19 1.7209052
0 3.0206261 -2
2.1544585 -3.6893488e+19 1.6366264
-2 3.0643799 1.0842022e-19
2.0652678 2 1.5511485
3.6893488e+19 3.0506592 1.0842022e-19
2.2798486 2 1.2617213
2 3.0262382 -3.6893488e+19
2.0270181 -3.6893488e+19 -1.4344375
-1.0842022e-19 3.0471151 3.6893488e+19
2.2765498 3.6893488e+19 -1.6081035
0 3.0264137 -2
2.027194 -2 -1.6696955
-3.6893488e+19 3.0505714 1.0842022e-19
2.279767 2 -1.7514691
0 3.0259831 -1.0842022e-19
2.0267622 2 -1.7714181
3.6893488e+19 3.0434921 -3.6893488e+19
2.2731774 2 -1.8144146
-2 3.0452449 -0
2.0460787 -1.0842022e-19 -1.8476485
0 3.0420477 -3.6893488e+19
2.2718329 -3.6893488e+19 -1.8770566
-2 3.0254872 -0
2.0262651 -3.6893488e+19 -1.8846874
1.0842022e-19 3.0421097 0
2.2718909 -1.0842022e-19 -1.909912
-3.6893488e+19 2.9589639 -1.0842022e-19
1.98013 1.0842022e-19 -1.8878735
2 2.9359007 -3.6893488e+19
1.9685657 3.6893488e+19 -1.9053411
-3.6893488e+19 2.9368601 3.6893488e+19
2.1566222 0 -1.9187151
-0 2.7833707 -2
2.0842068 -3.6893488e+19 -1.8607767
2 2.7554386 1.0842022e-19
1.9408803 3.6893488e+19 -1.8505251
-2 2.7099848 1.0842022e-19
2.0212526 -3.6893488e+19 -1.8423694
-0 2.6717274 1.0842022e-19
1.9075711 0 -1.834875
2 2.6368573 -2
1.9781293 3.6893488e+19 -1.8297061
-0 2.6131783 0
1.8856952 -1.0842022e-19 -1.826165
-3.6893488e+19 2.5717933 -1.0842022e-19
1.8654649 -2 -1.8213624
2 2.5335374 -3.6893488e+19
1.8368775 1.0842022e-19 -1.8139982
-2 2.5041125 2
1.8148894 0 -1.8087256
0 2.4615643 -1.0842022e-19
1.7974553 3.6893488e+19 -1.8048956
2 3.1198833 -3.6893488e+19
2.1209276 0 2.5931098
1.0842022e-19 3.113215 0
2.3380744 3.6893488e+19 2.5831661
-1.0842022e-19 3.1170015 1.0842022e-19
2.1180379 -3.6893488e+19 2.5796518
0 3.1304245 -2
2.3540926 3.6893488e+19 2.5877371
0 3.1173832 1.0842022e-19
2.1184206 -3.6893488e+19 2.5692303
0 3.114151 1.0842022e-19
2.3389456 -0 2.5625854
0 3.1158538 0
2.1168869 1.0842022e-19 2.5572164
0 3.1090891 -2
2.334234 -2 2.5477161
0 3.1009388 -3.6893488e+19
2.3266478 0 2.5204778
2 3.1125336 -3.6893488e+19
2.1135571 -2 2.5228405
0 3.1022532 2
2.3278713 -2 2.5112543
2 3.1095617 -2
2.1105769 3.6893488e+19 2.5102184
-0 3.1044085 0
2.3298776 0 2.5025785
-2 3.1245224 0
2.4417112 3.6893488e+19 2.5125508
-1.0842022e-19 3.1142101 2
2.2721615 -2 2.4968827
1.0842022e-19 3.1246612 -2
2.4418745 1.0842022e-19 2.5017824
1.0842022e-19 3.1118071 1.0842022e-19
2.2703657 3.6893488e+19 2.4727769
2 3.1229184 -0
2.4398191 1.0842022e-19 2.4796464
3.6893488e+19 3.1076581 -0
2.2672653 2 2.4468176
-1.0842022e-19 3.1090794 -2
2.4234974 -0 2.4411135
-0 3.1092682 -3.6893488e+19
2.2684684 -2 2.4282393
-3.6893488e+19 3.1109195 -1.0842022e-19
2.4256678 -0 2.4225826
0 3.1180744 3.6893488e+19
2.4341061 -0 2.4097948
2 3.1084037 1.0842022e-19
2.2678225 1.0842022e-19 2.3862579
-1.0842022e-19 3.105489 1.0842022e-19
2.2656446 0 2.3628638
-0 3.1119335 2
2.4268637 -0 2.3614559
2 3.1063514 -1.0842022e-19
2.2662888 2 2.3434815
1.0842022e-19 3.0724969 -1.0842022e-19
2.0734074 -2 2.3009744
3.6893488e+19 3.047435 1.0842022e-19
2.2768476 1.0842022e-19 2.2704484
-3.6893488e+19 3.0717585 -1.0842022e-19
2.0726671 -1.0842022e-19 2.2820752
0 3.0482793 -2
2.2776332 -1.0842022e-19 2.2542703
2 3.0722444 -2
2.0731542 3.6893488e+19 2.264291
-2 3.0474417 -1.0842022e-19
2.2768538 -0 2.2233603
-3.6893488e+19 3.0735219 -0
2.0744355 1.0842022e-19 2.2441728
3.6893488e+19 3.0474849 -2
2.2768939 -0 2.1897242
1.0842022e-19 3.0736048 -2
2.0745184 1.0842022e-19 2.2078261
3.6893488e+19 3.0397809 3.6893488e+19
2.2697232 1.0842022e-19 2.1455405
-3.6893488e+19 3.0702209 3.6893488e+19
2.0711253 0 2.1669986
3.6893488e+19 3.0412757 2
2.2711146 -1.0842022e-19 2.1146607
-2 3.065418 3.6893488e+19
2.0663087 2 2.1252775
0 3.042758 -2
2.2724941 3.6893488e+19 2.0834582
3.6893488e+19 3.0655425 -0
2.0664334 0 2.0899887
3.6893488e+19 3.0429261 2
2.2726507 -3.6893488e+19 2.0506051
0 3.0641544 1.0842022e-19
2.370513 2 2.0559154
0 3.0242076 -1.0842022e-19
2.1598113 2 1.9999012
-3.6893488e+19 3.0546463 -3.6893488e+19
2.3592992 -0 2.0122027
-0 3.0247443 -1.0842022e-19
2.1606135 -2 1.9695224
-0 3.0543196 -1.0842022e-19
2.3589139 -1.0842022e-19 1.9775233
-2 3.0252368 -2
2.1613498 3.6893488e+19 1.9390202
3.6893488e+19 3.0441542 -0
2.3469248 -2 1.9366953
1.0842022e-19 3.0211146 1.0842022e-19
2.1551888 0 1.9057682
-0 3.0553823 2
2.3601673 2 1.9093512
-2 3.0262139 1.0842022e-19
2.1628101 -2 1.8777263
2 3.0540528 -1.0842022e-19
2.3585992 3.6893488e+19 1.8736916
-0 3.0249872 -0
2.1609766 -3.6893488e+19 1.8176627
-2 3.0545626 -2
2.3592005 2 1.8054078
-3.6893488e+19 3.0245867 2
2.1603782 -3.6893488e+19 1.7558472
-1.0842022e-19 3.0511317 0
2.3551543 -3.6893488e+19 1.7209052
0 3.0206261 -2
2.1544585 -3.6893488e+19 1.6366264
-1.0842022e-19 3.0264859 2
2.0272667 -1.0842022e-19 1.5299163
2 3.0261371 2
2.2570238 -2 1.2505701
2 3.0262382 -3.6893488e+19
2.0270181 -3.6893488e+19 -1.4344375
-3.6893488e+19 3.0270321 -3.6893488e+19
2.2578568 0 -1.5923474
0 3.0264137 -2
2.027194 -2 -1.6696955
-2 3.0258963 -0
2.2567997 2 -1.7321736
0 3.0259831 -1.0842022e-19
2.0267622 2 -1.7714181
-3.6893488e+19 3.0222955 0
2.2534482 3.6893488e+19 -1.8007348
-2 3.0260379 0
2.0268176 -2 -1.8331642
-0 3.0226233 -0
2.2537532 2 -1.8622121
-2 3.0254872 -0
2.0262651 -3.6893488e+19 -1.8846874
1.0842022e-19 3.0421097 0
2.2718909 -1.0842022e-19 -1.909912
-3.6893488e+19 2.9589639 -1.0842022e-19
1.98013 1.0842022e-19 -1.8878735
2 2.9359007 -3.6893488e+19
1.9685657 3.6893488e+19 -1.9053411
-0 2.8360319 0
2.062773 3.6893488e+19 -1.8797753
-0 2.7833707 -2
2.0842068 -3.6893488e+19 -1.8607767
2 2.7554386 1.0842022e-19
1.9408803 3.6893488e+19 -1.8505251
-2 2.7099848 1.0842022e-19
2.0212526 -3.6893488e+19 -1.8423694
-0 2.6717274 1.0842022e-19
1.9075711 0 -1.834875
2 2.6368573 -2
1.9781293 3.6893488e+19 -1.8297061
-0 2.6131783 0
1.8856952 -1.0842022e-19 -1.826165
-3.6893488e+19 2.5717933 -1.0842022e-19
1.8654649 -2 -1.8213624
2 2.5335374 -3.6893488e+19
1.8368775 1.0842022e-19 -1.8139982
-2 2.5041125 2
1.8148894 0 -1.8087256
0 2.4615643 -1.0842022e-19
1.7974553 3.6893488e+19 -1.8048956
2 3.1182408 1.0842022e-19
2.1038058 -1.0842022e-19 2.5915313
-1.0842022e-19 3.1172431 -0
2.1028471 -3.6893488e+19 2.5798159
-0 3.1237772 3.6893488e+19
2.3399777 3.6893488e+19 2.5817358
-1.0842022e-19 3.1178689 -1.0842022e-19
2.1034484 1.0842022e-19 2.5696013
1.0842022e-19 3.1147161 -1.0842022e-19
2.3317358 0 2.5629764
3.6893488e+19 3.1207669 0
2.1062329 -3.6893488e+19 2.5612919
0 3.1103225 -3.6893488e+19
2.3277395 -0 2.5486488
2 3.1205657 -3.6893488e+19
2.1060393 -0 2.5503316
-1.0842022e-19 3.1108916 -1.0842022e-19
2.3282573 -1.0842022e-19 2.5385792
-3.6893488e+19 3.1011357 0
2.3193839 -2 2.5205481
0 3.1121013 3.6893488e+19
2.0979068 -1.0842022e-19 2.5224714
-3.6893488e+19 3.1020536 -3.6893488e+19
2.3202186 1.0842022e-19 2.5110281
-0 3.1096194 -3.6893488e+19
2.0955222 3.6893488e+19 2.5102184
2 3.1044235 -0
2.3223741 0 2.5025132
-1.0842022e-19 3.1250923 -2
2.4343636 2 2.5128498
-1.0842022e-19 3.1122115 2
2.2630215 -1.0842022e-19 2.4940369
-2 3.1275806 1.0842022e-19
2.4372454 -1.0842022e-19 2.5036473
-3.6893488e+19 3.1122935 2
2.2630811 -1.0842022e-19 2.4732985
0 3.1073139 1.0842022e-19
2.259465 -3.6893488e+19 2.4462798
-0 3.1092625 2
2.26088 1.0842022e-19 2.4281294
1.0842022e-19 3.1105373 -0
2.4175086 1.0842022e-19 2.4219737
1.0842022e-19 3.1069787 2
2.2592216 -1.0842022e-19 2.3846292
0 3.1112914 1.0842022e-19
2.4183819 -3.6893488e+19 2.381366
1.0842022e-19 3.1053278 3.6893488e+19
2.2580228 -3.6893488e+19 2.3626115
-0 3.1118877 -3.6893488e+19
2.4190724 3.6893488e+19 2.3612721
-3.6893488e+19 3.106468 3.6893488e+19
2.2588508 1.0842022e-19 2.3435113
2 3.1240139 -3.6893488e+19
2.1093524 3.6893488e+19 2.3489974
-3.6893488e+19 3.1090472 -0
2.3265798 0 2.3263724
-1.0842022e-19 3.1136413 -2
2.0993865 -3.6893488e+19 2.3187411
2 3.1087654 -2
2.3263233 -3.6893488e+19 2.3057401
-1.0842022e-19 3.0727615 0
2.0601094 3.6893488e+19 2.2646728
1.0842022e-19 3.1102574 -2
2.3276803 0 2.2865775
-1.0842022e-19 3.1090677 -2
2.0949922 -0 2.2741899
0 3.2071528 3.6893488e+19
2.4158139 1.0842022e-19 2.3377662
-2 3.1120629 3.6893488e+19
2.0978701 -1.0842022e-19 2.2560766
2 3.2048662 -3.6893488e+19
2.413734 3.6893488e+19 2.3103445
0 3.1183088 -1.0842022e-19
2.1038709 3.6893488e+19 2.2295423
-1.0842022e-19 3.1070223 1.0842022e-19
2.324738 1.0842022e-19 2.1968374
-0 3.065562 -1.0842022e-19
2.0531919 -3.6893488e+19 2.1253884
2 3.0446115 -3.6893488e+19
2.2679706 0 2.0854685
-2 3.0669625 -2
2.0545375 -2 2.0914638
3.6893488e+19 3.1206462 -2
2.429215 0 2.1107879
1.0842022e-19 3.1264699 -2
2.273375 -1.0842022e-19 2.0930159
-2 3.0650163 -3.6893488e+19
2.3647945 0 2.0210245
1.0842022e-19 3.1221957 0
2.2702715 3.6893488e+19 2.0473149
0 3.1299427 -2
2.4399803 -0 2.0339539
-1.0842022e-19 3.0257075 0
2.1504126 -1.0842022e-19 1.9392977
-3.6893488e+19 3.1155 -0
2.4232557 -2 1.9818889
-0 3.1237237 2
2.2713811 -2 1.9646702
-2 3.134136 0
2.2789421 2 1.9275887
-3.6893488e+19 3.119962 -3.6893488e+19
2.4284227 -0 1.9012423
0 3.1348262 -2
2.279443 -2 1.8847767
-0 3.0540297 0
2.352072 -2 1.8050232
-3.6893488e+19 3.1347506 1.0842022e-19
2.2793884 -2 1.8082988
-0 3.0192285 3.6893488e+19
2.1410029 -2 1.6358881
2 3.0676746 1.0842022e-19
2.0552218 -1.0842022e-19 1.5529659
1.0842022e-19 3.0521159 -0
2.2747965 1.0842022e-19 1.2623423
2 3.0255651 -0
2.0147629 1.0842022e-19 -1.4339586
2 3.0510547 1.0842022e-19
2.2738314 -0 -1.6111232
-3.6893488e+19 3.0259588 -0
2.0151412 -2 -1.6693891
-0 3.0498548 3.6893488e+19
2.2727399 -3.6893488e+19 -1.7511295
-3.6893488e+19 3.0260584 1.0842022e-19
2.0152371 1.0842022e-19 -1.7714347
-1.0842022e-19 3.045505 2
2.2687836 1.0842022e-19 -1.8156564
-0 3.025178 -0
2.0143909 -1.0842022e-19 -1.8324823
-0 3.0447738 -0
2.2681184 3.6893488e+19 -1.8782041
1.0842022e-19 3.0399988 3.6893488e+19
2.0286307 -3.6893488e+19 -1.8917594
3.6893488e+19 3.0450215 3.6893488e+19
2.2683437 -3.6893488e+19 -1.9114574
-1.0842022e-19 3.0394936 -3.6893488e+19
2.0281453 -1.0842022e-19 -1.9239007
1.0842022e-19 2.9279976 3.6893488e+19
2.1392951 -1.0842022e-19 -1.9152426
-3.6893488e+19 2.7803285 0
2.0746257 0 -1.8581564
-0 2.7091727 -0
2.0158651 -3.6893488e+19 -1.8419027
3.6893488e+19 2.6723261 -3.6893488e+19
1.9033369 3.6893488e+19 -1.8351222
3.6893488e+19 2.6371286 -3.6893488e+19
1.9741509 0 -1.8297714
0 2.6126449 -3.6893488e+19
1.881668 -3.6893488e+19 -1.825821
0 2.586724 -0
1.9449662 3.6893488e+19 -1.8221726
0 2.5722435 -0
1.8589984 -0 -1.8215896
1.0842022e-19 2.547946 -0
1.9225134 0 -1.8163536
3.6893488e+19 2.5337298 -3.6893488e+19
1.8310316 -3.6893488e+19 -1.8140808
2 2.3091128 -2
1.803979 3.6893488e+19 -1.7160621
-1.0842022e-19 2.5044217 3.6893488e+19
1.8097495 -0 -1.8089048
-3.6893488e+19 2.4611797 2
1.7924439 3.6893488e+19 -1.8047025
-2 2.3121564 -0
1.8057414 2 -1.7518406
1.0842022e-19 2.3768485 -2
1.6810379 0 -1.7981191
-2 2.3242331 2
1.6557616 -0 -1.7923316
0 2.2850816 -2
1.6369531 2 -1.7883477
0 2.2524378 -3.6893488e+19
1.6175421 -2 -1.7840648
2 2.2104046 1.0842022e-19
1.7582892 -3.6893488e+19 -1.7846248
2 2.1747169 2
1.7459149 -3.6893488e+19 -1.7846006
2 2.139611 0
1.7255883 1.0842022e-19 -1.7827957
-2 2.1080055 1.0842022e-19
1.7072885 -1.0842022e-19 -1.7805172
2 3.1182408 1.0842022e-19
2.1038058 -1.0842022e-19 2.5915313
-1.0842022e-19 3.1172431 -0
2.1028471 -3.6893488e+19 2.5798159
-0 3.1237772 3.6893488e+19
2.3399777 3.6893488e+19 2.5817358
-1.0842022e-19 3.1178689 -1.0842022e-19
2.1034484 1.0842022e-19 2.5696013
1.0842022e-19 3.1147161 -1.0842022e-19
2.3317358 0 2.5629764
3.6893488e+19 3.1207669 0
2.1062329 -3.6893488e+19 2.5612919
0 3.1103225 -3.6893488e+19
2.3277395 -0 2.5486488
2 3.1205657 -3.6893488e+19
2.1060393 -0 2.5503316
-1.0842022e-19 3.1108916 -1.0842022e-19
2.3282573 -1.0842022e-19 2.5385792
-3.6893488e+19 3.1011357 0
2.3193839 -2 2.5205481
0 3.1121013 3.6893488e+19
2.0979068 -1.0842022e-19 2.5224714
-3.6893488e+19 3.1020536 -3.6893488e+19
2.3202186 1.0842022e-19 2.5110281
-0 3.1096194 -3.6893488e+19
2.0955222 3.6893488e+19 2.5102184
2 3.1044235 -0
2.3223741 0 2.5025132
-1.0842022e-19 3.1250923 -2
2.4343636 2 2.5128498
-1.0842022e-19 3.1122115 2
2.2630215 -1.0842022e-19 2.4940369
-2 3.1275806 1.0842022e-19
2.4372454 -1.0842022e-19 2.5036473
-3.6893488e+19 3.1122935 2
2.2630811 -1.0842022e-19 2.4732985
0 3.1073139 1.0842022e-19
2.259465 -3.6893488e+19 2.4462798
-0 3.1092625 2
2.26088 1.0842022e-19 2.4281294
1.0842022e-19 3.1105373 -0
2.4175086 1.0842022e-19 2.4219737
1.0842022e-19 3.1069787 2
2.2592216 -1.0842022e-19 2.3846292
0 3.1112914 1.0842022e-19
2.4183819 -3.6893488e+19 2.381366
1.0842022e-19 3.1053278 3.6893488e+19
2.2580228 -3.6893488e+19 2.3626115
-0 3.1118877 -3.6893488e+19
2.4190724 3.6893488e+19 2.3612721
-3.6893488e+19 3.106468 3.6893488e+19
2.2588508 1.0842022e-19 2.3435113
-0 3.071681 -1.0842022e-19
2.0590711 3.6893488e+19 2.3001649
-0 3.048481 3.6893488e+19
2.2714903 -3.6893488e+19 2.2713177
0 3.0729578 2
2.0602977 -2 2.2830808
-3.6893488e+19 3.0491099 2
2.2720625 -0 2.2549019
-1.0842022e-19 3.0727615 0
2.0601094 3.6893488e+19 2.2646728
-1.0842022e-19 3.0491381 2
2.2720881 -0 2.2259166
3.6893488e+19 3.0721145 2
2.0594876 0 2.2419438
-1.0842022e-19 3.0490894 -2
2.2720437 -2 2.191963
3.6893488e+19 3.071233 1.0842022e-19
2.0586407 2 2.2043977
3.6893488e+19 3.038909 -2
2.2627838 -2 2.1442316
1.0842022e-19 3.0695574 -0
2.0570307 -2 2.1660674
-1.0842022e-19 3.1070223 1.0842022e-19
2.324738 1.0842022e-19 2.1968374
-0 3.065562 -1.0842022e-19
2.0531919 -3.6893488e+19 2.1253884
2 3.0446115 -3.6893488e+19
2.2679706 0 2.0854685
-2 3.0669625 -2
2.0545375 -2 2.0914638
1.0842022e-19 3.0644288 -3.6893488e+19
2.364114 -0 2.0560656
-1.0842022e-19 3.0250814 2
2.1495032 0 2.0006373
-2 3.0650163 -3.6893488e+19
2.3647945 0 2.0210245
1.0842022e-19 3.1221957 0
2.2702715 3.6893488e+19 2.0473149
-1.0842022e-19 3.04387 -0
2.3403068 2 1.9696268
-1.0842022e-19 3.0257075 0
2.1504126 -1.0842022e-19 1.9392977
-3.6893488e+19 3.1155 -0
2.4232557 -2 1.9818889
2 3.023046 2
2.1465471 -3.6893488e+19 1.90684
-3.6893488e+19 3.0246005 3.6893488e+19
2.1488049 -3.6893488e+19 1.8769497
3.6893488e+19 3.0520976 3.6893488e+19
2.3498344 0 1.871998
0 3.1348262 -2
2.279443 -2 1.8847767
-0 3.0540297 0
2.352072 -2 1.8050232
-1.0842022e-19 3.0323081 2
2.1599987 1.0842022e-19 1.7594943
-0 3.0192285 3.6893488e+19
2.1410029 -2 1.6358881
-3.6893488e+19 3.0255945 3.6893488e+19
2.0147913 -2 1.529392
-0 3.025506 2
2.2505929 2 1.2502455
2 3.0255651 -0
2.0147629 1.0842022e-19 -1.4339586
-2 3.0267429 3.6893488e+19
2.251718 -0 -1.5920551
-3.6893488e+19 3.0259588 -0
2.0151412 -2 -1.6693891
3.6893488e+19 3.0254827 0
2.2505717 -0 -1.7317556
-3.6893488e+19 3.0260584 1.0842022e-19
2.0152371 1.0842022e-19 -1.7714347
-1.0842022e-19 3.0217876 -0
2.2444217 0 -1.8003542
-0 3.025178 -0
2.0143909 -1.0842022e-19 -1.8324823
2 3.0228295 -0
2.2463169 1.0842022e-19 -1.8623201
-0 3.0245337 3.6893488e+19
2.013772 -0 -1.8841997
-1.0842022e-19 3.0226784 -2
2.246042 -3.6893488e+19 -1.8992296
-1.0842022e-19 2.9560452 0
1.9690841 3.6893488e+19 -1.8869747
0 2.8380561 1.0842022e-19
2.0574868 0 -1.8805177
-3.6893488e+19 2.7803285 0
2.0746257 0 -1.8581564
-0 2.7091727 -0
2.0158651 -3.6893488e+19 -1.8419027
3.6893488e+19 2.6723261 -3.6893488e+19
1.9033369 3.6893488e+19 -1.8351222
3.6893488e+19 2.6371286 -3.6893488e+19
1.9741509 0 -1.8297714
0 2.6126449 -3.6893488e+19
1.881668 -3.6893488e+19 -1.825821
0 2.586724 -0
1.9449662 3.6893488e+19 -1.8221726
0 2.5722435 -0
1.8589984 -0 -1.8215896
1.0842022e-19 2.547946 -0
1.9225134 0 -1.8163536
3.6893488e+19 2.5337298 -3.6893488e+19
1.8310316 -3.6893488e+19 -1.8140808
2 2.3091128 -2
1.803979 3.6893488e+19 -1.7160621
-1.0842022e-19 2.5044217 3.6893488e+19
1.8097495 -0 -1.8089048
-3.6893488e+19 2.4611797 2
1.7924439 3.6893488e+19 -1.8047025
-2 2.3121564 -0
1.8057414 2 -1.7518406
1.0842022e-19 2.3768485 -2
1.6810379 0 -1.7981191
-2 2.3242331 2
1.6557616 -0 -1.7923316
0 2.2850816 -2
1.6369531 2 -1.7883477
0 2.2524378 -3.6893488e+19
1.6175421 -2 -1.7840648
2 2.2104046 1.0842022e-19
1.7582892 -3.6893488e+19 -1.7846248
2 2.1747169 2
1.7459149 -3.6893488e+19 -1.7846006
2 2.139611 0
1.7255883 1.0842022e-19 -1.7827957
-2 2.1080055 1.0842022e-19
1.7072885 -1.0842022e-19 -1.7805172
2 3.1185102 -0
2.0885751 2 2.5917287
-2 3.138536 -3.6893488e+19
2.3451617 3.6893488e+19 2.6061804
-0 3.1237051 -3.6893488e+19
2.3319864 2 2.5815744
2 3.1197245 -3.6893488e+19
2.0896907 2 2.5711639
-1.0842022e-19 3.1198962 3.6893488e+19
2.3286028 -0 2.5673282
-3.6893488e+19 3.1209459 2
2.0908132 0 2.5613947
-1.0842022e-19 3.1105196 -2
2.3202729 -2 2.5487244
-3.6893488e+19 3.1211729 0
2.0910218 3.6893488e+19 2.5507777
0 3.1119423 1.0842022e-19
2.3215368 0 2.5393343
-3.6893488e+19 3.1001713 3.6893488e+19
2.31108 2 2.5197258
-1.0842022e-19 3.1112063 -0
2.0818646 1.0842022e-19 2.5217564
0 3.1054564 0
2.3157749 1.0842022e-19 2.5134733
-0 3.1102273 0
2.0809653 -0 2.5106182
-2 3.1044359 -0
2.3148685 -3.6893488e+19 2.5024476
-1.0842022e-19 3.1265135 -0
2.4279616 1.0842022e-19 2.5137467
2 3.1107619 1.0842022e-19
2.2543526 1.0842022e-19 2.4919446
2 3.1270511 1.0842022e-19
2.4285727 -0 2.5031965
-2 3.1092443 -3.6893488e+19
2.2532825 0 2.4692054
2 3.1358814 0
2.4386096 2 2.4959435
-0 3.1100428 -3.6893488e+19
2.2538455 -1.0842022e-19 2.4495831
0 3.1092851 -3.6893488e+19
2.2533112 2 2.428056
-0 3.113061 3.6893488e+19
2.4126709 2 2.424768
-0 3.1133573 2
2.4130077 3.6893488e+19 2.4042368
-0 3.1069696 -3.6893488e+19
2.2516787 3.6893488e+19 2.3845296
0 3.1132371 -2
2.4128709 -1.0842022e-19 2.383276
-2 3.1024463 0
2.2469797 -0 2.359587
1.0842022e-19 3.1120543 1.0842022e-19
2.4115267 -3.6893488e+19 2.3613026
-2 3.1059952 -0
2.2509918 0 2.3429754
1.0842022e-19 3.1232038 3.6893488e+19
2.0928874 0 2.3481879
-1.0842022e-19 3.1061592 -0
2.3163993 -1.0842022e-19 2.3236518
-2 3.1142864 1.0842022e-19
2.0846946 0 2.3192577
2 3.1067398 3.6893488e+19
2.316915 3.6893488e+19 2.3039246
1.0842022e-19 3.1106138 -3.6893488e+19
2.08132 -2 2.2956669
-1.0842022e-19 3.1098688 -0
2.3196948 -0 2.2861841
-2 3.1099925 2
2.0807495 2 2.2748539
0 3.2065141 -1.0842022e-19
2.405551 -1.0842022e-19 2.3371949
-1.0842022e-19 3.0720904 -3.6893488e+19
2.0459261 -0 2.2055404
0 3.2046287 3.6893488e+19
2.4038761 0 2.3100913
-0 3.1164684 -0
2.0866992 1.0842022e-19 2.227073
1.0842022e-19 3.1061366 -1.0842022e-19
2.3163791 -3.6893488e+19 2.1955974
1.0842022e-19 3.1176317 -3.6893488e+19
2.0877678 2 2.1872625
-0 3.1055152 -3.6893488e+19
2.3158271 -1.0842022e-19 2.1546993
0 3.0651126 -2
2.039515 2 2.0894186
0 3.1229782 -1.0842022e-19
2.423943 0 2.1129215
-0 3.124258 -1.0842022e-19
2.2638679 -1.0842022e-19 2.0909209
2 3.0656908 1.0842022e-19
2.3588278 0 2.0215027
3.6893488e+19 3.1208837 1.0842022e-19
2.2614889 -3.6893488e+19 2.0461974
-0 3.0436404 -3.6893488e+19
2.3337643 -2 1.9693727
-1.0842022e-19 3.1175199 -2
2.2591171 2 2.0022759
-1.0842022e-19 3.1226242 3.6893488e+19
2.4235408 -2 1.98632
-3.6893488e+19 3.1231267 3.6893488e+19
2.2630703 -1.0842022e-19 1.9642771
2 3.106668 1.0842022e-19
2.4054043 0 1.9359716
-0 3.0242293 3.6893488e+19
2.1366868 -3.6893488e+19 1.8767483
1.0842022e-19 3.1282046 1.0842022e-19
2.4298837 -0 1.9045538
2 3.0250869 2
2.1378961 1.0842022e-19 1.817641
-0 3.0552266 1.0842022e-19
2.3469338 -1.0842022e-19 1.8056641
3.6893488e+19 3.063936 -2
2.1926765 1.0842022e-19 1.7745271
-0 3.0283117 -0
2.3163412 1.0842022e-19 1.7040102
1.0842022e-19 3.0622799 0
2.1903415 -0 1.6575806
-2 3.0704377 0
2.0444078 1.0842022e-19 1.5544863
-0 3.0614293 3.6893488e+19
2.2766628 3.6893488e+19 1.2665346
2 3.0710325 -3.6893488e+19
2.0449541 -3.6893488e+19 -1.4642782
-1.0842022e-19 3.0493729 -1.0842022e-19
2.2659523 -0 -1.6097351
2 3.0730779 0
2.0468335 3.6893488e+19 -1.6982813
1.0842022e-19 3.0523965 -0
2.2686384 -1.0842022e-19 -1.7521613
-2 3.0694299 3.6893488e+19
2.0434818 0 -1.7944149
1.0842022e-19 3.0217435 3.6893488e+19
2.2328148 0 -1.8002741
1.0842022e-19 3.0251892 2
2.0028348 2 -1.8324589
1.0842022e-19 3.0218232 -2
2.2329562 2 -1.8613751
-1.0842022e-19 3.0300643 -2
2.007314 -3.6893488e+19 -1.8868822
-3.6893488e+19 3.0480571 0
2.2647836 -3.6893488e+19 -1.9130708
-2 3.037761 -0
2.0143855 1.0842022e-19 -1.9228334
-3.6893488e+19 2.9707713 -2
2.1682167 -3.6893488e+19 -1.9052379
-0 2.9299848 0
2.1319835 3.6893488e+19 -1.915961
-0 2.7848833 -3.6893488e+19
2.0738106 -2 -1.8618556
-2 2.7067506 2
2.0095813 -3.6893488e+19 -1.8406776
1.0842022e-19 2.673295 -2
1.8992205 3.6893488e+19 -1.835555
2 2.6369035 -2
1.9698856 -2 -1.8295754
1.0842022e-19 2.6112392 -0
1.8773445 0 -1.8249959
-1.0842022e-19 2.5867269 -3.6893488e+19
1.9413692 2 -1.8221004
2 2.5714498 -0
1.8516358 -2 -1.8210595
1.0842022e-19 2.5485513 0
1.9196732 -1.0842022e-19 -1.8166703
0 2.5345409 -3.6893488e+19
1.8256134 1.0842022e-19 -1.814577
0 2.5047295 -1.0842022e-19
1.8045951 2 -1.8090841
2 2.4630229 -2
1.7882254 -0 -1.8053784
2 3.1185102 -0
2.0885751 2 2.5917287
-2 3.138536 -3.6893488e+19
2.3451617 3.6893488e+19 2.6061804
-0 3.1237051 -3.6893488e+19
2.3319864 2 2.5815744
2 3.1197245 -3.6893488e+19
2.0896907 2 2.5711639
-1.0842022e-19 3.1198962 3.6893488e+19
2.3286028 -0 2.5673282
-3.6893488e+19 3.1209459 2
2.0908132 0 2.5613947
-1.0842022e-19 3.1105196 -2
2.3202729 -2 2.5487244
-3.6893488e+19 3.1211729 0
2.0910218 3.6893488e+19 2.5507777
0 3.1119423 1.0842022e-19
2.3215368 0 2.5393343
-3.6893488e+19 3.1001713 3.6893488e+19
2.31108 2 2.5197258
-1.0842022e-19 3.1112063 -0
2.0818646 1.0842022e-19 2.5217564
0 3.1054564 0
2.3157749 1.0842022e-19 2.5134733
-0 3.1102273 0
2.0809653 -0 2.5106182
-2 3.1044359 -0
2.3148685 -3.6893488e+19 2.5024476
-1.0842022e-19 3.1265135 -0
2.4279616 1.0842022e-19 2.5137467
2 3.1107619 1.0842022e-19
2.2543526 1.0842022e-19 2.4919446
2 3.1270511 1.0842022e-19
2.4285727 -0 2.5031965
-2 3.1092443 -3.6893488e+19
2.2532825 0 2.4692054
2 3.1358814 0
2.4386096 2 2.4959435
-0 3.1100428 -3.6893488e+19
2.2538455 -1.0842022e-19 2.4495831
0 3.1092851 -3.6893488e+19
2.2533112 2 2.428056
-0 3.113061 3.6893488e+19
2.4126709 2 2.424768
-0 3.1133573 2
2.4130077 3.6893488e+19 2.4042368
-0 3.1069696 -3.6893488e+19
2.2516787 3.6893488e+19 2.3845296
0 3.1132371 -2
2.4128709 -1.0842022e-19 2.383276
-2 3.1024463 0
2.2469797 -0 2.359587
1.0842022e-19 3.1120543 1.0842022e-19
2.4115267 -3.6893488e+19 2.3613026
-2 3.1059952 -0
2.2509918 0 2.3429754
1.0842022e-19 3.0729082 -2
2.0466774 3.6893488e+19 2.3012636
-2 3.049186 3.6893488e+19
2.2657864 3.6893488e+19 2.2718787
2 3.0726042 -0
2.0463982 -1.0842022e-19 2.2827275
-1.0842022e-19 3.0492289 0
2.2658246 -3.6893488e+19 2.2549281
1.0842022e-19 3.0719733 2
2.0458186 -1.0842022e-19 2.2639856
-1.0842022e-19 3.0488861 -1.0842022e-19
2.2655199 2 2.2253759
2 3.07322 -1.0842022e-19
2.0469639 2 2.2435563
-1.0842022e-19 3.1081593 0
2.3181763 1.0842022e-19 2.2645473
-1.0842022e-19 3.0720904 -3.6893488e+19
2.0459261 -0 2.2055404
-1.0842022e-19 3.0502281 1.0842022e-19
2.2667122 0 2.1595569
2 3.0647244 1.0842022e-19
2.0391586 -0 2.1597118
3.6893488e+19 3.0435238 2
2.2607563 3.6893488e+19 2.1172566
-3.6893488e+19 3.0642104 -3.6893488e+19
2.0386863 3.6893488e+19 2.1237233
2 3.0444813 -2
2.2616067 -0 2.0852215
0 3.0651126 -2
2.039515 2 2.0894186
1.0842022e-19 3.0648248 -2
2.3578434 -3.6893488e+19 2.0563359
-1.0842022e-19 3.0245242 0
2.1371028 0 2.000071
2 3.0656908 1.0842022e-19
2.3588278 0 2.0215027
-1.0842022e-19 3.0242841 -3.6893488e+19
2.136764 2 1.9690506
-0 3.0436404 -3.6893488e+19
2.3337643 -2 1.9693727
1.0842022e-19 3.0247769 -3.6893488e+19
2.1374588 -2 1.9386145
1.0842022e-19 3.0430169 1.0842022e-19
2.3330557 0 1.9358327
2 3.0223944 1.0842022e-19
2.1340995 0 1.9064292
-1.0842022e-19 3.0462749 -3.6893488e+19
2.3367589 -3.6893488e+19 1.9044818
-0 3.0242293 3.6893488e+19
2.1366868 -3.6893488e+19 1.8767483
0 3.0532627 0
2.3447015 -1.0842022e-19 1.8728573
2 3.0250869 2
2.1378961 1.0842022e-19 1.817641
2 3.0298297 3.6893488e+19
2.3180666 1.0842022e-19 1.7906317
3.6893488e+19 3.0265849 0
2.1400084 -1.0842022e-19 1.7567368
-0 3.0283117 -0
2.3163412 1.0842022e-19 1.7040102
0 3.0192916 -3.6893488e+19
2.129724 -2 1.6358881
2 3.0250754 1.0842022e-19
2.0027304 2 1.5290775
1.0842022e-19 3.0214252 3.6893488e+19
2.2322493 2 1.246708
-2 3.0245779 1.0842022e-19
2.0022733 -1.0842022e-19 -1.4332714
2 3.029247 -2
2.2461464 -2 -1.5939546
2 3.0250967 -3.6893488e+19
2.0027497 1.0842022e-19 -1.668834
1.0842022e-19 3.0309055 -0
2.2490931 2 -1.7362481
1.0842022e-19 3.02529 0
2.0029275 -2 -1.7710044
1.0842022e-19 3.0217435 3.6893488e+19
2.2328148 0 -1.8002741
1.0842022e-19 3.0251892 2
2.0028348 2 -1.8324589
1.0842022e-19 3.0218232 -2
2.2329562 2 -1.8613751
-1.0842022e-19 3.0300643 -2
2.007314 -3.6893488e+19 -1.8868822
1.0842022e-19 3.0222931 -2
2.2337911 -3.6893488e+19 -1.8989749
3.6893488e+19 2.9563024 -1.0842022e-19
1.9596179 -1.0842022e-19 -1.8870308
-3.6893488e+19 2.9707713 -2
2.1682167 -3.6893488e+19 -1.9052379
2 2.8358598 0
2.0483661 0 -1.8796316
-0 2.7848833 -3.6893488e+19
2.0738106 -2 -1.8618556
-2 2.7067506 2
2.0095813 -3.6893488e+19 -1.8406776
1.0842022e-19 2.673295 -2
1.8992205 3.6893488e+19 -1.835555
2 2.6369035 -2
1.9698856 -2 -1.8295754
1.0842022e-19 2.6112392 -0
1.8773445 0 -1.8249959
-1.0842022e-19 2.5867269 -3.6893488e+19
1.9413692 2 -1.8221004
2 2.5714498 -0
1.8516358 -2 -1.8210595
1.0842022e-19 2.5485513 0
1.9196732 -1.0842022e-19 -1.8166703
0 2.5345409 -3.6893488e+19
1.8256134 1.0842022e-19 -1.814577
0 2.5047295 -1.0842022e-19
1.8045951 2 -1.8090841
2 2.4630229 -2
1.7882254 -0 -1.8053784
-1.0842022e-19 3.116832 1.0842022e-19
2.0714667 -1.0842022e-19 2.590122
-3.6893488e+19 3.133287 2
2.3322942 -0 2.6012666
3.6893488e+19 3.1231158 3.6893488e+19
2.3234761 0 2.5809555
0 3.1188951 -0
2.0732744 -2 2.5703957
-1.0842022e-19 3.1206112 2
2.3213048 -0 2.5678494
-2 3.1197793 -0
2.0740495 3.6893488e+19 2.5603693
1.0842022e-19 3.1126935 0
2.3144405 0 2.5504386
-1.0842022e-19 3.1142716 -3.6893488e+19
2.3158085 3.6893488e+19 2.5411119
0 3.1113296 -2
2.0666444 1.0842022e-19 2.53227
-3.6893488e+19 3.1069555 -1.0842022e-19
2.3094659 -3.6893488e+19 2.5248716
-2 3.1106465 -1.0842022e-19
2.066046 -3.6893488e+19 2.5212948
-2 3.1060176 -2
2.3086526 -0 2.5138128
-2 3.1105571 1.0842022e-19
2.0659678 -3.6893488e+19 2.510818
2 3.1177549 -2
2.3188283 1.0842022e-19 2.5118582
0 3.1277211 -3.6893488e+19
2.4211864 -3.6893488e+19 2.5144939
3.6893488e+19 3.1103842 2
2.2428126 2 2.4913168
0 3.1268556 1.0842022e-19
2.4202216 -3.6893488e+19 2.5029709
-1.0842022e-19 3.1086814 1.0842022e-19
2.2404842 3.6893488e+19 2.4683626
0 3.1094179 3.6893488e+19
2.2414911 1.0842022e-19 2.4486997
1.0842022e-19 3.1223679 2
2.4152174 -3.6893488e+19 2.4569211
-3.6893488e+19 3.1090286 -1.0842022e-19
2.2409589 -2 2.4276524
1.0842022e-19 3.11338 1.0842022e-19
2.4051952 -3.6893488e+19 2.4249828
2 3.1142285 -3.6893488e+19
2.4061413 -3.6893488e+19 2.405055
3.6893488e+19 3.1067121 -0
2.2377911 1.0842022e-19 2.3841641
-1.0842022e-19 3.1155205 0
2.4075823 -3.6893488e+19 2.3855419
-2 3.1033921 1.0842022e-19
2.2332513 -2 2.3604691
1.0842022e-19 3.1107147 -3.6893488e+19
2.4022231 -2 2.3598318
-0 3.1027381 -3.6893488e+19
2.2323568 3.6893488e+19 2.3397593
3.6893488e+19 3.1232281 2
2.0770717 -2 2.3481588
-1.0842022e-19 3.1055524 2
2.3082495 -3.6893488e+19 2.3230066
-1.0842022e-19 3.1140924 2
2.0690658 0 2.3190403
2 3.1059473 -1.0842022e-19
2.3085916 -2 2.3031614
0 3.1123435 -2
2.067533 2 2.2970412
-1.0842022e-19 3.1078398 -3.6893488e+19
2.3102324 -3.6893488e+19 2.284488
-0 3.1101391 -1.0842022e-19
2.0656013 -1.0842022e-19 2.274925
-3.6893488e+19 3.1093769 3.6893488e+19
2.3115652 -0 2.2653697
-2 3.068315 0
2.0289497 -1.0842022e-19 2.200134
-2 3.2198985 -1.0842022e-19
2.4073827 -3.6893488e+19 2.3204134
0 3.1162741 -3.6893488e+19
2.0709774 -2 2.2267489
-0 3.103514 -2
2.3064821 3.6893488e+19 2.192188
-3.6893488e+19 3.1169703 -1.0842022e-19
2.0715878 2 2.1864114
-1.0842022e-19 3.0944927 -2
2.298661 -2 2.1420381
-2 3.0656261 -2
2.0265932 -2 2.0899215
3.6893488e+19 3.1224372 0
2.4152949 0 2.1122603
-0 3.1227896 1.0842022e-19
2.2548883 3.6893488e+19 2.0895054
1.0842022e-19 3.2423494 2
2.5245028 0 2.1732764
-0 3.1183255 0
2.2518361 -1.0842022e-19 2.0440869
3.6893488e+19 3.1189108 -0
2.2522361 0 2.0031726
0 3.1224537 -0
2.415313 0 1.986124
1.0842022e-19 3.1229637 0
2.2550073 -2 1.9641342
-2 3.1157098 3.6893488e+19
2.4077933 -1.0842022e-19 1.9406152
0 3.0231719 1.0842022e-19
2.1235528 -1.0842022e-19 1.8762306
-0 3.1272314 0
2.4206407 -0 1.9040987
-3.6893488e+19 3.0257413 3.6893488e+19
2.1270666 -3.6893488e+19 1.818055
-0 3.0296862 -2
2.3118706 3.6893488e+19 1.7904851
-2 3.0619843 1.0842022e-19
2.1766276 -0 1.7735634
1.0842022e-19 3.0301485 -0
2.312386 2 1.7052802
-3.6893488e+19 3.0635657 -0
2.1787901 3.6893488e+19 1.6581932
2 3.0687068 -0
2.0292928 3.6893488e+19 1.5534902
1.0842022e-19 3.0589721 3.6893488e+19
2.2678661 -3.6893488e+19 1.265377
-2 3.0673668 0
2.0281188 -0 -1.4618002
3.6893488e+19 3.0607684 2
2.2694235 0 -1.6185995
-2 3.0247941 0
1.990811 2 -1.6686233
-0 3.0635746 3.6893488e+19
2.2718563 -1.0842022e-19 -1.7568235
0 3.0721917 -0
2.0323467 2 -1.7958542
-0 3.0217912 1.0842022e-19
2.2212639 0 -1.8002541
0 3.026665 -3.6893488e+19
1.9924502 -1.0842022e-19 -1.8335404
0 3.0470891 0
2.2575641 0 -1.8791356
0 3.0295758 0
1.9950012 2 -1.8866231
-1.0842022e-19 3.04774 3.6893488e+19
2.2581284 -3.6893488e+19 -1.91285
3.6893488e+19 3.0301955 -2
1.9955442 0 -1.9182645
1.0842022e-19 2.9681764 1.0842022e-19
2.1558897 -1.0842022e-19 -1.9043374
-0 2.9164014 2
1.9324529 -3.6893488e+19 -1.8983235
-1.0842022e-19 2.9365022 1.0842022e-19
2.1284297 2 -1.9184277
0 2.7836912 1.0842022e-19
2.0663364 -3.6893488e+19 -1.8607767
1.0842022e-19 2.6973171 -0
1.9029225 -1.0842022e-19 -1.8223276
