# .PCD v0.7 - Point Cloud Data file format
VERSION 0.7
FIELDS x y z
SIZE 4 4 4
TYPE F F F
COUNT 1 1 1
WIDTH 1712
HEIGHT 1
VIEWPOINT 0 0 0 1 0 0 0
POINTS 1712
DATA ascii
2.7600212 1.0842022e-19 2.5973167
-0 3.1839905 2
2.7676828 0 2.5944123
2 3.1598377 3.6893488e+19
2.8014131 0 2.5748456
3.6893488e+19 3.1846416 -1.0842022e-19
2.7680843 2 2.5818086
2 3.1603014 -2
2.801754 -3.6893488e+19 2.5626161
-0 3.267518 0
2.931026 -0 2.6541853
-1.0842022e-19 3.0925827 2
2.7188916 -2 2.4970427
-3.6893488e+19 3.2680526 0
2.9318874 1.0842022e-19 2.6384008
1.0842022e-19 3.1478338 -0
2.7722566 -1.0842022e-19 2.5265453
-2 3.0946541 -1.0842022e-19
2.7217267 0 2.4583189
-3.6893488e+19 3.1425099 1.0842022e-19
2.8162067 -1.0842022e-19 2.5101581
3.6893488e+19 3.0935032 -0
2.7201514 -2 2.4360607
1.0842022e-19 3.1445272 -1.0842022e-19
2.8178315 -1.0842022e-19 2.4987376
3.6893488e+19 3.1428511 -0
2.7688468 3.6893488e+19 2.4750497
2 3.0919037 -2
2.717962 -1.0842022e-19 2.3928993
3.6893488e+19 3.0913103 1.0842022e-19
2.71715 -1.0842022e-19 2.3717449
2 3.0790949 1.0842022e-19
2.7651193 2 2.3555629
-0 3.0948956 -2
2.7220571 -3.6893488e+19 2.3550036
-0 3.1044452 -3.6893488e+19
2.6872394 3.6893488e+19 2.3507364
-3.6893488e+19 3.0840776 1.0842022e-19
2.7413917 -1.0842022e-19 2.3265188
0 3.1209931 -3.6893488e+19
2.7076526 -3.6893488e+19 2.3451726
1.0842022e-19 3.0849199 -1.0842022e-19
2.7426302 -1.0842022e-19 2.3071971
-1.0842022e-19 3.119519 -0
2.7058344 -0 2.3219841
1.0842022e-19 3.0872934 3.6893488e+19
2.7461214 -0 2.289113
-3.6893488e+19 3.1183217 -0
2.7043574 0 2.2992301
1.0842022e-19 3.0726576 -2
2.7245936 -0 2.2572169
0 3.1544309 2
2.7489011 -0 2.3047538
2 3.0724802 -2
2.7243328 2 2.2255135
-2 3.1580672 3.6893488e+19
2.7516935 -2 2.2835031
1.0842022e-19 3.072813 -3.6893488e+19
2.7248223 -1.0842022e-19 2.1873806
-2 3.1557624 -3.6893488e+19
2.7502718 -0 2.2580693
2 3.0733058 2
2.7255473 3.6893488e+19 2.1494012
-2 3.1740806 3.6893488e+19
2.7615705 0 2.2396855
0 3.0736077 1.0842022e-19
2.7259912 3.6893488e+19 2.1111298
-0 3.0738862 3.6893488e+19
2.7609231 3.6893488e+19 2.096168
2 3.0787854 2
2.7000072 -2 2.0750606
-0 3.0724263 -1.0842022e-19
2.759747 3.6893488e+19 2.0557084
-2 3.0779073 1.0842022e-19
2.6988056 3.6893488e+19 2.0354161
-1.0842022e-19 3.073179 0
2.7603536 -1.0842022e-19 2.0174541
-3.6893488e+19 3.0747383 -1.0842022e-19
2.694468 2 1.9942911
1.0842022e-19 3.0706148 3.6893488e+19
2.7582877 -2 1.9766992
-3.6893488e+19 3.0677695 0
2.6849301 -3.6893488e+19 1.9515212
3.6893488e+19 3.0729003 1.0842022e-19
2.760129 -0 1.9394369
2 3.0723667 3.6893488e+19
2.691222 1.0842022e-19 1.9163935
-1.0842022e-19 3.0714042 1.0842022e-19
2.7589238 0 1.8998718
-1.0842022e-19 3.0771568 2
2.6977782 3.6893488e+19 1.8802665
3.6893488e+19 3.0704427 0
2.7581491 -3.6893488e+19 1.8467474
-2 3.0692501 3.6893488e+19
2.6869564 2 1.8039429
-0 3.069958 2
2.7577586 -1.0842022e-19 1.7694358
-2 3.0774689 0
2.6982055 2 1.7126406
2 3.0647414 1.0842022e-19
2.6382613 1.0842022e-19 1.6288846
1.0842022e-19 3.063045 0
2.6361687 3.6893488e+19 -1.2688545
-3.6893488e+19 3.0736225 -1.0842022e-19
2.7260132 -0 -1.5666763
2 3.0576904 -3.6893488e+19
2.6295631 -0 -1.6613193
-3.6893488e+19 3.0714052 -0
2.7227519 -3.6893488e+19 -1.7479889
2 3.053247 -0
2.6240819 -0 -1.7753017
-2 3.072633 3.6893488e+19
2.7245579 2 -1.8261609
2 3.0572495 2
2.7019303 -2 -1.882319
-2 3.0420208 3.6893488e+19
2.6102335 -1.0842022e-19 -1.8905722
3.6893488e+19 3.0131867 -3.6893488e+19
2.6371186 -0 -1.8946429
-1.0842022e-19 3.0058749 -1.0842022e-19
2.5656443 3.6893488e+19 -1.9030725
-1.0842022e-19 3.0011344 2
2.6193912 3.6893488e+19 -1.9179051
1.0842022e-19 2.979269 -1.0842022e-19
2.5456102 -3.6893488e+19 -1.9213676
-1.0842022e-19 2.7969222 0
2.4784021 -0 -1.8772656
3.6893488e+19 2.7722819 2
2.3726711 -3.6893488e+19 -1.8699186
-0 2.7115407 3.6893488e+19
2.3718178 2 -1.8506488
2 2.6837318 -3.6893488e+19
2.2968233 -1.0842022e-19 -1.845722
2 2.6276867 0
2.304265 -1.0842022e-19 -1.8324444
1.0842022e-19 2.607192 -2
2.2388871 -2 -1.827909
0 2.5722251 3.6893488e+19
2.2595849 -2 -1.8214408
-1.0842022e-19 2.5688021 -0
2.1863432 0 -1.8249881
-2 2.5369163 1.0842022e-19
2.2122805 -0 -1.8172623
-2 2.5294933 -1.0842022e-19
2.1325414 -3.6893488e+19 -1.8169013
3.6893488e+19 2.5067153 2
2.1636205 -2 -1.8125594
2 2.5007005 1.0842022e-19
2.0931327 -3.6893488e+19 -1.8120166
1.0842022e-19 2.463928 -1.0842022e-19
2.1237409 2 -1.8085321
3.6893488e+19 2.4546928 -2
2.061168 2 -1.8081071
-1.0842022e-19 2.4227734 1.0842022e-19
2.0905869 -1.0842022e-19 -1.805077
-2 3.1669261 3.6893488e+19
2.7547677 -3.6893488e+19 2.6312578
3.6893488e+19 3.1776628 -3.6893488e+19
2.8119814 2 2.6414673
1.0842022e-19 3.1657679 -0
2.7540598 3.6893488e+19 2.617517
3.6893488e+19 3.1798744 -2
2.8135948 -2 2.630161
3.6893488e+19 3.1659784 3.6893488e+19
2.8034577 2 2.6050124
-1.0842022e-19 3.175163 2
2.7598009 -1.0842022e-19 2.5999961
3.6893488e+19 3.1870997 -0
2.7670949 0 2.596601
0 3.1382728 0
2.7634435 -3.6893488e+19 2.531415
-1.0842022e-19 3.2022512 -0
2.8615835 -1.0842022e-19 2.5773053
1.0842022e-19 3.0945754 -2
2.7175894 -2 2.4786205
-2 3.2677541 2
2.9281492 -3.6893488e+19 2.6210461
3.6893488e+19 3.095108 -2
2.7183123 -0 2.458513
1.0842022e-19 3.1430089 -1.0842022e-19
2.814218 -0 2.510215
-1.0842022e-19 3.1452878 -3.6893488e+19
2.768203 -2 2.5006754
-1.0842022e-19 3.1453726 3.6893488e+19
2.816108 -1.0842022e-19 2.4992814
2 3.1441686 -3.6893488e+19
2.7674437 2 2.4762177
-1.0842022e-19 3.1297019 -1.0842022e-19
2.8035789 -3.6893488e+19 2.4562185
-0 3.0924435 0
2.7146966 2 2.3931687
3.6893488e+19 3.0913508 -1.0842022e-19
2.7132137 -3.6893488e+19 2.3714573
-1.0842022e-19 3.0804486 -0
2.7642 1.0842022e-19 2.3566506
-0 3.0981412 -1.0842022e-19
2.7224283 1.0842022e-19 2.3580248
2 3.1658406 -3.6893488e+19
2.7541041 -0 2.4111586
1.0842022e-19 3.0853901 -0
2.7393365 0 2.3274872
2 3.1633811 1.0842022e-19
2.7526014 -3.6893488e+19 2.3843014
-3.6893488e+19 3.1638193 3.6893488e+19
2.8018827 -1.0842022e-19 2.3792019
-2 3.1595891 -1.0842022e-19
2.7502842 -0 2.3566127
-0 3.0877631 -0
2.7427988 1.0842022e-19 2.2892382
-0 3.1558011 -2
2.745939 0 2.3294139
-2 3.1477094 -2
2.7901304 0 2.3167431
-3.6893488e+19 3.1529105 1.0842022e-19
2.7424066 3.6893488e+19 2.3033643
-1.0842022e-19 3.2031808 -3.6893488e+19
2.8305969 -0 2.3337986
2 3.1588423 -2
2.7496557 -0 2.2838132
2 3.0729473 -0
2.7211823 -2 2.1871428
2 3.20666 2
2.7790475 -2 2.2902071
1.0842022e-19 3.2117357 -0
2.8368378 -0 2.2849329
3.6893488e+19 3.2179632 3.6893488e+19
2.8413808 0 2.2608614
2 3.2383821 -0
2.8904707 -0 2.260716
-1.0842022e-19 3.1993482 3.6893488e+19
2.8048832 -0 2.1938615
0 3.2411599 -0
2.8926916 3.6893488e+19 2.2152038
-3.6893488e+19 3.2511964 -0
2.8408742 -0 2.1869013
2 3.2420607 2
2.8934119 0 2.1567883
-2 3.0703571 -3.6893488e+19
2.6847253 3.6893488e+19 1.9907802
-1.0842022e-19 3.2436049 1.0842022e-19
2.8946466 2 2.09865
2 3.0691772 2
2.6831241 -2 1.9522332
2 3.2301328 1.0842022e-19
2.8838754 -2 2.0313849
-2 3.1944337 -0
2.8015487 -3.6893488e+19 1.9791952
-0 3.2291327 3.6893488e+19
2.8830757 -2 1.9731863
3.6893488e+19 3.0743721 1.0842022e-19
2.6901736 3.6893488e+19 1.8790425
-2 3.0735357 -1.0842022e-19
2.758673 0 1.8486527
0 3.0728197 2
2.688067 3.6893488e+19 1.8057822
0 3.0714262 -3.6893488e+19
2.7569861 2 1.7699461
-3.6893488e+19 3.0769622 2
2.6936886 0 1.7121223
3.6893488e+19 3.0645163 -2
2.6343777 -3.6893488e+19 1.6286888
1.0842022e-19 3.0860894 -2
2.7403567 -2 1.4906402
-1.0842022e-19 3.0618024 -1.0842022e-19
2.6310611 -2 -1.2681683
0 3.0612214 3.6893488e+19
2.7040741 -3.6893488e+19 -1.5591544
2 3.0581172 -3.6893488e+19
2.6265571 -0 -1.6614132
0 3.0756476 -3.6893488e+19
2.725122 -1.0842022e-19 -1.7505106
-2 3.0500841 -0
2.61674 0 -1.7736146
3.6893488e+19 3.0739114 -3.6893488e+19
2.722589 -2 -1.8267642
3.6893488e+19 3.0752938 -2
2.6475492 2 -1.861994
-3.6893488e+19 3.0601563 1.0842022e-19
2.7025206 0 -1.8834429
-0 3.0780447 -1.0842022e-19
2.6509111 1.0842022e-19 -1.9077864
3.6893488e+19 3.0533454 0
2.6925833 -3.6893488e+19 -1.9165536
-1.0842022e-19 3.0044081 1.0842022e-19
2.5609183 -1.0842022e-19 -1.9020727
0 3.0009649 -0
2.6161594 1.0842022e-19 -1.9176308
-3.6893488e+19 2.977385 2
2.5417118 -2 -1.9205569
1.0842022e-19 2.7946262 -3.6893488e+19
2.4711185 0 -1.8761488
1.0842022e-19 2.771934 -0
2.369015 2 -1.8693875
1.0842022e-19 2.7066956 -3.6893488e+19
2.3651366 1.0842022e-19 -1.8480453
-3.6893488e+19 2.6848278 -2
2.2950311 3.6893488e+19 -1.8460824
-3.6893488e+19 2.6298213 3.6893488e+19
2.3036745 -2 -1.8333977
-3.6893488e+19 2.6116445 -1.0842022e-19
2.2407525 -1.0842022e-19 -1.8302552
-2 2.5733743 3.6893488e+19
2.258544 2 -1.8219345
1.0842022e-19 2.5644829 1.0842022e-19
2.176754 -1.0842022e-19 -1.8221025
1.0842022e-19 2.5374496 1.0842022e-19
2.2096429 1.0842022e-19 -1.8174173
-1.0842022e-19 2.5303328 2
2.1304123 -2 -1.817306
-1.0842022e-19 2.5068696 1.0842022e-19
2.1607444 -2 -1.812475
-1.0842022e-19 2.5010421 1.0842022e-19
2.0906649 2 -1.8121046
-0 2.4644158 3.6893488e+19
2.1213093 2 -1.8085321
2 2.4555702 -3.6893488e+19
2.0591047 1.0842022e-19 -1.8082968
1.0842022e-19 2.4199839 -3.6893488e+19
2.0857849 -2 -1.8037008
-3.6893488e+19 2.3749025 3.6893488e+19
1.9790887 -2 -1.8019884
2 2.3216214 2
1.9465306 2 -1.7958598
-3.6893488e+19 2.2862196 -1.0842022e-19
1.9248979 -1.0842022e-19 -1.7940438
2 2.2518444 1.0842022e-19
1.9038925 -0 -1.7887508
-3.6893488e+19 2.1885028 3.6893488e+19
1.9252957 2 -1.785344
-0 2.1586566 1.0842022e-19
1.9133644 2 -1.7870867
2 2.1220479 2
1.8987297 -2 -1.7841483
-2 2.0923746 3.6893488e+19
1.8868675 0 -1.7821727
-2 3.1669261 3.6893488e+19
2.7547677 -3.6893488e+19 2.6312578
3.6893488e+19 3.1776628 -3.6893488e+19
2.8119814 2 2.6414673
1.0842022e-19 3.1657679 -0
2.7540598 3.6893488e+19 2.617517
3.6893488e+19 3.1798744 -2
2.8135948 -2 2.630161
3.6893488e+19 3.1659784 3.6893488e+19
2.8034577 2 2.6050124
-1.0842022e-19 3.175163 2
2.7598009 -1.0842022e-19 2.5999961
3.6893488e+19 3.1870997 -0
2.7670949 0 2.596601
1.0842022e-19 3.0926845 -0
2.7150235 3.6893488e+19 2.4967468
-1.0842022e-19 3.2022512 -0
2.8615835 -1.0842022e-19 2.5773053
1.0842022e-19 3.0945754 -2
2.7175894 -2 2.4786205
-2 3.2677541 2
2.9281492 -3.6893488e+19 2.6210461
3.6893488e+19 3.095108 -2
2.7183123 -0 2.458513
1.0842022e-19 3.1430089 -1.0842022e-19
2.814218 -0 2.510215
-1.0842022e-19 3.0963852 -0
2.7200456 0 2.4393272
-1.0842022e-19 3.1453726 3.6893488e+19
2.816108 -1.0842022e-19 2.4992814
2 3.1441686 -3.6893488e+19
2.7674437 2 2.4762177
-1.0842022e-19 3.1297019 -1.0842022e-19
2.8035789 -3.6893488e+19 2.4562185
-0 3.0924435 0
2.7146966 2 2.3931687
3.6893488e+19 3.0913508 -1.0842022e-19
2.7132137 -3.6893488e+19 2.3714573
-1.0842022e-19 3.0804486 -0
2.7642 1.0842022e-19 2.3566506
-0 3.0981412 -1.0842022e-19
2.7224283 1.0842022e-19 2.3580248
-2 3.0976665 -2
2.6748915 -0 2.3437521
1.0842022e-19 3.0853901 -0
2.7393365 0 2.3274872
1.0842022e-19 3.1206083 -2
2.702929 -3.6893488e+19 2.3445375
-3.6893488e+19 3.0848033 -3.6893488e+19
2.7384806 -2 2.3067958
-2 3.1185677 3.6893488e+19
2.7004354 2 2.3208971
-0 3.0877631 -0
2.7427988 1.0842022e-19 2.2892382
2 3.1218009 1.0842022e-19
2.7043867 0 2.3018138
0 3.0719442 1.0842022e-19
2.7197189 0 2.2564023
-3.6893488e+19 3.1529105 1.0842022e-19
2.7424066 3.6893488e+19 2.3033643
2 3.0712688 0
2.7187335 -1.0842022e-19 2.2232728
2 3.1239357 -3.6893488e+19
2.7069955 1.0842022e-19 2.2595816
2 3.0729473 -0
2.7211823 -2 2.1871428
-1.0842022e-19 3.1559696 -3.6893488e+19
2.746145 -3.6893488e+19 2.2579935
-0 3.0731475 3.6893488e+19
2.7214746 0 2.148823
-0 3.0806854 3.6893488e+19
2.7324724 -3.6893488e+19 2.1186743
2 3.0735028 -3.6893488e+19
2.7586465 0 2.0953951
0 3.0895963 0
2.7108328 -2 2.0854495
-0 3.0747936 -1.0842022e-19
2.7596786 -1.0842022e-19 2.0576293
-3.6893488e+19 3.076545 -1.0842022e-19
2.6931224 -1.0842022e-19 2.0339768
0 3.07178 2
2.7572691 -1.0842022e-19 2.0160165
-2 3.0703571 -3.6893488e+19
2.6847253 3.6893488e+19 1.9907802
1.0842022e-19 3.0718508 -3.6893488e+19
2.7573256 1.0842022e-19 1.9773341
2 3.0691772 2
2.6831241 -2 1.9522332
0 3.0712969 -0
2.7568829 1.0842022e-19 1.9382982
3.6893488e+19 3.071353 -0
2.6860766 -2 1.9157223
3.6893488e+19 3.0722644 2
2.7576566 1.0842022e-19 1.900115
3.6893488e+19 3.0743721 1.0842022e-19
2.6901736 3.6893488e+19 1.8790425
-2 3.0735357 -1.0842022e-19
2.758673 0 1.8486527
0 3.0728197 2
2.688067 3.6893488e+19 1.8057822
0 3.0714262 -3.6893488e+19
2.7569861 2 1.7699461
-3.6893488e+19 3.0769622 2
2.6936886 0 1.7121223
3.6893488e+19 3.0645163 -2
2.6343777 -3.6893488e+19 1.6286888
3.6893488e+19 3.0613406 3.6893488e+19
2.7042482 -1.0842022e-19 1.4729201
-1.0842022e-19 3.0618024 -1.0842022e-19
2.6310611 -2 -1.2681683
0 3.0612214 3.6893488e+19
2.7040741 -3.6893488e+19 -1.5591544
2 3.0581172 -3.6893488e+19
2.6265571 -0 -1.6614132
0 3.0756476 -3.6893488e+19
2.725122 -1.0842022e-19 -1.7505106
-2 3.0500841 -0
2.61674 0 -1.7736146
3.6893488e+19 3.0739114 -3.6893488e+19
2.722589 -2 -1.8267642
2 3.0445781 1.0842022e-19
2.6100109 -0 -1.8396159
-3.6893488e+19 3.0601563 1.0842022e-19
2.7025206 0 -1.8834429
3.6893488e+19 3.0424948 3.6893488e+19
2.6074648 0 -1.8906872
1.0842022e-19 3.0131459 -3.6893488e+19
2.6339316 0 -1.8944819
-1.0842022e-19 3.0044081 1.0842022e-19
2.5609183 -1.0842022e-19 -1.9020727
0 3.0009649 -0
2.6161594 1.0842022e-19 -1.9176308
-3.6893488e+19 2.977385 2
2.5417118 -2 -1.9205569
1.0842022e-19 2.7946262 -3.6893488e+19
2.4711185 0 -1.8761488
1.0842022e-19 2.771934 -0
2.369015 2 -1.8693875
1.0842022e-19 2.7066956 -3.6893488e+19
2.3651366 1.0842022e-19 -1.8480453
-3.6893488e+19 2.6848278 -2
2.2950311 3.6893488e+19 -1.8460824
-3.6893488e+19 2.6298213 3.6893488e+19
2.3036745 -2 -1.8333977
-3.6893488e+19 2.6116445 -1.0842022e-19
2.2407525 -1.0842022e-19 -1.8302552
-2 2.5733743 3.6893488e+19
2.258544 2 -1.8219345
1.0842022e-19 2.5644829 1.0842022e-19
2.176754 -1.0842022e-19 -1.8221025
1.0842022e-19 2.5374496 1.0842022e-19
2.2096429 1.0842022e-19 -1.8174173
-1.0842022e-19 2.5303328 2
2.1304123 -2 -1.817306
-1.0842022e-19 2.5068696 1.0842022e-19
2.1607444 -2 -1.812475
-1.0842022e-19 2.5010421 1.0842022e-19
2.0906649 2 -1.8121046
-0 2.4644158 3.6893488e+19
2.1213093 2 -1.8085321
2 2.4555702 -3.6893488e+19
2.0591047 1.0842022e-19 -1.8082968
1.0842022e-19 2.4199839 -3.6893488e+19
2.0857849 -2 -1.8037008
-3.6893488e+19 2.3749025 3.6893488e+19
1.9790887 -2 -1.8019884
2 2.3216214 2
1.9465306 2 -1.7958598
-3.6893488e+19 2.2862196 -1.0842022e-19
1.9248979 -1.0842022e-19 -1.7940438
2 2.2518444 1.0842022e-19
1.9038925 -0 -1.7887508
-3.6893488e+19 2.1885028 3.6893488e+19
1.9252957 2 -1.785344
-0 2.1586566 1.0842022e-19
1.9133644 2 -1.7870867
2 2.1220479 2
1.8987297 -2 -1.7841483
-2 2.0923746 3.6893488e+19
1.8868675 0 -1.7821727
-0 3.1696713 0
2.8036618 0 2.6599061
1.0842022e-19 3.1347539 2
2.7158105 1.0842022e-19 2.613322
-1.0842022e-19 3.1675508 -3.6893488e+19
2.7527583 -2 2.6315248
0 3.166831 0
2.7523227 -1.0842022e-19 2.6181631
-0 3.1684492 0
2.8027775 2 2.6067812
1.0842022e-19 3.1730957 -3.6893488e+19
2.7561147 3.6893488e+19 2.5980167
2 3.2706325 -1.0842022e-19
2.8916433 -0 2.6781981
-0 3.2190881 0
2.7839558 -3.6893488e+19 2.6075323
0 3.2809279 -2
2.9065421 1.0842022e-19 2.6772709
0 3.13958 3.6893488e+19
2.7620554 -3.6893488e+19 2.5321126
-2 3.2025802 2
2.8590982 2 2.5772018
-3.6893488e+19 3.0948219 -2
2.713897 -0 2.4785395
-3.6893488e+19 3.0954721 3.6893488e+19
2.7147717 3.6893488e+19 2.4585907
-2 3.1443954 -1.0842022e-19
2.8129315 -0 2.5108607
-1.0842022e-19 3.0962234 2
2.7157824 1.0842022e-19 2.4387333
-1.0842022e-19 3.1462741 -3.6893488e+19
2.8144221 -3.6893488e+19 2.4998977
2 3.0949647 -2
2.7140889 -2 2.4164028
-3.6893488e+19 3.090368 2
2.7700639 -3.6893488e+19 2.4085317
2 3.1629221 -2
2.7777567 1.0842022e-19 2.4736676
1.0842022e-19 3.0893662 -1.0842022e-19
2.7692688 -3.6893488e+19 2.3865938
3.6893488e+19 3.0905662 1.0842022e-19
2.7081716 2 2.3702757
1.0842022e-19 3.1698096 -1.0842022e-19
2.7823896 3.6893488e+19 2.4313457
1.0842022e-19 3.1664395 1.0842022e-19
2.7520857 2 2.4114227
3.6893488e+19 3.0828192 -1.0842022e-19
2.7316363 2 2.3246677
1.0842022e-19 3.1633837 -0
2.7502358 -3.6893488e+19 2.3839977
0 3.1688592 1.0842022e-19
2.8030741 3.6893488e+19 2.3834548
1.0842022e-19 3.1599753 3.6893488e+19
2.7463453 -1.0842022e-19 2.3566644
1.0842022e-19 3.0896637 -2
2.7415411 -1.0842022e-19 2.2905889
-1.0842022e-19 3.15413 -3.6893488e+19
2.7392685 2 2.327796
1.0842022e-19 3.1423244 -0
2.7838743 -0 2.3121569
-3.6893488e+19 3.1535296 -1.0842022e-19
2.7385418 -0 2.3035884
3.6893488e+19 3.1977279 2
2.8239627 0 2.3294685
2 3.1587212 2
2.744827 -2 2.2835031
-0 3.1952333 -0
2.8221576 1.0842022e-19 2.3010483
2 3.205354 -0
2.7756419 -1.0842022e-19 2.2891467
-3.6893488e+19 3.2022395 -2
2.8272271 -0 2.2788074
-0 3.1532462 -2
2.7381985 -3.6893488e+19 2.2148829
1.0842022e-19 3.2023985 -2
2.827342 -3.6893488e+19 2.2519448
-1.0842022e-19 3.2408345 -0
2.8894508 2 2.2617519
0 3.1864698 -2
2.7935963 2 2.1807587
2 3.0752778 1.0842022e-19
2.7580905 0 2.0577667
0 3.2522621 -3.6893488e+19
2.8393738 1.0842022e-19 2.1883664
1.0842022e-19 3.2437351 2
2.8917522 0 2.1577468
2 3.0688951 -2
2.6790168 -3.6893488e+19 1.9894692
0 3.2431917 -3.6893488e+19
2.8913209 -0 2.0979946
-3.6893488e+19 3.2313888 0
2.8819563 1.0842022e-19 2.031827
-2 3.1945016 -3.6893488e+19
2.7989991 2 1.9790275
-2 3.0745463 2
2.7575102 2 1.9010203
3.6893488e+19 3.07004 1.0842022e-19
2.6805573 2 1.8772064
1.0842022e-19 3.0716956 -0
2.7552481 -1.0842022e-19 1.8471485
-3.6893488e+19 3.0722466 -2
2.6835258 3.6893488e+19 1.8053017
1.0842022e-19 3.0721974 -2
2.7556462 -1.0842022e-19 1.7701423
-1.0842022e-19 3.0735199 -3.6893488e+19
2.6852388 0 1.7097033
1.0842022e-19 3.2143145 -2
2.7810659 2 1.6898296
-0 3.0613139 -1.0842022e-19
2.700515 1.0842022e-19 1.4726889
-0 3.2166858 -1.0842022e-19
2.7825015 -2 -1.3391144
-1.0842022e-19 3.061547 0
2.7008526 -0 -1.5591718
1.0842022e-19 3.05932 2
2.6244848 1.0842022e-19 -1.6619142
-1.0842022e-19 3.0511608 2
2.6146069 0 -1.774029
2 3.0792441 3.6893488e+19
2.7264626 2 -1.8298908
-3.6893488e+19 3.0693631 -0
2.6366439 -0 -1.8574879
3.6893488e+19 3.0590124 1.0842022e-19
2.6971846 -1.0842022e-19 -1.8828241
1.0842022e-19 3.0429971 1.0842022e-19
2.6047232 -3.6893488e+19 -1.8908165
-2 3.0532231 1.0842022e-19
2.6888068 -3.6893488e+19 -1.9163281
-0 3.0036545 -1.0842022e-19
2.5570922 1.0842022e-19 -1.9015014
2 2.9994714 1.0842022e-19
2.6114028 -1.0842022e-19 -1.916651
-3.6893488e+19 2.9774668 -1.0842022e-19
2.5390277 -3.6893488e+19 -1.9204502
-2 2.7957461 -1.0842022e-19
2.4693174 -1.0842022e-19 -1.8764962
1.0842022e-19 2.7720566 1.0842022e-19
2.366004 2 -1.8692813
1.0842022e-19 2.7106526 2
2.3655031 0 -1.8497432
1.0842022e-19 2.6852131 2
2.2927511 3.6893488e+19 -1.8460824
-0 2.6239564 -1.0842022e-19
2.2967143 2 -1.8299658
-2 2.6136198 2
2.2391863 1.0842022e-19 -1.8311937
2 2.5739439 -3.6893488e+19
2.2570319 1.0842022e-19 -1.8220755
-0 2.5666518 0
2.1759992 1.0842022e-19 -1.8232864
-3.6893488e+19 2.5378654 -1.0842022e-19
2.2068117 -3.6893488e+19 -1.8174946
0 2.5305812 0
2.1274724 -2 -1.817306
-2 2.5071378 1.0842022e-19
2.1580503 -2 -1.812475
1.0842022e-19 2.5013826 2
2.0881908 3.6893488e+19 -1.8121924
2 2.4651322 3.6893488e+19
2.1190574 -0 -1.8086234
3.6893488e+19 2.459512 0
2.0590961 -3.6893488e+19 -1.8097191
-1.0842022e-19 2.4204223 0
2.0835826 -2 -1.8037008
-0 3.1696713 0
2.8036618 0 2.6599061
1.0842022e-19 3.1347539 2
2.7158105 1.0842022e-19 2.613322
-1.0842022e-19 3.1675508 -3.6893488e+19
2.7527583 -2 2.6315248
0 3.166831 0
2.7523227 -1.0842022e-19 2.6181631
-0 3.1684492 0
2.8027775 2 2.6067812
1.0842022e-19 3.1730957 -3.6893488e+19
2.7561147 3.6893488e+19 2.5980167
2 3.2706325 -1.0842022e-19
2.8916433 -0 2.6781981
-0 3.2190881 0
2.7839558 -3.6893488e+19 2.6075323
0 3.2809279 -2
2.9065421 1.0842022e-19 2.6772709
-1.0842022e-19 3.0930171 3.6893488e+19
2.7114689 -2 2.496789
-2 3.2025802 2
2.8590982 2 2.5772018
-3.6893488e+19 3.0948219 -2
2.713897 -0 2.4785395
-3.6893488e+19 3.0954721 3.6893488e+19
2.7147717 3.6893488e+19 2.4585907
-2 3.1443954 -1.0842022e-19
2.8129315 -0 2.5108607
-1.0842022e-19 3.0962234 2
2.7157824 1.0842022e-19 2.4387333
-1.0842022e-19 3.1462741 -3.6893488e+19
2.8144221 -3.6893488e+19 2.4998977
2 3.0949647 -2
2.7140889 -2 2.4164028
-3.6893488e+19 3.090368 2
2.7700639 -3.6893488e+19 2.4085317
0 3.0943317 -1.0842022e-19
2.7132373 -1.0842022e-19 2.3949866
1.0842022e-19 3.0893662 -1.0842022e-19
2.7692688 -3.6893488e+19 2.3865938
3.6893488e+19 3.0905662 1.0842022e-19
2.7081716 2 2.3702757
-1.0842022e-19 3.097538 3.6893488e+19
2.717551 0 2.3570883
-1.0842022e-19 3.0982111 -3.6893488e+19
2.6715691 2 2.3440163
3.6893488e+19 3.0828192 -1.0842022e-19
2.7316363 2 2.3246677
1.0842022e-19 3.1633837 -0
2.7502358 -3.6893488e+19 2.3839977
0 3.0841875 1.0842022e-19
2.7336164 -2 2.3059399
1.0842022e-19 3.1599753 3.6893488e+19
2.7463453 -1.0842022e-19 2.3566644
1.0842022e-19 3.0896637 -2
2.7415411 -1.0842022e-19 2.2905889
-1.0842022e-19 3.15413 -3.6893488e+19
2.7392685 2 2.327796
1.0842022e-19 3.1423244 -0
2.7838743 -0 2.3121569
-3.6893488e+19 3.1535296 -1.0842022e-19
2.7385418 -0 2.3035884
3.6893488e+19 3.0710478 -3.6893488e+19
2.7146013 -2 2.2224972
-1.0842022e-19 3.1253366 -0
2.7044094 -3.6893488e+19 2.2603464
3.6893488e+19 3.0727861 0
2.7171171 1.0842022e-19 2.1865091
3.6893488e+19 3.1556969 1.0842022e-19
2.7411656 1.0842022e-19 2.2576149
-3.6893488e+19 3.2022395 -2
2.8272271 -0 2.2788074
-0 3.1532462 -2
2.7381985 -3.6893488e+19 2.2148829
0 3.0797982 1.0842022e-19
2.7272644 3.6893488e+19 2.1173353
0 3.0745075 3.6893488e+19
2.7574792 0 2.0961063
2 3.0882411 3.6893488e+19
2.7050436 3.6893488e+19 2.0838153
2 3.0752778 1.0842022e-19
2.7580905 0 2.0577667
-2 3.0682263 -3.6893488e+19
2.6781173 -2 2.0264976
-1.0842022e-19 3.0716226 0
2.7551904 1.0842022e-19 2.0156093
2 3.0688951 -2
2.6790168 -3.6893488e+19 1.9894692
-0 3.0713451 3.6893488e+19
2.7549701 2 1.9767402
1.0842022e-19 3.0728807 -2
2.7561884 -2 1.939029
-3.6893488e+19 3.0709269 -0
2.6817505 -1.0842022e-19 1.9153562
-2 3.0745463 2
2.7575102 2 1.9010203
3.6893488e+19 3.07004 1.0842022e-19
2.6805573 2 1.8772064
1.0842022e-19 3.0716956 -0
2.7552481 -1.0842022e-19 1.8471485
-3.6893488e+19 3.0722466 -2
2.6835258 3.6893488e+19 1.8053017
1.0842022e-19 3.0721974 -2
2.7556462 -1.0842022e-19 1.7701423
-1.0842022e-19 3.0735199 -3.6893488e+19
2.6852388 0 1.7097033
0 3.0646176 2
2.6308985 0 1.6286278
-0 3.0613139 -1.0842022e-19
2.700515 1.0842022e-19 1.4726889
3.6893488e+19 3.0629783 1.0842022e-19
2.6289139 2 -1.2685938
-1.0842022e-19 3.061547 0
2.7008526 -0 -1.5591718
1.0842022e-19 3.05932 2
2.6244848 1.0842022e-19 -1.6619142
-1.0842022e-19 3.0511608 2
2.6146069 0 -1.774029
-3.6893488e+19 3.0612922 -0
2.7004838 -0 -1.8187193
1.0842022e-19 3.0472651 3.6893488e+19
2.6098902 -0 -1.841401
3.6893488e+19 3.0590124 1.0842022e-19
2.6971846 -1.0842022e-19 -1.8828241
1.0842022e-19 3.0429971 1.0842022e-19
2.6047232 -3.6893488e+19 -1.8908165
2 3.013984 -1.0842022e-19
2.6320219 0 -1.8948041
-0 3.0036545 -1.0842022e-19
2.5570922 1.0842022e-19 -1.9015014
2 2.9994714 1.0842022e-19
2.6114028 -1.0842022e-19 -1.916651
-3.6893488e+19 2.9774668 -1.0842022e-19
2.5390277 -3.6893488e+19 -1.9204502
-2 2.7957461 -1.0842022e-19
2.4693174 -1.0842022e-19 -1.8764962
1.0842022e-19 2.7720566 1.0842022e-19
2.366004 2 -1.8692813
1.0842022e-19 2.7106526 2
2.3655031 0 -1.8497432
1.0842022e-19 2.6852131 2
2.2927511 3.6893488e+19 -1.8460824
-0 2.6239564 -1.0842022e-19
2.2967143 2 -1.8299658
-2 2.6136198 2
2.2391863 1.0842022e-19 -1.8311937
2 2.5739439 -3.6893488e+19
2.2570319 1.0842022e-19 -1.8220755
-0 2.5666518 0
2.1759992 1.0842022e-19 -1.8232864
-3.6893488e+19 2.5378654 -1.0842022e-19
2.2068117 -3.6893488e+19 -1.8174946
0 2.5305812 0
2.1274724 -2 -1.817306
-2 2.5071378 1.0842022e-19
2.1580503 -2 -1.812475
1.0842022e-19 2.5013826 2
2.0881908 3.6893488e+19 -1.8121924
2 2.4651322 3.6893488e+19
2.1190574 -0 -1.8086234
3.6893488e+19 2.459512 0
2.0590961 -3.6893488e+19 -1.8097191
-1.0842022e-19 2.4204223 0
2.0835826 -2 -1.8037008
-1.0842022e-19 3.1753404 -0
2.7550433 1.0842022e-19 2.6643646
-2 3.1705835 -0
2.8018324 0 2.6604097
-3.6893488e+19 3.2215991 -3.6893488e+19
2.7827809 -0 2.6949785
3.6893488e+19 3.1825171 -0
2.7593465 -2 2.6185811
-2 3.1696806 -2
2.8011844 3.6893488e+19 2.6074936
1.0842022e-19 3.1743579 2
2.8045411 3.6893488e+19 2.5984178
-3.6893488e+19 3.2322609 3.6893488e+19
2.7891741 1.0842022e-19 2.6318059
-1.0842022e-19 3.2711482 -2
2.8891799 0 2.6786096
2 3.2189872 -2
2.7812147 -2 2.6071734
0 3.2812221 -1.0842022e-19
2.9036388 -2 2.6773148
-3.6893488e+19 3.1398633 0
2.7599747 -0 2.5320704
-0 3.204999 3.6893488e+19
2.8582613 1.0842022e-19 2.5786102
-0 3.0945981 2
2.7095804 3.6893488e+19 2.4778094
0 3.0949848 -1.0842022e-19
2.7100959 -3.6893488e+19 2.4575419
-3.6893488e+19 3.0957355 -1.0842022e-19
2.7110975 -1.0842022e-19 2.437731
-0 3.1473463 -0
2.8128662 -2 2.5003657
-0 3.0957077 0
2.7110603 -0 2.4169338
2 3.0904903 -2
2.7680984 3.6893488e+19 2.4082556
-1.0842022e-19 3.1648707 -0
2.7766504 -2 2.4754856
-3.6893488e+19 3.0898328 -1.0842022e-19
2.7675807 2 2.3867252
1.0842022e-19 3.1683829 3.6893488e+19
2.7789924 0 2.429503
-3.6893488e+19 3.1005073 1.0842022e-19
2.6703436 -3.6893488e+19 2.3460116
2 3.212471 3.6893488e+19
2.7773075 1.0842022e-19 2.4292569
-2 3.1695178 -1.0842022e-19
2.8010676 1.0842022e-19 2.3836956
1.0842022e-19 3.1598821 -3.6893488e+19
2.7415481 -3.6893488e+19 2.356302
-2 3.0872333 -2
2.7340322 3.6893488e+19 2.2882376
3.6893488e+19 3.1546576 2
2.7352829 2 2.327965
3.6893488e+19 3.1452427 1.0842022e-19
2.7836466 3.6893488e+19 2.3141823
-0 3.1543252 -0
2.7348843 -0 2.303947
-3.6893488e+19 3.198004 -2
2.8215108 1.0842022e-19 2.3293607
2 3.1579998 -3.6893488e+19
2.7392907 -0 2.2827795
-2 3.195771 1.0842022e-19
2.8199084 -0 2.3011274
0 3.2071462 3.6893488e+19
2.7741146 3.6893488e+19 2.2900558
0 3.204603 2
2.8262465 3.6893488e+19 2.28
1.0842022e-19 3.1546993 -2
2.7353327 -2 2.2161901
2 3.2040584 2
2.8258557 -1.0842022e-19 2.2526307
2 3.2415171 1.0842022e-19
2.8870153 3.6893488e+19 2.2618446
1.0842022e-19 3.1971815 -0
2.7981963 -0 2.1909432
-3.6893488e+19 3.0747435 -0
2.7556996 0 2.0569434
1.0842022e-19 3.0676768 0
2.6736763 3.6893488e+19 2.0257781
3.6893488e+19 3.0692046 3.6893488e+19
2.6757138 3.6893488e+19 1.9894915
0 3.0789413 3.6893488e+19
2.7590048 2 1.9818599
0 3.0703328 -3.6893488e+19
2.6772182 -0 1.952608
-0 3.2304926 3.6893488e+19
2.8783348 3.6893488e+19 2.0310111
-3.6893488e+19 3.0718012 1.0842022e-19
2.679177 -3.6893488e+19 1.9156612
-1.0842022e-19 3.1989698 0
2.8535142 -0 1.9587017
-0 3.0715952 3.6893488e+19
2.6789021 -2 1.8777125
-0 3.0715809 3.6893488e+19
2.6788831 3.6893488e+19 1.8047714
2 3.1933095 2
2.8490572 2 1.8244939
0 3.0687349 -1.0842022e-19
2.6750872 0 1.7064204
2 3.2134237 -0
2.7778788 -3.6893488e+19 1.6893159
-1.0842022e-19 3.0624313 2
2.6984339 3.6893488e+19 1.4732774
0 3.2155576 0
2.7791584 0 -1.3384284
1.0842022e-19 3.1923194 1.0842022e-19
2.8174312 3.6893488e+19 -1.6306157
-0 3.0618389 0
2.6239707 3.6893488e+19 -1.6631041
3.6893488e+19 3.1976187 -1.0842022e-19
2.8212342 -3.6893488e+19 -1.7971938
-0 3.0678902 0
2.6312277 2 -1.7821834
-3.6893488e+19 3.0617626 -0
2.697474 -3.6893488e+19 -1.8188289
2 3.0696154 3.6893488e+19
2.6332965 -0 -1.8574879
0 3.0577753 2
2.6917508 -2 -1.8821675
-1.0842022e-19 3.042181 3.6893488e+19
2.6003962 1.0842022e-19 -1.8903136
2 3.047718 3.6893488e+19
2.6773157 -3.6893488e+19 -1.9131542
1.0842022e-19 3.0428634 0
2.6012144 -3.6893488e+19 -1.9247818
1.0842022e-19 2.9974742 -3.6893488e+19
2.607013 0 -1.9158281
-3.6893488e+19 2.9763484 3.6893488e+19
2.5356288 3.6893488e+19 -1.9199169
2 2.8040681 -2
2.4788399 3.6893488e+19 -1.8799211
3.6893488e+19 2.7717624 2
2.3624415 0 -1.8688033
3.6893488e+19 2.715194 -3.6893488e+19
2.3662887 -1.0842022e-19 -1.851724
3.6893488e+19 2.6844113 -1.0842022e-19
2.2896807 -2 -1.8454816
-2 2.6237633 -2
2.2942972 -0 -1.829648
3.6893488e+19 2.6145306 0
2.2361639 -1.0842022e-19 -1.8315288
2 2.5743954 -0
2.2554255 -1.0842022e-19 -1.8221459
2 2.5679941 2
2.1740994 0 -1.8239523
3.6893488e+19 2.5390913 1.0842022e-19
2.205255 2 -1.8181144
-2 2.5308273 3.6893488e+19
2.1245313 -2 -1.817306
-1.0842022e-19 2.5084472 -0
2.1569972 3.6893488e+19 -1.8132347
-1.0842022e-19 2.5021937 0
2.0863435 3.6893488e+19 -1.8126318
-0 2.4635291 -1.0842022e-19
2.1149778 -1.0842022e-19 -1.8078012
-1.0842022e-19 2.4589708 -0
2.0560579 1.0842022e-19 -1.8093399
-3.6893488e+19 2.4217837 -1.0842022e-19
2.082108 0 -1.8040941
2 2.3774014 3.6893488e+19
1.976298 -1.0842022e-19 -1.8028857
-2 2.3240323 1.0842022e-19
1.9442968 2 -1.7968678
2 2.2835915 -3.6893488e+19
1.9200475 -2 -1.7922261
2 2.254847 3.6893488e+19
1.9028118 -3.6893488e+19 -1.7904404
0 2.1875808 -2
1.9222732 1.0842022e-19 -1.7846745
-0 2.1549315 2
1.9094194 2 -1.7852757
-1.0842022e-19 2.121453 -3.6893488e+19
1.896239 -0 -1.783564
2 2.0976374 3.6893488e+19
1.886863 2 -1.7842572
-1.0842022e-19 3.1753404 -0
2.7550433 1.0842022e-19 2.6643646
-2 3.1705835 -0
2.8018324 0 2.6604097
-3.6893488e+19 3.2215991 -3.6893488e+19
2.7827809 -0 2.6949785
3.6893488e+19 3.1825171 -0
2.7593465 -2 2.6185811
-2 3.1696806 -2
2.8011844 3.6893488e+19 2.6074936
1.0842022e-19 3.1743579 2
2.8045411 3.6893488e+19 2.5984178
-3.6893488e+19 3.2322609 3.6893488e+19
2.7891741 1.0842022e-19 2.6318059
1.0842022e-19 3.1738491 -2
2.8041759 1.0842022e-19 2.5849934
2 3.2189872 -2
2.7812147 -2 2.6071734
0 3.2812221 -1.0842022e-19
2.9036388 -2 2.6773148
-3.6893488e+19 3.1398633 0
2.7599747 -0 2.5320704
-0 3.204999 3.6893488e+19
2.8582613 1.0842022e-19 2.5786102
-0 3.0945981 2
2.7095804 3.6893488e+19 2.4778094
0 3.0949848 -1.0842022e-19
2.7100959 -3.6893488e+19 2.4575419
-3.6893488e+19 3.0957355 -1.0842022e-19
2.7110975 -1.0842022e-19 2.437731
-0 3.1473463 -0
2.8128662 -2 2.5003657
-0 3.0957077 0
2.7110603 -0 2.4169338
2 3.0904903 -2
2.7680984 3.6893488e+19 2.4082556
0 3.0944283 0
2.7093539 1.0842022e-19 2.3947511
-3.6893488e+19 3.0898328 -1.0842022e-19
2.7675807 2 2.3867252
0 3.0971663 -3.6893488e+19
2.7130053 -1.0842022e-19 2.3563933
-3.6893488e+19 3.1005073 1.0842022e-19
2.6703436 -3.6893488e+19 2.3460116
3.6893488e+19 3.1614192 -1.0842022e-19
2.7433915 -1.0842022e-19 2.3818715
-2 3.0869009 -3.6893488e+19
2.7335551 1.0842022e-19 2.3081334
1.0842022e-19 3.1598821 -3.6893488e+19
2.7415481 -3.6893488e+19 2.356302
-2 3.0872333 -2
2.7340322 3.6893488e+19 2.2882376
-1.0842022e-19 3.0993903 2
2.669004 -2 2.2831721
-1.0842022e-19 3.0867879 -0
2.733393 0 2.2677162
-0 3.1543252 -0
2.7348843 -0 2.303947
-3.6893488e+19 3.198004 -2
2.8215108 1.0842022e-19 2.3293607
2 3.1579998 -3.6893488e+19
2.7392907 -0 2.2827795
1.0842022e-19 3.0857577 -1.0842022e-19
2.731914 -2 2.2036223
0 3.2071462 3.6893488e+19
2.7741146 3.6893488e+19 2.2900558
2 3.0890453 2
2.7366328 -2 2.1676509
1.0842022e-19 3.1546993 -2
2.7353327 -2 2.2161901
3.6893488e+19 3.0733001 0
2.7140338 -3.6893488e+19 2.1097579
1.0842022e-19 3.0801256 -0
2.7599373 -0 2.1017339
0 3.0891299 -2
2.7022874 3.6893488e+19 2.084399
-3.6893488e+19 3.0747435 -0
2.7556996 0 2.0569434
1.0842022e-19 3.0676768 0
2.6736763 3.6893488e+19 2.0257781
3.6893488e+19 3.0692046 3.6893488e+19
2.6757138 3.6893488e+19 1.9894915
0 3.0789413 3.6893488e+19
2.7590048 2 1.9818599
0 3.0703328 -3.6893488e+19
2.6772182 -0 1.952608
-2 3.0721688 3.6893488e+19
2.7536724 1.0842022e-19 1.9384172
-3.6893488e+19 3.0718012 1.0842022e-19
2.679177 -3.6893488e+19 1.9156612
-3.6893488e+19 3.0737197 -0
2.7548935 3.6893488e+19 1.9004798
-0 3.0715952 3.6893488e+19
2.6789021 -2 1.8777125
-0 3.0715809 3.6893488e+19
2.6788831 3.6893488e+19 1.8047714
-0 3.077503 3.6893488e+19
2.7578723 2 1.7723798
0 3.0687349 -1.0842022e-19
2.6750872 0 1.7064204
-3.6893488e+19 3.0672305 2
2.6304367 -1.0842022e-19 1.6295937
-1.0842022e-19 3.0624313 2
2.6984339 3.6893488e+19 1.4732774
2 3.0627165 0
2.6250231 2 -1.2683605
1.0842022e-19 3.0637238 2
2.7002888 -2 -1.5602835
-0 3.0618389 0
2.6239707 3.6893488e+19 -1.6631041
0 3.0620596 -2
2.6979001 2 -1.7400916
-0 3.0678902 0
2.6312277 2 -1.7821834
-3.6893488e+19 3.0617626 -0
2.697474 -3.6893488e+19 -1.8188289
-3.6893488e+19 3.0442076 2
2.6028266 -0 -1.8390064
0 3.0577753 2
2.6917508 -2 -1.8821675
-1.0842022e-19 3.042181 3.6893488e+19
2.6003962 1.0842022e-19 -1.8903136
2 3.047718 3.6893488e+19
2.6773157 -3.6893488e+19 -1.9131542
0 3.0031369 0
2.5535727 0 -1.901073
1.0842022e-19 2.9974742 -3.6893488e+19
2.607013 0 -1.9158281
-3.6893488e+19 2.9763484 3.6893488e+19
2.5356288 3.6893488e+19 -1.9199169
2 2.8040681 -2
2.4788399 3.6893488e+19 -1.8799211
3.6893488e+19 2.7717624 2
2.3624415 0 -1.8688033
3.6893488e+19 2.715194 -3.6893488e+19
2.3662887 -1.0842022e-19 -1.851724
3.6893488e+19 2.6844113 -1.0842022e-19
2.2896807 -2 -1.8454816
-2 2.6237633 -2
2.2942972 -0 -1.829648
3.6893488e+19 2.6145306 0
2.2361639 -1.0842022e-19 -1.8315288
2 2.5743954 -0
2.2554255 -1.0842022e-19 -1.8221459
2 2.5679941 2
2.1740994 0 -1.8239523
3.6893488e+19 2.5390913 1.0842022e-19
2.205255 2 -1.8181144
-2 2.5308273 3.6893488e+19
2.1245313 -2 -1.817306
-1.0842022e-19 2.5084472 -0
2.1569972 3.6893488e+19 -1.8132347
-1.0842022e-19 2.5021937 0
2.0863435 3.6893488e+19 -1.8126318
-0 2.4635291 -1.0842022e-19
2.1149778 -1.0842022e-19 -1.8078012
-1.0842022e-19 2.4589708 -0
2.0560579 1.0842022e-19 -1.8093399
-3.6893488e+19 2.4217837 -1.0842022e-19
2.082108 0 -1.8040941
2 2.3774014 3.6893488e+19
1.976298 -1.0842022e-19 -1.8028857
-2 2.3240323 1.0842022e-19
1.9442968 2 -1.7968678
2 2.2835915 -3.6893488e+19
1.9200475 -2 -1.7922261
2 2.254847 3.6893488e+19
1.9028118 -3.6893488e+19 -1.7904404
0 2.1875808 -2
1.9222732 1.0842022e-19 -1.7846745
-0 2.1549315 2
1.9094194 2 -1.7852757
-1.0842022e-19 2.121453 -3.6893488e+19
1.896239 -0 -1.783564
2 2.0976374 3.6893488e+19
1.886863 2 -1.7842572
1.0842022e-19 3.1741853 -0
2.7519305 3.6893488e+19 2.6629162
3.6893488e+19 3.1693132 -1.0842022e-19
2.7984436 -2 2.658787
2 3.2206531 -3.6893488e+19
2.7795284 -2 2.6937387
2 3.1638238 2
2.7945366 -0 2.6405632
1.0842022e-19 3.1670744 1.0842022e-19
2.7968502 -1.0842022e-19 2.6306953
-3.6893488e+19 3.1669397 -0
2.7967544 0 2.6176798
0 3.1733389 1.0842022e-19
2.8013089 1.0842022e-19 2.5972559
-0 3.2316668 1.0842022e-19
2.7860699 -0 2.6310375
3.6893488e+19 3.2711272 -2
2.8859463 -2 2.6781752
3.6893488e+19 3.2189708 3.6893488e+19
2.7785294 0 2.6068821
-1.0842022e-19 3.2812245 2
2.9003198 -3.6893488e+19 2.6769187
-3.6893488e+19 3.1400561 -0
2.7578347 2 2.5319648
-0 3.1741023 -2
2.7803397 -3.6893488e+19 2.530992
-1.0842022e-19 3.1716228 2
2.7787008 3.6893488e+19 2.5166733
-2 3.148561 0
2.8114138 -1.0842022e-19 2.5008733
1.0842022e-19 3.1700273 3.6893488e+19
2.7776461 -0 2.5030625
-0 3.0879285 1.0842022e-19
2.7640388 1.0842022e-19 2.404768
1.0842022e-19 3.167819 0
2.7761865 2 2.4784484
0 3.0901246 -2
2.7657545 1.0842022e-19 2.3866596
-1.0842022e-19 3.0992837 1.0842022e-19
2.7117667 3.6893488e+19 2.379091
-0 3.0912387 3.6893488e+19
2.7666252 -2 2.3671539
-1.0842022e-19 3.171427 -0
2.7785714 -2 2.4322519
3.6893488e+19 3.1026556 -0
2.668896 1.0842022e-19 2.3478606
3.6893488e+19 3.1210699 -2
2.690769 3.6893488e+19 2.344151
-0 3.170584 2
2.7993481 -0 2.3843107
-1.0842022e-19 3.1599045 -3.6893488e+19
2.7368979 3.6893488e+19 2.3560433
2 3.1299663 2
2.7704387 0 2.3244581
-0 3.1545863 -3.6893488e+19
2.7305808 -0 2.327651
-3.6893488e+19 3.116827 -0
2.7610869 0 2.2913218
2 3.198101 0
2.8189332 1.0842022e-19 2.3291237
-0 3.1575723 3.6893488e+19
2.7341278 -0 2.2822626
-3.6893488e+19 3.1938698 1.0842022e-19
2.8159218 3.6893488e+19 2.2995627
-2 3.2097437 3.6893488e+19
2.7730494 -2 2.291476
1.0842022e-19 3.1995082 -1.0842022e-19
2.8199346 3.6893488e+19 2.276603
-3.6893488e+19 3.1525948 3.6893488e+19
2.7282155 -1.0842022e-19 2.2134037
3.6893488e+19 3.2033672 1.0842022e-19
2.8226814 -3.6893488e+19 2.2520101
2 3.2398143 -2
2.8827138 0 2.2606697
1.0842022e-19 3.18433 -3.6893488e+19
2.7871003 1.0842022e-19 2.1778989
1.0842022e-19 3.2357707 0
2.8795545 0 2.2086725
1.0842022e-19 3.1858299 3.6893488e+19
2.7880919 0 2.1280191
2 3.0784504 3.6893488e+19
2.756633 2 2.020689
-2 3.0683854 0
2.670918 -0 1.9886693
-1.0842022e-19 3.0701962 -2
2.6733117 -3.6893488e+19 1.9523456
3.6893488e+19 3.2317719 3.6893488e+19
2.87643 1.0842022e-19 2.0314701
-3.6893488e+19 3.0708652 -1.0842022e-19
2.6741962 3.6893488e+19 1.9150358
-2 3.1992567 -1.0842022e-19
2.8510244 3.6893488e+19 1.9586207
-0 3.0723495 2
2.6761587 3.6893488e+19 1.8779008
3.6893488e+19 3.0863285 -0
2.7627885 3.6893488e+19 1.8567749
-3.6893488e+19 3.0731659 3.6893488e+19
2.677238 3.6893488e+19 1.8055005
1.0842022e-19 3.1945219 -0
2.8473248 0 1.8248341
-2 3.0644131 -0
2.6656663 -0 1.7034446
-3.6893488e+19 3.0714927 -3.6893488e+19
2.6318796 -3.6893488e+19 1.6312323
-1.0842022e-19 3.0681117 -1.0842022e-19
2.7028282 -3.6893488e+19 1.4771241
-0 3.0627213 0
2.6214607 3.6893488e+19 -1.2682507
-1.0842022e-19 3.193234 -2
2.815469 0 -1.6307634
0 3.0642996 0
2.6233354 -3.6893488e+19 -1.6642625
-2 3.2029836 2
2.8224084 1.0842022e-19 -1.7990947
3.6893488e+19 3.0681088 -0
2.6278601 1.0842022e-19 -1.7821686
1.0842022e-19 3.0701497 -3.6893488e+19
2.705729 -1.0842022e-19 -1.8238571
-2 3.0738485 -2
2.6346779 3.6893488e+19 -1.8603832
-3.6893488e+19 3.0517943 -0
2.6796007 0 -1.879478
-1.0842022e-19 3.0751989 -0
2.636282 2 -1.9060477
-3.6893488e+19 3.0525577 -0
2.6806874 -2 -1.9156514
-2 3.0429425 1.0842022e-19
2.5979669 0 -1.9246926
-2 2.7235224 1.0842022e-19
2.3370268 3.6893488e+19 -1.7826964
3.6893488e+19 2.9761224 -0
2.5327768 -1.0842022e-19 -1.9197035
1.0842022e-19 2.7283225 2
2.3404431 -1.0842022e-19 -1.8126581
-3.6893488e+19 2.8035665 2
2.4743805 -3.6893488e+19 -1.8795736
-0 2.7725914 -0
2.3603764 -2 -1.8693343
-1.0842022e-19 2.7133472 0
2.3620341 -0 -1.8505921
1.0842022e-19 2.6851447 -1.0842022e-19
2.2876389 -1.0842022e-19 -1.8456619
-1.0842022e-19 2.6243799 -0
2.2925198 -2 -1.8297751
3.6893488e+19 2.6148477 -0
2.2323427 -1.0842022e-19 -1.8315288
2 2.5762386 -3.6893488e+19
2.2549047 -2 -1.8230625
1.0842022e-19 2.5695727 0
2.1724875 1.0842022e-19 -1.8247662
-0 2.538692 -1.0842022e-19
2.2011361 -0 -1.8176496
2 2.532373 3.6893488e+19
2.1233079 1.0842022e-19 -1.8181964
1.0842022e-19 2.509757 -2
2.1559196 1.0842022e-19 -1.8139944
2 2.5020585 -3.6893488e+19
2.083231 -3.6893488e+19 -1.8123682
-2 2.4640055 -0
2.1125484 -1.0842022e-19 -1.8078012
2 2.4596064 2
2.0538087 -0 -1.8094347
-1.0842022e-19 2.4256933 -1.0842022e-19
2.0826132 3.6893488e+19 -1.8055685
1.0842022e-19 3.1741853 -0
2.7519305 3.6893488e+19 2.6629162
3.6893488e+19 3.1693132 -1.0842022e-19
2.7984436 -2 2.658787
2 3.2206531 -3.6893488e+19
2.7795284 -2 2.6937387
2 3.1638238 2
2.7945366 -0 2.6405632
1.0842022e-19 3.1670744 1.0842022e-19
2.7968502 -1.0842022e-19 2.6306953
-3.6893488e+19 3.1669397 -0
2.7967544 0 2.6176798
0 3.1733389 1.0842022e-19
2.8013089 1.0842022e-19 2.5972559
2 3.0949223 -2
2.6597099 3.6893488e+19 2.5228615
3.6893488e+19 3.1762142 0
2.8033555 -3.6893488e+19 2.5865474
2 3.0969317 -2
2.6620967 -2 2.5140114
-1.0842022e-19 3.2812245 2
2.9003198 -3.6893488e+19 2.6769187
-3.6893488e+19 3.1400561 -0
2.7578347 2 2.5319648
-1.0842022e-19 3.0952554 0
2.7064412 -3.6893488e+19 2.4575031
-2 3.0961537 -0
2.7076287 3.6893488e+19 2.4378796
-2 3.148561 0
2.8114138 -1.0842022e-19 2.5008733
2 3.0974183 0
2.7093005 2 2.4186327
-0 3.0879285 1.0842022e-19
2.7640388 1.0842022e-19 2.404768
-1.0842022e-19 3.09658 1.0842022e-19
2.7081923 -0 2.396872
0 3.0901246 -2
2.7657545 1.0842022e-19 2.3866596
-1.0842022e-19 3.0992837 1.0842022e-19
2.7117667 3.6893488e+19 2.379091
-0 3.0912387 3.6893488e+19
2.7666252 -2 2.3671539
1.0842022e-19 3.0990293 -3.6893488e+19
2.7114301 3.6893488e+19 2.3579946
3.6893488e+19 3.1026556 -0
2.668896 1.0842022e-19 2.3478606
3.6893488e+19 3.1210699 -2
2.690769 3.6893488e+19 2.344151
3.6893488e+19 3.0870409 1.0842022e-19
2.7297738 1.0842022e-19 2.3079729
-1.0842022e-19 3.1599045 -3.6893488e+19
2.7368979 3.6893488e+19 2.3560433
-3.6893488e+19 3.0869925 -3.6893488e+19
2.7297049 0 2.2877624
-2 3.0997827 -0
2.6654835 0 2.2832689
-3.6893488e+19 3.116827 -0
2.7610869 0 2.2913218
2 3.1176734 -2
2.7616892 2 2.2700508
-0 3.1575723 3.6893488e+19
2.7341278 -0 2.2822626
0 3.0861015 1.0842022e-19
2.7284365 0 2.2036622
-2 3.2097437 3.6893488e+19
2.7730494 -2 2.291476
-0 3.0889223 1.0842022e-19
2.7324519 2 2.167109
-3.6893488e+19 3.1525948 3.6893488e+19
2.7282155 -1.0842022e-19 2.2134037
3.6893488e+19 3.071517 0
2.7076757 -1.0842022e-19 2.107439
-0 3.0802324 2
2.7580254 -3.6893488e+19 2.1014864
3.6893488e+19 3.0904319 -0
2.7000642 0 2.0853913
-3.6893488e+19 3.0789137 0
2.7569952 3.6893488e+19 2.0605657
1.0842022e-19 3.068368 -1.0842022e-19
2.6708946 -0 2.0261378
2 3.0784504 3.6893488e+19
2.756633 2 2.020689
-2 3.0683854 0
2.670918 -0 1.9886693
-1.0842022e-19 3.0701962 -2
2.6733117 -3.6893488e+19 1.9523456
2 3.0720928 1.0842022e-19
2.7516656 1.0842022e-19 1.9381793
-3.6893488e+19 3.0708652 -1.0842022e-19
2.6741962 3.6893488e+19 1.9150358
2 3.0753329 -0
2.7541971 -1.0842022e-19 1.9010743
-0 3.0723495 2
2.6761587 3.6893488e+19 1.8779008
3.6893488e+19 3.0863285 -0
2.7627885 3.6893488e+19 1.8567749
-3.6893488e+19 3.0731659 3.6893488e+19
2.677238 3.6893488e+19 1.8055005
-3.6893488e+19 3.0765588 -1.0842022e-19
2.7551551 -2 1.771804
-2 3.0644131 -0
2.6656663 -0 1.7034446
-3.6893488e+19 3.0714927 -3.6893488e+19
2.6318796 -3.6893488e+19 1.6312323
-1.0842022e-19 3.0681117 -1.0842022e-19
2.7028282 -3.6893488e+19 1.4771241
-0 3.0627213 0
2.6214607 3.6893488e+19 -1.2682507
1.0842022e-19 3.073056 1.0842022e-19
2.7098663 -0 -1.5656166
0 3.0642996 0
2.6233354 -3.6893488e+19 -1.6642625
3.6893488e+19 3.072685 -0
2.7093382 -0 -1.7480342
3.6893488e+19 3.0681088 -0
2.6278601 1.0842022e-19 -1.7821686
1.0842022e-19 3.0701497 -3.6893488e+19
2.705729 -1.0842022e-19 -1.8238571
-2 3.0738485 -2
2.6346779 3.6893488e+19 -1.8603832
-3.6893488e+19 3.0517943 -0
2.6796007 0 -1.879478
-2 3.0417507 1.0842022e-19
2.5965512 2 -1.8899975
-3.6893488e+19 3.0525577 -0
2.6806874 -2 -1.9156514
3.6893488e+19 3.0023468 2
2.5497458 -3.6893488e+19 -1.9004837
-2 2.7235224 1.0842022e-19
2.3370268 3.6893488e+19 -1.7826964
3.6893488e+19 2.9761224 -0
2.5327768 -1.0842022e-19 -1.9197035
1.0842022e-19 2.7283225 2
2.3404431 -1.0842022e-19 -1.8126581
-3.6893488e+19 2.8035665 2
2.4743805 -3.6893488e+19 -1.8795736
-0 2.7725914 -0
2.3603764 -2 -1.8693343
-1.0842022e-19 2.7133472 0
2.3620341 -0 -1.8505921
1.0842022e-19 2.6851447 -1.0842022e-19
2.2876389 -1.0842022e-19 -1.8456619
-1.0842022e-19 2.6243799 -0
2.2925198 -2 -1.8297751
3.6893488e+19 2.6148477 -0
2.2323427 -1.0842022e-19 -1.8315288
2 2.5762386 -3.6893488e+19
2.2549047 -2 -1.8230625
1.0842022e-19 2.5695727 0
2.1724875 1.0842022e-19 -1.8247662
-0 2.538692 -1.0842022e-19
2.2011361 -0 -1.8176496
2 2.532373 3.6893488e+19
2.1233079 1.0842022e-19 -1.8181964
1.0842022e-19 2.509757 -2
2.1559196 1.0842022e-19 -1.8139944
2 2.5020585 -3.6893488e+19
2.083231 -3.6893488e+19 -1.8123682
-2 2.4640055 -0
2.1125484 -1.0842022e-19 -1.8078012
2 2.4596064 2
2.0538087 -0 -1.8094347
-1.0842022e-19 2.4256933 -1.0842022e-19
2.0826132 3.6893488e+19 -1.8055685
-0 3.1767693 0
2.751195 2 2.6651313
-2 3.1671495 0
2.7946064 -0 2.6563253
2 3.2208474 -2
2.7771389 0 2.6936011
3.6893488e+19 3.1605585 -2
2.7899513 -2 2.6371455
2 3.1820998 -3.6893488e+19
2.8051646 -2 2.6440682
1.0842022e-19 3.1675036 3.6893488e+19
2.7948563 3.6893488e+19 2.6178577
-3.6893488e+19 3.2228222 -0
2.7783015 -0 2.6523225
-3.6893488e+19 3.2198653 -2
2.776561 0 2.6356018
0 3.1741691 -0
2.7995636 3.6893488e+19 2.5976353
1.0842022e-19 3.228363 1.0842022e-19
2.7815628 -2 2.6281502
1.0842022e-19 3.1773083 -0
2.8017807 -0 2.5871189
0 3.2192512 0
2.7761996 -3.6893488e+19 2.606837
-1.0842022e-19 3.1419413 -2
2.7768033 2 2.5472395
3.6893488e+19 3.1768086 -2
2.7798142 2 2.558284
0 3.2520139 1.0842022e-19
2.89098 -0 2.6132998
3.6893488e+19 3.1790962 1.0842022e-19
2.7813141 -3.6893488e+19 2.546988
-3.6893488e+19 3.1747079 -1.0842022e-19
2.7784371 0 2.531167
2 3.1542542 0
2.8135846 -2 2.5165765
1.0842022e-19 3.1733427 1.0842022e-19
2.7775421 -3.6893488e+19 2.5175455
2 3.1511605 3.6893488e+19
2.8111846 2 2.5022693
0 3.1704538 2
2.7756481 1.0842022e-19 2.5031157
-2 3.0872405 -0
2.7616012 1.0842022e-19 2.4035594
-0 3.170892 -0
2.7759354 0 2.4815795
0 3.0904486 0
2.7640898 1.0842022e-19 2.3866596
-1.0842022e-19 3.0994473 -1.0842022e-19
2.7081931 -1.0842022e-19 2.3789632
-3.6893488e+19 3.1521866 -0
2.8119807 -2 2.4323187
1.0842022e-19 3.1734173 3.6893488e+19
2.777591 -0 2.4339437
3.6893488e+19 3.1038635 2
2.6665657 -3.6893488e+19 2.3487995
0 3.0953863 -1.0842022e-19
2.7378488 2 2.3360026
-1.0842022e-19 3.1622472 3.6893488e+19
2.7352946 3.6893488e+19 2.3820648
2 3.1705973 -1.0842022e-19
2.7970412 2 2.3839898
-3.6893488e+19 3.1595151 1.0842022e-19
2.7320786 -1.0842022e-19 2.355448
-2 3.1389449 -3.6893488e+19
2.7746871 3.6893488e+19 2.3318372
-2 3.153029 -0
2.724443 2 2.326154
-2 3.1186709 0
2.7603691 3.6893488e+19 2.2925322
2 3.1502166 -2
2.721132 2 2.300406
0 3.1885965 0
2.8097529 -0 2.3218634
-1.0842022e-19 3.1578074 -1.0842022e-19
2.730068 1.0842022e-19 2.2822213
-1.0842022e-19 3.087333 0
2.726474 -3.6893488e+19 2.2049296
-1.0842022e-19 3.2111824 -0
2.7714503 -2 2.2921767
3.6893488e+19 3.0875411 -3.6893488e+19
2.7267678 3.6893488e+19 2.1650491
0 3.151032 -0
2.7220919 -3.6893488e+19 2.2112708
1.0842022e-19 3.0756185 -3.6893488e+19
2.7099273 2 2.111685
-1.0842022e-19 3.2391758 -0
2.8794591 -2 2.260082
0 3.1834941 1.0842022e-19
2.7841973 2 2.1767316
0 3.2377753 -0
2.8783727 3.6893488e+19 2.2101269
-0 3.1838677 -2
2.7844422 -1.0842022e-19 2.1260142
-2 3.0773954 1.0842022e-19
2.7539644 -2 2.0195627
-2 3.1829448 1.0842022e-19
2.7838373 0 2.0742846
1.0842022e-19 3.241595 2
2.8813357 -3.6893488e+19 2.0958238
3.6893488e+19 3.1829796 -1.0842022e-19
2.78386 -3.6893488e+19 2.0233979
-0 3.2327549 -2
2.8744783 2 2.031776
2 3.0803547 -2
2.6831589 -1.0842022e-19 1.9197799
-0 3.1990731 -0
2.848351 1.0842022e-19 1.9583369
-0 3.1815608 1.0842022e-19
2.7829299 3.6893488e+19 1.9210955
2 3.0827165 1.0842022e-19
2.7580919 0 1.8540676
0 3.1836402 0
2.7842932 -1.0842022e-19 1.8670095
-1.0842022e-19 3.0736654 0
2.751071 -0 1.7703648
-3.6893488e+19 3.062855 1.0842022e-19
2.6602137 -2 1.7022735
-1.0842022e-19 3.0686076 2
2.6250627 -3.6893488e+19 1.6299605
3.6893488e+19 3.1917648 3.6893488e+19
2.8119905 -2 1.532568
3.6893488e+19 3.0624979 2
2.6178703 -2 -1.2680448
0 3.1921453 3.6893488e+19
2.8122592 0 -1.6303291
1.0842022e-19 3.0648267 -2
2.6206117 2 -1.6644192
1.0842022e-19 3.2002535 1.0842022e-19
2.8179855 -0 -1.7978953
-2 3.0721457 0
2.6292279 -1.0842022e-19 -1.7840481
2 3.0600274 -2
2.6879053 3.6893488e+19 -1.8174028
2 3.0745025 -3.6893488e+19
2.6320019 -3.6893488e+19 -1.8606879
-1.0842022e-19 3.0584779 -1.0842022e-19
2.6857169 2 -1.8822306
-1.0842022e-19 3.0749247 2
2.6324992 1.0842022e-19 -1.9058034
3.6893488e+19 3.0487266 1.0842022e-19
2.6719434 2 -1.9134121
0 3.0439935 3.6893488e+19
2.596087 3.6893488e+19 -1.9251925
-1.0842022e-19 2.7278199 0
2.3374541 -2 -1.7839895
-2 2.9771256 -1.0842022e-19
2.5308344 3.6893488e+19 -1.9199382
-1.0842022e-19 2.7288551 3.6893488e+19
2.3381851 0 -1.8127043
-0 2.8047869 1.0842022e-19
2.4728534 -3.6893488e+19 -1.8799707
-0 2.7747087 -2
2.3601964 0 -1.8710341
-1.0842022e-19 2.7123923 -2
2.3586829 2 -1.849913
1.0842022e-19 2.6865623 0
2.2862089 2 -1.8462026
1.0842022e-19 2.6256671 -3.6893488e+19
2.291409 0 -1.8302836
2 2.613838 -0
2.227062 2 -1.8307915
-3.6893488e+19 2.5765493 1.0842022e-19
2.2533081 -2 -1.8230625
-0 2.5708961 -0
2.1707571 0 -1.8254321
-3.6893488e+19 2.5379212 1.0842022e-19
2.1966877 2 -1.8169525
-3.6893488e+19 2.5327187 0
2.1206992 0 -1.8182774
-1.0842022e-19 2.5074496 1.0842022e-19
2.1494133 2 -1.8121374
-3.6893488e+19 2.5022614 1.0842022e-19
2.0807638 -3.6893488e+19 -1.8123682
3.6893488e+19 2.4656081 2
2.1111774 2 -1.8082581
-0 2.4592671 3.6893488e+19
2.0510941 2 -1.8091502
2 2.4226196 0
2.0778308 0 -1.8040941
-1.0842022e-19 2.3765397 -0
1.97163 3.6893488e+19 -1.8022127
1.0842022e-19 2.3247583 -3.6893488e+19
1.9411515 1.0842022e-19 -1.7969939
3.6893488e+19 2.2835436 3.6893488e+19
1.9168928 -3.6893488e+19 -1.7919464
1.0842022e-19 2.252624 -1.0842022e-19
1.8986936 -0 -1.7887508
-3.6893488e+19 2.1907456 -2
