# .PCD v0.7 - Point Cloud Data file format
VERSION 0.7
FIELDS x y z
SIZE 4 4 4
TYPE F F F
COUNT 1 1 1
WIDTH 1722
HEIGHT 1
VIEWPOINT 0 0 0 1 0 0 0
POINTS 1722
DATA ascii
1.8723246 -3.6893488e+19 2.3345327
0 3.2258918 -0
2.2801316 3.6893488e+19 2.4040487
-3.6893488e+19 3.1339476 -1.0842022e-19
1.873412 0 2.3143451
-3.6893488e+19 3.1573164 -0
2.2295303 1.0842022e-19 2.3228083
1.0842022e-19 3.1309154 -2
1.8714501 -3.6893488e+19 2.2904093
-1.0842022e-19 3.1569664 -3.6893488e+19
2.2291181 -1.0842022e-19 2.2995689
-0 3.1367612 -2
1.8751161 0 2.273109
-3.6893488e+19 3.1463478 0
2.2166171 0 2.2694142
-1.0842022e-19 3.1344984 -0
1.8737683 -1.0842022e-19 2.2498233
-3.6893488e+19 3.145174 1.0842022e-19
2.2152352 -1.0842022e-19 2.2427492
3.6893488e+19 3.1292853 1.0842022e-19
1.8703955 -2 2.2004735
1.0842022e-19 3.1404357 -3.6893488e+19
2.2096565 -2 2.1929297
1.0842022e-19 3.2329054 1.0842022e-19
1.9062185 -3.6893488e+19 2.2597022
-1.0842022e-19 3.1376016 0
2.2063203 3.6893488e+19 2.1461656
-1.0842022e-19 3.1531386 2
2.3365986 0 2.1404779
-0 3.1304908 3.6893488e+19
2.0592794 -0 2.0957055
-1.0842022e-19 3.2259252 -3.6893488e+19
2.3973713 -1.0842022e-19 2.1574399
2 3.1294787 -2
2.0584567 3.6893488e+19 2.0522809
2 3.1348712 3.6893488e+19
2.3213463 2 2.0362167
3.6893488e+19 3.1327503 -1.0842022e-19
2.061116 -2 2.0120535
0 3.1321287 -2
2.3190563 -1.0842022e-19 1.9912413
2 3.1367226 3.6893488e+19
2.0643449 1.0842022e-19 1.9715127
0 3.1287136 0
2.316205 2 1.9465649
3.6893488e+19 3.1330347 -0
2.0613472 2 1.926582
-0 3.1332016 3.6893488e+19
2.3199522 1.0842022e-19 1.9058809
1.0842022e-19 3.1973791 3.6893488e+19
2.1136491 3.6893488e+19 1.9062443
-3.6893488e+19 3.1365538 0
2.3227513 -0 1.8527572
0 3.1406407 -0
2.0675297 -1.0842022e-19 1.8105819
0 3.1306889 -0
2.3178542 -2 1.7638906
2 3.1197617 -0
2.0505583 -1.0842022e-19 1.686106
0 3.1144845 0
1.8608195 0 1.578864
-3.6893488e+19 3.127635 0
2.1945868 3.6893488e+19 1.2960356
-1.0842022e-19 3.1209228 -2
1.864985 -2 -1.4972217
-0 3.1305578 0
2.1980276 0 -1.6486851
-3.6893488e+19 3.1226878 -0
1.866127 0 -1.7283988
1.0842022e-19 3.1342409 2
2.2023635 -1.0842022e-19 -1.7860248
2 3.1199987 -2
1.864387 -1.0842022e-19 -1.8209521
-2 3.1355674 -0
2.2039254 1.0842022e-19 -1.8728393
-3.6893488e+19 3.1243823 -2
1.8672233 -0 -1.8909159
-1.0842022e-19 3.1121073 0
2.176306 -2 -1.9069039
-3.6893488e+19 3.1448605 1.0842022e-19
1.8777363 0 -1.9427112
-3.6893488e+19 3.1098499 -1.0842022e-19
2.1736484 -3.6893488e+19 -1.9462047
-1.0842022e-19 3.0537245 0
1.8215082 1.0842022e-19 -1.9321586
3.6893488e+19 3.045733 -2
2.0981638 -1.0842022e-19 -1.9443698
-1.0842022e-19 2.8565004 -1.0842022e-19
1.9598525 2 -1.8871274
-2 2.8075454 -2
2.0067835 2 -1.877265
-2 2.7711158 2
1.8453748 0 -1.8636365
-2 2.7253525 3.6893488e+19
1.9484466 3.6893488e+19 -1.8484367
0 2.6718965 0
1.7964679 -3.6893488e+19 -1.8343185
3.6893488e+19 2.6376855 1.0842022e-19
1.9118481 -2 -1.829053
-1.0842022e-19 2.6088095 1.0842022e-19
1.770828 0 -1.823139
2 2.5815754 -0
1.8884236 -1.0842022e-19 -1.8181988
1.0842022e-19 2.5646868 -2
1.7528955 3.6893488e+19 -1.8164401
-0 2.5478137 -0
1.8736581 -3.6893488e+19 -1.8153238
-0 2.5332851 0
1.7302666 3.6893488e+19 -1.8132541
3.6893488e+19 2.51841 0
1.8491076 3.6893488e+19 -1.8116852
-2 2.5066307 -1.0842022e-19
1.7086006 2 -1.8099803
0 2.4802852 -3.6893488e+19
1.8255057 0 -1.8056002
1.0842022e-19 2.4622309 -3.6893488e+19
1.6878606 3.6893488e+19 -1.804606
-0 2.4430974 1.0842022e-19
1.809981 1.0842022e-19 -1.8041574
2 2.3826649 1.0842022e-19
1.4975821 -2 -1.8005108
-0 2.3297088 -0
1.4633198 -1.0842022e-19 -1.7948862
1.0842022e-19 2.2934546 -2
1.4398634 1.0842022e-19 -1.7928773
-3.6893488e+19 2.2607419 3.6893488e+19
1.4186987 -0 -1.7890356
-0 2.2244532 -2
1.6980711 0 -1.7886832
2 2.1861145 1.0842022e-19
1.6820658 2 -1.7880743
2 2.1498342 -1.0842022e-19
1.6669197 3.6893488e+19 -1.7861363
-1.0842022e-19 2.1146445 3.6893488e+19
1.6522291 0 -1.7826189
1.0842022e-19 3.2325132 -3.6893488e+19
2.273876 0 2.662446
3.6893488e+19 3.2309592 3.6893488e+19
2.272994 -3.6893488e+19 2.6470809
3.6893488e+19 3.2340837 -3.6893488e+19
2.2747674 -0 2.635576
2 3.2525969 -1.0842022e-19
2.2867496 2 2.6377294
-3.6893488e+19 3.2509799 3.6893488e+19
1.89136 -2 2.6270907
-3.6893488e+19 3.2436848 -0
2.2802172 -2 2.6146104
-3.6893488e+19 3.2500877 2
1.8908576 3.6893488e+19 2.6113293
-2 3.3042269 -3.6893488e+19
2.4951534 -0 2.67416
-1.0842022e-19 3.2387421 2
2.1267591 -0 2.5823293
2 3.2386003 3.6893488e+19
2.1266496 -0 2.5682144
-1.0842022e-19 3.2368598 2
2.125308 -1.0842022e-19 2.5531468
-0 3.2339525 3.6893488e+19
2.3938355 2 2.5455964
-1.0842022e-19 3.2339485 1.0842022e-19
2.1230638 -0 2.5375106
-0 3.2343302 3.6893488e+19
2.3941429 -2 2.5319545
3.6893488e+19 3.2331083 3.6893488e+19
2.122416 3.6893488e+19 2.5232406
0 3.2329903 -0
2.3930523 3.6893488e+19 2.5173657
-3.6893488e+19 3.2187061 -0
2.3814282 -3.6893488e+19 2.492173
-2 3.2103553 -2
2.1048763 3.6893488e+19 2.4684114
-1.0842022e-19 3.2173936 2
2.3803601 3.6893488e+19 2.4641688
2 3.240299 -0
1.8880761 -2 2.4567525
-3.6893488e+19 3.2260525 3.6893488e+19
2.2702091 -0 2.4310403
2 3.238045 -1.0842022e-19
1.8874413 -1.0842022e-19 2.4270811
-2 3.2247727 3.6893488e+19
2.2694826 0 2.4030225
-3.6893488e+19 3.2351103 1.0842022e-19
1.8866149 -0 2.3971491
-1.0842022e-19 3.1570213 0
2.2120535 0 2.3225133
-3.6893488e+19 3.2353201 -2
1.8866739 0 2.3699894
1.0842022e-19 3.2230992 1.0842022e-19
2.2685328 0 2.3481836
-0 3.2352884 -2
1.886665 -3.6893488e+19 2.3426661
1.0842022e-19 3.2205639 1.0842022e-19
2.2670937 2 2.3198013
-2 3.2441704 -0
1.8891664 2 2.3211792
2 3.2218249 2
2.2678094 -2 2.2941074
0 3.2354333 -3.6893488e+19
1.8867058 -2 2.2882578
3.6893488e+19 3.2281013 -0
2.2713718 -3.6893488e+19 2.2711396
-0 3.2330227 2
1.886027 -3.6893488e+19 2.2597525
-2 3.1330397 1.0842022e-19
2.1848295 2 2.1414289
-1.0842022e-19 3.2250276 0
2.3865726 0 2.209985
-3.6893488e+19 3.2267735 -1.0842022e-19
2.1175327 -3.6893488e+19 2.1831298
0 3.2274818 -1.0842022e-19
2.3885696 2 2.1586623
-0 3.2248306 -0
2.116035 -3.6893488e+19 2.1281862
3.6893488e+19 3.2276473 -2
2.3887043 2 2.1051157
0 3.2150044 1.0842022e-19
2.1084602 3.6893488e+19 2.0683284
2 3.1303678 2
2.3095393 1.0842022e-19 1.990065
1.0842022e-19 3.2162235 -3.6893488e+19
2.1093998 3.6893488e+19 2.0170157
-0 3.2249877 0
2.3865402 -0 1.9964679
-2 3.1944563 0
2.0926204 -1.0842022e-19 1.9548713
3.6893488e+19 3.2213535 3.6893488e+19
2.3835826 1.0842022e-19 1.9416882
-0 3.1979363 3.6893488e+19
2.0953028 0 1.9064187
2 3.1353526 -3.6893488e+19
2.3135958 -0 1.8519882
3.6893488e+19 3.1929686 3.6893488e+19
2.0914733 -0 1.8354142
-2 3.1317551 0
2.3106685 3.6893488e+19 1.7642422
0 3.1931286 3.6893488e+19
2.0915966 3.6893488e+19 1.7230036
-1.0842022e-19 3.1150649 2
1.8306164 -2 1.5791785
-0 3.1722507 -0
2.229342 -0 1.3162065
2 3.1219411 2
1.8344892 -0 -1.4978881
-2 3.1302245 -2
2.1816335 1.0842022e-19 -1.6485268
-1.0842022e-19 3.1216128 -0
1.8343043 -0 -1.7277286
-3.6893488e+19 3.1734304 -3.6893488e+19
2.2306812 2 -1.8024147
-3.6893488e+19 3.1235783 2
1.8354114 0 -1.8228382
-3.6893488e+19 3.1749399 -2
2.2323947 -0 -1.8865479
-1.0842022e-19 3.1469223 -0
1.8485595 1.0842022e-19 -1.8993925
-1.0842022e-19 3.1390359 -0
2.1916363 -3.6893488e+19 -1.9185404
1.0842022e-19 3.1474099 -0
1.848834 0 -1.9439458
0 3.0473077 1.0842022e-19
1.7924533 0 -1.9283012
1.0842022e-19 3.0445743 -2
2.0844026 -2 -1.9435716
3.6893488e+19 2.8613005 -0
1.9550754 0 -1.8889475
-0 2.8103607 -1.0842022e-19
2.0025682 0 -1.8783953
-2 2.7732079 -0
1.8356092 2 -1.8654468
-3.6893488e+19 2.7244875 0
1.9430666 3.6893488e+19 -1.84797
-0 2.6718264 -1.0842022e-19
1.7875876 3.6893488e+19 -1.8342568
-2 2.6380382 -3.6893488e+19
1.9078907 2 -1.8291837
-1.0842022e-19 2.6097279 -1.0842022e-19
1.7636526 -0 -1.8236203
-1.0842022e-19 2.5817888 -2
1.8850031 -3.6893488e+19 -1.818271
-1.0842022e-19 2.5643539 -3.6893488e+19
1.7423276 -1.0842022e-19 -1.8162129
-0 2.54777 3.6893488e+19
1.8673222 -0 -1.8152447
2 2.5323265 2
1.7176384 0 -1.8125927
-2 2.5186062 0
1.8435891 1.0842022e-19 -1.8117714
1.0842022e-19 2.506664 -0
1.6978558 2 -1.8099803
-1.0842022e-19 2.4809098 -3.6893488e+19
1.8206797 -3.6893488e+19 -1.8057863
2 2.4627879 -1.0842022e-19
1.6783757 3.6893488e+19 -1.8047991
1.0842022e-19 3.2325132 -3.6893488e+19
2.273876 0 2.662446
3.6893488e+19 3.2309592 3.6893488e+19
2.272994 -3.6893488e+19 2.6470809
3.6893488e+19 3.2340837 -3.6893488e+19
2.2747674 -0 2.635576
2 3.2525969 -1.0842022e-19
2.2867496 2 2.6377294
-3.6893488e+19 3.2509799 3.6893488e+19
1.89136 -2 2.6270907
-3.6893488e+19 3.2436848 -0
2.2802172 -2 2.6146104
-3.6893488e+19 3.2500877 2
1.8908576 3.6893488e+19 2.6113293
-2 3.3042269 -3.6893488e+19
2.4951534 -0 2.67416
-1.0842022e-19 3.2387421 2
2.1267591 -0 2.5823293
2 3.2386003 3.6893488e+19
2.1266496 -0 2.5682144
0 3.2105815 -2
2.1050506 -0 2.5367844
-0 3.2339525 3.6893488e+19
2.3938355 2 2.5455964
-2 3.2080436 3.6893488e+19
2.1030943 -1.0842022e-19 2.5221207
-0 3.2343302 3.6893488e+19
2.3941429 -2 2.5319545
2 3.2129569 1.0842022e-19
2.1068819 1.0842022e-19 2.5118432
0 3.2329903 -0
2.3930523 3.6893488e+19 2.5173657
-3.6893488e+19 3.2187061 -0
2.3814282 -3.6893488e+19 2.492173
-2 3.2103553 -2
2.1048763 3.6893488e+19 2.4684114
-1.0842022e-19 3.2173936 2
2.3803601 3.6893488e+19 2.4641688
2 3.240299 -0
1.8880761 -2 2.4567525
-3.6893488e+19 3.2260525 3.6893488e+19
2.2702091 -0 2.4310403
2 3.238045 -1.0842022e-19
1.8874413 -1.0842022e-19 2.4270811
-2 3.2049956 1.0842022e-19
2.2582572 1.0842022e-19 2.3862343
-1.0842022e-19 3.1320395 1.0842022e-19
1.8401771 -1.0842022e-19 2.3127673
-1.0842022e-19 3.1570213 0
2.2120535 0 2.3225133
0 3.1346357 -1.0842022e-19
1.8416392 3.6893488e+19 2.2932312
3.6893488e+19 3.1571987 2
2.2122548 -2 2.2996831
3.6893488e+19 3.1338546 -2
1.8411993 1.0842022e-19 2.2710431
1.0842022e-19 3.2205639 1.0842022e-19
2.2670937 2 2.3198013
-1.0842022e-19 3.13377 0
1.8411517 -2 2.2488518
2 3.2218249 2
2.2678094 -2 2.2941074
2 3.1323266 0
1.8403387 -0 2.2040632
-0 3.1442096 2
2.1975095 -2 2.1971266
1.0842022e-19 3.130707 -2
1.8394264 1.0842022e-19 2.1594617
-2 3.1330397 1.0842022e-19
2.1848295 2 2.1414289
-3.6893488e+19 3.1552024 2
2.3297496 -1.0842022e-19 2.1423709
-1.0842022e-19 3.1297297 -0
2.0427241 1.0842022e-19 2.0949695
0 3.2274818 -1.0842022e-19
2.3885696 2 2.1586623
-0 3.2248306 -0
2.116035 -3.6893488e+19 2.1281862
-3.6893488e+19 3.1345401 1.0842022e-19
2.3129349 3.6893488e+19 2.0358934
3.6893488e+19 3.1334236 3.6893488e+19
2.0455716 -1.0842022e-19 2.0124805
2 3.1303678 2
2.3095393 1.0842022e-19 1.990065
-3.6893488e+19 3.1351504 2
2.0469029 1.0842022e-19 1.9705837
2 3.1298411 -1.0842022e-19
2.3091106 -1.0842022e-19 1.9470969
3.6893488e+19 3.134738 2
2.0465848 3.6893488e+19 1.9273442
3.6893488e+19 3.1324658 -1.0842022e-19
2.3112466 -0 1.9055396
-0 3.1979363 3.6893488e+19
2.0953028 0 1.9064187
2 3.1353526 -3.6893488e+19
2.3135958 -0 1.8519882
-3.6893488e+19 3.1514587 -1.0842022e-19
2.0594745 -3.6893488e+19 1.8156966
-2 3.1317551 0
2.3106685 3.6893488e+19 1.7642422
-1.0842022e-19 3.1192477 0
2.0346439 -3.6893488e+19 1.6858232
-1.0842022e-19 3.1150649 2
1.8306164 -2 1.5791785
-3.6893488e+19 3.1277688 2
2.1788459 1.0842022e-19 1.2960639
2 3.1219411 2
1.8344892 -0 -1.4978881
-2 3.1302245 -2
2.1816335 1.0842022e-19 -1.6485268
-1.0842022e-19 3.1216128 -0
1.8343043 -0 -1.7277286
2 3.1385837 -1.0842022e-19
2.1911228 2 -1.787814
-3.6893488e+19 3.1235783 2
1.8354114 0 -1.8228382
-2 3.1403463 -2
2.1931238 -2 -1.8754318
1.0842022e-19 3.1238074 1.0842022e-19
1.8355404 -1.0842022e-19 -1.8906925
-1.0842022e-19 3.1390359 -0
2.1916363 -3.6893488e+19 -1.9185404
1.0842022e-19 3.1474099 -0
1.848834 0 -1.9439458
0 3.0473077 1.0842022e-19
1.7924533 0 -1.9283012
1.0842022e-19 3.0445743 -2
2.0844026 -2 -1.9435716
3.6893488e+19 2.8613005 -0
1.9550754 0 -1.8889475
-0 2.8103607 -1.0842022e-19
2.0025682 0 -1.8783953
-2 2.7732079 -0
1.8356092 2 -1.8654468
-3.6893488e+19 2.7244875 0
1.9430666 3.6893488e+19 -1.84797
-0 2.6718264 -1.0842022e-19
1.7875876 3.6893488e+19 -1.8342568
-2 2.6380382 -3.6893488e+19
1.9078907 2 -1.8291837
-1.0842022e-19 2.6097279 -1.0842022e-19
1.7636526 -0 -1.8236203
-1.0842022e-19 2.5817888 -2
1.8850031 -3.6893488e+19 -1.818271
-1.0842022e-19 2.5643539 -3.6893488e+19
1.7423276 -1.0842022e-19 -1.8162129
-0 2.54777 3.6893488e+19
1.8673222 -0 -1.8152447
2 2.5323265 2
1.7176384 0 -1.8125927
-2 2.5186062 0
1.8435891 1.0842022e-19 -1.8117714
1.0842022e-19 2.506664 -0
1.6978558 2 -1.8099803
-1.0842022e-19 2.4809098 -3.6893488e+19
1.8206797 -3.6893488e+19 -1.8057863
2 2.4627879 -1.0842022e-19
1.6783757 3.6893488e+19 -1.8047991
0 3.2570243 -0
2.2809572 -3.6893488e+19 2.6593685
-2 3.255414 3.6893488e+19
2.2791972 -2 2.6419823
-3.6893488e+19 3.2539694 -3.6893488e+19
1.8685234 2 2.6315663
-1.0842022e-19 3.2407393 0
2.2682176 -0 2.6123691
-1.0842022e-19 3.2501907 0
1.8649001 3.6893488e+19 2.6114626
-0 3.250514 3.6893488e+19
2.2738409 -0 2.605505
-1.0842022e-19 3.2097793 -2
2.0851307 -2 2.562597
2 3.2384753 3.6893488e+19
2.1060472 -0 2.568094
3.6893488e+19 3.2299006 -3.6893488e+19
2.3803856 -3.6893488e+19 2.556818
-1.0842022e-19 3.2371972 0
2.1051157 -0 2.5533197
-2 3.23368 0
2.3833816 -1.0842022e-19 2.5453522
-1.0842022e-19 3.2322168 1.0842022e-19
2.1014855 2 2.5364468
1.0842022e-19 3.2332265 -3.6893488e+19
2.3830218 -0 2.5312381
3.6893488e+19 3.2336621 3.6893488e+19
2.1025388 3.6893488e+19 2.5235202
0 3.2311764 0
2.381397 2 2.5162916
3.6893488e+19 3.2314966 -3.6893488e+19
2.1009603 -0 2.5086019
-0 3.2210188 0
2.3733459 -3.6893488e+19 2.4944713
-3.6893488e+19 3.227042 -1.0842022e-19
2.0977135 3.6893488e+19 2.4853306
-3.6893488e+19 3.2179794 -2
2.3709366 2 2.4646285
3.6893488e+19 3.2302425 -3.6893488e+19
2.1000462 3.6893488e+19 2.46137
1.0842022e-19 3.2401648 -0
1.8600017 -0 2.4566081
2 3.2275336 -0
2.2609997 0 2.4323025
1.0842022e-19 3.2372582 0
1.8586082 -1.0842022e-19 2.4263744
3.6893488e+19 3.2260375 0
2.2601821 0 2.4040225
-0 3.2356906 -2
1.8578566 -2 2.3976071
0 3.2219095 -1.0842022e-19
2.2579257 0 2.3738608
1.0842022e-19 3.2339723 -3.6893488e+19
1.8570328 -3.6893488e+19 2.3689458
2 3.2240858 -2
2.2591152 -1.0842022e-19 2.348846
-0 3.2354958 -0
1.8577633 -3.6893488e+19 2.342798
2 3.2369282 1.0842022e-19
2.2661345 0 2.3308625
2 3.2448456 1.0842022e-19
1.8622459 0 2.3216043
-1.0842022e-19 3.2369242 0
2.2661324 -2 2.3034642
-3.6893488e+19 3.2355473 -3.6893488e+19
1.857788 -1.0842022e-19 2.2883134
-0 3.2242699 -2
2.2592158 -1.0842022e-19 2.2689178
-3.6893488e+19 3.2363167 2
1.8581569 1.0842022e-19 2.261513
0 3.1435952 1.0842022e-19
2.1802452 -1.0842022e-19 2.152142
1.0842022e-19 3.2233832 2
2.3752198 -1.0842022e-19 2.208272
-0 3.2267075 -1.0842022e-19
2.0974696 0 2.1830168
-0 3.2279799 -0
2.3788633 -1.0842022e-19 2.1589811
2 3.2235794 -0
2.0951896 -3.6893488e+19 2.1271434
-1.0842022e-19 3.2328053 -2
2.382688 0 2.1088562
-1.0842022e-19 3.2111003 -1.0842022e-19
2.0860937 -0 2.0656171
3.6893488e+19 3.2367091 2
2.3857825 -2 2.0571003
3.6893488e+19 3.1310797 -2
2.0277669 -3.6893488e+19 1.9682254
1.0842022e-19 3.2252681 -2
2.3767138 -2 1.9965485
3.6893488e+19 3.1956344 -2
2.0748205 -2 1.955389
1.0842022e-19 3.1309187 -0
2.3019292 0 1.9048698
2 3.1975543 -0
2.07622 2 1.9062661
-0 3.1302614 -0
2.3014083 2 1.8489305
2 3.148293 3.6893488e+19
2.0403137 3.6893488e+19 1.8141696
-3.6893488e+19 3.1307049 1.0842022e-19
2.30176 1.0842022e-19 1.7638227
0 3.1508532 1.0842022e-19
2.0421798 -3.6893488e+19 1.7017038
-3.6893488e+19 3.1139867 3.6893488e+19
1.7995077 0 1.5785669
3.6893488e+19 3.1292408 2
2.1645541 -0 1.296699
1.0842022e-19 3.1199572 -1.0842022e-19
1.8023701 -2 -1.4965553
-0 3.1291091 0
2.1644104 -2 -1.648064
0 3.1106617 1.0842022e-19
1.7979136 3.6893488e+19 -1.7210082
0 3.1381869 -3.6893488e+19
2.1743331 -3.6893488e+19 -1.787618
1.0842022e-19 3.1396072 -1.0842022e-19
2.1758857 -1.0842022e-19 -1.8751714
-1.0842022e-19 3.1248853 -3.6893488e+19
1.8047328 -2 -1.8910922
0 3.140229 3.6893488e+19
2.1765654 -1.0842022e-19 -1.9190264
-0 3.1013284 -2
1.7934388 3.6893488e+19 -1.9214495
1.0842022e-19 3.1414547 2
2.1779053 3.6893488e+19 -1.9633576
-0 3.0443227 3.6893488e+19
1.7661084 -0 -1.9265035
-2 3.0466838 -0
2.0743098 0 -1.9449224
-2 2.854702 -3.6893488e+19
1.9438652 -1.0842022e-19 -1.886385
-2 2.8064048 -1.0842022e-19
1.9928671 -1.0842022e-19 -1.8767254
-0 2.7714336 0
1.8228467 -1.0842022e-19 -1.8638558
-1.0842022e-19 2.7233706 -1.0842022e-19
1.9376049 -0 -1.8473866
-2 2.6717534 0
1.778707 -1.0842022e-19 -1.8341949
-2 2.6397538 -1.0842022e-19
1.9044662 0 -1.8300326
-2 2.6095228 1.0842022e-19
1.7560272 -1.0842022e-19 -1.8234828
-1.0842022e-19 2.5836129 3.6893488e+19
1.8822166 0 -1.8192827
-1.0842022e-19 2.564019 -3.6893488e+19
1.7288868 -2 -1.8159857
-0 2.5485923 1.0842022e-19
1.8616747 -3.6893488e+19 -1.8157198
-1.0842022e-19 2.5322366 1.0842022e-19
1.7057209 -0 -1.81251
-2 2.5175614 0
1.8370786 0 -1.8109961
-3.6893488e+19 2.5068197 2
1.6871947 0 -1.8100699
3.6893488e+19 2.4827702 1.0842022e-19
1.8163302 3.6893488e+19 -1.806438
-3.6893488e+19 2.4655788 3.6893488e+19
1.669679 -2 -1.8058612
-1.0842022e-19 2.4416006 -2
1.8000139 1.0842022e-19 -1.8034571
-1.0842022e-19 2.3802166 1.0842022e-19
1.4322889 -0 -1.7993718
-3.6893488e+19 2.329987 0
1.4082072 2 -1.795014
-2 2.2900171 3.6893488e+19
1.3890442 -0 -1.7908956
2 2.2639763 3.6893488e+19
1.3765593 3.6893488e+19 -1.791055
-3.6893488e+19 2.2227442 -0
1.6873567 1.0842022e-19 -1.7880068
-2 2.1819441 -0
1.6711869 -3.6893488e+19 -1.7864288
1.0842022e-19 2.1451685 -2
1.656612 1.0842022e-19 -1.7841712
2 2.1192169 3.6893488e+19
1.646327 -0 -1.7845103
0 3.2570243 -0
2.2809572 -3.6893488e+19 2.6593685
-2 3.255414 3.6893488e+19
2.2791972 -2 2.6419823
-3.6893488e+19 3.2539694 -3.6893488e+19
1.8685234 2 2.6315663
-1.0842022e-19 3.2407393 0
2.2682176 -0 2.6123691
-1.0842022e-19 3.2501907 0
1.8649001 3.6893488e+19 2.6114626
-0 3.250514 3.6893488e+19
2.2738409 -0 2.605505
-1.0842022e-19 3.2097793 -2
2.0851307 -2 2.562597
2 3.2384753 3.6893488e+19
2.1060472 -0 2.568094
3.6893488e+19 3.2299006 -3.6893488e+19
2.3803856 -3.6893488e+19 2.556818
-0 3.2111623 0
2.086139 -3.6893488e+19 2.5371108
-2 3.23368 0
2.3833816 -1.0842022e-19 2.5453522
-0 3.2116201 -0
2.0864725 3.6893488e+19 2.5242119
1.0842022e-19 3.2332265 -3.6893488e+19
2.3830218 -0 2.5312381
2 3.2124264 3.6893488e+19
2.0870602 1.0842022e-19 2.5115111
0 3.2311764 0
2.381397 2 2.5162916
3.6893488e+19 3.2314966 -3.6893488e+19
2.1009603 -0 2.5086019
-0 3.2210188 0
2.3733459 -3.6893488e+19 2.4944713
-3.6893488e+19 3.227042 -1.0842022e-19
2.0977135 3.6893488e+19 2.4853306
-3.6893488e+19 3.2179794 -2
2.3709366 2 2.4646285
3.6893488e+19 3.2302425 -3.6893488e+19
2.1000462 3.6893488e+19 2.46137
-3.6893488e+19 3.2155213 -2
1.8481869 2 2.4336519
2 3.199899 1.0842022e-19
2.2417917 -1.0842022e-19 2.4072852
-1.0842022e-19 3.2180312 -0
1.8493901 -1.0842022e-19 2.40955
-1.0842022e-19 3.2041795 3.6893488e+19
2.2464709 -0 2.3854711
0 3.1333926 -1.0842022e-19
1.8088114 1.0842022e-19 2.3138616
0 3.2219095 -1.0842022e-19
2.2579257 0 2.3738608
1.0842022e-19 3.2339723 -3.6893488e+19
1.8570328 -3.6893488e+19 2.3689458
2 3.2240858 -2
2.2591152 -1.0842022e-19 2.348846
2 3.1312253 -2
1.8077724 0 2.2691751
1.0842022e-19 3.2214885 -0
2.2576957 -2 2.3203712
3.6893488e+19 3.134347 3.6893488e+19
1.8092691 0 2.2495806
2 3.1482117 3.6893488e+19
2.1852915 -2 2.2463524
-0 3.1328726 -3.6893488e+19
1.8085622 1.0842022e-19 2.2046924
-3.6893488e+19 3.1456809 -1.0842022e-19
2.1825252 2 2.1987138
0 3.1305985 -1.0842022e-19
1.8074719 -0 2.1593275
0 3.1435952 1.0842022e-19
2.1802452 -1.0842022e-19 2.152142
2 3.1561782 1.0842022e-19
2.3219509 -3.6893488e+19 2.1432123
-0 3.1320205 0
2.0284529 -2 2.0970078
2 3.1573946 1.0842022e-19
2.3229151 -1.0842022e-19 2.0985851
2 3.1321311 0
2.0285335 2 2.054317
2 3.1356354 3.6893488e+19
2.3056679 3.6893488e+19 2.0366323
-2 3.1330962 0
2.029237 1.0842022e-19 2.0122244
-2 3.1329846 2
2.3035669 -0 1.9916531
3.6893488e+19 3.1310797 -2
2.0277669 -3.6893488e+19 1.9682254
0 3.1312153 -0
2.3021643 1.0842022e-19 1.9477581
-2 3.1211798 0
2.0205512 2 1.9210737
1.0842022e-19 3.1309187 -0
2.3019292 0 1.9048698
3.6893488e+19 3.1245224 -3.6893488e+19
2.0229874 0 1.8807666
-0 3.1302614 -0
2.3014083 2 1.8489305
2 3.148293 3.6893488e+19
2.0403137 3.6893488e+19 1.8141696
-3.6893488e+19 3.1307049 1.0842022e-19
2.30176 1.0842022e-19 1.7638227
0 3.1508532 1.0842022e-19
2.0421798 -3.6893488e+19 1.7017038
-3.6893488e+19 3.1139867 3.6893488e+19
1.7995077 0 1.5785669
3.6893488e+19 3.1292408 2
2.1645541 -0 1.296699
1.0842022e-19 3.1199572 -1.0842022e-19
1.8023701 -2 -1.4965553
-0 3.1291091 0
2.1644104 -2 -1.648064
0 3.1106617 1.0842022e-19
1.7979136 3.6893488e+19 -1.7210082
0 3.1381869 -3.6893488e+19
2.1743331 -3.6893488e+19 -1.787618
1.0842022e-19 3.1396072 -1.0842022e-19
2.1758857 -1.0842022e-19 -1.8751714
-1.0842022e-19 3.1248853 -3.6893488e+19
1.8047328 -2 -1.8910922
0 3.140229 3.6893488e+19
2.1765654 -1.0842022e-19 -1.9190264
-0 3.1013284 -2
1.7934388 3.6893488e+19 -1.9214495
1.0842022e-19 3.1414547 2
2.1779053 3.6893488e+19 -1.9633576
-0 3.0443227 3.6893488e+19
1.7661084 -0 -1.9265035
-2 3.0466838 -0
2.0743098 0 -1.9449224
-2 2.854702 -3.6893488e+19
1.9438652 -1.0842022e-19 -1.886385
-2 2.8064048 -1.0842022e-19
1.9928671 -1.0842022e-19 -1.8767254
-0 2.7714336 0
1.8228467 -1.0842022e-19 -1.8638558
-1.0842022e-19 2.7233706 -1.0842022e-19
1.9376049 -0 -1.8473866
-2 2.6717534 0
1.778707 -1.0842022e-19 -1.8341949
-2 2.6397538 -1.0842022e-19
1.9044662 0 -1.8300326
-2 2.6095228 1.0842022e-19
1.7560272 -1.0842022e-19 -1.8234828
-1.0842022e-19 2.5836129 3.6893488e+19
1.8822166 0 -1.8192827
-1.0842022e-19 2.564019 -3.6893488e+19
1.7288868 -2 -1.8159857
-0 2.5485923 1.0842022e-19
1.8616747 -3.6893488e+19 -1.8157198
-1.0842022e-19 2.5322366 1.0842022e-19
1.7057209 -0 -1.81251
-2 2.5175614 0
1.8370786 0 -1.8109961
-3.6893488e+19 2.5068197 2
1.6871947 0 -1.8100699
3.6893488e+19 2.4827702 1.0842022e-19
1.8163302 3.6893488e+19 -1.806438
-3.6893488e+19 2.4655788 3.6893488e+19
1.669679 -2 -1.8058612
-1.0842022e-19 2.4416006 -2
1.8000139 1.0842022e-19 -1.8034571
-1.0842022e-19 2.3802166 1.0842022e-19
1.4322889 -0 -1.7993718
-3.6893488e+19 2.329987 0
1.4082072 2 -1.795014
-2 2.2900171 3.6893488e+19
1.3890442 -0 -1.7908956
2 2.2639763 3.6893488e+19
1.3765593 3.6893488e+19 -1.791055
-3.6893488e+19 2.2227442 -0
1.6873567 1.0842022e-19 -1.7880068
-2 2.1819441 -0
1.6711869 -3.6893488e+19 -1.7864288
1.0842022e-19 2.1451685 -2
1.656612 1.0842022e-19 -1.7841712
2 2.1192169 3.6893488e+19
1.646327 -0 -1.7845103
1.0842022e-19 3.2570846 -0
2.2702117 0 2.6593931
0 3.2531803 -2
1.8253598 -1.0842022e-19 2.6303666
1.0842022e-19 3.2407949 -3.6893488e+19
2.2579277 -1.0842022e-19 2.6123464
-2 3.2498767 0
1.8227944 -1.0842022e-19 2.6110849
3.6893488e+19 3.2445757 -3.6893488e+19
2.2599146 3.6893488e+19 2.6008651
-2 3.2098324 2
2.0658805 -2 2.562597
0 3.2610917 3.6893488e+19
2.1087122 -3.6893488e+19 2.5900052
-0 3.2291939 -0
2.3696988 3.6893488e+19 2.556288
-3.6893488e+19 3.2373152 3.6893488e+19
2.0847597 -1.0842022e-19 2.5533581
1.0842022e-19 3.2303903 -1.0842022e-19
2.3706217 0 2.5432684
-0 3.2124147 3.6893488e+19
2.0676544 -3.6893488e+19 2.524652
-1.0842022e-19 3.2315953 1.0842022e-19
2.3715515 2 2.5302172
1.0842022e-19 3.2348311 -0
2.0830531 0 2.5241497
-1.0842022e-19 3.2305906 0
2.3707764 -0 2.5158994
-3.6893488e+19 3.2315831 -2
2.080822 2 2.5086186
2 3.2271903 3.6893488e+19
2.0778043 -3.6893488e+19 2.485425
-2 3.2182226 -0
2.3612344 2 2.464751
1.0842022e-19 3.2310731 -3.6893488e+19
2.0804715 -2 2.4621143
1.0842022e-19 3.2395616 -2
1.8187127 1.0842022e-19 2.4560299
-3.6893488e+19 3.2045946 -2
2.227807 1.0842022e-19 2.4114642
1.0842022e-19 3.2203467 -2
1.8111097 -2 2.4115613
0 3.2254078 2
2.2496829 -0 2.4034171
2 3.2369204 1.0842022e-19
1.8176677 2 2.3985996
2 3.2224576 -2
2.246582 3.6893488e+19 2.3742294
3.6893488e+19 3.2496052 3.6893488e+19
1.8226869 -3.6893488e+19 2.3808496
3.6893488e+19 3.1422839 2
2.1623147 1.0842022e-19 2.2886033
-2 3.2424855 -2
1.8198698 -3.6893488e+19 2.3477209
-3.6893488e+19 3.2222545 -3.6893488e+19
2.2463686 -1.0842022e-19 2.3208356
-2 3.2452681 -2
1.8209708 -1.0842022e-19 2.3218672
0 3.1441157 1.0842022e-19
2.1642399 0 2.2411609
-3.6893488e+19 3.2360945 2
1.817341 0 2.2886281
1.0842022e-19 3.2227356 1.0842022e-19
2.2468743 -1.0842022e-19 2.2680008
-0 3.2377372 -0
1.8179909 3.6893488e+19 2.2622674
1.0842022e-19 3.2211134 -0
2.3634646 3.6893488e+19 2.2059581
-0 3.2264509 2
2.0772965 -0 2.1827335
3.6893488e+19 3.2287855 -3.6893488e+19
2.3693836 3.6893488e+19 2.1595657
-2 3.2211707 -1.0842022e-19
2.0736692 3.6893488e+19 2.1251819
-2 3.2337055 -3.6893488e+19
2.3731794 0 2.1094334
-1.0842022e-19 3.2237244 -0
2.0754235 1.0842022e-19 2.0742207
-3.6893488e+19 3.226763 -0
2.3678234 0 2.0507479
-0 3.1934016 -0
2.0545933 -2 2.0038846
3.6893488e+19 3.2249544 -1.0842022e-19
2.3664279 2 1.9963229
-1.0842022e-19 3.1941879 1.0842022e-19
2.0551336 -3.6893488e+19 1.9546987
0 3.2243035 0
2.3659258 3.6893488e+19 1.9427878
3.6893488e+19 3.1968882 2
2.0569885 -1.0842022e-19 1.9060154
2 3.1293635 0
2.2926795 2 1.8483446
2 3.1496191 3.6893488e+19
2.0245171 3.6893488e+19 1.8147775
1.0842022e-19 3.129154 -2
2.2925177 -2 1.7632216
3.6893488e+19 3.1475902 -0
2.0231233 -1.0842022e-19 1.7000388
1.0842022e-19 3.1174059 -2
1.7703774 -0 1.5804716
-0 3.1351566 3.6893488e+19
1.7774012 -0 -1.5033379
-3.6893488e+19 3.1293938 0
2.1487665 -2 -1.6481493
2 3.1162364 1.0842022e-19
1.7699147 -0 -1.7244163
-0 3.1371324 0
2.1569002 0 -1.787148
-2 3.1200147 -0
1.7714097 -2 -1.8209355
0 3.1405485 1.0842022e-19
2.1604905 -2 -1.8754518
-0 3.1241179 -2
1.7730333 2 -1.8907983
-1.0842022e-19 3.1414194 2
2.161406 2 -1.9195124
1.0842022e-19 3.126265 -1.0842022e-19
1.7738829 -0 -1.9336121
3.6893488e+19 3.1428945 0
2.1629565 -2 -1.9641048
2 3.0481117 -3.6893488e+19
1.7359173 0 -1.9287694
0 3.0452716 -2
2.0603485 -2 -1.9439604
0 2.8535185 -0
1.9357848 -2 -1.885906
1.0842022e-19 2.8092792 -0
1.9886093 1.0842022e-19 -1.8778815
0 2.7697194 -0
1.8102828 3.6893488e+19 -1.8623198
0 2.7263486 0
1.9337518 2 -1.8487284
-2 2.6716776 0
1.7698351 1.0842022e-19 -1.8341331
-1.0842022e-19 2.6379912 -1.0842022e-19
1.8996679 -2 -1.829053
-2 2.6094398 3.6893488e+19
1.7469162 -2 -1.823414
-1.0842022e-19 2.5839465 -2
1.8788201 2 -1.8194271
0 2.564429 3.6893488e+19
1.715996 -1.0842022e-19 -1.8162129
0 2.5487928 2
1.8555191 2 -1.8157991
-2 2.5325181 -3.6893488e+19
1.694075 -1.0842022e-19 -1.8126754
2 2.5171342 -0
1.8310944 3.6893488e+19 -1.8106514
1.0842022e-19 2.506974 1.0842022e-19
1.6765275 -2 -1.8101594
1.0842022e-19 2.4838848 -0
1.8116589 0 -1.8068104
-3.6893488e+19 2.4656327 3.6893488e+19
1.6599325 -2 -1.8058612
1.0842022e-19 3.2570846 -0
2.2702117 0 2.6593931
0 3.2531803 -2
1.8253598 -1.0842022e-19 2.6303666
1.0842022e-19 3.2407949 -3.6893488e+19
2.2579277 -1.0842022e-19 2.6123464
-2 3.2498767 0
1.8227944 -1.0842022e-19 2.6110849
3.6893488e+19 3.2445757 -3.6893488e+19
2.2599146 3.6893488e+19 2.6008651
-2 3.2098324 2
2.0658805 -2 2.562597
0 3.2610917 3.6893488e+19
2.1087122 -3.6893488e+19 2.5900052
-0 3.2291939 -0
2.3696988 3.6893488e+19 2.556288
-3.6893488e+19 3.2080688 0
2.0646691 -1.0842022e-19 2.535152
1.0842022e-19 3.2303903 -1.0842022e-19
2.3706217 0 2.5432684
-0 3.2124147 3.6893488e+19
2.0676544 -3.6893488e+19 2.524652
-1.0842022e-19 3.2315953 1.0842022e-19
2.3715515 2 2.5302172
1.0842022e-19 3.2125418 2
2.0677416 -2 2.5115459
-1.0842022e-19 3.2305906 0
2.3707764 -0 2.5158994
3.6893488e+19 3.2030528 0
2.0612233 -0 2.4865944
2 3.2271903 3.6893488e+19
2.0778043 -3.6893488e+19 2.485425
-2 3.2182226 -0
2.3612344 2 2.464751
1.0842022e-19 3.2310731 -3.6893488e+19
2.0804715 -2 2.4621143
1.0842022e-19 3.2395616 -2
1.8187127 1.0842022e-19 2.4560299
-1.0842022e-19 3.1410735 2
2.1610425 -1.0842022e-19 2.3539696
-2 3.1357636 2
1.7776414 1.0842022e-19 2.3375499
-3.6893488e+19 3.1410306 2
2.1609974 -2 2.3318172
-0 3.1326602 -2
1.7764133 -0 2.3132508
3.6893488e+19 3.1415269 1.0842022e-19
2.1615191 -2 2.3101249
1.0842022e-19 3.234674 -1.0842022e-19
1.8167788 -3.6893488e+19 2.3694675
3.6893488e+19 3.1422839 2
2.1623147 1.0842022e-19 2.2886033
0 3.1314259 -0
1.7759249 1.0842022e-19 2.2693069
-1.0842022e-19 3.1445138 0
2.1646585 -1.0842022e-19 2.2680209
3.6893488e+19 3.1327412 -2
1.7764454 -2 2.2474754
0 3.1441157 1.0842022e-19
2.1642399 0 2.2411609
-0 3.1336653 2
1.7768111 -0 2.2056174
-3.6893488e+19 3.1434796 -2
2.1635714 -3.6893488e+19 2.1961391
-1.0842022e-19 3.1332309 -0
1.7766392 -1.0842022e-19 2.1621439
-1.0842022e-19 3.1563442 2
2.3134952 -3.6893488e+19 2.1432724
1.0842022e-19 3.1326258 1.0842022e-19
2.0128436 1.0842022e-19 2.0975175
3.6893488e+19 3.1546412 2
2.3121812 -0 2.0961406
-3.6893488e+19 3.1318634 -2
2.0123198 -2 2.0540686
1.0842022e-19 3.1375363 2
2.2989848 3.6893488e+19 2.0379715
0 3.1256857 -2
2.008076 3.6893488e+19 2.007122
-3.6893488e+19 3.135134 1.0842022e-19
2.2971315 -2 1.9929471
0 3.1227307 -2
2.0060461 0 1.9634197
-3.6893488e+19 3.1348879 0
2.2969418 -0 1.9496123
1.0842022e-19 3.1181645 3.6893488e+19
2.0029094 0 1.9196643
-3.6893488e+19 3.1320422 3.6893488e+19
2.2947462 -3.6893488e+19 1.9052868
-0 3.1224744 -1.0842022e-19
2.0058701 3.6893488e+19 1.8800365
2 3.1293635 0
2.2926795 2 1.8483446
-3.6893488e+19 3.1176207 0
2.0025361 3.6893488e+19 1.7995816
1.0842022e-19 3.129154 -2
2.2925177 -2 1.7632216
0 3.1193359 2
2.0037141 -3.6893488e+19 1.6858232
1.0842022e-19 3.1174059 -2
1.7703774 -0 1.5804716
3.6893488e+19 3.1136584 1.0842022e-19
1.7688947 -1.0842022e-19 -1.4923489
-3.6893488e+19 3.1293938 0
2.1487665 -2 -1.6481493
2 3.1162364 1.0842022e-19
1.7699147 -0 -1.7244163
-1.0842022e-19 3.1049545 -2
2.1230791 -0 -1.7736704
-2 3.1200147 -0
1.7714097 -2 -1.8209355
0 3.1405485 1.0842022e-19
2.1604905 -2 -1.8754518
-0 3.1241179 -2
1.7730333 2 -1.8907983
-1.0842022e-19 3.1414194 2
2.161406 2 -1.9195124
1.0842022e-19 3.126265 -1.0842022e-19
1.7738829 -0 -1.9336121
3.6893488e+19 3.1428945 0
2.1629565 -2 -1.9641048
2 3.0481117 -3.6893488e+19
1.7359173 0 -1.9287694
0 3.0452716 -2
2.0603485 -2 -1.9439604
0 2.8535185 -0
1.9357848 -2 -1.885906
1.0842022e-19 2.8092792 -0
1.9886093 1.0842022e-19 -1.8778815
0 2.7697194 -0
1.8102828 3.6893488e+19 -1.8623198
0 2.7263486 0
1.9337518 2 -1.8487284
-2 2.6716776 0
1.7698351 1.0842022e-19 -1.8341331
-1.0842022e-19 2.6379912 -1.0842022e-19
1.8996679 -2 -1.829053
-2 2.6094398 3.6893488e+19
1.7469162 -2 -1.823414
-1.0842022e-19 2.5839465 -2
1.8788201 2 -1.8194271
0 2.564429 3.6893488e+19
1.715996 -1.0842022e-19 -1.8162129
0 2.5487928 2
1.8555191 2 -1.8157991
-2 2.5325181 -3.6893488e+19
1.694075 -1.0842022e-19 -1.8126754
2 2.5171342 -0
1.8310944 3.6893488e+19 -1.8106514
1.0842022e-19 2.506974 1.0842022e-19
1.6765275 -2 -1.8101594
1.0842022e-19 2.4838848 -0
1.8116589 0 -1.8068104
-3.6893488e+19 2.4656327 3.6893488e+19
1.6599325 -2 -1.8058612
-1.0842022e-19 3.2788792 -1.0842022e-19
1.8020804 -1.0842022e-19 2.758199
-0 3.2273543 -3.6893488e+19
1.7765532 -0 2.6639957
-0 3.2786868 -0
1.8019582 -0 2.7009435
-3.6893488e+19 3.2717011 -1.0842022e-19
2.2749083 -2 2.682601
3.6893488e+19 3.2554564 -0
1.7872076 -3.6893488e+19 2.6485465
2 3.2730205 2
2.2762432 -0 2.6688633
-2 3.2539394 3.6893488e+19
1.7862444 -3.6893488e+19 2.6314969
3.6893488e+19 3.2408721 1.0842022e-19
2.2466664 -1.0842022e-19 2.6123464
0 3.2478609 1.0842022e-19
1.7830638 -1.0842022e-19 2.6096189
0 3.272187 -3.6893488e+19
2.2753997 3.6893488e+19 2.6361325
-3.6893488e+19 3.204215 2
2.0442331 -3.6893488e+19 2.5587468
-3.6893488e+19 3.2263863 1.0842022e-19
2.3581362 -0 2.5544226
-2 3.2339401 1.0842022e-19
2.0634885 -0 2.5512264
1.0842022e-19 3.2307174 -0
2.361392 2 2.5433998
-3.6893488e+19 3.2125545 3.6893488e+19
2.0496352 -1.0842022e-19 2.5247071
-3.6893488e+19 3.2315533 -1.0842022e-19
2.3620205 -0 2.5301275
-1.0842022e-19 3.2343857 -2
2.063777 -3.6893488e+19 2.5238698
-1.0842022e-19 3.2320278 -0
2.3623772 -0 2.5166326
-3.6893488e+19 3.2319417 -0
2.0621939 2 2.5087848
-2 3.2339594 -0
2.3638294 -1.0842022e-19 2.5039041
-3.6893488e+19 3.2308939 -0
2.0615151 -0 2.4891429
1.0842022e-19 3.2215431 0
2.354495 -1.0842022e-19 2.4679377
-1.0842022e-19 3.2319281 3.6893488e+19
2.062185 0 2.4628887
3.6893488e+19 3.2401645 -3.6893488e+19
1.7806202 1.0842022e-19 2.4565792
0 3.20947 0
2.2148936 3.6893488e+19 2.4158113
-1.0842022e-19 3.2201419 -0
1.7742634 -2 2.411371
3.6893488e+19 3.1400068 2
2.1446104 -3.6893488e+19 2.3308961
2 3.2401977 0
1.7806308 1.0842022e-19 2.4012716
1.0842022e-19 3.1421163 -0
2.1467447 3.6893488e+19 2.3105428
0 3.2498677 -1.0842022e-19
1.7837008 -0 2.3810394
-2 3.2140567 -3.6893488e+19
2.2195344 -2 2.3413527
3.6893488e+19 3.2477596 -0
1.7830316 1.0842022e-19 2.3514352
-2 3.2237585 1.0842022e-19
2.2293508 3.6893488e+19 2.3218067
-2 3.2450635 -0
1.7821757 3.6893488e+19 2.3217256
-1.0842022e-19 3.2233117 -3.6893488e+19
2.2288985 -3.6893488e+19 2.2948823
0 3.2329605 2
1.7783331 -1.0842022e-19 2.2867591
2 3.2228723 -3.6893488e+19
2.2284539 -0 2.2680361
-2 3.2369709 -1.0842022e-19
1.7796063 3.6893488e+19 2.2618482
-2 3.2287273 1.0842022e-19
2.2343783 -0 2.2389603
0 3.2223101 3.6893488e+19
2.3550715 -3.6893488e+19 2.2070098
-2 3.2269359 -1.0842022e-19
2.0589511 -3.6893488e+19 2.1831298
-3.6893488e+19 3.2290211 1.0842022e-19
2.360117 2 2.159672
3.6893488e+19 3.2200961 -2
2.0545204 1.0842022e-19 2.1242881
3.6893488e+19 3.2315183 -2
2.361994 -1.0842022e-19 2.1077247
-3.6893488e+19 3.1230409 0
1.9916499 -2 2.005286
-2 3.2206562 -3.6893488e+19
2.3538282 -2 2.0468264
0 3.1934781 3.6893488e+19
2.0372777 -2 2.0039024
-0 3.2243807 0
2.3566284 -1.0842022e-19 1.9959681
-1.0842022e-19 3.1949198 -3.6893488e+19
2.0382116 0 1.9550152
-3.6893488e+19 3.1368587 -1.0842022e-19
2.2908313 0 1.9072081
-1.0842022e-19 3.1945612 -1.0842022e-19
2.0379794 3.6893488e+19 1.9051872
1.0842022e-19 3.1311939 -2
2.2865725 -0 1.8493699
3.6893488e+19 3.1916208 3.6893488e+19
2.0360746 0 1.8347026
2 3.1630597 -1.0842022e-19
2.3105285 0 1.7755471
-2 3.1179059 -3.6893488e+19
1.9883233 -3.6893488e+19 1.6850849
0 3.1455393 -0
1.750578 -2 1.5961992
-3.6893488e+19 3.1306767 -3.6893488e+19
2.1351702 -1.0842022e-19 1.2972919
-3.6893488e+19 3.112262 -3.6893488e+19
1.7300261 -3.6893488e+19 -1.4914118
3.6893488e+19 3.1286428 -2
2.1331122 0 -1.6478328
0 3.1157777 3.6893488e+19
1.7322584 2 -1.7241291
2 3.1183064 -1.0842022e-19
1.7338641 -0 -1.8200256
2 3.1411712 -2
2.1457884 0 -1.8756322
-0 3.1410446 -2
2.1456604 -3.6893488e+19 -1.9193233
-2 3.1243074 -2
1.7376746 -1.0842022e-19 -1.9326519
-3.6893488e+19 3.1435485 1.0842022e-19
2.1481941 -0 -1.9644275
2 3.0491502 3.6893488e+19
1.6899519 -1.0842022e-19 -1.9293872
1.0842022e-19 3.0460348 -1.0842022e-19
2.0495291 -0 -1.9444312
-3.6893488e+19 2.8536363 1.0842022e-19
1.9289054 -1.0842022e-19 -1.8859299
1.0842022e-19 2.8121476 1.0842022e-19
1.9846653 -0 -1.8790375
2 2.770308 -0
1.800101 0 -1.8628136
2 2.728323 -0
1.929796 -3.6893488e+19 -1.8496034
-3.6893488e+19 2.6719699 0
1.7616726 3.6893488e+19 -1.8342568
-1.0842022e-19 2.6367154 -0
1.8953618 -0 -1.8283348
-1.0842022e-19 2.6097257 -3.6893488e+19
1.7330244 -0 -1.8235515
-0 2.5806727 -3.6893488e+19
1.873592 -2 -1.8174763
2 2.5650837 -3.6893488e+19
1.704106 -3.6893488e+19 -1.8165915
-3.6893488e+19 2.5489862 -0
1.8497709 -1.0842022e-19 -1.8158783
2 2.5321736 3.6893488e+19
1.6827874 0 -1.8124274
0 2.5176923 -3.6893488e+19
1.8262447 0 -1.8109961
-3.6893488e+19 2.5071244 -1.0842022e-19
1.666561 -2 -1.8102491
-2 2.4847407 1.0842022e-19
1.8072084 -2 -1.8070896
-1.0842022e-19 2.4661775 0
1.6509911 -2 -1.8060544
-1.0842022e-19 2.4445405 -0
1.7920976 -1.0842022e-19 -1.8045574
-1.0842022e-19 2.3832209 -2
1.3683344 -0 -1.8007386
-3.6893488e+19 2.3305037 3.6893488e+19
1.3348606 2 -1.7952695
3.6893488e+19 2.2900355 -1.0842022e-19
1.3091643 -0 -1.7908956
-3.6893488e+19 2.2605355 -1.0842022e-19
1.2904327 -1.0842022e-19 -1.7888802
2 2.2239566 3.6893488e+19
1.6781547 0 -1.788345
-2 2.1846023 -0
1.6633619 -3.6893488e+19 -1.7873429
3.6893488e+19 2.1482902 -1.0842022e-19
1.6497126 -2 -1.7853502
-0 2.1130702 0
1.6364739 2 -1.7817782
-1.0842022e-19 3.2788792 -1.0842022e-19
1.8020804 -1.0842022e-19 2.758199
-0 3.2273543 -3.6893488e+19
1.7765532 -0 2.6639957
-0 3.2786868 -0
1.8019582 -0 2.7009435
-0 3.2571709 -3.6893488e+19
2.2602065 3.6893488e+19 2.659466
3.6893488e+19 3.2554564 -0
1.7872076 -3.6893488e+19 2.6485465
2 3.2730205 2
2.2762432 -0 2.6688633
-2 3.2539394 3.6893488e+19
1.7862444 -3.6893488e+19 2.6314969
3.6893488e+19 3.2408721 1.0842022e-19
2.2466664 -1.0842022e-19 2.6123464
0 3.2478609 1.0842022e-19
1.7830638 -1.0842022e-19 2.6096189
0 3.2424119 -3.6893488e+19
2.248224 -1.0842022e-19 2.5992749
-3.6893488e+19 3.204215 2
2.0442331 -3.6893488e+19 2.5587468
-3.6893488e+19 3.2263863 1.0842022e-19
2.3581362 -0 2.5544226
-2 3.2339401 1.0842022e-19
2.0634885 -0 2.5512264
1.0842022e-19 3.2307174 -0
2.361392 2 2.5433998
-3.6893488e+19 3.2125545 3.6893488e+19
2.0496352 -1.0842022e-19 2.5247071
-3.6893488e+19 3.2315533 -1.0842022e-19
2.3620205 -0 2.5301275
0 3.2126818 -1.0842022e-19
2.0497174 -2 2.5115983
-1.0842022e-19 3.2320278 -0
2.3623772 -0 2.5166326
-3.6893488e+19 3.2319417 -0
2.0621939 2 2.5087848
-2 3.2339594 -0
2.3638294 -1.0842022e-19 2.5039041
-3.6893488e+19 3.2308939 -0
2.0615151 -0 2.4891429
1.0842022e-19 3.2215431 0
2.354495 -1.0842022e-19 2.4679377
-1.0842022e-19 3.2319281 3.6893488e+19
2.062185 0 2.4628887
-2 3.1431682 -1.0842022e-19
1.7496507 0 2.3662291
2 3.1408563 1.0842022e-19
2.1454699 0 2.3537173
3.6893488e+19 3.1445651 3.6893488e+19
1.7502688 -1.0842022e-19 2.3452418
3.6893488e+19 3.1400068 2
2.1446104 -3.6893488e+19 2.3308961
-1.0842022e-19 3.1375511 -0
1.746084 -0 2.317246
1.0842022e-19 3.1421163 -0
2.1467447 3.6893488e+19 2.3105428
0 3.2498677 -1.0842022e-19
1.7837008 -0 2.3810394
2 3.141942 0
2.1465685 -0 2.2883062
-2 3.1305022 -3.6893488e+19
1.7416081 -2 2.2686474
-2 3.1419034 -1.0842022e-19
2.1465294 3.6893488e+19 2.2662055
0 3.1330943 -1.0842022e-19
1.7432539 -0 2.2479208
3.6893488e+19 3.1441777 -2
2.1488304 0 2.2411609
-3.6893488e+19 3.1343613 2
1.7440586 2 2.2064316
-2 3.1448171 -3.6893488e+19
2.1494775 -2 2.1975851
-1.0842022e-19 3.130903 3.6893488e+19
1.7418627 2 2.1596293
-2 3.1441929 -3.6893488e+19
2.1488459 -2 2.1526189
-0 3.1536436 1.0842022e-19
2.3034499 1.0842022e-19 2.140568
0 3.1279263 3.6893488e+19
1.9948144 -3.6893488e+19 2.093214
-2 3.1520011 3.6893488e+19
2.3022151 2 2.0938025
2 3.1282225 -2
1.9950062 -1.0842022e-19 2.0511386
1.0842022e-19 3.1379683 -3.6893488e+19
2.2916653 -1.0842022e-19 2.0382254
-3.6893488e+19 3.1230409 0
1.9916499 -2 2.005286
3.6893488e+19 3.1342599 -3.6893488e+19
2.2888775 0 1.9923394
-2 3.120085 3.6893488e+19
1.989735 -1.0842022e-19 1.9618832
1.0842022e-19 3.1353819 -0
2.289721 -3.6893488e+19 1.9498218
-0 3.1199498 -0
1.9896474 1.0842022e-19 1.9204696
-3.6893488e+19 3.1368587 -1.0842022e-19
2.2908313 0 1.9072081
2 3.1199214 1.0842022e-19
1.989629 1.0842022e-19 1.879132
1.0842022e-19 3.1311939 -2
2.2865725 -0 1.8493699
-1.0842022e-19 3.1191881 2
1.989154 1.0842022e-19 1.8003081
-2 3.130362 3.6893488e+19
2.2859473 1.0842022e-19 1.7636299
-2 3.1179059 -3.6893488e+19
1.9883233 -3.6893488e+19 1.6850849
-2 3.1186969 -0
1.7341121 -2 1.5811881
-3.6893488e+19 3.1306767 -3.6893488e+19
2.1351702 -1.0842022e-19 1.2972919
-3.6893488e+19 3.112262 -3.6893488e+19
1.7300261 -3.6893488e+19 -1.4914118
3.6893488e+19 3.1286428 -2
2.1331122 0 -1.6478328
0 3.1157777 3.6893488e+19
1.7322584 2 -1.7241291
2 3.1183064 -1.0842022e-19
1.7338641 -0 -1.8200256
2 3.1411712 -2
2.1457884 0 -1.8756322
-0 3.1410446 -2
2.1456604 -3.6893488e+19 -1.9193233
-2 3.1243074 -2
1.7376746 -1.0842022e-19 -1.9326519
1.0842022e-19 3.0551202 3.6893488e+19
2.0587218 -1.0842022e-19 -1.9162467
2 3.0491502 3.6893488e+19
1.6899519 -1.0842022e-19 -1.9293872
1.0842022e-19 3.0460348 -1.0842022e-19
2.0495291 -0 -1.9444312
-3.6893488e+19 2.8536363 1.0842022e-19
1.9289054 -1.0842022e-19 -1.8859299
1.0842022e-19 2.8121476 1.0842022e-19
1.9846653 -0 -1.8790375
2 2.770308 -0
1.800101 0 -1.8628136
2 2.728323 -0
1.929796 -3.6893488e+19 -1.8496034
-3.6893488e+19 2.6719699 0
1.7616726 3.6893488e+19 -1.8342568
-1.0842022e-19 2.6367154 -0
1.8953618 -0 -1.8283348
-1.0842022e-19 2.6097257 -3.6893488e+19
1.7330244 -0 -1.8235515
-0 2.5806727 -3.6893488e+19
1.873592 -2 -1.8174763
2 2.5650837 -3.6893488e+19
1.704106 -3.6893488e+19 -1.8165915
-3.6893488e+19 2.5489862 -0
1.8497709 -1.0842022e-19 -1.8158783
2 2.5321736 3.6893488e+19
1.6827874 0 -1.8124274
0 2.5176923 -3.6893488e+19
1.8262447 0 -1.8109961
-3.6893488e+19 2.5071244 -1.0842022e-19
1.666561 -2 -1.8102491
-2 2.4847407 1.0842022e-19
1.8072084 -2 -1.8070896
-1.0842022e-19 2.4661775 0
1.6509911 -2 -1.8060544
-1.0842022e-19 2.4445405 -0
1.7920976 -1.0842022e-19 -1.8045574
-1.0842022e-19 2.3832209 -2
1.3683344 -0 -1.8007386
-3.6893488e+19 2.3305037 3.6893488e+19
1.3348606 2 -1.7952695
3.6893488e+19 2.2900355 -1.0842022e-19
1.3091643 -0 -1.7908956
-3.6893488e+19 2.2605355 -1.0842022e-19
1.2904327 -1.0842022e-19 -1.7888802
2 2.2239566 3.6893488e+19
1.6781547 0 -1.788345
-2 2.1846023 -0
1.6633619 -3.6893488e+19 -1.7873429
3.6893488e+19 2.1482902 -1.0842022e-19
1.6497126 -2 -1.7853502
-0 2.1130702 0
1.6364739 2 -1.7817782
2 3.279464 -1.0842022e-19
1.7556479 -3.6893488e+19 2.7587345
2 3.2855241 1.0842022e-19
2.2768948 -2 2.7606251
3.6893488e+19 3.2857268 -1.0842022e-19
2.2770913 -3.6893488e+19 2.7524281
-1.0842022e-19 3.2223871 0
1.7208385 1.0842022e-19 2.6596787
-2 3.272172 2
2.2639463 3.6893488e+19 2.6991076
2 3.2718065 1.0842022e-19
2.2635918 -0 2.6826985
1.0842022e-19 3.2554929 -2
1.7388831 3.6893488e+19 2.6485944
-0 3.2730494 -2
2.264797 0 2.6688399
3.6893488e+19 3.2540066 -3.6893488e+19
1.7374935 -3.6893488e+19 2.6315892
0 3.2460885 -2
1.7319187 0 2.6083307
-2 3.2721848 -1.0842022e-19
2.2639587 2 2.6360672
-2 3.2263482 -0
2.3480504 -2 2.5543244
-1.0842022e-19 3.2344835 -3.6893488e+19
2.0435257 3.6893488e+19 2.5515337
-0 3.227911 -2
2.3491921 -1.0842022e-19 2.5416162
2 3.2309618 2
2.3514214 -1.0842022e-19 2.5297155
-0 3.2343736 -0
2.0434592 2 2.5238349
3.6893488e+19 3.2322989 -3.6893488e+19
2.3523982 0 2.5167179
0 3.2319913 -1.0842022e-19
2.0420158 2 2.5087848
1.0842022e-19 3.2320712 -3.6893488e+19
2.3522317 0 2.5028522
1.0842022e-19 3.2316248 3.6893488e+19
2.0417938 -3.6893488e+19 2.489836
-1.0842022e-19 3.221719 -3.6893488e+19
2.3446679 -1.0842022e-19 2.467999
1.0842022e-19 3.2335589 1.0842022e-19
2.0429657 -1.0842022e-19 2.4644072
-3.6893488e+19 3.239027 0
1.7286177 3.6893488e+19 2.4555094
-1.0842022e-19 3.2061038 2
2.1923192 0 2.4126983
-2 3.2371445 1.0842022e-19
1.7277375 -2 2.4262385
2 3.2072892 -1.0842022e-19
2.1934686 -1.0842022e-19 2.3879182
0 3.2400844 -3.6893488e+19
1.7291118 1.0842022e-19 2.4011698
1.0842022e-19 3.2234778 3.6893488e+19
2.209168 0 2.3749177
-1.0842022e-19 3.2481368 -2
1.7328763 -3.6893488e+19 2.3797114
1.0842022e-19 3.1411979 -1.0842022e-19
2.1293747 2 2.2877123
-1.0842022e-19 3.2436306 3.6893488e+19
1.7307698 3.6893488e+19 2.3485122
-2 3.2238352 -2
2.2095146 3.6893488e+19 2.3218067
0 3.2447011 -3.6893488e+19
1.7312701 -1.0842022e-19 2.3214827
1.0842022e-19 3.1440239 3.6893488e+19
2.1321154 -0 2.2408895
2 3.2356825 3.6893488e+19
1.727054 -0 2.2883689
-1.0842022e-19 3.2380707 1.0842022e-19
2.22332 1.0842022e-19 2.2766063
1.0842022e-19 3.2306216 2
1.7246881 -3.6893488e+19 2.2584281
-1.0842022e-19 3.2336612 0
2.2190437 0 2.2439196
-2 3.2218342 -3.6893488e+19
2.3447521 1.0842022e-19 2.206439
-2 3.2287307 3.6893488e+19
2.0400405 -1.0842022e-19 2.1847153
2 3.2204981 -3.6893488e+19
2.3437757 -3.6893488e+19 2.1522851
1.0842022e-19 3.2200196 -3.6893488e+19
2.0347626 -1.0842022e-19 2.1241887
1.0842022e-19 3.2290859 3.6893488e+19
2.3500507 3.6893488e+19 2.1058314
-3.6893488e+19 3.122736 -2
1.9758233 -2 2.0050511
-2 3.2324936 1.0842022e-19
2.3525407 -3.6893488e+19 2.0542181
3.6893488e+19 3.1208408 3.6893488e+19
1.9746751 -0 1.9622941
0 3.1295345 2
2.277312 0 1.9467423
1.0842022e-19 3.1964951 0
2.0205104 -1.0842022e-19 1.9557198
1.0842022e-19 3.1651077 0
2.3033042 -3.6893488e+19 1.9186466
-2 3.1956995 -1.0842022e-19
2.0200284 -3.6893488e+19 1.9055686
-1.0842022e-19 3.130975 3.6893488e+19
2.2783647 -0 1.8491868
0 3.1934147 2
2.0186441 3.6893488e+19 1.8355328
2 3.1707528 1.0842022e-19
2.3074288 -3.6893488e+19 1.7783138
-2 3.1168194 -3.6893488e+19
1.9722387 2 1.6845195
-0 3.1154242 -3.6893488e+19
1.6708338 -1.0842022e-19 1.5793532
3.6893488e+19 3.1151764 2
1.6707181 -0 -1.4933485
-0 3.1314802 -2
2.1199508 -1.0842022e-19 -1.6489164
-1.0842022e-19 3.1148171 -0
1.6705501 2 -1.7235355
1.0842022e-19 3.1400633 3.6893488e+19
2.1282744 -2 -1.7883233
-0 3.1166899 -2
1.6714256 -3.6893488e+19 -1.8191652
-0 3.1398623 1.0842022e-19
2.1280797 -1.0842022e-19 -1.8751915
-3.6893488e+19 3.1236677 -0
1.6746877 -3.6893488e+19 -1.8906219
2 3.1405468 1.0842022e-19
2.1287434 -0 -1.9190804
3.6893488e+19 3.125659 0
1.6756186 3.6893488e+19 -1.9333073
-1.0842022e-19 3.1420536 -0
2.1302047 3.6893488e+19 -1.9635783
-3.6893488e+19 3.0552461 2
1.642701 -3.6893488e+19 -1.9330386
-2 3.0453658 1.0842022e-19
2.0364392 -2 -1.9439604
-1.0842022e-19 2.8621683 -3.6893488e+19
1.9256113 0 -1.889187
-2 2.809799 0
1.976359 1.0842022e-19 -1.8780357
2 2.7692132 -3.6893488e+19
1.7881036 -2 -1.8618261
-3.6893488e+19 2.7240894 3.6893488e+19
1.9232 -2 -1.8475616
2 2.6720133 -1.0842022e-19
1.752839 3.6893488e+19 -1.8342568
-2 2.6359396 1.0842022e-19
1.8909961 2 -1.8278778
3.6893488e+19 2.6105103 2
1.7184163 1.0842022e-19 -1.8239642
3.6893488e+19 2.5814979 -2
1.8672135 3.6893488e+19 -1.8179098
0 2.5652406 1.0842022e-19
1.6909895 1.0842022e-19 -1.8166673
3.6893488e+19 2.5489347 -2
1.8434207 2 -1.8157991
-0 2.5310822 3.6893488e+19
1.6702945 1.0842022e-19 -1.8116833
3.6893488e+19 2.5178812 -2
1.820731 -1.0842022e-19 -1.8110821
0 2.5067778 -0
1.6555696 2 -1.8099803
0 2.4821317 3.6893488e+19
1.801138 -1.0842022e-19 -1.8060656
-2 2.46349 -3.6893488e+19
1.6404034 -0 -1.8049922
2 3.279464 -1.0842022e-19
1.7556479 -3.6893488e+19 2.7587345
2 3.2855241 1.0842022e-19
2.2768948 -2 2.7606251
3.6893488e+19 3.2857268 -1.0842022e-19
2.2770913 -3.6893488e+19 2.7524281
-1.0842022e-19 3.2223871 0
1.7208385 1.0842022e-19 2.6596787
1.0842022e-19 3.2567892 3.6893488e+19
2.2480567 -2 2.6737244
-3.6893488e+19 3.2579315 -0
2.2501361 0 2.6606107
1.0842022e-19 3.2554929 -2
1.7388831 3.6893488e+19 2.6485944
-0 3.2730494 -2
2.264797 0 2.6688399
3.6893488e+19 3.2540066 -3.6893488e+19
1.7374935 -3.6893488e+19 2.6315892
0 3.2460885 -2
1.7319187 0 2.6083307
-2 3.2721848 -1.0842022e-19
2.2639587 2 2.6360672
-2 3.2263482 -0
2.3480504 -2 2.5543244
-1.0842022e-19 3.2344835 -3.6893488e+19
2.0435257 3.6893488e+19 2.5515337
-0 3.227911 -2
2.3491921 -1.0842022e-19 2.5416162
2 3.2309618 2
2.3514214 -1.0842022e-19 2.5297155
-1.0842022e-19 3.2152336 3.6893488e+19
2.0318632 -0 2.5130143
3.6893488e+19 3.2322989 -3.6893488e+19
2.3523982 0 2.5167179
0 3.2319913 -1.0842022e-19
2.0420158 2 2.5087848
1.0842022e-19 3.2320712 -3.6893488e+19
2.3522317 0 2.5028522
1.0842022e-19 3.2316248 3.6893488e+19
2.0417938 -3.6893488e+19 2.489836
-1.0842022e-19 3.221719 -3.6893488e+19
2.3446679 -1.0842022e-19 2.467999
1.0842022e-19 3.2335589 1.0842022e-19
2.0429657 -1.0842022e-19 2.4644072
-3.6893488e+19 3.1438289 0
1.684113 -1.0842022e-19 2.3668361
-1.0842022e-19 3.1400206 2
2.1282332 -1.0842022e-19 2.3529038
-2 3.1442633 3.6893488e+19
1.684316 -0 2.34497
-0 3.1406593 1.0842022e-19
2.1288526 -3.6893488e+19 2.3313961
-1.0842022e-19 3.144088 1.0842022e-19
1.6842341 1.0842022e-19 2.3225899
2 3.1414969 -2
2.1296647 2 2.3100021
1.0842022e-19 3.1452618 -1.0842022e-19
1.6847827 2 2.3012936
1.0842022e-19 3.1411979 -1.0842022e-19
2.1293747 2 2.2877123
1.0842022e-19 3.1304798 2
1.6778723 -1.0842022e-19 2.2686255
-3.6893488e+19 3.1312127 0
2.1196916 3.6893488e+19 2.2589018
-0 3.1327291 2
1.6789238 0 2.2474351
1.0842022e-19 3.1440239 3.6893488e+19
2.1321154 -0 2.2408895
3.6893488e+19 3.130163 -3.6893488e+19
1.6777241 2 2.2014358
1.0842022e-19 3.1448812 -1.0842022e-19
2.1329467 -2 2.1975851
-0 3.1318781 2
1.678526 -2 2.1606686
3.6893488e+19 3.1434786 -1.0842022e-19
2.1315866 2 2.1518242
0 3.1533067 2
2.2946815 -1.0842022e-19 2.1401472
0 3.1269674 0
