# .PCD v0.7 - Point Cloud Data file format
VERSION 0.7
FIELDS x y z
SIZE 4 4 4
TYPE F F F
COUNT 1 1 1
WIDTH 1687
HEIGHT 1
VIEWPOINT 0 0 0 1 0 0 0
POINTS 1687
DATA ascii
2 3.1538117 2
-2.0356765 0 1.7031804
3.6893488e+19 3.1572001 -3.6893488e+19
-2.2377899 -0 1.6033465
0 3.1504073 0
-1.8877456 -1.0842022e-19 1.3059022
-0 3.1552393 -0
-2.2354412 3.6893488e+19 -1.5103972
0 3.1515872 1.0842022e-19
-1.8881515 -1.0842022e-19 -1.6565144
-1.0842022e-19 3.1591485 -0
-2.240124 -3.6893488e+19 -1.7506968
-1.0842022e-19 3.1464994 0
-1.8864013 3.6893488e+19 -1.7907524
-2 3.1619778 3.6893488e+19
-2.2435133 -3.6893488e+19 -1.8437502
-1.0842022e-19 3.1481404 -2
-1.8869658 -0 -1.877645
2 3.162668 -2
-2.2443399 -1.0842022e-19 -1.9057293
-2 3.1530097 -0
-1.8886409 0 -1.9241967
-1.0842022e-19 3.160223 -0
-2.2414112 -3.6893488e+19 -1.9507281
-3.6893488e+19 3.1259458 -2
-1.8793305 -2 -1.9544754
2 3.105567 -3.6893488e+19
-2.1759379 3.6893488e+19 -1.9638041
-0 2.9173613 0
-1.7685781 -1.0842022e-19 -1.9101416
-0 2.8460281 -0
1.57533 -3.6893488e+19 -1.8924216
-0 2.8038692 3.6893488e+19
-1.8399723 -2 -1.8836912
-3.6893488e+19 2.7624164 -0
1.5269238 1.0842022e-19 -1.8703721
-3.6893488e+19 2.7314808 1.0842022e-19
-1.7953118 -1.0842022e-19 -1.8638061
1.0842022e-19 2.6934085 -1.0842022e-19
1.5033537 -1.0842022e-19 -1.8571308
-2 2.6563873 1.0842022e-19
-1.7687494 0 -1.849342
3.6893488e+19 2.6165245 2
1.4621962 1.0842022e-19 -1.8374176
-2 2.597409 2
-1.7457745 3.6893488e+19 -1.8362808
-3.6893488e+19 2.5727196 -3.6893488e+19
1.4368358 -1.0842022e-19 -1.8301347
-3.6893488e+19 2.5526633 -0
-1.7141192 1.0842022e-19 -1.826069
-3.6893488e+19 2.5339286 2
1.4143782 3.6893488e+19 -1.8214201
3.6893488e+19 2.5181534 0
-1.6897051 3.6893488e+19 -1.8182255
2 2.5058734 0
1.3981358 -1.0842022e-19 -1.8163989
-1.0842022e-19 2.4862397 -1.0842022e-19
-1.671995 -1.0842022e-19 -1.8138759
0 2.457674 0
1.3824832 3.6893488e+19 -1.8090589
-1.0842022e-19 3.2570844 3.6893488e+19
-2.3187902 -0 2.7274449
-1.0842022e-19 3.2446771 -1.0842022e-19
-2.306705 2 2.6947937
1.0842022e-19 3.2709444 2
-1.9591157 2 2.727999
-2 3.2468691 0
-2.3080642 3.6893488e+19 2.6821914
-1.0842022e-19 3.222816 -1.0842022e-19
-2.2931509 -0 2.6474459
-2 3.2004802 1.0842022e-19
-1.9238411 -3.6893488e+19 2.6210928
-0 3.2582617 -0
-2.32025 1.0842022e-19 2.6691263
-2 3.2594175 -0
-1.9502194 2 2.6623397
2 3.2553828 2
-1.9471053 -1.0842022e-19 2.6411364
-2 3.2546725 -0
-1.9465572 -0 2.6253424
-0 3.2542243 2
-1.9462112 -0 2.6100359
1.0842022e-19 3.2534015 -1.0842022e-19
1.7085327 2 2.6014915
-1.0842022e-19 3.2503262 3.6893488e+19
-2.1251903 0 2.5904064
-3.6893488e+19 3.2585721 -2
1.7127879 -1.0842022e-19 2.5938258
-0 3.2495692 2
-2.1243784 1.0842022e-19 2.5753376
-2 3.2581556 2
1.7124451 -1.0842022e-19 2.5784953
2 3.2510796 1.0842022e-19
-2.1263194 1.0842022e-19 2.5626533
1.0842022e-19 3.2507744 -0
-2.1258619 -0 2.5479479
1.0842022e-19 3.2554712 3.6893488e+19
1.710236 1.0842022e-19 2.5459261
0 3.255692 1.0842022e-19
1.7104176 -3.6893488e+19 2.5316358
-2 3.2474015 0
-2.1227541 -0 2.5171599
3.6893488e+19 3.2448199 1.0842022e-19
-2.1208193 1.0842022e-19 2.5017235
-0 3.2459898 -1.0842022e-19
-2.121696 0 2.4765267
0 3.2597425 -1.0842022e-19
-2.3220861 -1.0842022e-19 2.4853177
3.6893488e+19 3.2517488 -3.6893488e+19
-1.9443005 1.0842022e-19 2.4548795
-0 3.2597146 1.0842022e-19
-2.3220518 3.6893488e+19 2.4558377
-0 3.2508068 2
-1.9435736 -0 2.4248629
-2 3.2602317 1.0842022e-19
-2.3226931 0 2.4273038
3.6893488e+19 3.1624339 0
-1.9091589 -3.6893488e+19 2.3260772
-1.0842022e-19 3.2552779 -1.0842022e-19
-2.31655 2 2.3903348
0 3.2554724 -3.6893488e+19
-2.3167911 3.6893488e+19 2.3618083
-3.6893488e+19 3.225594 1.0842022e-19
-1.9335326 1.0842022e-19 2.3225033
3.6893488e+19 3.2557786 -0
-2.3171709 1.0842022e-19 2.3334248
0 3.1624172 -2
-1.9091524 3.6893488e+19 2.2565062
-0 3.158143 0
-1.9075031 1.0842022e-19 2.211904
-3.6893488e+19 3.1743608 2
-2.2631083 -1.0842022e-19 2.2077105
-1.0842022e-19 3.1587708 2
-1.9077454 -2 2.1667972
3.6893488e+19 3.2582145 1.0842022e-19
1.7124935 -3.6893488e+19 2.2475181
-1.0842022e-19 3.163444 0
-2.0598361 3.6893488e+19 2.1255736
-1.0842022e-19 3.2314649 -2
1.6981069 1.0842022e-19 2.1599643
3.6893488e+19 3.2311275 0
-2.1105583 0 2.1331773
1.0842022e-19 3.2279172 1.0842022e-19
1.6966472 1.0842022e-19 2.1034994
2 3.1628888 3.6893488e+19
-2.0594199 -0 2.0326335
2 3.2303703 3.6893488e+19
1.6976565 -1.0842022e-19 2.05163
-3.6893488e+19 3.1725476 -1.0842022e-19
-2.0666583 2 1.9919864
-3.6893488e+19 3.1919482 -3.6893488e+19
1.6818471 -2 1.9781513
3.6893488e+19 3.1721435 0
-2.0663555 -2 1.9445738
-1.0842022e-19 3.1666081 -3.6893488e+19
1.6714205 -2 1.9185581
-2 3.2132256 -0
-2.0971425 -1.0842022e-19 1.9117473
1.0842022e-19 3.1700771 2
1.6728479 0 1.8711771
-1.0842022e-19 3.1631577 0
-2.0596216 -0 1.8212413
0 3.2666492 1.0842022e-19
1.7194347 1.0842022e-19 1.8185217
1.0842022e-19 3.154388 2
-2.0530493 3.6893488e+19 1.7034945
3.6893488e+19 3.1566827 0
-2.2521477 2 1.6031018
0 3.1525702 -0
-1.9053525 1.0842022e-19 1.3068904
0 3.1583366 -2
-2.2531729 2 -1.5114592
-1.0842022e-19 3.1506572 0
-1.9046143 -0 -1.6561613
1.0842022e-19 3.2783089 0
-2.345109 -0 -1.7960358
-3.6893488e+19 3.1471941 -2
-1.9032779 0 -1.7910528
-0 3.1621449 -0
-2.2555342 1.0842022e-19 -1.8438827
-2 3.1470859 2
-1.9032362 2 -1.8773146
2 3.1625857 -3.6893488e+19
-2.2558074 -1.0842022e-19 -1.9057293
-1.0842022e-19 3.1537976 2
-1.9058262 3.6893488e+19 -1.9245477
-1.0842022e-19 3.231986 -0
-2.2988365 -2 -1.9858898
1.0842022e-19 3.1571152 3.6893488e+19
-1.9071064 1.0842022e-19 -1.9714415
-0 3.1053092 -0
-2.1905911 -3.6893488e+19 -1.9636917
0 2.8052046 0
-1.8537211 0 -1.8842947
-2 2.7612987 -1.0842022e-19
1.4650316 1.0842022e-19 -1.8693219
1.0842022e-19 2.7315483 3.6893488e+19
-1.8054367 2 -1.863868
3.6893488e+19 2.690798 -0
1.4313738 -3.6893488e+19 -1.8557595
-0 2.6557162 -0
-1.7770224 3.6893488e+19 -1.8489981
-1.0842022e-19 2.6164072 -0
1.4007645 0 -1.8373454
-0 2.5976167 -3.6893488e+19
-1.7552524 -2 -1.8364322
2 2.5727262 -1.0842022e-19
1.3827912 -1.0842022e-19 -1.8301347
-2 2.5526273 0
-1.7267898 1.0842022e-19 -1.826069
3.6893488e+19 2.5329382 0
1.3578396 -3.6893488e+19 -1.8207308
2 2.5184946 -2
-1.7012105 -3.6893488e+19 -1.8184943
0 2.5061276 3.6893488e+19
1.3357761 -0 -1.8165851
3.6893488e+19 2.4864304 1.0842022e-19
-1.6822661 -2 -1.8139725
-1.0842022e-19 2.4556932 -0
1.3125027 -0 -1.8082587
-2 2.3848178 -2
-1.7385912 0 -1.8019915
-3.6893488e+19 2.3367009 3.6893488e+19
-1.7087582 1.0842022e-19 -1.7989738
-2 2.2988055 1.0842022e-19
-1.6852627 1.0842022e-19 -1.796416
-2 2.2693722 -3.6893488e+19
-1.6670136 0 -1.7949384
-2 2.2280059 -2
1.1966836 -3.6893488e+19 -1.7890213
-1.0842022e-19 2.1825755 3.6893488e+19
1.1779906 1.0842022e-19 -1.7858804
-1.0842022e-19 2.1505268 0
1.1648036 1.0842022e-19 -1.7855468
0 2.1146624 -2
1.1500465 2 -1.7817782
-1.0842022e-19 3.2570844 3.6893488e+19
-2.3187902 -0 2.7274449
-1.0842022e-19 3.2446771 -1.0842022e-19
-2.306705 2 2.6947937
1.0842022e-19 3.2709444 2
-1.9591157 2 2.727999
-2 3.2468691 0
-2.3080642 3.6893488e+19 2.6821914
2 3.1682615 -2
-2.2593265 3.6893488e+19 2.6015878
-2 3.2004802 1.0842022e-19
-1.9238411 -3.6893488e+19 2.6210928
-0 3.2582617 -0
-2.32025 1.0842022e-19 2.6691263
-2 3.2594175 -0
-1.9502194 2 2.6623397
2 3.2553828 2
-1.9471053 -1.0842022e-19 2.6411364
2 3.2022598 -0
-1.9245278 -2 2.5832753
-0 3.2542243 2
-1.9462112 -0 2.6100359
3.6893488e+19 3.210341 -1.0842022e-19
1.6894151 -1.0842022e-19 2.5692677
-1.0842022e-19 3.2503262 3.6893488e+19
-2.1251903 0 2.5904064
-3.6893488e+19 3.2585721 -2
1.7127879 -1.0842022e-19 2.5938258
-0 3.2495692 2
-2.1243784 1.0842022e-19 2.5753376
-2 3.2581556 2
1.7124451 -1.0842022e-19 2.5784953
1.0842022e-19 3.2028069 0
-2.0893347 1.0842022e-19 2.5319257
-2 3.2064979 0
-2.0921009 -2 2.5211852
-2 3.202738 3.6893488e+19
1.6862868 -1.0842022e-19 2.5122154
0 3.255692 1.0842022e-19
1.7104176 -3.6893488e+19 2.5316358
0 3.2105536 -0
-2.09514 0 2.4947371
-3.6893488e+19 3.2103536 3.6893488e+19
-2.0949903 3.6893488e+19 2.46838
-0 3.2459898 -1.0842022e-19
-2.121696 0 2.4765267
1.0842022e-19 3.1695864 1.0842022e-19
-2.260148 0 2.3919897
-1.0842022e-19 3.1619809 -2
-1.9089841 -2 2.3721995
-3.6893488e+19 3.167315 -2
-2.2587397 0 2.366225
-2 3.1625435 3.6893488e+19
-1.9092013 0 2.3494213
0 3.1712806 -3.6893488e+19
-2.2611983 -3.6893488e+19 2.3458736
3.6893488e+19 3.1624339 0
-1.9091589 -3.6893488e+19 2.3260772
-2 3.1734006 3.6893488e+19
-2.2625129 3.6893488e+19 2.3237021
3.6893488e+19 3.1742303 -2
-2.2630272 -1.0842022e-19 2.3004043
-3.6893488e+19 3.225594 1.0842022e-19
-1.9335326 1.0842022e-19 2.3225033
-2 3.1549478 3.6893488e+19
-2.2510719 -0 2.2639384
0 3.1624172 -2
-1.9091524 3.6893488e+19 2.2565062
-0 3.158143 0
-1.9075031 1.0842022e-19 2.211904
-3.6893488e+19 3.1743608 2
-2.2631083 -1.0842022e-19 2.2077105
-1.0842022e-19 3.1587708 2
-1.9077454 -2 2.1667972
1.0842022e-19 3.1619329 -0
1.6694968 -2 2.1468484
-1.0842022e-19 3.163444 0
-2.0598361 3.6893488e+19 2.1255736
-1.0842022e-19 3.2314649 -2
1.6981069 1.0842022e-19 2.1599643
3.6893488e+19 3.1604798 -0
-2.0576146 -3.6893488e+19 2.0769122
-0 3.1786582 -0
1.6763787 0 2.0670643
2 3.1628888 3.6893488e+19
-2.0594199 -0 2.0326335
-2 3.1772559 2
1.6758018 1.0842022e-19 2.0182791
-3.6893488e+19 3.1725476 -1.0842022e-19
-2.0666583 2 1.9919864
-3.6893488e+19 3.1919482 -3.6893488e+19
1.6818471 -2 1.9781513
3.6893488e+19 3.1721435 0
-2.0663555 -2 1.9445738
-1.0842022e-19 3.1666081 -3.6893488e+19
1.6714205 -2 1.9185581
-1.0842022e-19 3.1667564 3.6893488e+19
-2.0623183 -0 1.8955214
1.0842022e-19 3.1700771 2
1.6728479 0 1.8711771
-1.0842022e-19 3.1631577 0
-2.0596216 -0 1.8212413
2 3.1710892 -1.0842022e-19
1.6732643 -0 1.7778035
1.0842022e-19 3.154388 2
-2.0530493 3.6893488e+19 1.7034945
3.6893488e+19 3.1566827 0
-2.2521477 2 1.6031018
0 3.1525702 -0
-1.9053525 1.0842022e-19 1.3068904
0 3.1583366 -2
-2.2531729 2 -1.5114592
-1.0842022e-19 3.1506572 0
-1.9046143 -0 -1.6561613
2 3.1605313 1.0842022e-19
-2.2545338 2 -1.7511468
-3.6893488e+19 3.1471941 -2
-1.9032779 0 -1.7910528
-0 3.1621449 -0
-2.2555342 1.0842022e-19 -1.8438827
-2 3.1470859 2
-1.9032362 2 -1.8773146
2 3.1625857 -3.6893488e+19
-2.2558074 -1.0842022e-19 -1.9057293
-1.0842022e-19 3.1537976 2
-1.9058262 3.6893488e+19 -1.9245477
-3.6893488e+19 3.1590512 -0
-2.2536161 -3.6893488e+19 -1.9501946
-3.6893488e+19 3.125174 -2
-1.8947803 -1.0842022e-19 -1.9540678
-0 3.1053092 -0
-2.1905911 -3.6893488e+19 -1.9636917
0 2.8052046 0
-1.8537211 0 -1.8842947
-2 2.7612987 -1.0842022e-19
1.4650316 1.0842022e-19 -1.8693219
1.0842022e-19 2.7315483 3.6893488e+19
-1.8054367 2 -1.863868
3.6893488e+19 2.690798 -0
1.4313738 -3.6893488e+19 -1.8557595
-0 2.6557162 -0
-1.7770224 3.6893488e+19 -1.8489981
-1.0842022e-19 2.6164072 -0
1.4007645 0 -1.8373454
-0 2.5976167 -3.6893488e+19
-1.7552524 -2 -1.8364322
2 2.5727262 -1.0842022e-19
1.3827912 -1.0842022e-19 -1.8301347
-2 2.5526273 0
-1.7267898 1.0842022e-19 -1.826069
3.6893488e+19 2.5329382 0
1.3578396 -3.6893488e+19 -1.8207308
2 2.5184946 -2
-1.7012105 -3.6893488e+19 -1.8184943
0 2.5061276 3.6893488e+19
1.3357761 -0 -1.8165851
3.6893488e+19 2.4864304 1.0842022e-19
-1.6822661 -2 -1.8139725
-1.0842022e-19 2.4556932 -0
1.3125027 -0 -1.8082587
-2 2.3848178 -2
-1.7385912 0 -1.8019915
-3.6893488e+19 2.3367009 3.6893488e+19
-1.7087582 1.0842022e-19 -1.7989738
-2 2.2988055 1.0842022e-19
-1.6852627 1.0842022e-19 -1.796416
-2 2.2693722 -3.6893488e+19
-1.6670136 0 -1.7949384
-2 2.2280059 -2
1.1966836 -3.6893488e+19 -1.7890213
-1.0842022e-19 2.1825755 3.6893488e+19
1.1779906 1.0842022e-19 -1.7858804
-1.0842022e-19 2.1505268 0
1.1648036 1.0842022e-19 -1.7855468
0 2.1146624 -2
1.1500465 2 -1.7817782
1.0842022e-19 3.256819 -1.0842022e-19
-2.3292854 3.6893488e+19 2.7270503
0 3.2483747 -3.6893488e+19
-2.3195002 -0 2.6982107
0 3.246645 -2
-2.3183913 0 2.6820855
-0 3.2739024 3.6893488e+19
-1.9843601 2 2.7172494
-1.0842022e-19 3.1683581 2
-2.268203 -0 2.6017416
3.6893488e+19 3.2012153 3.6893488e+19
-1.9430374 0 2.6217232
-2 3.2575214 -1.0842022e-19
-2.3301861 1.0842022e-19 2.6680112
1.0842022e-19 3.2593851 -1.0842022e-19
-1.9719385 1.0842022e-19 2.6623154
-1.0842022e-19 3.3093958 1.0842022e-19
-2.396698 1.0842022e-19 2.7342229
-1.0842022e-19 3.2579277 -0
-1.9706916 -0 2.6450605
2 3.3102529 1.0842022e-19
-2.3977969 3.6893488e+19 2.7175686
-2 3.2548707 -2
-1.9680759 0 2.6256595
3.6893488e+19 3.2536845 -1.0842022e-19
-1.9670609 1.0842022e-19 2.6092954
-3.6893488e+19 3.2534201 2
1.6222479 -2 2.6015127
-2 3.2484353 -3.6893488e+19
-2.1444554 2 2.5889416
-2 3.202318 -2
-2.1079588 -0 2.5316567
-2 3.2077062 1.0842022e-19
-2.1122231 2 2.5219374
0 3.2551036 -0
1.6238902 1.0842022e-19 2.5454962
0 3.2557573 -3.6893488e+19
1.6245279 0 2.5317042
-2 3.2113307 -3.6893488e+19
-2.1150913 -3.6893488e+19 2.4956343
-3.6893488e+19 3.2641923 -1.0842022e-19
1.6288788 0 2.5259976
1.0842022e-19 3.2448504 1.0842022e-19
-2.1416185 2 2.5017707
2 3.1824923 0
1.5859792 2 2.4273062
2 3.2458963 0
-2.1424463 1.0842022e-19 2.4764969
1.0842022e-19 3.2602613 -1.0842022e-19
-2.333699 2 2.4863875
-3.6893488e+19 3.2515147 2
-1.9652045 2 2.4544868
-2 3.2591965 2
-2.332334 -0 2.4550223
-0 3.2520328 1.0842022e-19
-1.9656477 0 2.4269681
2 3.2580554 1.0842022e-19
-2.3308709 -1.0842022e-19 2.4238174
2 3.2502542 -2
-1.9641258 1.0842022e-19 2.3957369
-0 3.2555664 -1.0842022e-19
-2.3276794 3.6893488e+19 2.3908565
-0 3.2315538 0
-1.9560168 -2 2.3536434
0 3.2556369 -0
-2.3277698 -3.6893488e+19 2.3621159
-2 3.2281148 -1.0842022e-19
-1.9545455 1.0842022e-19 2.3242342
-2 3.2555394 0
-2.3276451 2 2.3331819
2 3.162452 1.0842022e-19
-1.9264538 0 2.2565451
2 3.2565944 0
-2.3289976 1.0842022e-19 2.3056693
-1.0842022e-19 3.1582093 -0
-1.9246387 -2 2.2120097
-1.0842022e-19 3.2561769 3.6893488e+19
-2.3284624 3.6893488e+19 2.2763665
2 3.1572161 -1.0842022e-19
-1.9242138 2 2.1652396
1.0842022e-19 3.2592006 -2
1.6264436 -0 2.2494113
-0 3.1620831 3.6893488e+19
-2.0761175 1.0842022e-19 2.1243846
-2 3.2227025 -1.0842022e-19
1.6055946 -0 2.1524978
3.6893488e+19 3.2300069 1.0842022e-19
-2.1298716 0 2.132333
-1.0842022e-19 3.2258945 3.6893488e+19
1.6071517 2 2.1019986
1.0842022e-19 3.1652379 -2
-2.078614 3.6893488e+19 2.0342774
-0 3.2676513 -3.6893488e+19
1.6305661 0 2.0861185
-2 3.2644761 -2
-2.1686063 1.0842022e-19 2.0529609
-1.0842022e-19 3.2672026 -3.6893488e+19
1.6303473 2 2.0258777
2 3.2642081 0
-2.1681821 3.6893488e+19 1.9935876
-0 3.2670689 3.6893488e+19
1.630282 3.6893488e+19 1.9661074
0 3.2225287 1.0842022e-19
-2.1239533 3.6893488e+19 1.9150165
1.0842022e-19 3.2668283 -1.0842022e-19
1.6301646 1.0842022e-19 1.9063668
3.6893488e+19 3.1621382 1.0842022e-19
-2.0761611 2 1.8207817
2 3.2665434 -3.6893488e+19
1.6300256 2 1.8184423
-0 3.1576452 -0
-2.0726054 -1.0842022e-19 1.7051595
3.6893488e+19 3.1530478 2
-2.2583878 0 1.6011097
-2 3.1513562 2
-1.9217069 -1.0842022e-19 1.3063539
-2 3.1514304 2
-2.2573509 -0 -1.509179
-1.0842022e-19 3.1490686 3.6893488e+19
-1.9207282 2 -1.6555525
-0 3.2784538 0
-2.3570251 -0 -1.7961602
2 3.1476989 3.6893488e+19
-1.9201422 3.6893488e+19 -1.7912748
-0 3.1623402 -1.0842022e-19
-2.2643449 1.0842022e-19 -1.8440316
-3.6893488e+19 3.1474655 3.6893488e+19
-1.9200424 3.6893488e+19 -1.8774447
-3.6893488e+19 3.1613171 -3.6893488e+19
-2.263689 0 -1.9052826
-1.0842022e-19 3.1541455 2
-1.9229002 2 -1.9247097
-3.6893488e+19 3.1596518 0
-2.2626216 -2 -1.9505299
-3.6893488e+19 3.1661732 -0
-1.9280459 1.0842022e-19 -1.9763836
1.0842022e-19 3.1050181 -2
-2.2051933 3.6893488e+19 -1.9635607
2 2.8036702 -1.0842022e-19
-1.8653208 -1.0842022e-19 -1.8836364
-3.6893488e+19 2.7603662 -0
1.3770124 -0 -1.8684468
-3.6893488e+19 2.7275 0
-1.8139439 0 -1.8618898
1.0842022e-19 2.690804 -2
1.3400338 -3.6893488e+19 -1.8557595
-3.6893488e+19 2.6544194 2
-1.7850263 2 -1.8483104
3.6893488e+19 2.6162875 2
1.303683 0 -1.8372731
0 2.5960791 3.6893488e+19
-1.7619413 -3.6893488e+19 -1.8355235
3.6893488e+19 2.5727305 0
1.2824351 -1.0842022e-19 -1.8301347
3.6893488e+19 2.5528381 -2
-1.7396623 1.0842022e-19 -1.8262343
3.6893488e+19 2.5307004 -1.0842022e-19
1.2619318 -3.6893488e+19 -1.8191801
-3.6893488e+19 2.5188336 3.6893488e+19
-1.7127517 2 -1.8187633
3.6893488e+19 2.5043886 3.6893488e+19
1.2481927 -2 -1.8152817
-3.6893488e+19 2.486866 -3.6893488e+19
-1.6926498 -2 -1.8141656
2 2.4556994 1.0842022e-19
1.2223002 -0 -1.8082587
1.0842022e-19 3.256819 -1.0842022e-19
-2.3292854 3.6893488e+19 2.7270503
0 3.2483747 -3.6893488e+19
-2.3195002 -0 2.6982107
0 3.1678588 3.6893488e+19
-2.2678828 0 2.6135409
2 3.1947823 -1.0842022e-19
-1.9402852 -2 2.6293762
-1.0842022e-19 3.1683581 2
-2.268203 -0 2.6017416
3.6893488e+19 3.2012153 3.6893488e+19
-1.9430374 0 2.6217232
-2 3.2575214 -1.0842022e-19
-2.3301861 1.0842022e-19 2.6680112
1.0842022e-19 3.2593851 -1.0842022e-19
-1.9719385 1.0842022e-19 2.6623154
-1.0842022e-19 3.3093958 1.0842022e-19
-2.396698 1.0842022e-19 2.7342229
-1.0842022e-19 3.2579277 -0
-1.9706916 -0 2.6450605
2 3.3102529 1.0842022e-19
-2.3977969 3.6893488e+19 2.7175686
-3.6893488e+19 3.2055168 2
-1.9448777 -3.6893488e+19 2.5856979
3.6893488e+19 3.2536845 -1.0842022e-19
-1.9670609 1.0842022e-19 2.6092954
-3.6893488e+19 3.2113631 2
1.6000631 3.6893488e+19 2.5699725
-2 3.2484353 -3.6893488e+19
-2.1444554 2 2.5889416
-2 3.202318 -2
-2.1079588 -0 2.5316567
-2 3.2077062 1.0842022e-19
-2.1122231 2 2.5219374
2 3.2025278 1.0842022e-19
1.595753 -2 2.51209
0 3.2557573 -3.6893488e+19
1.6245279 0 2.5317042
-2 3.2113307 -3.6893488e+19
-2.1150913 -3.6893488e+19 2.4956343
-3.6893488e+19 3.1855488 2
1.5874703 1.0842022e-19 2.4550109
3.6893488e+19 3.213361 0
-2.1166983 1.0842022e-19 2.4714992
2 3.1824923 0
1.5859792 2 2.4273062
2 3.2458963 0
-2.1424463 1.0842022e-19 2.4764969
0 3.1721299 -3.6893488e+19
-2.2706208 -1.0842022e-19 2.3944471
-3.6893488e+19 3.1610532 -1.0842022e-19
-1.9258554 3.6893488e+19 2.3713863
-2 3.1674767 2
-2.267638 -3.6893488e+19 2.3664422
-3.6893488e+19 3.1621122 3.6893488e+19
-1.9263085 2 2.3490791
-1.0842022e-19 3.1720922 0
-2.270597 0 2.3466117
3.6893488e+19 3.162966 0
-1.9266738 -1.0842022e-19 2.3265197
-1.0842022e-19 3.1730342 -3.6893488e+19
-2.2712007 2 2.3234887
2 3.1646092 0
-1.9273767 -3.6893488e+19 2.3044806
3.6893488e+19 3.1672232 -0
-2.2674754 -3.6893488e+19 2.2955034
-2 3.2281148 -1.0842022e-19
-1.9545455 1.0842022e-19 2.3242342
-2 3.1545227 2
-2.2593334 -1.0842022e-19 2.2637157
2 3.162452 1.0842022e-19
-1.9264538 0 2.2565451
-0 3.1608617 2
-2.2633972 3.6893488e+19 2.2394409
-1.0842022e-19 3.1582093 -0
-1.9246387 -2 2.2120097
-0 3.1743355 -3.6893488e+19
-2.2720349 -3.6893488e+19 2.2077775
2 3.1572161 -1.0842022e-19
-1.9242138 2 2.1652396
-2 3.1625934 2
1.5762721 -1.0842022e-19 2.1474795
-0 3.1620831 3.6893488e+19
-2.0761175 1.0842022e-19 2.1243846
-2 3.2227025 -1.0842022e-19
1.6055946 -0 2.1524978
-3.6893488e+19 3.159368 3.6893488e+19
-2.0739689 0 2.0760682
-2 3.1885595 -1.0842022e-19
1.588939 -1.0842022e-19 2.0743835
1.0842022e-19 3.1652379 -2
-2.078614 3.6893488e+19 2.0342774
1.0842022e-19 3.1747949 1.0842022e-19
1.5822242 -0 2.0167301
-2 3.1660376 -0
-2.079247 -3.6893488e+19 1.9882882
-2 3.1808038 -3.6893488e+19
1.5851555 2 1.9723952
0 3.1714664 -3.6893488e+19
-2.0835431 0 1.9442862
-1.0842022e-19 3.1663013 3.6893488e+19
1.5780809 3.6893488e+19 1.9184318
3.6893488e+19 3.1656117 -2
-2.0789099 0 1.8951401
-0 3.1729884 0
1.5813431 3.6893488e+19 1.8728799
3.6893488e+19 3.1621382 1.0842022e-19
-2.0761611 2 1.8207817
0 3.1746259 3.6893488e+19
1.5821418 -3.6893488e+19 1.7790848
-0 3.1576452 -0
-2.0726054 -1.0842022e-19 1.7051595
3.6893488e+19 3.1530478 2
-2.2583878 0 1.6011097
-2 3.1513562 2
-1.9217069 -1.0842022e-19 1.3063539
-2 3.1514304 2
-2.2573509 -0 -1.509179
-1.0842022e-19 3.1490686 3.6893488e+19
-1.9207282 2 -1.6555525
0 3.1566465 -0
-2.2606947 -1.0842022e-19 -1.7499577
2 3.1476989 3.6893488e+19
-1.9201422 3.6893488e+19 -1.7912748
-0 3.1623402 -1.0842022e-19
-2.2643449 1.0842022e-19 -1.8440316
-3.6893488e+19 3.1474655 3.6893488e+19
-1.9200424 3.6893488e+19 -1.8774447
-3.6893488e+19 3.1613171 -3.6893488e+19
-2.263689 0 -1.9052826
-1.0842022e-19 3.1541455 2
-1.9229002 2 -1.9247097
-3.6893488e+19 3.1596518 0
-2.2626216 -2 -1.9505299
2 3.1243687 3.6893488e+19
-1.9101611 0 -1.9536433
1.0842022e-19 3.1050181 -2
-2.2051933 3.6893488e+19 -1.9635607
2 2.8036702 -1.0842022e-19
-1.8653208 -1.0842022e-19 -1.8836364
-3.6893488e+19 2.7603662 -0
1.3770124 -0 -1.8684468
-3.6893488e+19 2.7275 0
-1.8139439 0 -1.8618898
1.0842022e-19 2.690804 -2
1.3400338 -3.6893488e+19 -1.8557595
-3.6893488e+19 2.6544194 2
-1.7850263 2 -1.8483104
3.6893488e+19 2.6162875 2
1.303683 0 -1.8372731
0 2.5960791 3.6893488e+19
-1.7619413 -3.6893488e+19 -1.8355235
3.6893488e+19 2.5727305 0
1.2824351 -1.0842022e-19 -1.8301347
3.6893488e+19 2.5528381 -2
-1.7396623 1.0842022e-19 -1.8262343
3.6893488e+19 2.5307004 -1.0842022e-19
1.2619318 -3.6893488e+19 -1.8191801
-3.6893488e+19 2.5188336 3.6893488e+19
-1.7127517 2 -1.8187633
3.6893488e+19 2.5043886 3.6893488e+19
1.2481927 -2 -1.8152817
-3.6893488e+19 2.486866 -3.6893488e+19
-1.6926498 -2 -1.8141656
2 2.4556994 1.0842022e-19
1.2223002 -0 -1.8082587
-3.6893488e+19 3.256582 -2
-2.3397951 -1.0842022e-19 2.726712
-3.6893488e+19 3.2542243 -1.0842022e-19
-2.3366728 1.0842022e-19 2.7073686
1.0842022e-19 3.2466304 0
-2.3288472 3.6893488e+19 2.6821649
3.6893488e+19 3.2736685 -2
-2.0070927 1.0842022e-19 2.7168846
-2 3.265754 -3.6893488e+19
-2.3519416 1.0842022e-19 2.6969697
-3.6893488e+19 3.276103 -2
-2.0093799 -0 2.7049556
-3.6893488e+19 3.2560775 -0
-2.3391271 -3.6893488e+19 2.665756
1.0842022e-19 3.2591209 -0
-1.9934263 -2 2.6619256
-1.0842022e-19 3.309284 2
-2.4095891 1.0842022e-19 2.7341511
-3.6893488e+19 3.3094673 0
-2.409832 -0 2.7164843
1.0842022e-19 3.2549596 -3.6893488e+19
-1.989517 -1.0842022e-19 2.6258178
2 3.3087311 -1.0842022e-19
-2.4088566 1.0842022e-19 2.6975136
-2 3.2537735 -1.0842022e-19
-1.9884028 -2 2.6094477
-1.0842022e-19 3.2141373 -0
1.3919247 2 2.5718944
0 3.2481847 0
-2.165168 -3.6893488e+19 2.5888159
3.6893488e+19 3.2033989 3.6893488e+19
-2.1278453 -3.6893488e+19 2.5323672
-1.0842022e-19 3.2462435 -0
1.4017422 0 2.5515478
-3.6893488e+19 3.2097137 2
-2.1331079 0 2.5231664
2 3.2539763 -0
1.4053227 -2 2.5441885
-2 3.2614844 -2
-2.1858222 2 2.5458431
-0 3.1829178 -2
1.3823783 2 2.4522593
-3.6893488e+19 3.2480352 1.0842022e-19
-2.1650436 1.0842022e-19 2.5034249
-2 3.1852553 -2
1.3830931 -2 2.4300332
-3.6893488e+19 3.2451177 3.6893488e+19
-2.1626122 -1.0842022e-19 2.475812
-3.6893488e+19 3.2610099 -3.6893488e+19
-2.345659 1.0842022e-19 2.487891
-3.6893488e+19 3.1588192 1.0842022e-19
-1.9420289 2 2.369395
1.0842022e-19 3.2589092 3.6893488e+19
-2.3428769 -0 2.4546146
-1.0842022e-19 3.250896 3.6893488e+19
-1.9856997 -1.0842022e-19 2.4250734
0 3.2578456 3.6893488e+19
-2.3414683 2 2.423563
-3.6893488e+19 3.250531 3.6893488e+19
-1.9853568 0 2.396204
-1.0842022e-19 3.2559614 1.0842022e-19
-2.3389733 -1.0842022e-19 2.3915441
-2 3.2396681 -3.6893488e+19
-1.9800048 -1.0842022e-19 2.3596289
-1.0842022e-19 3.2551014 -0
-2.3378344 3.6893488e+19 2.3614347
0 3.2384446 0
-1.9794301 1.0842022e-19 2.3312635
0 3.2549574 -1.0842022e-19
-2.3376434 -2 2.3324935
2 3.1644771 2
-1.9446864 -1.0842022e-19 2.2578235
-2 3.2563999 -3.6893488e+19
-2.3395538 -2 2.3055027
3.6893488e+19 3.1583352 -1.0842022e-19
-1.9418014 3.6893488e+19 2.2121861
0 3.2553146 -0
-2.3381164 -3.6893488e+19 2.2754946
1.0842022e-19 3.157155 1.0842022e-19
-1.9412471 -3.6893488e+19 2.1652076
-3.6893488e+19 3.2589993 1.0842022e-19
1.4083947 -3.6893488e+19 2.2490206
1.0842022e-19 3.2418232 3.6893488e+19
-2.1598666 -3.6893488e+19 2.1968889
1.0842022e-19 3.1707218 3.6893488e+19
-2.1006134 0 2.085156
2 3.228832 3.6893488e+19
1.3964181 -1.0842022e-19 2.1041689
-3.6893488e+19 3.2623887 -3.6893488e+19
-2.1873295 -3.6893488e+19 2.1093175
2 3.2676375 -0
1.4136773 -1.0842022e-19 2.0860987
-0 3.262445 -1.0842022e-19
-2.1874232 -2 2.050674
-0 3.2670326 -1.0842022e-19
1.4133074 3.6893488e+19 2.0257003
-2 3.2623012 0
-2.1871839 1.0842022e-19 1.9918618
-1.0842022e-19 3.2669144 1.0842022e-19
1.4132352 0 1.965981
-3.6893488e+19 3.1669292 -1.0842022e-19
-2.0974529 2 1.8956195
-2 3.2666581 -0
1.4130784 3.6893488e+19 1.9062661
-2 3.1626139 -2
-2.0938566 -0 1.8210337
-1.0842022e-19 3.2665763 -2
1.4130284 3.6893488e+19 1.818465
2 3.1581841 -0
-2.0901649 1.0842022e-19 1.705458
-3.6893488e+19 3.1537092 -1.0842022e-19
-2.2673187 0 1.6015291
-2 3.1502647 1.0842022e-19
-1.9380107 -3.6893488e+19 1.305874
3.6893488e+19 3.1527152 -2
-2.2666605 -0 -1.5096371
0 3.1495705 -3.6893488e+19
-1.9376844 -2 -1.6557595
0 3.1535702 0
-2.2672267 -3.6893488e+19 -1.7481196
-2 3.1470137 1.0842022e-19
-1.9364836 -3.6893488e+19 -1.7910005
3.6893488e+19 3.1622212 -1.0842022e-19
-2.2729549 3.6893488e+19 -1.844015
-0 3.1474988 -1.0842022e-19
-1.9367114 3.6893488e+19 -1.8774648
3.6893488e+19 3.159704 -0
-2.2712882 -0 -1.9047065
-3.6893488e+19 3.1525545 -0
-1.9390862 1.0842022e-19 -1.9240347
-3.6893488e+19 3.1577449 0
-1.9415243 3.6893488e+19 -1.9718151
-0 3.103822 -2
-2.2185712 -0 -1.9628866
-0 2.7846384 0
-1.7586992 3.6893488e+19 -1.811654
3.6893488e+19 2.7852991 0
-1.7590095 -0 -1.8439823
-3.6893488e+19 2.8034427 0
-1.8764389 3.6893488e+19 -1.8835541
0 2.7608049 -2
1.1594987 2 -1.8688552
3.6893488e+19 2.7316728 0
-1.8257039 3.6893488e+19 -1.8639916
3.6893488e+19 2.6915553 -0
1.1350195 3.6893488e+19 -1.8561513
1.0842022e-19 2.6549885 -2
-1.7937509 -2 -1.8486542
3.6893488e+19 2.6161652 1.0842022e-19
1.0989333 -3.6893488e+19 -1.8372008
2 2.596282 -2
-1.769289 2 -1.835675
0 2.5717359 0
1.071762 3.6893488e+19 -1.8295012
-0 2.5534198 -2
-1.7514292 -3.6893488e+19 -1.8266476
3.6893488e+19 2.5319476 0
1.047429 -0 -1.8200417
-3.6893488e+19 2.5195439 0
-1.7246277 1.0842022e-19 -1.819301
2 2.5045147 3.6893488e+19
1.0306519 -1.0842022e-19 -1.8153749
2 2.486553 0
-1.7027373 -1.0842022e-19 -1.814069
3.6893488e+19 2.4601798 0
1.0157146 -2 -1.8100592
-3.6893488e+19 2.384409 2
-1.7522695 -1.0842022e-19 -1.8018775
2 2.3385367 3.6893488e+19
-1.7241644 2 -1.7999957
1.0842022e-19 2.2986803 -2
-1.6977731 1.0842022e-19 -1.796416
3.6893488e+19 2.2650752 0
-1.6755214 -3.6893488e+19 -1.7922976
-0 2.2309723 -1.0842022e-19
0.94853628 -2 -1.7900358
-1.0842022e-19 2.1830757 -2
0.94121331 -2 -1.7860632
1.0842022e-19 2.1505349 2
0.93497628 1.0842022e-19 -1.7855468
3.6893488e+19 2.1161361 0
0.92445779 0 -1.7824087
-3.6893488e+19 3.256582 -2
-2.3397951 -1.0842022e-19 2.726712
-3.6893488e+19 3.2489369 2
-2.3303745 1.0842022e-19 2.6988122
-0 3.1677697 3.6893488e+19
-2.276629 0 2.6135409
0 3.1960328 3.6893488e+19
-1.9595085 3.6893488e+19 2.6304708
-2 3.1714694 -3.6893488e+19
-2.2790787 -0 2.6044331
-0 3.1998665 -3.6893488e+19
-1.9613093 -2 2.6206391
-3.6893488e+19 3.2560775 -0
-2.3391271 -3.6893488e+19 2.665756
1.0842022e-19 3.2591209 -0
-1.9934263 -2 2.6619256
-1.0842022e-19 3.309284 2
-2.4095891 1.0842022e-19 2.7341511
-3.6893488e+19 3.3094673 0
-2.409832 -0 2.7164843
2 3.2055757 3.6893488e+19
-1.963991 -2 2.5857658
2 3.3087311 -1.0842022e-19
-2.4088566 1.0842022e-19 2.6975136
1.0842022e-19 3.2025509 -1.0842022e-19
-1.9625702 -3.6893488e+19 2.5704989
-1.0842022e-19 3.2141373 -0
1.3919247 2 2.5718944
0 3.2481847 0
-2.165168 -3.6893488e+19 2.5888159
3.6893488e+19 3.2033989 3.6893488e+19
-2.1278453 -3.6893488e+19 2.5323672
-1.0842022e-19 3.2462435 -0
1.4017422 0 2.5515478
-3.6893488e+19 3.2097137 2
-2.1331079 0 2.5231664
3.6893488e+19 3.2007987 -3.6893488e+19
1.387846 -1.0842022e-19 2.5110869
-3.6893488e+19 3.2217968 0
-2.1431775 3.6893488e+19 2.5168951
-0 3.1829178 -2
1.3823783 2 2.4522593
-3.6893488e+19 3.2480352 1.0842022e-19
-2.1650436 1.0842022e-19 2.5034249
-2 3.1852553 -2
1.3830931 -2 2.4300332
-3.6893488e+19 3.2451177 3.6893488e+19
-2.1626122 -1.0842022e-19 2.475812
2 3.1680493 -3.6893488e+19
-2.276814 2 2.3907175
-3.6893488e+19 3.1588192 1.0842022e-19
-1.9420289 2 2.369395
1.0842022e-19 3.2589092 3.6893488e+19
-2.3428769 -0 2.4546146
-3.6893488e+19 3.1617403 0
-1.943401 2 2.3487897
-1.0842022e-19 3.1702363 1.0842022e-19
-2.2782624 3.6893488e+19 2.3451612
2 3.1629357 -1.0842022e-19
-1.9439623 -1.0842022e-19 2.3265197
-2 3.1730061 -0
-2.2800963 2 2.3235362
-2 3.16293 -1.0842022e-19
-1.9439597 3.6893488e+19 2.3032699
-0 3.1679718 -3.6893488e+19
-2.2767627 -1.0842022e-19 2.2960968
3.6893488e+19 3.1669192 -3.6893488e+19
-1.9458334 -2 2.2827549
3.6893488e+19 3.1588755 -0
-2.2707396 -2 2.2666101
2 3.1644771 2
-1.9446864 -1.0842022e-19 2.2578235
2 3.1592524 3.6893488e+19
-2.2709892 0 2.2376277
3.6893488e+19 3.1583352 -1.0842022e-19
-1.9418014 3.6893488e+19 2.2121861
-0 3.1741829 -2
-2.2808754 -1.0842022e-19 2.2077105
1.0842022e-19 3.157155 1.0842022e-19
-1.9412471 -3.6893488e+19 2.1652076
0 3.1652789 2
1.3769847 2 2.150064
1.0842022e-19 3.1612184 -1.0842022e-19
-2.0926936 -2 2.1236484
1.0842022e-19 3.1707218 3.6893488e+19
-2.1006134 0 2.085156
2 3.1888123 3.6893488e+19
1.3841808 3.6893488e+19 2.0745683
-2 3.1740375 -0
-2.1033766 3.6893488e+19 2.0403404
-3.6893488e+19 3.1867259 -3.6893488e+19
1.3835428 -3.6893488e+19 2.0242198
3.6893488e+19 3.1725318 3.6893488e+19
-2.1021218 -2 1.9920399
-0 3.2670326 -1.0842022e-19
1.4133074 3.6893488e+19 2.0257003
-2 3.2623012 0
-2.1871839 1.0842022e-19 1.9918618
2 3.1663353 2
1.3773078 -0 1.9184444
-3.6893488e+19 3.1669292 -1.0842022e-19
-2.0974529 2 1.8956195
2 3.1718664 -3.6893488e+19
1.378999 -3.6893488e+19 1.8722206
-2 3.1626139 -2
-2.0938566 -0 1.8210337
1.0842022e-19 3.1743474 -2
1.3797576 -2 1.7789828
2 3.1581841 -0
-2.0901649 1.0842022e-19 1.705458
-3.6893488e+19 3.1537092 -1.0842022e-19
-2.2673187 0 1.6015291
-2 3.1502647 1.0842022e-19
-1.9380107 -3.6893488e+19 1.305874
3.6893488e+19 3.1527152 -2
-2.2666605 -0 -1.5096371
0 3.1495705 -3.6893488e+19
-1.9376844 -2 -1.6557595
0 3.1535702 0
-2.2672267 -3.6893488e+19 -1.7481196
-2 3.1470137 1.0842022e-19
-1.9364836 -3.6893488e+19 -1.7910005
3.6893488e+19 3.1622212 -1.0842022e-19
-2.2729549 3.6893488e+19 -1.844015
-0 3.1474988 -1.0842022e-19
-1.9367114 3.6893488e+19 -1.8774648
3.6893488e+19 3.159704 -0
-2.2712882 -0 -1.9047065
1.0842022e-19 3.1289172 -3.6893488e+19
-1.9279833 3.6893488e+19 -1.9138156
-3.6893488e+19 3.1270571 1.0842022e-19
-1.9271097 -0 -1.9551208
-0 3.103822 -2
-2.2185712 -0 -1.9628866
-0 2.7846384 0
-1.7586992 3.6893488e+19 -1.811654
3.6893488e+19 2.7852991 0
-1.7590095 -0 -1.8439823
-3.6893488e+19 2.8034427 0
-1.8764389 3.6893488e+19 -1.8835541
0 2.7608049 -2
1.1594987 2 -1.8688552
3.6893488e+19 2.7316728 0
-1.8257039 3.6893488e+19 -1.8639916
3.6893488e+19 2.6915553 -0
1.1350195 3.6893488e+19 -1.8561513
1.0842022e-19 2.6549885 -2
-1.7937509 -2 -1.8486542
3.6893488e+19 2.6161652 1.0842022e-19
1.0989333 -3.6893488e+19 -1.8372008
2 2.596282 -2
-1.769289 2 -1.835675
0 2.5717359 0
1.071762 3.6893488e+19 -1.8295012
-0 2.5534198 -2
-1.7514292 -3.6893488e+19 -1.8266476
3.6893488e+19 2.5319476 0
1.047429 -0 -1.8200417
-3.6893488e+19 2.5195439 0
-1.7246277 1.0842022e-19 -1.819301
2 2.5045147 3.6893488e+19
1.0306519 -1.0842022e-19 -1.8153749
2 2.486553 0
-1.7027373 -1.0842022e-19 -1.814069
3.6893488e+19 2.4601798 0
1.0157146 -2 -1.8100592
-3.6893488e+19 2.384409 2
-1.7522695 -1.0842022e-19 -1.8018775
2 2.3385367 3.6893488e+19
-1.7241644 2 -1.7999957
1.0842022e-19 2.2986803 -2
-1.6977731 1.0842022e-19 -1.796416
3.6893488e+19 2.2650752 0
-1.6755214 -3.6893488e+19 -1.7922976
-0 2.2309723 -1.0842022e-19
0.94853628 -2 -1.7900358
-1.0842022e-19 2.1830757 -2
0.94121331 -2 -1.7860632
1.0842022e-19 2.1505349 2
0.93497628 1.0842022e-19 -1.7855468
3.6893488e+19 2.1161361 0
0.92445779 0 -1.7824087
3.6893488e+19 3.2126265 3.6893488e+19
-1.9866996 0 2.6717255
3.6893488e+19 3.254214 -2
-2.3473828 1.0842022e-19 2.7074506
3.6893488e+19 3.1682863 -0
-2.2857935 -1.0842022e-19 2.6140704
0 3.2736008 1.0842022e-19
-2.0299718 1.0842022e-19 2.7168064
3.6893488e+19 3.1711025 0
-2.2877178 -3.6893488e+19 2.6042023
-0 3.2759585 0
-2.0323846 -1.0842022e-19 2.7047539
-2 3.2564027 -1.0842022e-19
-2.3503737 3.6893488e+19 2.6663756
3.6893488e+19 3.2581964 0
-2.0142088 3.6893488e+19 2.6604888
0 3.2621675 2
-2.3582511 3.6893488e+19 2.6604853
0 3.2521515 3.6893488e+19
-2.008023 -3.6893488e+19 2.6362724
-1.0842022e-19 3.3095982 -1.0842022e-19
-2.4230652 -0 2.7167842
-0 3.308326 -3.6893488e+19
-2.4213266 -0 2.6970248
1.0842022e-19 3.2526152 -2
-2.0084975 -0 2.6078358
0 3.2141373 2
-1.4191432 2 2.5718944
-2 3.2501674 -1.0842022e-19
-1.4323345 2 2.5683243
-3.6893488e+19 3.2516282 1.0842022e-19
-1.4333993 0 2.5558095
2 3.2648263 -2
-2.2136414 -2 2.5647686
3.6893488e+19 3.2552443 3.6893488e+19
-1.4360348 2 2.5456574
1.0842022e-19 3.2583737 -0
-2.2023447 -1.0842022e-19 2.5423644
1.0842022e-19 3.2585599 0
-2.2026708 -1.0842022e-19 2.5278616
-2 3.182019 -1.0842022e-19
-1.4074385 -2 2.4513204
-0 3.2585013 -3.6893488e+19
-2.2025681 0 2.5131133
-0 3.1846349 3.6893488e+19
-1.4083918 3.6893488e+19 2.4294205
0 3.2464428 -0
-2.1845706 -2 2.4771519
0 3.2609527 -3.6893488e+19
-2.356591 1.0842022e-19 2.487891
-3.6893488e+19 3.2626493 -0
-2.0187654 -2 2.4746799
3.6893488e+19 3.2586355 3.6893488e+19
-2.3534248 3.6893488e+19 2.4542341
1.0842022e-19 3.2517767 -2
-2.0076394 -2 2.4265995
0 3.2569835 3.6893488e+19
-2.3511672 1.0842022e-19 2.4222398
1.0842022e-19 3.1631513 1.0842022e-19
-1.961386 3.6893488e+19 2.3267164
3.6893488e+19 3.1658769 -1.0842022e-19
-2.2841473 1.0842022e-19 2.3181534
-1.0842022e-19 3.2402198 3.6893488e+19
-2.0008175 1.0842022e-19 2.3600631
0 3.2539909 2
-2.3470778 1.0842022e-19 2.3599403
1.0842022e-19 3.2910109 -2
-2.0477872 1.0842022e-19 2.3947594
2 3.1680958 -0
-2.2856634 3.6893488e+19 2.2726824
3.6893488e+19 3.2896342 -0
-2.0463786 -0 2.3603601
1.0842022e-19 3.2558312 3.6893488e+19
-2.3495927 -1.0842022e-19 2.3048921
-2 3.2933981 -1.0842022e-19
-2.0502303 2 2.332118
-3.6893488e+19 3.2554135 3.6893488e+19
-2.3490222 1.0842022e-19 2.2756624
1.0842022e-19 3.1569977 0
-1.9582375 -0 2.1650805
-2 3.1608803 2
-1.3997351 -0 2.1458268
-0 3.2402902 1.0842022e-19
-2.1791849 -3.6893488e+19 2.1955583
-2 3.1669407 -3.6893488e+19
-1.4019436 -3.6893488e+19 2.1050153
0 3.1747456 -0
-2.121809 0 2.0884087
3.6893488e+19 3.2275519 2
-1.4240319 -3.6893488e+19 2.1032221
-1.0842022e-19 3.2625859 -2
-2.2097192 -3.6893488e+19 2.1096377
-0 3.2675905 0
-1.4450334 -3.6893488e+19 2.0860398
1.0842022e-19 3.2626266 2
-2.2097905 -2 2.0509241
1.0842022e-19 3.26722 1.0842022e-19
-1.4447633 -3.6893488e+19 2.0258937
-1.0842022e-19 3.2617655 -0
-2.2082829 2 1.9914016
-2 3.2669923 0
-1.4445975 1.0842022e-19 1.9660442
-3.6893488e+19 3.1663718 -0
-2.1144791 -1.0842022e-19 1.8954451
1.0842022e-19 3.26683 3.6893488e+19
-1.444479 1.0842022e-19 1.9063668
-3.6893488e+19 3.160965 0
-2.1097462 0 1.8202777
-3.6893488e+19 3.266623 2
-1.4443283 -2 1.818499
0 3.1578774 1.0842022e-19
-2.1070433 0 1.7053324
-0 3.1533713 -3.6893488e+19
-2.2756028 3.6893488e+19 1.6013893
-2 3.1493893 -1.0842022e-19
-1.9543447 -2 1.3054929
3.6893488e+19 3.300343 3.6893488e+19
-2.410418 -0 -1.5758677
-0 3.1503816 2
-1.9548525 -0 -1.6560882
-2 3.2996452 1.0842022e-19
-2.4094646 -3.6893488e+19 -1.809266
-1.0842022e-19 3.149168 -3.6893488e+19
-1.9542315 3.6893488e+19 -1.7919147
-1.0842022e-19 3.2996802 -2
-2.4095123 1.0842022e-19 -1.9092566
-0 3.1478417 1.0842022e-19
-1.953553 -0 -1.8775849
-1.0842022e-19 3.2303989 -3.6893488e+19
-2.3282318 -3.6893488e+19 -1.9314412
-3.6893488e+19 3.1521163 1.0842022e-19
-1.9557401 0 -1.9238592
-0 3.158118 -3.6893488e+19
-1.9588107 3.6893488e+19 -1.9720359
0 3.103682 -0
-2.2333055 3.6893488e+19 -1.9628491
3.6893488e+19 2.7849901 0
-1.7708132 3.6893488e+19 -1.8118995
-2 2.7858377 1.0842022e-19
-1.7712469 -1.0842022e-19 -1.8444134
-1.0842022e-19 2.8055813 -3.6893488e+19
-1.8837482 -2 -1.8845141
-0 2.7612414 -0
-1.1904058 -3.6893488e+19 -1.8692635
1.0842022e-19 2.7335987 -1.0842022e-19
-1.8366636 -1.0842022e-19 -1.8649807
-3.6893488e+19 2.6923034 2
-1.1611865 0 -1.8565432
3.6893488e+19 2.6551809 0
-1.8023415 -1.0842022e-19 -1.8487917
2 2.6159158 3.6893488e+19
-1.1333488 -2 -1.8370563
2 2.5962336 0
-1.7765411 2 -1.835675
3.6893488e+19 2.5714865 -1.0842022e-19
-1.1093154 -1.0842022e-19 -1.8293427
0 2.5549946 1.0842022e-19
-1.7584914 -3.6893488e+19 -1.8277224
0 2.5330684 -2
-1.0813143 -0 -1.820817
-1.0842022e-19 2.5185118 3.6893488e+19
-1.735047 -1.0842022e-19 -1.818584
0 2.5043902 3.6893488e+19
-1.0604123 -2 -1.8152817
0 2.486485 -2
-1.7129269 -1.0842022e-19 -1.814069
-2 2.4601796 0
-1.042701 -2 -1.8100592
3.6893488e+19 3.2126265 3.6893488e+19
-1.9866996 0 2.6717255
3.6893488e+19 3.254214 -2
-2.3473828 1.0842022e-19 2.7074506
3.6893488e+19 3.1682863 -0
-2.2857935 -1.0842022e-19 2.6140704
0 3.2736008 1.0842022e-19
-2.0299718 1.0842022e-19 2.7168064
3.6893488e+19 3.1711025 0
-2.2877178 -3.6893488e+19 2.6042023
-0 3.2759585 0
-2.0323846 -1.0842022e-19 2.7047539
-2 3.2564027 -1.0842022e-19
-2.3503737 3.6893488e+19 2.6663756
3.6893488e+19 3.2581964 0
-2.0142088 3.6893488e+19 2.6604888
0 3.2621675 2
-2.3582511 3.6893488e+19 2.6604853
0 3.2521515 3.6893488e+19
-2.008023 -3.6893488e+19 2.6362724
-1.0842022e-19 3.3095982 -1.0842022e-19
-2.4230652 -0 2.7167842
-0 3.308326 -3.6893488e+19
-2.4213266 -0 2.6970248
-1.0842022e-19 3.2027297 1.0842022e-19
-1.981636 3.6893488e+19 2.5706515
0 3.2141373 2
-1.4191432 2 2.5718944
-2 3.2501674 -1.0842022e-19
-1.4323345 2 2.5683243
-3.6893488e+19 3.2516282 1.0842022e-19
-1.4333993 0 2.5558095
-3.6893488e+19 3.2144644 -0
-2.1565778 1.0842022e-19 2.5260279
2 3.2003038 1.0842022e-19
-1.414102 -0 2.5108004
1.0842022e-19 3.2583737 -0
-2.2023447 -1.0842022e-19 2.5423644
1.0842022e-19 3.2585599 0
-2.2026708 -1.0842022e-19 2.5278616
-2 3.182019 -1.0842022e-19
-1.4074385 -2 2.4513204
0 3.248523 0
-2.1863916 -0 2.5037084
-0 3.1846349 3.6893488e+19
-1.4083918 3.6893488e+19 2.4294205
0 3.2464428 -0
-2.1845706 -2 2.4771519
2 3.1699367 -3.6893488e+19
-2.286921 3.6893488e+19 2.3925679
2 3.1596556 -2
-1.9595973 0 2.3701804
3.6893488e+19 3.1610126 -3.6893488e+19
-2.2808237 -0 2.3609247
3.6893488e+19 3.1631982 0
-1.96141 -3.6893488e+19 2.3500526
-3.6893488e+19 3.1669843 -1.0842022e-19
-2.284904 -2 2.3425655
1.0842022e-19 3.1631513 1.0842022e-19
-1.961386 3.6893488e+19 2.3267164
3.6893488e+19 3.1658769 -1.0842022e-19
-2.2841473 1.0842022e-19 2.3181534
3.6893488e+19 3.1591957 0
-1.9593621 -3.6893488e+19 2.3005512
2 3.1663601 3.6893488e+19
-2.2844775 0 2.2950201
-0 3.1652362 1.0842022e-19
-1.9624528 3.6893488e+19 2.2816362
2 3.1680958 -0
-2.2856634 3.6893488e+19 2.2726824
0 3.163136 -0
-1.9613781 0 2.25701
-0 3.156585 3.6893488e+19
-2.2777987 1.0842022e-19 2.2345562
-1.0842022e-19 3.1690824 -3.6893488e+19
-1.9644206 2 2.2243888
3.6893488e+19 3.1627502 3.6893488e+19
-2.282011 -0 2.1954722
1.0842022e-19 3.1569977 0
-1.9582375 -0 2.1650805
-2 3.1608803 2
-1.3997351 -0 2.1458268
2 3.1680458 0
-2.1159444 3.6893488e+19 2.1299052
-2 3.1669407 -3.6893488e+19
-1.4019436 -3.6893488e+19 2.1050153
0 3.1747456 -0
-2.121809 0 2.0884087
-2 3.1772618 -3.6893488e+19
-1.4057049 0 2.0660253
2 3.1752565 -1.0842022e-19
-2.1222563 -1.0842022e-19 2.0412157
-0 3.2675905 0
-1.4450334 -3.6893488e+19 2.0860398
-1.0842022e-19 3.1672027 0
-2.1152065 -0 1.9890207
1.0842022e-19 3.26722 1.0842022e-19
-1.4447633 -3.6893488e+19 2.0258937
0 3.1666417 -1.0842022e-19
-2.1147151 -1.0842022e-19 1.9421145
-1.0842022e-19 3.1713648 2
-1.4035559 -2 1.9204793
-3.6893488e+19 3.1663718 -0
-2.1144791 -1.0842022e-19 1.8954451
-1.0842022e-19 3.1661797 2
-1.4016663 -1.0842022e-19 1.8688883
-3.6893488e+19 3.160965 0
-2.1097462 0 1.8202777
0 3.163223 3.6893488e+19
-1.4005888 -2 1.7749461
0 3.1578774 1.0842022e-19
-2.1070433 0 1.7053324
-0 3.1533713 -3.6893488e+19
-2.2756028 3.6893488e+19 1.6013893
-2 3.1493893 -1.0842022e-19
-1.9543447 -2 1.3054929
-2 3.1526887 -3.6893488e+19
-2.2751365 1.0842022e-19 -1.509658
-0 3.1503816 2
-1.9548525 -0 -1.6560882
-2 3.1527028 1.0842022e-19
-2.2751462 -1.0842022e-19 -1.747641
-1.0842022e-19 3.149168 -3.6893488e+19
-1.9542315 3.6893488e+19 -1.7919147
0 3.1625664 3.6893488e+19
-2.2818854 3.6893488e+19 -1.8442466
-0 3.1478417 1.0842022e-19
-1.953553 -0 -1.8775849
-1.0842022e-19 3.2303989 -3.6893488e+19
-2.3282318 -3.6893488e+19 -1.9314412
1.0842022e-19 3.1285746 0
-1.9436951 0 -1.9136807
3.6893488e+19 3.1277137 1.0842022e-19
-1.9432546 -1.0842022e-19 -1.9554944
0 3.103682 -0
-2.2333055 3.6893488e+19 -1.9628491
3.6893488e+19 2.7849901 0
-1.7708132 3.6893488e+19 -1.8118995
-2 2.7858377 1.0842022e-19
-1.7712469 -1.0842022e-19 -1.8444134
-1.0842022e-19 2.8055813 -3.6893488e+19
-1.8837482 -2 -1.8845141
-0 2.7612414 -0
-1.1904058 -3.6893488e+19 -1.8692635
1.0842022e-19 2.7335987 -1.0842022e-19
-1.8366636 -1.0842022e-19 -1.8649807
-3.6893488e+19 2.6923034 2
-1.1611865 0 -1.8565432
3.6893488e+19 2.6551809 0
-1.8023415 -1.0842022e-19 -1.8487917
2 2.6159158 3.6893488e+19
-1.1333488 -2 -1.8370563
2 2.5962336 0
-1.7765411 2 -1.835675
3.6893488e+19 2.5714865 -1.0842022e-19
-1.1093154 -1.0842022e-19 -1.8293427
0 2.5549946 1.0842022e-19
-1.7584914 -3.6893488e+19 -1.8277224
0 2.5330684 -2
-1.0813143 -0 -1.820817
-1.0842022e-19 2.5185118 3.6893488e+19
-1.735047 -1.0842022e-19 -1.818584
0 2.5043902 3.6893488e+19
-1.0604123 -2 -1.8152817
0 2.486485 -2
-1.7129269 -1.0842022e-19 -1.814069
-2 2.4601796 0
-1.042701 -2 -1.8100592
0 3.2835324 -1.0842022e-19
-2.0639017 -3.6893488e+19 2.7584875
1.0842022e-19 3.2537615 2
-2.3574684 -3.6893488e+19 2.7067397
1.0842022e-19 3.2621689 1.0842022e-19
-2.0402501 -3.6893488e+19 2.7126594
2 3.2744474 -0
-2.0538437 -0 2.7182918
0 3.2753534 2
-2.0548468 0 2.7037961
-0 3.2565429 3.6893488e+19
-2.3613865 3.6893488e+19 2.6666977
-3.6893488e+19 3.2565808 -0
-2.0340636 -0 2.6579561
-2 3.2627647 -2
-2.370151 3.6893488e+19 2.661514
-3.6893488e+19 3.2523134 2
-2.0293391 3.6893488e+19 2.6365545
-2 3.1983674 1.0842022e-19
-2.3158028 1.0842022e-19 2.5880806
-3.6893488e+19 3.2523828 -0
-2.0294158 -1.0842022e-19 2.622082
-1.0842022e-19 3.2508094 3.6893488e+19
-2.027674 1.0842022e-19 2.605309
0 3.2004726 0
-1.6079592 2 2.549495
-3.6893488e+19 3.2930527 -2
-2.2688367 2 2.6319015
-2 3.2503045 0
-1.6294435 -0 2.568501
2 3.2588656 1.0842022e-19
-2.2249494 1.0842022e-19 2.5725245
-0 3.251611 -1.0842022e-19
-1.6301191 1.0842022e-19 2.5557907
1.0842022e-19 3.2646332 -3.6893488e+19
-2.2355311 3.6893488e+19 2.5645852
1.0842022e-19 3.2554126 -3.6893488e+19
-1.632085 -1.0842022e-19 2.5458543
-3.6893488e+19 3.2056663 -3.6893488e+19
-1.6106451 -1.0842022e-19 2.5009472
0 3.2585375 0
-2.2243474 2 2.5278783
0 3.2585564 0
-2.2243819 3.6893488e+19 2.5132077
2 3.2545018 1.0842022e-19
-1.6316141 1.0842022e-19 2.5014503
-3.6893488e+19 3.2505081 -1.0842022e-19
-2.2096157 2 2.4816186
1.0842022e-19 3.2603524 -3.6893488e+19
-2.3667526 -2 2.4868789
-0 3.2558455 -1.0842022e-19
-2.0332494 -2 2.4624238
-2 3.257308 3.6893488e+19
-2.3624644 3.6893488e+19 2.4520054
-2 3.253587 3.6893488e+19
-2.0307491 2 2.4297047
1.0842022e-19 3.2564452 -0
-2.3612487 -0 2.4214509
1.0842022e-19 3.2524939 -0
-2.0295386 3.6893488e+19 2.3993747
-0 3.2561879 -3.6893488e+19
-2.3608863 -1.0842022e-19 2.3920658
-2 3.2408302 1.0842022e-19
-2.0217018 3.6893488e+19 2.3605428
0 3.254786 1.0842022e-19
-2.3589115 0 2.3611491
1.0842022e-19 3.2828321 2
-2.0631266 3.6893488e+19 2.3836982
-0 3.1621988 2
-2.2903278 -3.6893488e+19 2.2688973
-3.6893488e+19 3.2813263 -0
-2.0614595 2 2.3500543
1.0842022e-19 3.256006 -1.0842022e-19
-2.36063 -2 2.3051696
-3.6893488e+19 3.1668651 1.0842022e-19
-1.9807581 -0 2.22192
0 3.2550452 -0
-2.3592765 -2 2.275327
1.0842022e-19 3.2545345 2
-2.0317979 3.6893488e+19 2.2596121
-0 3.1608462 -2
-1.5874666 3.6893488e+19 2.1457968
-2 3.2401559 -2
-2.1996527 -0 2.1955018
-1.0842022e-19 3.1684668 -3.6893488e+19
-1.5914075 -2 2.1063173
2 3.1757739 3.6893488e+19
-2.1405907 0 2.0892777
0 3.2276111 -3.6893488e+19
-1.6219935 -2 2.1032684
-2 3.1766279 -3.6893488e+19
-2.1413741 -0 2.0421977
0 3.1617734 -1.0842022e-19
-1.5879461 -2 2.008554
0 3.2635236 -3.6893488e+19
-2.2334952 -3.6893488e+19 2.051996
2 3.2679989 0
-1.638594 3.6893488e+19 2.0267
1.0842022e-19 3.1667054 2
-2.1322715 1.0842022e-19 1.9421721
-3.6893488e+19 3.2680526 3.6893488e+19
-1.6386218 0 1.9669037
-0 3.1669035 0
-2.1324534 3.6893488e+19 1.8956522
1.0842022e-19 3.2531586 -1.0842022e-19
-1.6309193 3.6893488e+19 1.8983562
3.6893488e+19 3.1599066 -3.6893488e+19
-2.1260345 3.6893488e+19 1.8198032
-1.0842022e-19 3.253294 -1.0842022e-19
-1.6309894 1.0842022e-19 1.8088269
-3.6893488e+19 3.1580982 1.0842022e-19
-2.1243758 -3.6893488e+19 1.7054737
-2 3.1531241 -3.6893488e+19
-2.283936 3.6893488e+19 1.6013019
-2 3.150104 0
-1.9714799 -1.0842022e-19 1.3058317
-3.6893488e+19 3.3004615 -3.6893488e+19
-2.4232538 -0 -1.5759926
-2 3.1520331 -1.0842022e-19
-1.9725477 2 -1.6567458
-1.0842022e-19 3.298908 -0
-2.4210653 -2 -1.8088543
0 3.1486337 -1.0842022e-19
-1.9706658 -1.0842022e-19 -1.7917057
-1.0842022e-19 3.2984917 0
-2.4204791 -3.6893488e+19 -1.9086609
-0 3.1492434 0
-1.9710034 -2 -1.8780456
0 3.2338378 -3.6893488e+19
-2.3407857 -3.6893488e+19 -1.9327815
-3.6893488e+19 3.1521437 -0
-1.9726089 -0 -1.9238862
3.6893488e+19 3.1607668 0
-1.9773823 2 -1.9734964
2 3.1049082 2
-2.2499516 -1.0842022e-19 -1.9636356
-0 3.1160674 -0
-1.9526386 -3.6893488e+19 -1.9900918
-3.6893488e+19 2.8049757 3.6893488e+19
-1.8898873 -3.6893488e+19 -1.8842672
0 2.7632363 -3.6893488e+19
-1.3861309 0 -1.8711305
-3.6893488e+19 2.7306628 0
-1.8454721 3.6893488e+19 -1.8635589
1.0842022e-19 2.6935477 2
-1.354378 -0 -1.8571961
0 2.6569891 -2
-1.811679 3.6893488e+19 -1.8498234
-0 2.6155391 -3.6893488e+19
-1.3140363 -0 -1.8368396
2 2.5964317 -1.0842022e-19
-1.7839024 -2 -1.8358264
2 2.5723565 3.6893488e+19
-1.2917047 3.6893488e+19 -1.8298972
3.6893488e+19 2.5522137 2
-1.7636204 0 -1.8259037
-1.0842022e-19 2.5323191 -3.6893488e+19
-1.2709996 -1.0842022e-19 -1.8203001
0 2.5185969 0
-1.7464018 3.6893488e+19 -1.8186736
2 2.5046372 -0
-1.2566841 3.6893488e+19 -1.815468
0 2.4864137 -3.6893488e+19
-1.7231097 -1.0842022e-19 -1.814069
-1.0842022e-19 2.4599276 3.6893488e+19
-1.2378488 -1.0842022e-19 -1.8099592
3.6893488e+19 2.3849795 -1.0842022e-19
-1.760578 -3.6893488e+19 -1.8022192
-0 2.3381383 -3.6893488e+19
-1.7381641 -1.0842022e-19 -1.7998679
2 2.2980537 -1.0842022e-19
-1.7099309 3.6893488e+19 -1.7961329
2 2.2669249 0
-1.6880057 3.6893488e+19 -1.7935404
2 2.2324471 -1.0842022e-19
-1.1244946 0 -1.7905432
2 2.1825809 2
-1.0987066 1.0842022e-19 -1.7858804
2 2.1475904 1.0842022e-19
-1.0806115 -1.0842022e-19 -1.7843677
0 2.1210217 0
-1.0668716 -0 -1.7845103
0 3.2835324 -1.0842022e-19
-2.0639017 -3.6893488e+19 2.7584875
1.0842022e-19 3.2537615 2
-2.3574684 -3.6893488e+19 2.7067397
1.0842022e-19 3.2341402 1.0842022e-19
-2.0179985 -0 2.6771903
2 3.2744474 -0
-2.0538437 -0 2.7182918
0 3.2753534 2
-2.0548468 0 2.7037961
0 3.226655 3.6893488e+19
-2.3357267 1.0842022e-19 2.6371107
-3.6893488e+19 3.2565808 -0
-2.0340636 -0 2.6579561
-2 3.2627647 -2
-2.370151 3.6893488e+19 2.661514
-3.6893488e+19 3.2523134 2
-2.0293391 3.6893488e+19 2.6365545
-2 3.1983674 1.0842022e-19
-2.3158028 1.0842022e-19 2.5880806
-3.6893488e+19 3.2523828 -0
-2.0294158 -1.0842022e-19 2.622082
3.6893488e+19 3.2026289 -3.6893488e+19
-2.000555 -2 2.5706079
0 3.2004726 0
-1.6079592 2 2.549495
-3.6893488e+19 3.2930527 -2
-2.2688367 2 2.6319015
3.6893488e+19 3.2002428 2
-1.6078403 1.0842022e-19 2.5364566
2 3.2588656 1.0842022e-19
-2.2249494 1.0842022e-19 2.5725245
-0 3.251611 -1.0842022e-19
-1.6301191 1.0842022e-19 2.5557907
1.0842022e-19 3.2646332 -3.6893488e+19
-2.2355311 3.6893488e+19 2.5645852
-0 3.1975789 3.6893488e+19
-1.6064627 1.0842022e-19 2.5092242
-3.6893488e+19 3.2056663 -3.6893488e+19
-1.6106451 -1.0842022e-19 2.5009472
0 3.2585375 0
-2.2243474 2 2.5278783
0 3.2585564 0
-2.2243819 3.6893488e+19 2.5132077
2 3.2545018 1.0842022e-19
-1.6316141 1.0842022e-19 2.5014503
-3.6893488e+19 3.2505081 -1.0842022e-19
-2.2096157 2 2.4816186
-2 3.166038 3.6893488e+19
-2.2930319 -1.0842022e-19 2.3890116
0 3.1615751 -1.0842022e-19
-1.9778296 0 2.3719473
-2 3.1642613 -2
-2.2917805 -3.6893488e+19 2.3638601
-0 3.1608329 -2
-1.9774188 2 2.3480792
1.0842022e-19 3.2564452 -0
-2.3612487 -0 2.4214509
1.0842022e-19 3.2524939 -0
-2.0295386 3.6893488e+19 2.3993747
-1.0842022e-19 3.1673319 -2
