# .PCD v0.7 - Point Cloud Data file format
VERSION 0.7
FIELDS x y z
SIZE 4 4 4
TYPE F F F
COUNT 1 1 1
WIDTH 1699
HEIGHT 1
VIEWPOINT 0 0 0 1 0 0 0
POINTS 1699
DATA ascii
3.6893488e+19 3.2149634 -1.0842022e-19
2.4611509 -3.6893488e+19 2.2420359
1.0842022e-19 3.2108703 -1.0842022e-19
2.5359521 3.6893488e+19 2.2136741
-3.6893488e+19 3.1982579 -1.0842022e-19
2.3621843 0 2.1727078
-2 3.2111819 -3.6893488e+19
2.5361454 -0 2.1617594
2 3.1185377 3.6893488e+19
2.2977717 3.6893488e+19 2.0560865
-3.6893488e+19 3.2100832 0
2.535464 1.0842022e-19 2.1087046
2 3.2033644 -0
2.3663101 -1.0842022e-19 2.0756013
-2 3.2272274 0
2.5461013 0 2.0680928
-0 3.1997039 -2
2.3633525 -3.6893488e+19 2.0224679
3.6893488e+19 3.2094834 -1.0842022e-19
2.5350916 -0 2.0043342
2 3.203758 3.6893488e+19
2.3666282 -0 1.974001
3.6893488e+19 3.2096744 -0
2.5352101 1.0842022e-19 1.9525018
0 3.1989019 2
2.3627045 1.0842022e-19 1.9212373
-3.6893488e+19 3.1221905 -3.6893488e+19
2.4618597 -0 1.8688658
2 3.182924 -2
2.3497946 3.6893488e+19 1.8581885
-3.6893488e+19 3.1519694 -1.0842022e-19
2.4988132 1.0842022e-19 1.7976012
-2 3.1076431 0
2.1518667 -2 1.6442981
3.6893488e+19 3.15341 -0
2.4001021 -1.0842022e-19 1.5207971
2 3.1092401 -2
2.1536608 -0 -1.2509587
-0 3.155951 2
2.4026225 1.0842022e-19 -1.5932535
-3.6893488e+19 3.1078579 -0
2.152108 -0 -1.6757236
-3.6893488e+19 3.117321 1.0842022e-19
2.3643093 -0 -1.7569518
-2 3.1043391 -0
2.148154 1.0842022e-19 -1.7912546
2 3.1214697 -3.6893488e+19
2.3684237 -1.0842022e-19 -1.8419521
-3.6893488e+19 3.1334345 3.6893488e+19
2.1808472 1.0842022e-19 -1.8828357
0 3.1215999 0
2.3685529 0 -1.9003024
-3.6893488e+19 3.1352994 -1.0842022e-19
2.1829426 2 -1.9265945
0 3.1467571 -3.6893488e+19
2.3935037 -1.0842022e-19 -1.9551021
-3.6893488e+19 3.1352756 2
2.1829159 -3.6893488e+19 -1.9697107
1.0842022e-19 3.0443332 -0
2.2919197 -2 -1.9352801
0 3.0374689 3.6893488e+19
2.073015 -2 -1.946123
2 3.0330932 2
2.280772 -1.0842022e-19 -1.9600765
1.0842022e-19 2.8885589 3.6893488e+19
2.2321715 -0 -1.9057782
-0 2.8283038 2
2.0152636 -0 -1.8899518
0 2.7851298 -1.0842022e-19
2.1038239 -3.6893488e+19 -1.8804473
-1.0842022e-19 2.7565434 -2
1.9572824 2 -1.8725772
-1.0842022e-19 2.7026637 0
2.0308604 -0 -1.8577354
2 2.6658223 2
1.9179884 -0 -1.8490442
-0 2.6149683 3.6893488e+19
1.9764488 -1.0842022e-19 -1.8333349
-2 2.5978985 2
1.8905479 1.0842022e-19 -1.8320466
2 2.5669966 -1.0842022e-19
1.9466841 1.0842022e-19 -1.823941
-0 2.5532086 0
1.8699871 -2 -1.8225461
-1.0842022e-19 2.5324771 0
1.9252663 -2 -1.8183222
-2 2.5195801 0
1.842816 1.0842022e-19 -1.8158568
-0 2.504627 1.0842022e-19
1.9079863 1.0842022e-19 -1.813745
3.6893488e+19 2.4883025 0
1.8222698 -0 -1.8116523
0 2.4683509 1.0842022e-19
1.8952968 0 -1.8119217
-1.0842022e-19 2.4523344 2
1.807739 2 -1.8107054
2 3.2193937 1.0842022e-19
2.4655449 -2 2.6570883
2 3.2242463 1.0842022e-19
2.4703577 2 2.6473739
-2 3.2722874 -1.0842022e-19
2.3059564 0 2.6960177
-3.6893488e+19 3.2056301 -2
2.2559848 -1.0842022e-19 2.6099224
0 3.2811828 -1.0842022e-19
2.528877 -1.0842022e-19 2.6719656
1.0842022e-19 3.2007961 3.6893488e+19
2.253269 2 2.5799935
-1.0842022e-19 3.2804406 1.0842022e-19
2.5980053 -2 2.6481323
-1.0842022e-19 3.2304215 3.6893488e+19
2.3881719 0 2.5817695
-3.6893488e+19 3.2000914 0
2.3636658 1.0842022e-19 2.5478516
-1.0842022e-19 3.2001669 -3.6893488e+19
2.3637266 3.6893488e+19 2.5349591
3.6893488e+19 3.1922565 -2
2.3573351 -1.0842022e-19 2.517262
-1.0842022e-19 3.2210119 -0
2.5422447 -1.0842022e-19 2.529794
2 3.2071748 -1.0842022e-19
2.3693888 -2 2.5131872
-0 3.2192497 -1.0842022e-19
2.5411513 -3.6893488e+19 2.515233
3.6893488e+19 3.2043235 1.0842022e-19
2.3670852 0 2.4971318
-1.0842022e-19 3.2038069 1.0842022e-19
2.5315697 -3.6893488e+19 2.4869261
-0 3.2013206 -1.0842022e-19
2.3646588 -1.0842022e-19 2.4681013
3.6893488e+19 3.2066052 3.6893488e+19
2.5333059 3.6893488e+19 2.4637284
2 3.2049253 3.6893488e+19
2.3675714 1.0842022e-19 2.4459414
-0 3.1223516 0
2.1683939 -2 2.3534877
2 3.2168958 0
2.4630675 1.0842022e-19 2.4322371
-2 3.1212246 -3.6893488e+19
2.1671274 0 2.3313885
-3.6893488e+19 3.213558 -0
2.4597571 2 2.402777
-2 3.123147 -3.6893488e+19
2.1692874 0 2.3119988
3.6893488e+19 3.1414752 -3.6893488e+19
2.3882651 -2 2.3179047
2 3.1236885 1.0842022e-19
2.1698959 3.6893488e+19 2.2913499
2 3.1411848 -2
2.3879771 -3.6893488e+19 2.2954803
-1.0842022e-19 3.1240878 -1.0842022e-19
2.1703446 -1.0842022e-19 2.2705617
-1.0842022e-19 3.1318219 1.0842022e-19
2.3786912 -1.0842022e-19 2.2667747
2 3.1239412 2
2.1701798 -0 2.24879
-1.0842022e-19 3.128859 0
2.3757527 1.0842022e-19 2.2365384
-1.0842022e-19 3.1237447 -1.0842022e-19
2.1699591 0 2.2064695
3.6893488e+19 3.1293077 3.6893488e+19
2.3761976 -2 2.194232
-1.0842022e-19 3.1241517 -2
2.1704164 0 2.1649151
0 3.1274173 0
2.3743227 -0 2.1493924
2 3.150553 -1.0842022e-19
2.4970553 -0 2.1529899
-2 3.1163163 -3.6893488e+19
2.2959769 -2 2.0954366
0 3.13937 -2
2.4831779 0 2.0976431
2 3.1185377 3.6893488e+19
2.2977717 3.6893488e+19 2.0560865
2 3.1224837 -0
2.4622235 -3.6893488e+19 2.0404072
0 3.1207736 -0
2.2995782 -3.6893488e+19 2.0162854
0 3.120008 -0
2.4591513 3.6893488e+19 1.9966263
-3.6893488e+19 3.1224954 -0
2.3009696 -2 1.9756887
-2 3.1200433 0
2.4591954 -3.6893488e+19 1.9548272
3.6893488e+19 3.1221492 -3.6893488e+19
2.3006897 -2 1.9337143
2 3.1185174 -1.0842022e-19
2.4573016 2 1.9123441
0 3.1989019 2
2.3627045 1.0842022e-19 1.9212373
-3.6893488e+19 3.1221905 -3.6893488e+19
2.4618597 -0 1.8688658
3.6893488e+19 3.1189771 -1.0842022e-19
2.2981267 1.0842022e-19 1.8237444
-3.6893488e+19 3.1187756 1.0842022e-19
2.4576223 -2 1.7833481
-2 3.1076431 0
2.1518667 -2 1.6442981
-2 3.1166911 -2
2.3636844 -2 1.5075265
2 3.1092401 -2
2.1536608 -0 -1.2509587
-1.0842022e-19 3.1150458 1.0842022e-19
2.3620527 2 -1.5712614
-3.6893488e+19 3.1078579 -0
2.152108 -0 -1.6757236
-3.6893488e+19 3.117321 1.0842022e-19
2.3643093 -0 -1.7569518
-2 3.1043391 -0
2.148154 1.0842022e-19 -1.7912546
2 3.1214697 -3.6893488e+19
2.3684237 -1.0842022e-19 -1.8419521
0 3.1144235 -1.0842022e-19
2.1594851 2 -1.8762496
0 3.1215999 0
2.3685529 0 -1.9003024
-3.6893488e+19 3.1352994 -1.0842022e-19
2.1829426 2 -1.9265945
1.0842022e-19 3.1206579 -1.0842022e-19
2.3676186 -1.0842022e-19 -1.9416102
2 3.0915051 -1.0842022e-19
2.1337328 1.0842022e-19 -1.9447497
1.0842022e-19 3.0443332 -0
2.2919197 -2 -1.9352801
0 3.0374689 3.6893488e+19
2.073015 -2 -1.946123
2 3.0330932 2
2.280772 -1.0842022e-19 -1.9600765
1.0842022e-19 2.8885589 3.6893488e+19
2.2321715 -0 -1.9057782
-0 2.8283038 2
2.0152636 -0 -1.8899518
0 2.7851298 -1.0842022e-19
2.1038239 -3.6893488e+19 -1.8804473
-1.0842022e-19 2.7565434 -2
1.9572824 2 -1.8725772
-1.0842022e-19 2.7026637 0
2.0308604 -0 -1.8577354
2 2.6658223 2
1.9179884 -0 -1.8490442
-0 2.6149683 3.6893488e+19
1.9764488 -1.0842022e-19 -1.8333349
-2 2.5978985 2
1.8905479 1.0842022e-19 -1.8320466
2 2.5669966 -1.0842022e-19
1.9466841 1.0842022e-19 -1.823941
-0 2.5532086 0
1.8699871 -2 -1.8225461
-1.0842022e-19 2.5324771 0
1.9252663 -2 -1.8183222
-2 2.5195801 0
1.842816 1.0842022e-19 -1.8158568
-0 2.504627 1.0842022e-19
1.9079863 1.0842022e-19 -1.813745
3.6893488e+19 2.4883025 0
1.8222698 -0 -1.8116523
0 2.4683509 1.0842022e-19
1.8952968 0 -1.8119217
-1.0842022e-19 2.4523344 2
1.807739 2 -1.8107054
0 3.275527 -3.6893488e+19
2.5174041 -0 2.7551227
1.0842022e-19 3.2760222 -1.0842022e-19
2.5178847 0 2.7448649
-2 3.2209699 -3.6893488e+19
2.4570854 1.0842022e-19 2.6583242
1.0842022e-19 3.2222726 1.0842022e-19
2.4583497 -0 2.6455929
3.6893488e+19 3.2724283 -2
2.294637 -1.0842022e-19 2.6961677
-3.6893488e+19 3.2213941 -0
2.4574971 -1.0842022e-19 2.6310651
3.6893488e+19 3.2025616 0
2.2394552 -3.6893488e+19 2.6074338
0 3.2417326 1.0842022e-19
2.2659097 1.0842022e-19 2.609895
3.6893488e+19 3.2281563 2
2.3762171 -3.6893488e+19 2.5801187
-1.0842022e-19 3.2671804 0
2.5758164 -0 2.6136358
2 3.2285333 1.0842022e-19
2.3765137 -0 2.5665903
-3.6893488e+19 3.2248924 3.6893488e+19
2.3736491 0 2.5505321
-3.6893488e+19 3.2211711 -1.0842022e-19
2.5372875 -0 2.5297759
2 3.2194695 -1.0842022e-19
2.5362499 3.6893488e+19 2.5152504
-1.0842022e-19 3.2007134 -3.6893488e+19
2.3546247 3.6893488e+19 2.4930527
3.6893488e+19 3.2055824 -1.0842022e-19
2.5277824 0 2.4886343
3.6893488e+19 3.2011302 0
2.3549528 1.0842022e-19 2.4677815
-1.0842022e-19 3.2036626 2
2.526612 3.6893488e+19 2.4605544
3.6893488e+19 3.2018335 0
2.3555062 1.0842022e-19 2.442795
-3.6893488e+19 3.1222949 2
2.1526451 -1.0842022e-19 2.3533702
1.0842022e-19 3.216861 3.6893488e+19
2.4530976 3.6893488e+19 2.432066
-1.0842022e-19 3.1215086 1.0842022e-19
2.1517947 1.0842022e-19 2.3315821
-0 3.2138305 3.6893488e+19
2.4501565 -2 2.402884
1.0842022e-19 3.2280309 1.0842022e-19
2.2585003 1.0842022e-19 2.3996229
-1.0842022e-19 3.2116675 0
2.4480574 2 2.3747854
3.6893488e+19 3.1226077 -2
2.1529832 2 2.2904549
2 3.2116408 -3.6893488e+19
2.4480312 -1.0842022e-19 2.348587
0 3.2216303 -3.6893488e+19
2.255039 1.0842022e-19 2.3410485
-3.6893488e+19 3.2057188 -3.6893488e+19
2.4422839 -1.0842022e-19 2.3183033
-2 3.12463 -1.0842022e-19
2.1551704 -0 2.2496188
3.6893488e+19 3.2271974 -0
2.4631293 2 2.3063147
-0 3.2260013 -3.6893488e+19
2.2574027 2 2.2906272
2 3.2134964 -0
2.4498322 3.6893488e+19 2.2713282
1.0842022e-19 3.2226343 0
2.2555821 -2 2.2620161
-3.6893488e+19 3.216351 0
2.4526029 0 2.243346
-2 3.2121351 -2
2.5317779 -0 2.2147593
2 3.2012315 2
2.3550324 2 2.1754005
-2 3.2129409 -1.0842022e-19
2.5322692 2 2.1631634
0 3.2010634 3.6893488e+19
2.3549001 -0 2.1245298
3.6893488e+19 3.211318 0
2.5312798 -1.0842022e-19 2.1095221
-3.6893488e+19 3.202271 2
2.3558505 -1.0842022e-19 2.0747313
-0 3.2248888 -3.6893488e+19
2.5395541 -1.0842022e-19 2.0664062
0 3.20122 3.6893488e+19
2.3550234 -3.6893488e+19 2.023315
2 3.2120152 -2
2.5317047 0 2.0056326
-0 3.2009544 2
2.3548145 3.6893488e+19 1.972559
-1.0842022e-19 3.2061229 1.0842022e-19
2.5281122 -3.6893488e+19 1.9508562
-3.6893488e+19 3.204149 -3.6893488e+19
2.3573279 -0 1.9231937
-0 3.2087002 2
2.5296836 0 1.9002137
-0 3.1857424 -2
2.3428454 -3.6893488e+19 1.8596452
-1.0842022e-19 3.1197584 -1.0842022e-19
2.450906 -2 1.7837061
0 3.1069596 -3.6893488e+19
2.1360593 -1.0842022e-19 1.6439962
-3.6893488e+19 3.1146064 0
2.3538578 2 1.5067308
3.6893488e+19 3.1093049 1.0842022e-19
2.1385961 -0 -1.2509587
0 3.1566401 -0
2.3946519 -2 -1.5935535
-0 3.1109469 -1.0842022e-19
2.1403718 -1.0842022e-19 -1.6772083
-2 3.1201379 -2
2.359226 -0 -1.757921
3.6893488e+19 3.1344564 0
2.1657979 1.0842022e-19 -1.8053529
3.6893488e+19 3.1197591 2
2.3588583 -2 -1.8408836
2 3.1313219 1.0842022e-19
2.1624079 1.0842022e-19 -1.88208
0 3.1229599 2
2.3619647 -2 -1.9008039
0 3.1325331 0
2.1637177 0 -1.9252949
2 3.1434119 -0
2.3818138 1.0842022e-19 -1.9533075
2 3.1355946 1.0842022e-19
2.1670289 1.0842022e-19 -1.9698529
0 3.0445828 -1.0842022e-19
2.2858982 0 -1.9353777
0 3.0358698 2
2.0591743 -1.0842022e-19 -1.9449968
2 3.0309839 2
2.2727003 3.6893488e+19 -1.9584442
-2 2.8814335 -2
2.2151434 -2 -1.9028599
-1.0842022e-19 2.8234205 2
2.0044699 1.0842022e-19 -1.8878342
0 2.7848129 -2
2.0973182 3.6893488e+19 -1.8802499
3.6893488e+19 2.7571692 -2
1.9523427 -2 -1.8731163
1.0842022e-19 2.7048194 3.6893488e+19
2.0273173 3.6893488e+19 -1.8587495
3.6893488e+19 2.6658068 -3.6893488e+19
1.9135799 -1.0842022e-19 -1.8489773
3.6893488e+19 2.6133897 1.0842022e-19
1.9715699 3.6893488e+19 -1.8323503
-2 2.5982375 1.0842022e-19
1.8869981 -0 -1.8321942
0 2.5682333 -2
1.9440365 3.6893488e+19 -1.8246366
1.0842022e-19 2.5540318 0
1.8642147 -1.0842022e-19 -1.8230307
3.6893488e+19 2.5323448 3.6893488e+19
1.9221543 -1.0842022e-19 -1.8181537
-0 2.5210137 -1.0842022e-19
1.8382357 -0 -1.8168216
0 2.5047297 -0
1.9053165 1.0842022e-19 -1.813745
-0 2.4881823 2
1.8170528 -0 -1.8115577
-1.0842022e-19 2.4680476 3.6893488e+19
1.8926915 -2 -1.8117254
-3.6893488e+19 2.4519575 -1.0842022e-19
1.8028018 -3.6893488e+19 -1.8105022
3.6893488e+19 2.4017839 -3.6893488e+19
1.7172689 -1.0842022e-19 -1.8065301
2 2.3496444 -2
1.6890739 -0 -1.8027973
-0 2.3089802 0
1.6670845 -3.6893488e+19 -1.7997
-3.6893488e+19 2.2696457 -3.6893488e+19
1.6458138 3.6893488e+19 -1.7928632
-3.6893488e+19 2.2334332 -1.0842022e-19
1.772382 3.6893488e+19 -1.790864
-3.6893488e+19 2.1870329 -2
1.7582362 -0 -1.7876568
1.0842022e-19 2.1562946 3.6893488e+19
1.7477303 -2 -1.7880956
0 2.1193559 -0
1.7252076 2 -1.7841268
0 3.275527 -3.6893488e+19
2.5174041 -0 2.7551227
1.0842022e-19 3.2760222 -1.0842022e-19
2.5178847 0 2.7448649
-2 3.2209699 -3.6893488e+19
2.4570854 1.0842022e-19 2.6583242
1.0842022e-19 3.2222726 1.0842022e-19
2.4583497 -0 2.6455929
3.6893488e+19 3.2724283 -2
2.294637 -1.0842022e-19 2.6961677
-3.6893488e+19 3.2213941 -0
2.4574971 -1.0842022e-19 2.6310651
3.6893488e+19 3.2025616 0
2.2394552 -3.6893488e+19 2.6074338
0 3.2007549 -2
2.2375009 -1.0842022e-19 2.5799036
3.6893488e+19 3.2281563 2
2.3762171 -3.6893488e+19 2.5801187
-1.0842022e-19 3.2671804 0
2.5758164 -0 2.6136358
-3.6893488e+19 3.2002397 -1.0842022e-19
2.3542521 3.6893488e+19 2.5478718
-1.0842022e-19 3.1984105 0
2.352813 1.0842022e-19 2.5337732
-3.6893488e+19 3.2211711 -1.0842022e-19
2.5372875 -0 2.5297759
2 3.2194695 -1.0842022e-19
2.5362499 3.6893488e+19 2.5152504
-1.0842022e-19 3.2007134 -3.6893488e+19
2.3546247 3.6893488e+19 2.4930527
3.6893488e+19 3.2055824 -1.0842022e-19
2.5277824 0 2.4886343
3.6893488e+19 3.2011302 0
2.3549528 1.0842022e-19 2.4677815
-1.0842022e-19 3.2036626 2
2.526612 3.6893488e+19 2.4605544
3.6893488e+19 3.2018335 0
2.3555062 1.0842022e-19 2.442795
-3.6893488e+19 3.1222949 2
2.1526451 -1.0842022e-19 2.3533702
1.0842022e-19 3.216861 3.6893488e+19
2.4530976 3.6893488e+19 2.432066
-1.0842022e-19 3.1215086 1.0842022e-19
2.1517947 1.0842022e-19 2.3315821
-0 3.2138305 3.6893488e+19
2.4501565 -2 2.402884
0 3.1221912 -3.6893488e+19
2.1525326 -2 2.3111432
1.0842022e-19 3.1449347 1.0842022e-19
2.3832917 -0 2.320611
3.6893488e+19 3.1226077 -2
2.1529832 2 2.2904549
-0 3.1423607 -1.0842022e-19
2.3807936 0 2.2962735
0 3.1239071 -0
2.1543884 1.0842022e-19 2.2703822
-3.6893488e+19 3.2057188 -3.6893488e+19
2.4422839 -1.0842022e-19 2.3183033
-2 3.12463 -1.0842022e-19
2.1551704 -0 2.2496188
2 3.1331248 -0
2.37183 -3.6893488e+19 2.2418582
1.0842022e-19 3.1220403 3.6893488e+19
2.1523695 0 2.2043056
-1.0842022e-19 3.1286252 2
2.3674631 2 2.1932902
0 3.1189005 -2
2.1489737 0 2.1590178
3.6893488e+19 3.1263003 3.6893488e+19
2.3652067 2 2.1480825
-1.0842022e-19 3.1406009 0
2.4763229 -1.0842022e-19 2.1428189
-0 3.1187406 2
2.290128 1.0842022e-19 2.0976319
3.6893488e+19 3.1428583 -1.0842022e-19
2.4790754 -1.0842022e-19 2.1006162
0 3.2010634 3.6893488e+19
2.3549001 -0 2.1245298
-3.6893488e+19 3.1208749 -2
2.4522676 -1.0842022e-19 2.0390365
-1.0842022e-19 3.1209946 -3.6893488e+19
2.2919014 1.0842022e-19 2.0163748
-2 3.1186445 -1.0842022e-19
2.4495478 -3.6893488e+19 1.9956185
-3.6893488e+19 3.1232765 -0
2.2936969 -3.6893488e+19 1.9761028
3.6893488e+19 3.1162405 2
2.4466162 -3.6893488e+19 1.9526405
-2 3.1251373 -0
2.295161 2 1.9351411
-1.0842022e-19 3.1173997 -0
2.4480298 1.0842022e-19 1.9117866
-1.0842022e-19 3.1204205 2
2.2914498 -3.6893488e+19 1.891263
0 3.1212597 -3.6893488e+19
2.4527366 1.0842022e-19 1.8681579
-1.0842022e-19 3.1232402 -2
2.2936683 -0 1.8259882
-1.0842022e-19 3.1197584 -1.0842022e-19
2.450906 -2 1.7837061
0 3.1069596 -3.6893488e+19
2.1360593 -1.0842022e-19 1.6439962
-3.6893488e+19 3.1146064 0
2.3538578 2 1.5067308
3.6893488e+19 3.1093049 1.0842022e-19
2.1385961 -0 -1.2509587
-0 3.1153493 -1.0842022e-19
2.3545785 3.6893488e+19 -1.5713614
-0 3.1109469 -1.0842022e-19
2.1403718 -1.0842022e-19 -1.6772083
-2 3.1201379 -2
2.359226 -0 -1.757921
1.0842022e-19 3.1067414 3.6893488e+19
2.1358235 2 -1.7923515
3.6893488e+19 3.1197591 2
2.3588583 -2 -1.8408836
0 3.1142399 1.0842022e-19
2.1439333 -1.0842022e-19 -1.8761631
0 3.1229599 2
2.3619647 -2 -1.9008039
0 3.1325331 0
2.1637177 0 -1.9252949
-1.0842022e-19 3.1279085 -3.6893488e+19
2.3667674 2 -1.9452957
2 3.1355946 1.0842022e-19
2.1670289 1.0842022e-19 -1.9698529
0 3.0445828 -1.0842022e-19
2.2858982 0 -1.9353777
0 3.0358698 2
2.0591743 -1.0842022e-19 -1.9449968
2 3.0309839 2
2.2727003 3.6893488e+19 -1.9584442
-2 2.8814335 -2
2.2151434 -2 -1.9028599
-1.0842022e-19 2.8234205 2
2.0044699 1.0842022e-19 -1.8878342
0 2.7848129 -2
2.0973182 3.6893488e+19 -1.8802499
3.6893488e+19 2.7571692 -2
1.9523427 -2 -1.8731163
1.0842022e-19 2.7048194 3.6893488e+19
2.0273173 3.6893488e+19 -1.8587495
3.6893488e+19 2.6658068 -3.6893488e+19
1.9135799 -1.0842022e-19 -1.8489773
3.6893488e+19 2.6133897 1.0842022e-19
1.9715699 3.6893488e+19 -1.8323503
-2 2.5982375 1.0842022e-19
1.8869981 -0 -1.8321942
0 2.5682333 -2
1.9440365 3.6893488e+19 -1.8246366
1.0842022e-19 2.5540318 0
1.8642147 -1.0842022e-19 -1.8230307
3.6893488e+19 2.5323448 3.6893488e+19
1.9221543 -1.0842022e-19 -1.8181537
-0 2.5210137 -1.0842022e-19
1.8382357 -0 -1.8168216
0 2.5047297 -0
1.9053165 1.0842022e-19 -1.813745
-0 2.4881823 2
1.8170528 -0 -1.8115577
-1.0842022e-19 2.4680476 3.6893488e+19
1.8926915 -2 -1.8117254
-3.6893488e+19 2.4519575 -1.0842022e-19
1.8028018 -3.6893488e+19 -1.8105022
3.6893488e+19 2.4017839 -3.6893488e+19
1.7172689 -1.0842022e-19 -1.8065301
2 2.3496444 -2
1.6890739 -0 -1.8027973
-0 2.3089802 0
1.6670845 -3.6893488e+19 -1.7997
-3.6893488e+19 2.2696457 -3.6893488e+19
1.6458138 3.6893488e+19 -1.7928632
-3.6893488e+19 2.2334332 -1.0842022e-19
1.772382 3.6893488e+19 -1.790864
-3.6893488e+19 2.1870329 -2
1.7582362 -0 -1.7876568
1.0842022e-19 2.1562946 3.6893488e+19
1.7477303 -2 -1.7880956
0 2.1193559 -0
1.7252076 2 -1.7841268
1.0842022e-19 3.2753868 1.0842022e-19
2.5114083 -2 2.7549126
-1.0842022e-19 3.2748821 1.0842022e-19
2.5109293 3.6893488e+19 2.742666
-0 3.221725 0
2.4477806 0 2.6588502
3.6893488e+19 3.2180157 -1.0842022e-19
2.4442594 -0 2.6419039
3.6893488e+19 3.2212687 1.0842022e-19
2.4473474 3.6893488e+19 2.6308439
-0 3.2019978 0
2.2197993 -3.6893488e+19 2.6069264
1.0842022e-19 3.238781 3.6893488e+19
2.2540154 -1.0842022e-19 2.6076725
1.0842022e-19 3.2280941 -2
2.3660448 3.6893488e+19 2.5799918
2 3.2266905 -0
2.3649702 -1.0842022e-19 2.5652909
2 3.2253821 -2
2.3639684 3.6893488e+19 2.5507653
1.0842022e-19 3.2217808 2
2.532598 -3.6893488e+19 2.543628
-1.0842022e-19 3.2202265 -1.0842022e-19
2.531667 -3.6893488e+19 2.5291042
-1.0842022e-19 3.220788 2
2.5320034 1.0842022e-19 2.5158901
1.0842022e-19 3.2070804 -3.6893488e+19
2.5237923 1.0842022e-19 2.4900467
-2 3.2045476 1.0842022e-19
2.5222754 3.6893488e+19 2.4612701
-2 3.1211829 -2
2.1358016 -1.0842022e-19 2.3522534
-1.0842022e-19 3.215343 -3.6893488e+19
2.4417224 1.0842022e-19 2.4305258
-3.6893488e+19 3.2250273 -1.0842022e-19
2.2437358 0 2.4239018
-2 3.2141306 1.0842022e-19
2.4405718 -1.0842022e-19 2.403018
-1.0842022e-19 3.2277417 -2
2.246557 2 2.3993118
3.6893488e+19 3.2109792 -2
2.4375801 -1.0842022e-19 2.3741088
-0 3.235961 -1.0842022e-19
2.2525499 1.0842022e-19 2.3787501
1.0842022e-19 3.2103031 -0
2.4369383 0 2.3474677
-0 3.2234204 -3.6893488e+19
2.2420654 2 2.3422835
3.6893488e+19 3.206728 -2
2.4335446 -2 2.3189077
0 3.2232094 -0
2.2418461 0 2.3154888
3.6893488e+19 3.2239075 2
2.2425718 2 2.2892985
0 3.2236085 -1.0842022e-19
2.4495683 -2 2.2771604
3.6893488e+19 3.2234631 -3.6893488e+19
2.2421098 -1.0842022e-19 2.26243
-2 3.2223194 -2
2.4483447 -1.0842022e-19 2.2495024
-0 3.2121332 -2
2.526819 0 2.2145734
2 3.200042 1.0842022e-19
2.3445673 2 2.1741712
-0 3.213649 2
2.5277271 2 2.1636314
-3.6893488e+19 3.2004013 3.6893488e+19
2.3448424 3.6893488e+19 2.1238852
-1.0842022e-19 3.1210527 -3.6893488e+19
2.4445233 3.6893488e+19 2.0390606
-3.6893488e+19 3.2008944 -2
2.3452199 -0 2.0736606
2 3.2234404 0
2.5335922 -3.6893488e+19 2.0653162
-2 3.2037904 -3.6893488e+19
2.3474371 3.6893488e+19 2.0248022
1.0842022e-19 3.2137735 -2
2.5278015 2 2.0065038
1.0842022e-19 3.1851184 0
2.3331413 3.6893488e+19 1.9646888
1.0842022e-19 3.2108142 -3.6893488e+19
2.5260289 0 1.9528418
-3.6893488e+19 3.1869423 -1.0842022e-19
2.3345377 -1.0842022e-19 1.9165894
2 3.2099326 -3.6893488e+19
2.5255008 -3.6893488e+19 1.9005575
1.0842022e-19 3.1814055 -2
2.3302984 3.6893488e+19 1.8572508
3.6893488e+19 3.1201212 -3.6893488e+19
2.4434073 2 1.7837989
-0 3.1819742 1.0842022e-19
2.330734 -0 1.7607272
-0 3.1107948 -0
2.1250043 -3.6893488e+19 1.6455181
3.6893488e+19 3.1165521 3.6893488e+19
2.3479462 -0 1.507392
0 3.1092739 -2
2.1234233 -0 -1.2509259
-1.0842022e-19 3.1601193 1.0842022e-19
2.389302 2 -1.5953543
1.0842022e-19 3.110199 -1.0842022e-19
2.1243849 1.0842022e-19 -1.6768104
1.0842022e-19 3.1601286 -1.0842022e-19
2.3893106 3.6893488e+19 -1.7722358
1.0842022e-19 3.1387639 2
2.1540749 -3.6893488e+19 -1.8073418
-3.6893488e+19 3.1258326 0
2.3567557 2 -1.8443607
-2 3.1378417 -0
2.1531165 -0 -1.8843149
0 3.1240699 3.6893488e+19
2.3550823 -2 -1.9012052
3.6893488e+19 3.1319449 1.0842022e-19
2.1469874 1.0842022e-19 -1.9249949
1.0842022e-19 3.1306019 -3.6893488e+19
2.3612826 -2 -1.9466256
2 3.1338229 2
2.1489394 2 -1.9688047
1.0842022e-19 3.0971422 3.6893488e+19
2.3295214 1.0842022e-19 -1.968384
3.6893488e+19 3.0368853 3.6893488e+19
2.0481839 2 -1.9456556
-1.0842022e-19 3.0317543 0
2.2674527 1.0842022e-19 -1.95895
-2 2.8825107 -2
2.20825 -1.0842022e-19 -1.9032309
-3.6893488e+19 2.8246832 -2
1.9985884 2 -1.8883371
-3.6893488e+19 2.7870238 2
2.0938563 -0 -1.881209
-1.0842022e-19 2.7581041 3.6893488e+19
1.9476132 -1.0842022e-19 -1.8739549
-1.0842022e-19 2.7048762 3.6893488e+19
2.0224721 -2 -1.8586861
0 2.6659126 2
1.9092183 -1.0842022e-19 -1.8489773
0 2.6139038 -3.6893488e+19
1.9679793 3.6893488e+19 -1.8325613
0 2.599319 1.0842022e-19
1.8837252 0 -1.8327848
1.0842022e-19 2.5678663 0
1.9404029 0 -1.8243275
1.0842022e-19 2.5543573 3.6893488e+19
1.8580261 -2 -1.8231922
2 2.5318408 1.0842022e-19
1.9188235 3.6893488e+19 -1.8177326
-2 2.5209587 3.6893488e+19
1.8324552 -2 -1.8167338
3.6893488e+19 2.5048306 3.6893488e+19
1.9026443 1.0842022e-19 -1.813745
-1.0842022e-19 2.4885542 -2
1.8120267 -0 -1.8116523
-0 2.4679871 1.0842022e-19
1.8901628 -1.0842022e-19 -1.8116273
-2 2.453558 2
1.7986296 1.0842022e-19 -1.8111118
-3.6893488e+19 3.2498124 -1.0842022e-19
2.4744422 3.6893488e+19 2.7126532
-1.0842022e-19 3.2748821 1.0842022e-19
2.5109293 3.6893488e+19 2.742666
-0 3.221725 0
2.4477806 0 2.6588502
3.6893488e+19 3.2180157 -1.0842022e-19
2.4442594 -0 2.6419039
3.6893488e+19 3.2212687 1.0842022e-19
2.4473474 3.6893488e+19 2.6308439
-0 3.2019978 0
2.2197993 -3.6893488e+19 2.6069264
-2 3.2025816 -3.6893488e+19
2.2204061 -0 2.5811832
1.0842022e-19 3.2280941 -2
2.3660448 3.6893488e+19 2.5799918
-2 3.1976838 -1.0842022e-19
2.3427618 0 2.5461056
0 3.1985862 0
2.3434527 1.0842022e-19 2.533812
1.0842022e-19 3.2217808 2
2.532598 -3.6893488e+19 2.543628
-1.0842022e-19 3.2202265 -1.0842022e-19
2.531667 -3.6893488e+19 2.5291042
-1.0842022e-19 3.220788 2
2.5320034 1.0842022e-19 2.5158901
1.0842022e-19 3.2070804 -3.6893488e+19
2.5237923 1.0842022e-19 2.4900467
-2 3.2045476 1.0842022e-19
2.5222754 3.6893488e+19 2.4612701
-2 3.1211829 -2
2.1358016 -1.0842022e-19 2.3522534
-1.0842022e-19 3.215343 -3.6893488e+19
2.4417224 1.0842022e-19 2.4305258
-1.0842022e-19 3.1219761 -1.0842022e-19
2.136626 1.0842022e-19 2.3319416
-2 3.2141306 1.0842022e-19
2.4405718 -1.0842022e-19 2.403018
-0 3.1215734 -3.6893488e+19
2.1362073 -1.0842022e-19 2.3105729
-3.6893488e+19 3.1449661 3.6893488e+19
2.374918 2 2.3205359
2 3.1193204 -0
2.1338656 2 2.2878423
1.0842022e-19 3.1448324 1.0842022e-19
2.3747909 -0 2.2980459
2 3.1249659 0
2.1397336 1.0842022e-19 2.2711008
0 3.1312611 3.6893488e+19
2.3619084 -0 2.2662134
-3.6893488e+19 3.1239493 -2
2.1386769 3.6893488e+19 2.2486243
-1.0842022e-19 3.1250899 0
2.1398625 0 2.2079501
3.6893488e+19 3.1312513 -3.6893488e+19
2.3618991 -0 2.1962245
1.0842022e-19 3.1188402 1.0842022e-19
2.1333666 -0 2.1588798
-0 3.125273 -1.0842022e-19
2.3562243 1.0842022e-19 2.1468709
1.0842022e-19 3.1428225 -3.6893488e+19
2.4706035 -2 2.1448965
-3.6893488e+19 3.1173437 3.6893488e+19
2.2812507 3.6893488e+19 2.0962269
3.6893488e+19 3.145606 -3.6893488e+19
2.4739382 -3.6893488e+19 2.1029286
-3.6893488e+19 3.2004013 3.6893488e+19
2.3448424 3.6893488e+19 2.1238852
-1.0842022e-19 3.1210527 -3.6893488e+19
2.4445233 3.6893488e+19 2.0390606
3.6893488e+19 3.1204364 -2
2.2836185 2 2.0159063
-1.0842022e-19 3.1183274 3.6893488e+19
2.4412584 1.0842022e-19 1.9953101
2 3.1225634 -3.6893488e+19
2.2852468 1.0842022e-19 1.9756135
2 3.1176829 -2
2.4404862 -1.0842022e-19 1.9533581
0 3.1289952 3.6893488e+19
2.2901714 1.0842022e-19 1.9369974
-3.6893488e+19 3.1177924 3.6893488e+19
2.4406176 -2 1.9118953
-3.6893488e+19 3.1869423 -1.0842022e-19
2.3345377 -1.0842022e-19 1.9165894
-0 3.1181931 -2
2.4410975 -1.0842022e-19 1.8660539
-3.6893488e+19 3.128094 -2
2.2894814 -3.6893488e+19 1.8285501
3.6893488e+19 3.1201212 -3.6893488e+19
2.4434073 2 1.7837989
-1.0842022e-19 3.1233075 -3.6893488e+19
2.2858167 3.6893488e+19 1.734588
-0 3.1107948 -0
2.1250043 -3.6893488e+19 1.6455181
3.6893488e+19 3.1165521 3.6893488e+19
2.3479462 -0 1.507392
0 3.1092739 -2
2.1234233 -0 -1.2509259
-1.0842022e-19 3.117233 -1.0842022e-19
2.3485925 -2 -1.5723118
1.0842022e-19 3.110199 -1.0842022e-19
2.1243849 1.0842022e-19 -1.6768104
3.6893488e+19 3.1198511 -3.6893488e+19
2.3510776 -2 -1.7577761
-2 3.1101708 -1.0842022e-19
2.1243558 -2 -1.7939309
-3.6893488e+19 3.1258326 0
2.3567557 2 -1.8443607
3.6893488e+19 3.1082237 -1.0842022e-19
2.1223319 3.6893488e+19 -1.8731155
0 3.1240699 3.6893488e+19
2.3550823 -2 -1.9012052
1.0842022e-19 3.1120887 -3.6893488e+19
2.126349 -1.0842022e-19 -1.9158974
-1.0842022e-19 3.0977554 3.6893488e+19
2.3301036 -0 -1.9296566
2 3.1338229 2
2.1489394 2 -1.9688047
-3.6893488e+19 3.0436831 -1.0842022e-19
2.2787759 -1.0842022e-19 -1.9347534
3.6893488e+19 3.0368853 3.6893488e+19
2.0481839 2 -1.9456556
-1.0842022e-19 3.0317543 0
2.2674527 1.0842022e-19 -1.95895
-2 2.8825107 -2
2.20825 -1.0842022e-19 -1.9032309
-3.6893488e+19 2.8246832 -2
1.9985884 2 -1.8883371
-3.6893488e+19 2.7870238 2
2.0938563 -0 -1.881209
-1.0842022e-19 2.7581041 3.6893488e+19
1.9476132 -1.0842022e-19 -1.8739549
-1.0842022e-19 2.7048762 3.6893488e+19
2.0224721 -2 -1.8586861
0 2.6659126 2
1.9092183 -1.0842022e-19 -1.8489773
0 2.6139038 -3.6893488e+19
1.9679793 3.6893488e+19 -1.8325613
0 2.599319 1.0842022e-19
1.8837252 0 -1.8327848
1.0842022e-19 2.5678663 0
1.9404029 0 -1.8243275
1.0842022e-19 2.5543573 3.6893488e+19
1.8580261 -2 -1.8231922
2 2.5318408 1.0842022e-19
1.9188235 3.6893488e+19 -1.8177326
-2 2.5209587 3.6893488e+19
1.8324552 -2 -1.8167338
3.6893488e+19 2.5048306 3.6893488e+19
1.9026443 1.0842022e-19 -1.813745
-1.0842022e-19 2.4885542 -2
1.8120267 -0 -1.8116523
-0 2.4679871 1.0842022e-19
1.8901628 -1.0842022e-19 -1.8116273
-2 2.453558 2
1.7986296 1.0842022e-19 -1.8111118
2 3.2748573 1.0842022e-19
2.2741044 3.6893488e+19 2.7571857
2 3.2492704 -1.0842022e-19
2.4633105 -0 2.7120092
-3.6893488e+19 3.2578511 2
2.2571449 2 2.7173789
-0 3.1927691 1.0842022e-19
2.1915562 -0 2.6382957
-2 3.196485 -1.0842022e-19
2.195262 -1.0842022e-19 2.628504
-0 3.23785 1.0842022e-19
2.2365136 -0 2.6069317
0 3.3094199 -3.6893488e+19
2.614053 -3.6893488e+19 2.6707933
1.0842022e-19 3.2268085 -3.6893488e+19
2.3549695 -1.0842022e-19 2.5652909
-2 3.2173562 -2
2.5249379 -2 2.5542612
1.0842022e-19 3.2238708 -0
2.3527825 -1.0842022e-19 2.5497348
-2 3.2209253 3.6893488e+19
2.5270376 -3.6893488e+19 2.5429816
2 3.2220409 -2
2.3514202 -3.6893488e+19 2.5350435
-2 3.2205625 0
2.5268242 -0 2.5291951
2 3.221446 3.6893488e+19
2.3509774 -0 2.5211959
-0 3.2172356 0
2.5248671 2 2.5137811
-1.0842022e-19 3.2190685 -2
2.3492074 2 2.5064373
1.0842022e-19 3.20451 1.0842022e-19
2.5173807 -2 2.4610522
1.0842022e-19 3.2422884 -2
2.2409396 -1.0842022e-19 2.4671047
1.0842022e-19 3.2139752 0
2.4305575 1.0842022e-19 2.4291282
-1.0842022e-19 3.2258506 1.0842022e-19
2.2245471 1.0842022e-19 2.4245656
-0 3.2139957 2
2.4305766 2 2.402777
1.0842022e-19 3.2234476 2
2.2221506 -2 2.3956563
-2 3.2107503 -3.6893488e+19
2.4275649 -0 2.3738081
-2 3.2374389 0
2.2361038 0 2.3798387
-0 3.2234373 -1.0842022e-19
2.2221403 -3.6893488e+19 2.3422384
-3.6893488e+19 3.2085693 -3.6893488e+19
2.4255409 -1.0842022e-19 2.3200951
3.6893488e+19 3.1221468 3.6893488e+19
2.1211274 1.0842022e-19 2.2461381
-0 3.22352 -2
2.2222228 0 2.2890139
-2 3.1345575 2
2.3568599 2 2.1999557
3.6893488e+19 3.2234488 3.6893488e+19
2.2221518 -1.0842022e-19 2.2623782
-1.0842022e-19 3.2211637 -3.6893488e+19
2.4372282 -2 2.248127
3.6893488e+19 3.2121279 1.0842022e-19
2.5218623 -2 2.2143872
-1.0842022e-19 3.1186771 2
2.2744691 -3.6893488e+19 2.0973976
3.6893488e+19 3.2146013 0
2.5233173 0 2.1643198
-1.0842022e-19 3.2139058 0
2.3453641 -3.6893488e+19 2.135
3.6893488e+19 3.2143672 2
2.5231795 -3.6893488e+19 2.1116142
2 3.2048917 -2
2.3386531 1.0842022e-19 2.0764492
-0 3.2233157 3.6893488e+19
2.5284438 2 2.0651107
3.6893488e+19 3.2024415 0
2.3368292 -0 2.0239174
-1.0842022e-19 3.2146337 1.0842022e-19
2.5233364 -1.0842022e-19 2.0068796
-1.0842022e-19 3.1868744 -0
2.3252399 2 1.9655019
2 3.211519 -1.0842022e-19
2.5215039 2 1.9530729
1.0842022e-19 3.1863663 -1.0842022e-19
2.3248615 -0 1.9163285
0 3.2071133 -0
2.5189121 -0 1.8995764
2 3.1822278 2
2.3217807 0 1.857636
3.6893488e+19 3.1171429 -1.0842022e-19
2.4319682 -3.6893488e+19 1.7824597
-2 3.1797786 -1.0842022e-19
2.3199573 3.6893488e+19 1.7600039
-2 3.1315331 -3.6893488e+19
2.1304879 -2 1.6538568
3.6893488e+19 3.1208556 1.0842022e-19
2.3441448 -0 1.5089052
1.0842022e-19 3.1087101 -0
2.1077273 -2 -1.2507073
-1.0842022e-19 3.1595626 2
2.380064 1.0842022e-19 -1.5949875
3.6893488e+19 3.1108828 -3.6893488e+19
2.109894 1.0842022e-19 -1.6771165
-2 3.1606271 -2
2.3810518 -2 -1.7723694
3.6893488e+19 3.1260736 3.6893488e+19
2.1250434 1.0842022e-19 -1.8013604
1.0842022e-19 3.1270347 2
2.3498788 1.0842022e-19 -1.8449945
1.0842022e-19 3.1379378 -2
2.1368749 1.0842022e-19 -1.8843257
-3.6893488e+19 3.1277225 1.0842022e-19
2.3505173 -2 -1.9026347
3.6893488e+19 3.1355004 0
2.1344445 2 -1.9265945
3.6893488e+19 3.127244 2
2.3500731 1.0842022e-19 -1.944831
-2 3.1349778 2
2.1339233 3.6893488e+19 -1.9694265
3.6893488e+19 3.0417264 -1.0842022e-19
2.2707148 -0 -1.933466
2 3.0347519 3.6893488e+19
2.0339718 1.0842022e-19 -1.9441682
1.0842022e-19 3.0338256 2
2.2633832 -0 -1.9604213
-0 2.8880327 1.0842022e-19
2.2065465 2 -1.9053825
2 2.8252609 -0
1.992147 -1.0842022e-19 -1.8885489
2 2.7850983 2
2.0854373 0 -1.8802781
1.0842022e-19 2.7556212 -2
1.9403023 2 -1.8714989
-0 2.7027082 -2
2.0163207 -3.6893488e+19 -1.8574818
-0 2.6645253 -0
1.9043008 3.6893488e+19 -1.848175
3.6893488e+19 2.6141686 0
1.9642345 3.6893488e+19 -1.8326316
-0 2.5995295 0
1.8801072 2 -1.8328586
-2 2.5709491 0
1.9388092 2 -1.8261824
3.6893488e+19 2.5530679 1.0842022e-19
1.850625 2 -1.8223039
3.6893488e+19 2.5328131 0
1.9163743 -2 -1.8183222
1.0842022e-19 2.5211499 3.6893488e+19
1.8268629 -0 -1.8168216
-1.0842022e-19 2.5056686 -2
1.9004056 3.6893488e+19 -1.8142921
3.6893488e+19 2.4884274 2
1.8068098 -0 -1.8115577
3.6893488e+19 2.4669385 -3.6893488e+19
1.887346 1.0842022e-19 -1.8111367
-0 2.4551561 -1.0842022e-19
1.794425 1.0842022e-19 -1.8117213
-1.0842022e-19 2.4021688 -2
1.7005335 0 -1.8066422
-3.6893488e+19 2.3475356 -1.0842022e-19
1.6732918 -1.0842022e-19 -1.8016648
0 2.3098269 1.0842022e-19
1.654489 2 -1.800119
-2 2.2689979 0
1.6341306 -3.6893488e+19 -1.7924029
-0 2.2382026 -3.6893488e+19
1.7686007 -1.0842022e-19 -1.7923688
3.6893488e+19 2.192728 1.0842022e-19
1.7552248 -3.6893488e+19 -1.789647
-0 2.155158 -3.6893488e+19
1.7383478 -2 -1.7875117
0 2.1240005 -3.6893488e+19
1.7200183 0 -1.7860013
2 3.2748573 1.0842022e-19
2.2741044 3.6893488e+19 2.7571857
2 3.2492704 -1.0842022e-19
2.4633105 -0 2.7120092
-3.6893488e+19 3.2578511 2
2.2571449 2 2.7173789
-0 3.1927691 1.0842022e-19
2.1915562 -0 2.6382957
-2 3.196485 -1.0842022e-19
2.195262 -1.0842022e-19 2.628504
3.6893488e+19 3.2064619 -1.0842022e-19
2.2052114 -3.6893488e+19 2.5839667
0 3.3094199 -3.6893488e+19
2.614053 -3.6893488e+19 2.6707933
-0 3.1971192 2
2.3328669 -1.0842022e-19 2.5456588
-2 3.2173562 -2
2.5249379 -2 2.5542612
2 3.198482 -0
2.3338814 3.6893488e+19 2.5336759
-2 3.2209253 3.6893488e+19
2.5270376 -3.6893488e+19 2.5429816
2 3.2220409 -2
2.3514202 -3.6893488e+19 2.5350435
-2 3.2205625 0
2.5268242 -0 2.5291951
0 3.1987762 0
2.3341005 0 2.5081553
-0 3.2172356 0
2.5248671 2 2.5137811
-1.0842022e-19 3.2190685 -2
2.3492074 2 2.5064373
1.0842022e-19 3.20451 1.0842022e-19
2.5173807 -2 2.4610522
0 3.2040055 -0
2.2027617 -1.0842022e-19 2.4307802
1.0842022e-19 3.2139752 0
2.4305575 1.0842022e-19 2.4291282
1.0842022e-19 3.2084298 -2
2.2071738 -1.0842022e-19 2.4090221
-0 3.2139957 2
2.4305766 2 2.402777
-2 3.1200843 -0
2.1190705 -3.6893488e+19 2.3092766
-2 3.2107503 -3.6893488e+19
2.4275649 -0 2.3738081
-3.6893488e+19 3.123045 -1.0842022e-19
2.1220231 -3.6893488e+19 2.2906966
2 3.1220775 0
2.1210582 -1.0842022e-19 2.2689674
1.0842022e-19 3.1321206 -3.6893488e+19
2.3545983 -0 2.2667315
3.6893488e+19 3.1221468 3.6893488e+19
2.1211274 1.0842022e-19 2.2461381
2 3.1195858 -1.0842022e-19
2.1185732 0 2.2011547
-2 3.1345575 2
2.3568599 2 2.1999557
-0 3.1197107 -0
2.1186979 3.6893488e+19 2.1597764
-1.0842022e-19 3.1304684 3.6893488e+19
2.3530653 3.6893488e+19 2.1522415
1.0842022e-19 3.1426668 -2
2.4619987 1.0842022e-19 2.1445866
-1.0842022e-19 3.1186771 2
2.2744691 -3.6893488e+19 2.0973976
2 3.1401725 -1.0842022e-19
2.459064 2 2.0979459
-1.0842022e-19 3.2139058 0
2.3453641 -3.6893488e+19 2.135
-3.6893488e+19 3.122803 -3.6893488e+19
2.4386277 -0 2.0403111
1.0842022e-19 3.1209633 -1.0842022e-19
2.276171 2 2.0162187
-2 3.1183472 -3.6893488e+19
2.4333851 0 1.9952278
2 3.1233397 -3.6893488e+19
2.27794 2 1.9760276
2 3.1183205 -0
2.4333537 -1.0842022e-19 1.9536314
-1.0842022e-19 3.1868744 -0
2.3252399 2 1.9655019
-1.0842022e-19 3.1169157 -1.0842022e-19
2.4317009 2 1.9114466
1.0842022e-19 3.1863663 -1.0842022e-19
2.3248615 -0 1.9163285
-3.6893488e+19 3.1173472 -0
2.4322088 3.6893488e+19 1.8654066
-3.6893488e+19 3.1387031 2
2.2893779 3.6893488e+19 1.8342099
3.6893488e+19 3.1171429 -1.0842022e-19
2.4319682 -3.6893488e+19 1.7824597
-1.0842022e-19 3.1210663 -1.0842022e-19
2.2762477 2 1.733122
-3.6893488e+19 3.1044612 0
2.1034904 2 1.6429398
3.6893488e+19 3.1208556 1.0842022e-19
2.3441448 -0 1.5089052
1.0842022e-19 3.1087101 -0
2.1077273 -2 -1.2507073
-1.0842022e-19 3.1595626 2
2.380064 1.0842022e-19 -1.5949875
3.6893488e+19 3.1108828 -3.6893488e+19
2.109894 1.0842022e-19 -1.6771165
-2 3.1208029 3.6893488e+19
2.3440959 -2 -1.7580769
2 3.109046 -3.6893488e+19
2.1080623 -3.6893488e+19 -1.7933751
1.0842022e-19 3.1270347 2
2.3498788 1.0842022e-19 -1.8449945
0 3.1110899 1.0842022e-19
2.1101007 -1.0842022e-19 -1.8750294
3.6893488e+19 3.1034865 1.0842022e-19
2.3280268 0 -1.8928412
1.0842022e-19 3.1146121 -1.0842022e-19
2.1136131 2 -1.9170257
3.6893488e+19 3.1030438 0
2.327616 -3.6893488e+19 -1.9323325
-2 3.1349778 2
2.1339233 3.6893488e+19 -1.9694265
3.6893488e+19 3.0417264 -1.0842022e-19
2.2707148 -0 -1.933466
2 3.0347519 3.6893488e+19
2.0339718 1.0842022e-19 -1.9441682
1.0842022e-19 3.0338256 2
2.2633832 -0 -1.9604213
-0 2.8880327 1.0842022e-19
2.2065465 2 -1.9053825
2 2.8252609 -0
1.992147 -1.0842022e-19 -1.8885489
2 2.7850983 2
2.0854373 0 -1.8802781
1.0842022e-19 2.7556212 -2
1.9403023 2 -1.8714989
-0 2.7027082 -2
2.0163207 -3.6893488e+19 -1.8574818
-0 2.6645253 -0
1.9043008 3.6893488e+19 -1.848175
3.6893488e+19 2.6141686 0
1.9642345 3.6893488e+19 -1.8326316
-0 2.5995295 0
1.8801072 2 -1.8328586
-2 2.5709491 0
1.9388092 2 -1.8261824
3.6893488e+19 2.5530679 1.0842022e-19
1.850625 2 -1.8223039
3.6893488e+19 2.5328131 0
1.9163743 -2 -1.8183222
1.0842022e-19 2.5211499 3.6893488e+19
1.8268629 -0 -1.8168216
-1.0842022e-19 2.5056686 -2
1.9004056 3.6893488e+19 -1.8142921
3.6893488e+19 2.4884274 2
1.8068098 -0 -1.8115577
3.6893488e+19 2.4669385 -3.6893488e+19
1.887346 1.0842022e-19 -1.8111367
-0 2.4551561 -1.0842022e-19
1.794425 1.0842022e-19 -1.8117213
-1.0842022e-19 2.4021688 -2
1.7005335 0 -1.8066422
-3.6893488e+19 2.3475356 -1.0842022e-19
1.6732918 -1.0842022e-19 -1.8016648
0 2.3098269 1.0842022e-19
1.654489 2 -1.800119
-2 2.2689979 0
1.6341306 -3.6893488e+19 -1.7924029
-0 2.2382026 -3.6893488e+19
1.7686007 -1.0842022e-19 -1.7923688
3.6893488e+19 2.192728 1.0842022e-19
1.7552248 -3.6893488e+19 -1.789647
-0 2.155158 -3.6893488e+19
1.7383478 -2 -1.7875117
0 2.1240005 -3.6893488e+19
1.7200183 0 -1.7860013
-2 3.2740657 2
2.2617803 2 2.7564042
2 3.2510569 1.0842022e-19
2.4552836 1.0842022e-19 2.7145009
1.0842022e-19 3.2578621 3.6893488e+19
2.2426057 -3.6893488e+19 2.7173235
1.0842022e-19 3.2585824 -1.0842022e-19
2.2439816 1.0842022e-19 2.7034659
-1.0842022e-19 3.1942065 -0
2.174294 1.0842022e-19 2.6265123
-1.0842022e-19 3.1981211 -0
2.1780331 -2 2.61677
-2 3.2307653 -0
2.4359262 3.6893488e+19 2.6102893
0 3.2359948 -3.6893488e+19
2.2142088 -1.0842022e-19 2.6055174
-0 3.3092482 -0
2.6072299 -2 2.6703994
-2 3.1987314 -0
2.32458 1.0842022e-19 2.5466537
3.6893488e+19 3.2170463 3.6893488e+19
2.5197556 1.0842022e-19 2.5539434
-2 3.224046 3.6893488e+19
2.3428907 -1.0842022e-19 2.5497737
-0 3.2189043 -0
2.5208287 -1.0842022e-19 2.5416129
0 3.2224622 -2
2.3417449 2 2.5352294
-0 3.2175903 -0
2.5200698 -1.0842022e-19 2.5273256
2 3.22082 -1.0842022e-19
2.3405571 -3.6893488e+19 2.5207705
2 3.2173529 1.0842022e-19
2.5199327 2 2.5137465
2 3.2204766 0
2.3403089 -0 2.5071452
-3.6893488e+19 3.2145836 -3.6893488e+19
2.3360462 1.0842022e-19 2.4813743
0 3.2044995 1.0842022e-19
2.5125089 -0 2.4608655
1.0842022e-19 3.2186975 3.6893488e+19
2.3390219 2 2.4589808
2 3.2260106 3.6893488e+19
2.2046723 -0 2.4515874
-1.0842022e-19 3.1930759 0
2.401752 -2 2.4096754
-0 3.2263918 0
2.2050366 1.0842022e-19 2.4249804
-3.6893488e+19 3.2143512 -2
2.4210429 -2 2.4029644
-1.0842022e-19 3.2237403 -0
2.2025039 -3.6893488e+19 2.3958378
2 3.2112906 3.6893488e+19
2.4182677 -2 2.3741338
1.0842022e-19 3.2382622 -2
2.2163746 1.0842022e-19 2.3804193
-1.0842022e-19 3.2112322 -1.0842022e-19
2.4182148 3.6893488e+19 2.3479574
1.0842022e-19 3.2242277 3.6893488e+19
2.2029693 0 2.3427551
3.6893488e+19 3.2101612 2
2.4172437 2 2.3211098
-2 3.233747 2
2.2120621 2 2.3224089
1.0842022e-19 3.1318071 1.0842022e-19
2.3461974 -3.6893488e+19 2.2397144
2 3.2246845 -2
2.2034056 -0 2.2896781
1.0842022e-19 3.2088454 -2
2.4160504 2 2.2683578
0 3.2258275 -0
2.2044973 -2 2.2636542
1.0842022e-19 3.2156353 -2
2.4222071 0 2.2421343
3.6893488e+19 3.2109153 0
2.5162146 0 2.212992
-3.6893488e+19 3.2155788 1.0842022e-19
2.3367662 1.0842022e-19 2.188601
-1.0842022e-19 3.2149949 0
2.5185709 2 2.1645124
1.0842022e-19 3.2138309 -3.6893488e+19
2.3355017 -2 2.1348453
1.0842022e-19 3.2212794 1.0842022e-19
2.5222006 -2 2.1168568
-2 3.1966372 -2
2.323065 1.0842022e-19 2.0704484
-0 3.2216733 -0
2.522428 -3.6893488e+19 2.0638971
-1.0842022e-19 3.2136984 1.0842022e-19
2.517822 1.0842022e-19 2.0062647
0 3.1893127 -3.6893488e+19
2.3177669 2 1.9666525
1.0842022e-19 3.210304 -3.6893488e+19
2.5158613 -3.6893488e+19 1.9524609
0 3.1849155 -1.0842022e-19
2.3145864 3.6893488e+19 1.9157357
-1.0842022e-19 3.1185081 2
2.4256845 3.6893488e+19 1.8660742
-2 3.1810558 1.0842022e-19
2.3117948 -3.6893488e+19 1.8569493
3.6893488e+19 3.1157987 -3.6893488e+19
2.4225545 3.6893488e+19 1.7818234
0 3.1057658 3.6893488e+19
2.0898178 -0 1.6434429
-3.6893488e+19 3.1408396 -0
2.3543875 3.6893488e+19 1.5160785
-2 3.1054606 -0
2.0895264 -0 -1.2490975
-0 3.140372 0
2.3539636 -1.0842022e-19 -1.5846167
-3.6893488e+19 3.1025493 0
2.0867457 -1.0842022e-19 -1.6729989
3.6893488e+19 3.1179647 3.6893488e+19
2.3336461 2 -1.7570187
2 3.1304693 0
2.113414 -3.6893488e+19 -1.8033931
-1.0842022e-19 3.1246021 1.0842022e-19
2.3396645 2 -1.8435096
-1.0842022e-19 3.112551 2
2.0962989 3.6893488e+19 -1.8755153
3.6893488e+19 3.1278982 -0
2.342653 0 -1.9026599
-2 3.1136413 3.6893488e+19
2.0973403 -2 -1.9165543
-2 3.1296539 0
2.3442452 0 -1.9460168
-1.0842022e-19 3.1312664 1.0842022e-19
2.3457072 -0 -1.9897054
2 3.0343611 0
2.0216141 -2 -1.9438707
-0 3.0303748 -0
2.2542253 -2 -1.9578005
-0 2.8846593 -3.6893488e+19
2.1943414 2 -1.9039729
0 2.8268931 -3.6893488e+19
1.9864508 0 -1.8892107
-1.0842022e-19 2.7858248 3.6893488e+19
2.0801723 -1.0842022e-19 -1.8805602
-2 2.7558689 3.6893488e+19
1.9350772 -1.0842022e-19 -1.8716786
3.6893488e+19 2.7051036 -3.6893488e+19
2.0128577 0 -1.8586228
-2 2.6626375 -1.0842022e-19
1.8992361 -3.6893488e+19 -1.8471053
3.6893488e+19 2.6151717 -1.0842022e-19
1.9609151 -0 -1.8331239
0 2.5994895 0
1.8763977 0 -1.8327848
-3.6893488e+19 2.5699615 -2
1.9348028 0 -1.8254868
3.6893488e+19 2.5532649 0
1.84436 -1.0842022e-19 -1.8223846
-2 2.5331676 2
1.9135514 0 -1.8184907
-2 2.5213389 2
1.8212671 3.6893488e+19 -1.8169093
2 2.5052736 0
1.8974404 -2 -1.8139273
-3.6893488e+19 2.4885447 3.6893488e+19
1.801689 -0 -1.8115577
-0 2.4671168 -0
1.8848982 1.0842022e-19 -1.8111367
-0 2.4552655 -3.6893488e+19
1.7896531 1.0842022e-19 -1.8117213
-2 3.2740657 2
2.2617803 2 2.7564042
2 3.2510569 1.0842022e-19
2.4552836 1.0842022e-19 2.7145009
1.0842022e-19 3.2578621 3.6893488e+19
2.2426057 -3.6893488e+19 2.7173235
-0 3.1923828 2
2.1725521 -0 2.6378949
-1.0842022e-19 3.1942065 -0
2.174294 1.0842022e-19 2.6265123
-1.0842022e-19 3.1981211 -0
2.1780331 -2 2.61677
-2 3.2307653 -0
2.4359262 3.6893488e+19 2.6102893
1.0842022e-19 3.2044482 3.6893488e+19
2.1840765 2 2.5824404
-0 3.3092482 -0
2.6072299 -2 2.6703994
-2 3.1987314 -0
2.32458 1.0842022e-19 2.5466537
3.6893488e+19 3.2170463 3.6893488e+19
2.5197556 1.0842022e-19 2.5539434
-0 3.1985898 -1.0842022e-19
2.3244774 3.6893488e+19 2.5336759
-0 3.2189043 -0
2.5208287 -1.0842022e-19 2.5416129
0 3.2224622 -2
2.3417449 2 2.5352294
-0 3.2175903 -0
2.5200698 -1.0842022e-19 2.5273256
-1.0842022e-19 3.1993153 -3.6893488e+19
2.3250022 3.6893488e+19 2.5084033
2 3.2173529 1.0842022e-19
2.5199327 2 2.5137465
-0 3.1886201 0
2.3172662 0 2.4794674
-3.6893488e+19 3.2145836 -3.6893488e+19
2.3360462 1.0842022e-19 2.4813743
0 3.2044995 1.0842022e-19
2.5125089 -0 2.4608655
1.0842022e-19 3.2186975 3.6893488e+19
2.3390219 2 2.4589808
1.0842022e-19 3.2029009 2
2.1825986 -0 2.4296634
-1.0842022e-19 3.1930759 0
2.401752 -2 2.4096754
-0 3.2065499 -0
2.186084 3.6893488e+19 2.4072797
-3.6893488e+19 3.12973 3.6893488e+19
2.3443141 -3.6893488e+19 2.32953
-0 3.1209192 -2
2.1042919 2 2.3099248
-1.0842022e-19 3.1294501 -1.0842022e-19
2.3440602 -2 2.3077564
1.0842022e-19 3.2382622 -2
2.2163746 1.0842022e-19 2.3804193
-3.6893488e+19 3.1293981 1.0842022e-19
2.3440132 -1.0842022e-19 2.286221
2 3.1201797 -1.0842022e-19
2.1035855 1.0842022e-19 2.2675529
-0 3.1316476 -3.6893488e+19
2.3460526 2 2.2663214
-3.6893488e+19 3.1219575 -3.6893488e+19
2.1052837 -1.0842022e-19 2.2458065
1.0842022e-19 3.1318071 1.0842022e-19
2.3461974 -3.6893488e+19 2.2397144
-3.6893488e+19 3.1235328 -2
2.1067884 -1.0842022e-19 2.2059
-1.0842022e-19 3.1331556 1.0842022e-19
2.3474202 2 2.1981807
-3.6893488e+19 3.1192718 -3.6893488e+19
2.1027184 -3.6893488e+19 2.1592245
0 3.1306138 -3.6893488e+19
2.3451152 -1.0842022e-19 2.1522741
-1.0842022e-19 3.1424463 -1.0842022e-19
2.4533367 3.6893488e+19 2.1442144
2 3.1210029 -3.6893488e+19
2.2683566 0 2.0995052
-0 3.1409082 -0
2.45156 1.0842022e-19 2.098469
-1.0842022e-19 3.1200576 2
2.267673 -0 2.0570407
1.0842022e-19 3.1243358 1.0842022e-19
2.4324162 3.6893488e+19 2.0413933
-3.6893488e+19 3.1141188 0
2.2633774 2 2.0112441
-1.0842022e-19 3.12198 -2
2.4296949 -2 1.9975517
1.0842022e-19 3.1197903 1.0842022e-19
2.4271655 -0 1.954366
-1.0842022e-19 3.1096439 -2
2.2601404 -0 1.9273629
-0 3.1180143 -3.6893488e+19
2.4251139 -1.0842022e-19 1.9118681
3.6893488e+19 3.1109257 1.0842022e-19
2.2610676 -1.0842022e-19 1.88754
-1.0842022e-19 3.1185081 2
2.4256845 3.6893488e+19 1.8660742
-0 3.1110699 -3.6893488e+19
2.2611718 2 1.8192903
3.6893488e+19 3.1157987 -3.6893488e+19
2.4225545 3.6893488e+19 1.7818234
0 3.1057658 3.6893488e+19
2.0898178 -0 1.6434429
3.6893488e+19 3.1210291 -0
2.3364246 -0 1.5089276
-2 3.1054606 -0
2.0895264 -0 -1.2490975
-3.6893488e+19 3.1231387 -3.6893488e+19
2.3383374 1.0842022e-19 -1.575363
-3.6893488e+19 3.1025493 0
2.0867457 -1.0842022e-19 -1.6729989
3.6893488e+19 3.1179647 3.6893488e+19
2.3336461 2 -1.7570187
0 3.0993094 2
2.0836508 -3.6893488e+19 -1.788783
-1.0842022e-19 3.1246021 1.0842022e-19
2.3396645 2 -1.8435096
-1.0842022e-19 3.112551 2
2.0962989 3.6893488e+19 -1.8755153
-3.6893488e+19 3.1032822 3.6893488e+19
2.320333 0 -1.8927158
-2 3.1136413 3.6893488e+19
2.0973403 -2 -1.9165543
0 3.1028707 -0
2.3199596 2 -1.9321884
-1.0842022e-19 3.0430551 2
2.265723 0 -1.9342463
2 3.0343611 0
2.0216141 -2 -1.9438707
-0 3.0303748 -0
2.2542253 -2 -1.9578005
-0 2.8846593 -3.6893488e+19
2.1943414 2 -1.9039729
0 2.8268931 -3.6893488e+19
1.9864508 0 -1.8892107
-1.0842022e-19 2.7858248 3.6893488e+19
2.0801723 -1.0842022e-19 -1.8805602
-2 2.7558689 3.6893488e+19
1.9350772 -1.0842022e-19 -1.8716786
3.6893488e+19 2.7051036 -3.6893488e+19
2.0128577 0 -1.8586228
-2 2.6626375 -1.0842022e-19
1.8992361 -3.6893488e+19 -1.8471053
3.6893488e+19 2.6151717 -1.0842022e-19
1.9609151 -0 -1.8331239
0 2.5994895 0
1.8763977 0 -1.8327848
-3.6893488e+19 2.5699615 -2
1.9348028 0 -1.8254868
3.6893488e+19 2.5532649 0
1.84436 -1.0842022e-19 -1.8223846
-2 2.5331676 2
1.9135514 0 -1.8184907
-2 2.5213389 2
1.8212671 3.6893488e+19 -1.8169093
2 2.5052736 0
1.8974404 -2 -1.8139273
-3.6893488e+19 2.4885447 3.6893488e+19
1.801689 -0 -1.8115577
-0 2.4671168 -0
1.8848982 1.0842022e-19 -1.8111367
-0 2.4552655 -3.6893488e+19
1.7896531 1.0842022e-19 -1.8117213
3.6893488e+19 3.2742901 -1.0842022e-19
2.2504478 -1.0842022e-19 2.7565746
-3.6893488e+19 3.2810082 0
2.4976625 1.0842022e-19 2.759882
-3.6893488e+19 3.2578862 -0
2.2209399 2 2.7172961
-3.6893488e+19 3.1941218 2
2.1555173 -1.0842022e-19 2.6263828
1.0842022e-19 3.198312 -3.6893488e+19
2.159343 3.6893488e+19 2.6168702
3.6893488e+19 3.2645798 2
2.4685676 1.0842022e-19 2.6772416
0 3.2670782 -2
2.4729919 0 2.6657071
2 3.2452168 2
2.2021708 1.0842022e-19 2.6265175
1.0842022e-19 3.2280669 1.0842022e-19
2.4233253 -2 2.6081617
-1.0842022e-19 3.2355473 -3.6893488e+19
2.1933417 0 2.6051359
1.0842022e-19 3.2578123 0
2.3620636 -1.0842022e-19 2.6056395
1.0842022e-19 3.1987135 3.6893488e+19
2.3150797 -0 2.5465724
-3.6893488e+19 3.2144415 1.0842022e-19
2.5132804 3.6893488e+19 2.552135
-1.0842022e-19 3.2238493 -3.6893488e+19
2.3327296 1.0842022e-19 2.5495794
-1.0842022e-19 3.2165725 -1.0842022e-19
2.5144882 0 2.5400541
-0 3.2198634 -2
2.3299308 1.0842022e-19 2.5335944
-2 3.2185616 1.0842022e-19
2.5156159 -3.6893488e+19 2.5277975
3.6893488e+19 3.2212689 1.0842022e-19
2.3309178 3.6893488e+19 2.5209656
1.0842022e-19 3.2174976 -3.6893488e+19
2.5150125 -2 2.5137291
-3.6893488e+19 3.2230849 0
2.3321931 -3.6893488e+19 2.5085104
1.0842022e-19 3.2210085 -1.0842022e-19
2.5170028 -0 2.5022004
-0 3.2149084 2
2.3264515 1.0842022e-19 2.4815981
1.0842022e-19 3.2045779 3.6893488e+19
2.5076888 0 2.4607723
-1.0842022e-19 3.2183125 1.0842022e-19
2.3288419 0 2.4584968
1.0842022e-19 3.2290888 1.0842022e-19
2.1874447 1.0842022e-19 2.4544382
-3.6893488e+19 3.1293001 0
2.3358681 -1.0842022e-19 2.3506043
-3.6893488e+19 3.2250693 2
2.1837747 0 2.4237359
-3.6893488e+19 3.2141788 -3.6893488e+19
2.4110274 1.0842022e-19 2.4026966
-1.0842022e-19 3.2248058 1.0842022e-19
2.1835341 3.6893488e+19 2.3966675
1.0842022e-19 3.2110553 3.6893488e+19
2.4082615 -0 2.3738332
-1.0842022e-19 3.2387094 1.0842022e-19
2.1962292 -1.0842022e-19 2.3807094
-0 3.1295714 3.6893488e+19
2.3361082 2 2.2862678
2 3.2248285 -0
2.1835546 2 2.3431368
-3.6893488e+19 3.2107913 -3.6893488e+19
2.4080279 -3.6893488e+19 2.321455
-1.0842022e-19 3.2333858 0
2.1913683 -1.0842022e-19 2.3221188
-3.6893488e+19 3.2121422 1.0842022e-19
2.4092243 2 2.2962902
1.0842022e-19 3.2303879 -0
2.1886308 -2 2.2931137
2 3.2091041 -1.0842022e-19
2.4065337 1.0842022e-19 2.2684302
2 3.2257135 -2
2.1843626 -2 2.2635508
1.0842022e-19 3.2138505 0
2.4107368 0 2.240104
3.6893488e+19 3.2077222 -1.0842022e-19
2.5094712 3.6893488e+19 2.2096119
2 3.2148798 -2
2.3264313 2 2.18784
-2 3.2157872 -0
2.5140431 -0 2.1650629
2 3.2104573 0
2.3233261 2 2.1319571
-2 3.1247542 -0
2.4248776 2 2.0416098
0 3.2011578 1.0842022e-19
