# .PCD v0.7 - Point Cloud Data file format
VERSION 0.7
FIELDS x y z
SIZE 4 4 4
TYPE F F F
COUNT 1 1 1
WIDTH 1687
HEIGHT 1
VIEWPOINT 0 0 0 1 0 0 0
POINTS 1687
DATA ascii
-1.9902778 1.0842022e-19 -1.789266
-1.0842022e-19 2.2645488 2
-1.9652066 2 -1.7883477
3.6893488e+19 2.2235453 1.0842022e-19
-1.9426111 3.6893488e+19 -1.7857735
-2 2.1973691 -2
-1.8896284 0 -1.7858086
-2 2.1620004 -0
-1.8785895 -3.6893488e+19 -1.7855147
1.0842022e-19 2.1360891 -2
-1.8660046 -0 -1.7871188
2 2.1055748 -3.6893488e+19
-1.846957 2 -1.7851408
3.6893488e+19 3.183893 1.0842022e-19
-2.8529656 -1.0842022e-19 2.6699173
1.0842022e-19 3.183938 -1.0842022e-19
-2.8530021 -2 2.6562619
-1.0842022e-19 3.2542005 0
-2.8517749 -1.0842022e-19 2.6930327
2 3.189435 -0
-2.8574739 -3.6893488e+19 2.63379
-1.0842022e-19 3.2537625 -2
-2.8511686 1.0842022e-19 2.6766834
-0 3.2016075 1.0842022e-19
-2.8673761 0 2.6302917
-2 3.2543688 0
-2.8520079 3.6893488e+19 2.6621196
-2 3.1899769 -3.6893488e+19
-2.8579147 -0 2.6067667
1.0842022e-19 3.2532499 -3.6893488e+19
-2.8504591 -2 2.6448362
0 3.2103689 -1.0842022e-19
-2.8745031 -3.6893488e+19 2.6089747
0 3.2547903 -2
-2.8525908 -3.6893488e+19 2.6317103
-2 3.2389312 2
-2.8052008 -2 2.5905261
-3.6893488e+19 3.2006714 0
-2.8349142 0 2.5627568
2 3.2880056 3.6893488e+19
-2.8595579 0 2.6339056
-2 3.2017503 -1.0842022e-19
-2.8357158 -0 2.5497284
-2 3.2362428 -0
-2.8035226 -1.0842022e-19 2.5450125
-1.0842022e-19 3.2177105 1.0842022e-19
-2.8475766 0 2.5318761
1.0842022e-19 3.2317867 -0
-2.800741 -3.6893488e+19 2.5279531
2 3.2538369 3.6893488e+19
-2.877275 2 2.5405741
-3.6893488e+19 3.2377982 0
-2.8044937 2 2.5169175
1.0842022e-19 3.253763 -1.0842022e-19
-2.8771651 -3.6893488e+19 2.5251329
1.0842022e-19 3.2357438 -1.0842022e-19
-2.803211 -3.6893488e+19 2.5013735
-3.6893488e+19 3.2537632 2
-2.8771658 -2 2.5098071
3.6893488e+19 3.1841109 -0
-2.8531427 -0 2.4365141
2 3.2645113 -2
-2.8660433 -1.0842022e-19 2.5027933
0 3.1997614 -3.6893488e+19
-2.8658741 -1.0842022e-19 2.4248252
2 3.300807 -2
-2.916271 0 2.5195193
1.0842022e-19 3.1900721 0
-2.8579922 -2 2.3888788
-3.6893488e+19 3.22223 -0
-2.8267472 1.0842022e-19 2.3949504
0 3.1954758 -0
-2.8623879 0 2.3665748
1.0842022e-19 3.2282786 1.0842022e-19
-2.8309324 -1.0842022e-19 2.3715312
2 3.2202418 2
-2.8825347 -1.0842022e-19 2.3584018
-0 3.2290437 -2
-2.8314617 2 2.3436334
2 3.2179229 3.6893488e+19
-2.8806484 -1.0842022e-19 2.3282633
3.6893488e+19 3.2401209 1.0842022e-19
-2.8391263 3.6893488e+19 2.3224683
2 3.1854405 3.6893488e+19
-2.8542244 2 2.279099
3.6893488e+19 3.2317431 -1.0842022e-19
-2.8333294 0 2.2883682
-1.0842022e-19 3.1858284 2
-2.8545401 0 2.2529798
-0 3.2244828 2
-2.828306 1.0842022e-19 2.2558928
-0 3.2641506 -3.6893488e+19
-2.8297763 0 2.2665792
-0 3.2316258 -1.0842022e-19
-2.8579175 -1.0842022e-19 2.2162254
-2 3.2448788 0
-2.8089135 3.6893488e+19 2.1914244
1.0842022e-19 3.2322142 -0
-2.8583548 -3.6893488e+19 2.1592486
-3.6893488e+19 3.2537382 2
-2.8167772 0 2.1432133
-0 3.2299697 -2
-2.8566868 1.0842022e-19 2.1001165
1.0842022e-19 3.2502072 -3.6893488e+19
-2.8123686 -3.6893488e+19 2.0791578
0 3.2253587 0
-2.8532603 -1.0842022e-19 2.0400977
1.0842022e-19 3.2502546 3.6893488e+19
-2.812428 3.6893488e+19 2.0206697
-3.6893488e+19 3.2266366 -3.6893488e+19
-2.8542099 3.6893488e+19 1.9841099
-2 3.2390091 3.6893488e+19
-2.8052495 -2 1.9572598
1.0842022e-19 3.2242901 2
-2.8524661 -0 1.9264804
-3.6893488e+19 3.2416782 -1.0842022e-19
-2.8069155 -1.0842022e-19 1.9009196
0 3.2223883 1.0842022e-19
-2.8510528 -1.0842022e-19 1.8641009
2 3.2401781 -1.0842022e-19
-2.805979 2 1.8113328
2 3.2267022 -3.6893488e+19
-2.8542585 -2 1.7528143
1.0842022e-19 3.2321384 -0
-2.8922124 0 1.6455323
1.0842022e-19 3.2366965 -3.6893488e+19
-2.8367567 1.0842022e-19 1.357621
2 3.2266414 -3.6893488e+19
-2.8877406 2 -1.5464435
-2 3.24032 1.0842022e-19
-2.8392642 3.6893488e+19 -1.7021635
-1.0842022e-19 3.2066774 0
-2.8715005 -1.0842022e-19 -1.7760372
0 3.2451599 -2
-2.8426127 -3.6893488e+19 -1.8439833
-0 3.2142479 -0
-2.8776588 0 -1.8826863
-2 3.2121508 3.6893488e+19
-2.8197732 3.6893488e+19 -1.9067472
3.6893488e+19 3.1881669 -1.0842022e-19
-2.8564422 1.0842022e-19 -1.9280083
3.6893488e+19 3.2011521 2
-2.8121629 2 -1.9562984
-3.6893488e+19 3.1623912 2
-2.8354743 1.0842022e-19 -1.9672345
3.6893488e+19 2.8338513 3.6893488e+19
-2.4619994 1.0842022e-19 -1.8565574
-2 2.7893009 2
-2.4706843 1.0842022e-19 -1.8471634
-2 2.7729216 -1.0842022e-19
-2.377682 0 -1.8465688
0 2.7323825 3.6893488e+19
-2.3011129 2 -1.8329809
-1.0842022e-19 2.6757491 3.6893488e+19
-2.3163931 -1.0842022e-19 -1.8246317
-2 2.6407135 2
-2.2377827 -1.0842022e-19 -1.8163505
-1.0842022e-19 2.6083302 -2
-2.2662911 0 -1.814413
-1.0842022e-19 2.5839872 2
-2.1669633 3.6893488e+19 -1.808158
-1.0842022e-19 2.5562654 -0
-2.205199 -1.0842022e-19 -1.8051888
-1.0842022e-19 2.5409827 0
-2.1132748 3.6893488e+19 -1.8016534
3.6893488e+19 2.5217609 3.6893488e+19
-2.1539154 -0 -1.8011431
-0 2.5104969 -0
-2.0752149 -1.0842022e-19 -1.7984537
1.0842022e-19 2.4846017 3.6893488e+19
-2.1101291 2 -1.7965535
1.0842022e-19 2.4652948 -3.6893488e+19
-2.0404463 3.6893488e+19 -1.7935939
0 2.4331946 -1.0842022e-19
-2.0719261 -1.0842022e-19 -1.7913388
-2 2.3936911 0
-1.9957501 -3.6893488e+19 -1.790853
1.0842022e-19 2.3306105 -1.0842022e-19
-2.0189466 -2 -1.7886658
-1.0842022e-19 2.2953682 1.0842022e-19
-1.9902778 1.0842022e-19 -1.789266
-1.0842022e-19 2.2645488 2
-1.9652066 2 -1.7883477
3.6893488e+19 2.2235453 1.0842022e-19
-1.9426111 3.6893488e+19 -1.7857735
-2 2.1973691 -2
-1.8896284 0 -1.7858086
-2 2.1620004 -0
-1.8785895 -3.6893488e+19 -1.7855147
1.0842022e-19 2.1360891 -2
-1.8660046 -0 -1.7871188
2 2.1055748 -3.6893488e+19
-1.846957 2 -1.7851408
3.6893488e+19 3.1806123 3.6893488e+19
-2.8527408 2 2.6671565
-0 3.1831682 -3.6893488e+19
-2.8548343 -1.0842022e-19 2.6559441
3.6893488e+19 3.253798 1.0842022e-19
-2.8539853 3.6893488e+19 2.6927052
-0 3.1879218 2
-2.8587284 3.6893488e+19 2.6328485
1.0842022e-19 3.2535338 3.6893488e+19
-2.8536167 0 2.6766591
-2 3.197299 0
-2.86641 3.6893488e+19 2.6270378
-1.0842022e-19 3.2545452 -1.0842022e-19
-2.8550274 1.0842022e-19 2.6627541
-3.6893488e+19 3.1896255 3.6893488e+19
-2.8601241 -2 2.6068358
-3.6893488e+19 3.253979 3.6893488e+19
-2.8542378 -0 2.6463079
-1.0842022e-19 3.2066107 -3.6893488e+19
-2.8740375 -1.0842022e-19 2.6063981
-0 3.2539067 3.6893488e+19
-2.8541369 1.0842022e-19 2.6307085
3.6893488e+19 3.2719886 0
-2.9072685 -0 2.6444972
1.0842022e-19 3.2852988 0
-2.8592274 -1.0842022e-19 2.6477075
1.0842022e-19 3.1999741 -3.6893488e+19
-2.8368893 3.6893488e+19 2.562556
-3.6893488e+19 3.2864907 3.6893488e+19
-2.8607283 -2 2.6321776
0 3.2020638 1.0842022e-19
-2.838454 3.6893488e+19 2.5502086
2 3.2396433 -1.0842022e-19
-2.8082614 -0 2.5619297
0 3.2325978 2
-2.8038259 3.6893488e+19 2.5430243
2 3.2169387 -3.6893488e+19
-2.8495905 2 2.5316663
1.0842022e-19 3.2316263 -2
-2.8032141 -0 2.5280726
-2 3.2041888 -2
-2.840045 -1.0842022e-19 2.5101972
2 3.2354167 -2
-2.8056004 -3.6893488e+19 2.5158167
3.6893488e+19 3.253736 -1.0842022e-19
-2.8799374 -3.6893488e+19 2.5253534
-2 3.2330067 3.6893488e+19
-2.8040833 0 2.5001481
0 3.2534461 3.6893488e+19
-2.8795033 0 2.5097179
0 3.2391181 -2
-2.9006662 -2 2.4923143
0 3.2566352 0
-2.8579423 3.6893488e+19 2.4909468
3.6893488e+19 3.2384396 -2
-2.9001105 -3.6893488e+19 2.4618173
0 3.190182 -0
-2.8605797 -1.0842022e-19 2.3893623
3.6893488e+19 3.2184837 0
-2.8267093 1.0842022e-19 2.3921483
-3.6893488e+19 3.2184093 0
-2.8837028 1.0842022e-19 2.3858294
1.0842022e-19 3.3040233 1.0842022e-19
-2.924037 -3.6893488e+19 2.4727354
2 3.2179315 -3.6893488e+19
-2.883311 2 2.3569953
-1.0842022e-19 3.2661932 1.0842022e-19
-2.8712735 -3.6893488e+19 2.3822205
-2 3.2173719 -2
-2.8828528 0 2.3282027
-1.0842022e-19 3.2319109 0
-2.8360732 -0 2.3173347
-1.0842022e-19 3.2194998 -1.0842022e-19
-2.8845959 3.6893488e+19 2.3012285
0 3.2906032 1.0842022e-19
-2.9053192 -1.0842022e-19 2.3482001
2 3.2489021 -3.6893488e+19
-2.9086809 3.6893488e+19 2.2898788
3.6893488e+19 3.2919466 1.0842022e-19
-2.9071932 0 2.315165
0 3.2638304 -2
-2.8321958 -3.6893488e+19 2.2664587
3.6893488e+19 3.2996767 -3.6893488e+19
-2.9487276 1.0842022e-19 2.2903576
1.0842022e-19 3.2639198 0
-2.8323085 0 2.221184
3.6893488e+19 3.2984579 3.6893488e+19
-2.9469028 1.0842022e-19 2.2535272
-3.6893488e+19 3.260036 -3.6893488e+19
-2.8274183 1.0842022e-19 2.1532803
-1.0842022e-19 3.2637 2
-2.8948574 -3.6893488e+19 2.1350639
3.6893488e+19 3.2534864 -1.0842022e-19
-2.8191714 0 2.0837264
-2 3.2270918 0
-2.8571923 -0 2.0414197
1.0842022e-19 3.2482212 -3.6893488e+19
-2.8136616 2 2.0196378
-1.0842022e-19 3.2811794 -1.0842022e-19
-2.9210305 -2 2.0264647
2 3.2639406 -2
-2.8323345 -0 1.9739058
-3.6893488e+19 3.2792246 0
-2.9181037 -3.6893488e+19 1.9579842
0 3.2418401 2
-2.8096445 0 1.9010844
-0 3.2732468 -2
-2.9091523 -0 1.8884304
3.6893488e+19 3.2397449 -3.6893488e+19
-2.8083253 1.0842022e-19 1.8113102
-2 3.2729025 1.0842022e-19
-2.908637 -1.0842022e-19 1.7714752
-0 3.2307923 2
-2.8938463 2 1.6452701
1.0842022e-19 3.2414198 0
-2.8427043 0 1.360077
-1.0842022e-19 3.2270937 -1.0842022e-19
-2.8908165 1.0842022e-19 -1.5467767
-1.0842022e-19 3.2398469 -3.6893488e+19
-2.8416073 2 -1.7021391
-0 3.2089424 2
-2.8759477 3.6893488e+19 -1.7769371
-2 3.2430007 -3.6893488e+19
-2.8438067 3.6893488e+19 -1.8432128
-2 3.2028575 -3.6893488e+19
-2.8709631 -2 -1.8795593
-3.6893488e+19 3.2132356 -1.0842022e-19
-2.8230493 -3.6893488e+19 -1.9072479
-0 3.1868358 0
-2.8578389 -3.6893488e+19 -1.9276438
-3.6893488e+19 3.1984112 2
-2.8127112 0 -1.9552184
-0 3.1611438 2
-2.8367929 3.6893488e+19 -1.9667925
-3.6893488e+19 2.8319182 1.0842022e-19
-2.4629438 -2 -1.8554112
-1.0842022e-19 2.7898805 -1.0842022e-19
-2.4749177 -2 -1.8478296
-1.0842022e-19 2.7742827 1.0842022e-19
-2.3825564 1.0842022e-19 -1.847862
-3.6893488e+19 2.7301095 0
-2.3022594 2 -1.8321588
-3.6893488e+19 2.6759474 -1.0842022e-19
-2.3189011 -1.0842022e-19 -1.824906
3.6893488e+19 2.6397016 0
-2.2406838 3.6893488e+19 -1.8160005
0 2.6084728 0
-2.2683837 2 -1.8146602
-2 2.5867071 1.0842022e-19
-2.1739571 2 -1.8097905
-1.0842022e-19 2.5568051 3.6893488e+19
-2.2094018 0 -1.8056703
1.0842022e-19 2.5425448 2
-2.118351 -1.0842022e-19 -1.8027371
-0 2.521281 0
-2.156209 0 -1.8009917
3.6893488e+19 2.5104172 -0
-2.0778983 1.0842022e-19 -1.798533
-3.6893488e+19 2.4843955 3.6893488e+19
-2.1126604 -3.6893488e+19 -1.7966361
0 2.4630396 2
-2.0415127 0 -1.7929047
3.6893488e+19 2.4328017 2
-2.0740328 -1.0842022e-19 -1.7913388
3.6893488e+19 3.1806123 3.6893488e+19
-2.8527408 2 2.6671565
-0 3.1831682 -3.6893488e+19
-2.8548343 -1.0842022e-19 2.6559441
3.6893488e+19 3.253798 1.0842022e-19
-2.8539853 3.6893488e+19 2.6927052
-0 3.1879218 2
-2.8587284 3.6893488e+19 2.6328485
1.0842022e-19 3.2535338 3.6893488e+19
-2.8536167 0 2.6766591
-2 3.197299 0
-2.86641 3.6893488e+19 2.6270378
-1.0842022e-19 3.2545452 -1.0842022e-19
-2.8550274 1.0842022e-19 2.6627541
-3.6893488e+19 3.1896255 3.6893488e+19
-2.8601241 -2 2.6068358
-3.6893488e+19 3.253979 3.6893488e+19
-2.8542378 -0 2.6463079
-1.0842022e-19 3.2066107 -3.6893488e+19
-2.8740375 -1.0842022e-19 2.6063981
-0 3.2539067 3.6893488e+19
-2.8541369 1.0842022e-19 2.6307085
3.6893488e+19 3.2719886 0
-2.9072685 -0 2.6444972
1.0842022e-19 3.2852988 0
-2.8592274 -1.0842022e-19 2.6477075
1.0842022e-19 3.1999741 -3.6893488e+19
-2.8368893 3.6893488e+19 2.562556
-3.6893488e+19 3.2864907 3.6893488e+19
-2.8607283 -2 2.6321776
0 3.2020638 1.0842022e-19
-2.838454 3.6893488e+19 2.5502086
2 3.2396433 -1.0842022e-19
-2.8082614 -0 2.5619297
0 3.2325978 2
-2.8038259 3.6893488e+19 2.5430243
2 3.2169387 -3.6893488e+19
-2.8495905 2 2.5316663
1.0842022e-19 3.2316263 -2
-2.8032141 -0 2.5280726
-2 3.2041888 -2
-2.840045 -1.0842022e-19 2.5101972
2 3.2354167 -2
-2.8056004 -3.6893488e+19 2.5158167
3.6893488e+19 3.253736 -1.0842022e-19
-2.8799374 -3.6893488e+19 2.5253534
-2 3.2330067 3.6893488e+19
-2.8040833 0 2.5001481
0 3.2534461 3.6893488e+19
-2.8795033 0 2.5097179
0 3.1822152 2
-2.8540537 0 2.4350398
0 3.222631 -1.0842022e-19
-2.8296013 0 2.452075
-3.6893488e+19 3.2018733 -0
-2.870157 -2 2.4272442
0 3.190182 -0
-2.8605797 -1.0842022e-19 2.3893623
3.6893488e+19 3.2184837 0
-2.8267093 1.0842022e-19 2.3921483
0 3.1939685 -0
-2.8636816 1.0842022e-19 2.3656974
3.6893488e+19 3.2280216 -0
-2.8333607 -3.6893488e+19 2.3716455
2 3.2179315 -3.6893488e+19
-2.883311 2 2.3569953
-2 3.2299328 0
-2.8346937 -2 2.3445621
1.0842022e-19 3.1845999 -1.0842022e-19
-2.8560071 -2 2.3051889
-1.0842022e-19 3.2319109 0
-2.8360732 -0 2.3173347
3.6893488e+19 3.1838548 -3.6893488e+19
-2.8553967 0 2.2783589
2 3.2327785 -0
-2.836678 1.0842022e-19 2.2892323
-0 3.184011 -1.0842022e-19
-2.8555248 -3.6893488e+19 2.2521749
2 3.2314441 2
-2.8357475 1.0842022e-19 2.2598665
1.0842022e-19 3.251646 1.0842022e-19
-2.8168542 -3.6893488e+19 2.254153
2 3.2334683 2
-2.8619661 -3.6893488e+19 2.2184336
3.6893488e+19 3.2504804 -1.0842022e-19
-2.8153865 2 2.1971903
-2 3.2289414 3.6893488e+19
-2.858577 -3.6893488e+19 2.1568401
-3.6893488e+19 3.260036 -3.6893488e+19
-2.8274183 1.0842022e-19 2.1532803
2 3.2264059 -2
-2.8566785 0 2.0978322
3.6893488e+19 3.2534864 -1.0842022e-19
-2.8191714 0 2.0837264
-2 3.2270918 0
-2.8571923 -0 2.0414197
1.0842022e-19 3.2482212 -3.6893488e+19
-2.8136616 2 2.0196378
3.6893488e+19 3.2253854 3.6893488e+19
-2.8559146 3.6893488e+19 1.9837072
-1.0842022e-19 3.2439406 0
-2.810967 3.6893488e+19 1.9595096
-0 3.2235088 -0
-2.8545096 3.6893488e+19 1.9263496
0 3.2418401 2
-2.8096445 0 1.9010844
-3.6893488e+19 3.222662 -0
-2.8538756 3.6893488e+19 1.8644568
3.6893488e+19 3.2397449 -3.6893488e+19
-2.8083253 1.0842022e-19 1.8113102
-0 3.2249529 3.6893488e+19
-2.8555908 0 1.752461
-0 3.2307923 2
-2.8938463 2 1.6452701
1.0842022e-19 3.2414198 0
-2.8427043 0 1.360077
-1.0842022e-19 3.2270937 -1.0842022e-19
-2.8908165 1.0842022e-19 -1.5467767
-1.0842022e-19 3.2398469 -3.6893488e+19
-2.8416073 2 -1.7021391
-0 3.2089424 2
-2.8759477 3.6893488e+19 -1.7769371
-2 3.2430007 -3.6893488e+19
-2.8438067 3.6893488e+19 -1.8432128
-2 3.2028575 -3.6893488e+19
-2.8709631 -2 -1.8795593
-3.6893488e+19 3.2132356 -1.0842022e-19
-2.8230493 -3.6893488e+19 -1.9072479
-0 3.1868358 0
-2.8578389 -3.6893488e+19 -1.9276438
-3.6893488e+19 3.1984112 2
-2.8127112 0 -1.9552184
-0 3.1611438 2
-2.8367929 3.6893488e+19 -1.9667925
-3.6893488e+19 2.8319182 1.0842022e-19
-2.4629438 -2 -1.8554112
-1.0842022e-19 2.7898805 -1.0842022e-19
-2.4749177 -2 -1.8478296
-1.0842022e-19 2.7742827 1.0842022e-19
-2.3825564 1.0842022e-19 -1.847862
-3.6893488e+19 2.7301095 0
-2.3022594 2 -1.8321588
-3.6893488e+19 2.6759474 -1.0842022e-19
-2.3189011 -1.0842022e-19 -1.824906
3.6893488e+19 2.6397016 0
-2.2406838 3.6893488e+19 -1.8160005
0 2.6084728 0
-2.2683837 2 -1.8146602
-2 2.5867071 1.0842022e-19
-2.1739571 2 -1.8097905
-1.0842022e-19 2.5568051 3.6893488e+19
-2.2094018 0 -1.8056703
1.0842022e-19 2.5425448 2
-2.118351 -1.0842022e-19 -1.8027371
-0 2.521281 0
-2.156209 0 -1.8009917
3.6893488e+19 2.5104172 -0
-2.0778983 1.0842022e-19 -1.798533
-3.6893488e+19 2.4843955 3.6893488e+19
-2.1126604 -3.6893488e+19 -1.7966361
0 2.4630396 2
-2.0415127 0 -1.7929047
3.6893488e+19 2.4328017 2
-2.0740328 -1.0842022e-19 -1.7913388
0 3.1799781 0
-2.8548641 2 2.6669924
-2 3.1827567 -1.0842022e-19
-2.8571572 -2 2.655997
-3.6893488e+19 3.1866798 2
-2.8603952 -1.0842022e-19 2.6459079
-0 3.2535067 0
-2.8565717 3.6893488e+19 2.6926043
-2 3.21698 -3.6893488e+19
-2.885402 -1.0842022e-19 2.6586938
1.0842022e-19 3.2537632 -3.6893488e+19
-2.8569322 -0 2.6774383
-3.6893488e+19 3.1958518 -3.6893488e+19
-2.8679647 -0 2.6262243
2 3.2544703 0
-2.8579271 3.6893488e+19 2.6630125
-3.6893488e+19 3.1890087 -3.6893488e+19
-2.8623171 0 2.6067207
1.0842022e-19 3.2550936 -1.0842022e-19
-2.8588035 -3.6893488e+19 2.6484134
2 3.2534699 1.0842022e-19
-2.8565199 0 2.6304035
0 3.2711868 3.6893488e+19
-2.9093223 1.0842022e-19 2.643723
1.0842022e-19 3.2702315 2
-2.9078803 -0 2.6257815
-2 3.2658041 -1.0842022e-19
-2.8377557 -2 2.5889454
-0 3.2318134 1.0842022e-19
-2.8061187 -1.0842022e-19 2.5427914
-0 3.2152905 -3.6893488e+19
-2.8511486 1.0842022e-19 2.5309496
-2 3.2329667 -0
-2.8068514 -0 2.5290785
3.6893488e+19 3.2046967 0
-2.8431537 -2 2.5107455
2 3.2348065 1.0842022e-19
-2.8080204 -1.0842022e-19 2.5157034
-1.0842022e-19 3.2766891 -0
-2.9176273 1.0842022e-19 2.550559
-0 3.232162 0
-2.8063402 -3.6893488e+19 2.4998362
3.6893488e+19 3.283401 0
-2.9277582 -0 2.5407012
-1.0842022e-19 3.2405982 3.6893488e+19
-2.9048944 -1.0842022e-19 2.4943383
2 3.2539968 -0
-2.8572609 -0 2.4863472
-0 3.2378545 -0
-2.9026299 -3.6893488e+19 2.4617629
3.6893488e+19 3.2486479 -1.0842022e-19
-2.8506882 3.6893488e+19 2.4475718
-2 3.1843038 1.0842022e-19
-2.8584342 0 2.3845785
-3.6893488e+19 3.2495317 0
-2.85131 -3.6893488e+19 2.4185224
-1.0842022e-19 3.2162068 2
-2.884764 0 2.3844304
3.6893488e+19 3.3047709 -3.6893488e+19
-2.9286776 2 2.4743347
-0 3.2202172 -1.0842022e-19
-2.8880737 -1.0842022e-19 2.359127
-3.6893488e+19 3.2261717 -0
-2.8348813 1.0842022e-19 2.3421769
0 3.21609 2
-2.8846674 -3.6893488e+19 2.327656
-0 3.2307034 -0
-2.8380682 0 2.3168311
1.0842022e-19 3.1833286 1.0842022e-19
-2.8576293 -2 2.2783217
2 3.2894535 1.0842022e-19
-2.9071329 0 2.3471422
2 3.2500463 -0
-2.91273 3.6893488e+19 2.2908847
3.6893488e+19 3.2913544 -1.0842022e-19
-2.9098065 3.6893488e+19 2.3148153
2 3.2674165 -1.0842022e-19
-2.8398044 1.0842022e-19 2.2703054
3.6893488e+19 3.2987385 1.0842022e-19
-2.9509082 -2 2.2897346
-3.6893488e+19 3.2671354 3.6893488e+19
-2.8394475 1.0842022e-19 2.2273219
-2 3.2983236 3.6893488e+19
-2.9502821 -3.6893488e+19 2.2536635
-1.0842022e-19 3.2641339 2
-2.8356335 -3.6893488e+19 2.159976
-1.0842022e-19 3.2248545 3.6893488e+19
-2.8583665 -3.6893488e+19 2.0970421
2 3.2898364 -1.0842022e-19
-2.8682933 -0 2.1319001
-2 3.2255688 -0
-2.8589056 0 2.0407767
3.6893488e+19 3.248194 -1.0842022e-19
-2.8165259 3.6893488e+19 2.0198474
1.0842022e-19 3.2815156 -0
-2.9249122 2 2.0270689
-0 3.2585852 1.0842022e-19
-2.8285828 -0 1.9695452
2 3.2794752 -0
-2.9218326 -3.6893488e+19 1.9583765
-2 3.2599347 -1.0842022e-19
-2.8302975 -0 1.9098274
-3.6893488e+19 3.2729914 1.0842022e-19
-2.9120464 -1.0842022e-19 1.8884377
-1.0842022e-19 3.2429712 -3.6893488e+19
-2.8132076 -0 1.8126935
1.0842022e-19 3.2713175 -0
-2.9095194 1.0842022e-19 1.7707684
2 3.2299263 3.6893488e+19
-2.8960867 -1.0842022e-19 1.6451652
0 3.2429428 -1.0842022e-19
-2.8466759 3.6893488e+19 1.3610227
-1.0842022e-19 3.2017643 3.6893488e+19
-2.8728445 3.6893488e+19 -1.5378327
-1.0842022e-19 3.2401626 1.0842022e-19
-2.8447208 -3.6893488e+19 -1.7024556
-1.0842022e-19 3.2062802 -1.0842022e-19
-2.8765714 3.6893488e+19 -1.7762191
-0 3.2414269 -1.0842022e-19
-2.8456099 3.6893488e+19 -1.8427166
-1.0842022e-19 3.2024839 1.0842022e-19
-2.8734384 2 -1.8795924
-2 3.209125 -2
-2.8228927 -3.6893488e+19 -1.9059961
-1.0842022e-19 3.1999371 2
-2.8713365 3.6893488e+19 -1.9331695
-3.6893488e+19 3.1990006 1.0842022e-19
-2.8157725 2 -1.9556774
1.0842022e-19 3.1610751 -0
-2.8392632 -0 -1.9669906
1.0842022e-19 2.8336749 1.0842022e-19
-2.4693327 -2 -1.8568438
-2 2.7891634 2
-2.4772975 -2 -1.8475187
0 2.7739127 0
-2.3852737 3.6893488e+19 -1.8477662
-1.0842022e-19 2.7312572 0
-2.3057654 2 -1.8328267
-0 2.6759939 -2
-2.321492 3.6893488e+19 -1.8251255
-2 2.6437781 3.6893488e+19
-2.2501857 3.6893488e+19 -1.818159
3.6893488e+19 2.6091692 -2
-2.2710602 -0 -1.8152165
-2 2.5861895 3.6893488e+19
-2.1771941 -2 -1.8096598
1.0842022e-19 2.5566189 1.0842022e-19
-2.2128026 -3.6893488e+19 -1.8057389
3.6893488e+19 2.5423017 -2
-2.1214259 -1.0842022e-19 -1.8027371
-3.6893488e+19 2.5211296 3.6893488e+19
-2.1592362 2 -1.8010674
-2 2.5103195 -0
-2.0807865 -0 -1.7986121
2 2.4825187 2
-2.1141505 -1.0842022e-19 -1.7961401
2 2.4638417 2
-2.0447004 3.6893488e+19 -1.7933354
1.0842022e-19 2.4312096 0
-2.0754282 -1.0842022e-19 -1.7908907
-2 2.3935382 2
-2.0000334 1.0842022e-19 -1.7910532
-1.0842022e-19 2.3301551 1.0842022e-19
-2.0224795 1.0842022e-19 -1.7887797
0 2.2959025 1.0842022e-19
-1.9942105 -2 -1.7899046
3.6893488e+19 2.263772 -2
-1.967693 -2 -1.7882061
3.6893488e+19 2.2189116 1.0842022e-19
-1.9434981 0 -1.7845309
-2 2.1957173 0
-1.8915926 1.0842022e-19 -1.7854704
-1.0842022e-19 2.1604073 -0
-1.8803755 -2 -1.7851491
2 2.1336052 2
-1.8687224 -2 -1.7863327
-1.0842022e-19 2.1022131 -3.6893488e+19
-1.8487775 -1.0842022e-19 -1.7838798
0 3.1799781 0
-2.8548641 2 2.6669924
-2 3.1827567 -1.0842022e-19
-2.8571572 -2 2.655997
-3.6893488e+19 3.1866798 2
-2.8603952 -1.0842022e-19 2.6459079
-0 3.2535067 0
-2.8565717 3.6893488e+19 2.6926043
-1.0842022e-19 3.1914976 0
-2.8643713 0 2.6363921
1.0842022e-19 3.2537632 -3.6893488e+19
-2.8569322 -0 2.6774383
-3.6893488e+19 3.1958518 -3.6893488e+19
-2.8679647 -0 2.6262243
2 3.2544703 0
-2.8579271 3.6893488e+19 2.6630125
-3.6893488e+19 3.1890087 -3.6893488e+19
-2.8623171 0 2.6067207
1.0842022e-19 3.2550936 -1.0842022e-19
-2.8588035 -3.6893488e+19 2.6484134
2 3.2534699 1.0842022e-19
-2.8565199 0 2.6304035
3.6893488e+19 3.1935322 2
-2.834728 -1.0842022e-19 2.5719714
2 3.1995296 2
-2.8392541 3.6893488e+19 2.562556
1.0842022e-19 3.2358797 -2
-2.808702 -1.0842022e-19 2.5597894
-0 3.2318134 1.0842022e-19
-2.8061187 -1.0842022e-19 2.5427914
-0 3.2152905 -3.6893488e+19
-2.8511486 1.0842022e-19 2.5309496
-2 3.2329667 -0
-2.8068514 -0 2.5290785
3.6893488e+19 3.2046967 0
-2.8431537 -2 2.5107455
2 3.2348065 1.0842022e-19
-2.8080204 -1.0842022e-19 2.5157034
-1.0842022e-19 3.2766891 -0
-2.9176273 1.0842022e-19 2.550559
-0 3.232162 0
-2.8063402 -3.6893488e+19 2.4998362
3.6893488e+19 3.2530651 3.6893488e+19
-2.8819699 0 2.509584
3.6893488e+19 3.1826952 -0
-2.8571064 -2 2.4359937
-3.6893488e+19 3.223309 2
-2.8328681 1.0842022e-19 2.4531407
1.0842022e-19 3.1864531 -2
-2.8602078 -2 2.4131105
3.6893488e+19 3.2486479 -1.0842022e-19
-2.8506882 3.6893488e+19 2.4475718
-2 3.1843038 1.0842022e-19
-2.8584342 0 2.3845785
-0 3.2187567 -1.0842022e-19
-2.8296664 -0 2.3927381
-2 3.2031224 -0
-2.8739653 -1.0842022e-19 2.373641
-1.0842022e-19 3.2282863 -2
-2.8363683 -0 2.3721938
-0 3.2202172 -1.0842022e-19
-2.8880737 -1.0842022e-19 2.359127
-3.6893488e+19 3.2261717 -0
-2.8348813 1.0842022e-19 2.3421769
3.6893488e+19 3.1827772 3.6893488e+19
-2.8571742 -1.0842022e-19 2.3042376
-0 3.2307034 -0
-2.8380682 0 2.3168311
1.0842022e-19 3.1833286 1.0842022e-19
-2.8576293 -2 2.2783217
-2 3.2332458 3.6893488e+19
-2.8398564 -3.6893488e+19 2.2897787
-1.0842022e-19 3.1818993 -2
-2.8564496 -2 2.2512193
-0 3.2329428 3.6893488e+19
-2.8396432 2 2.2609155
-0 3.251972 -1.0842022e-19
-2.8201792 -0 2.254694
-0 3.2335162 1.0842022e-19
-2.8649035 2 2.2189434
0 3.25054 2
-2.8183596 3.6893488e+19 2.1976686
-2 3.2316222 0
-2.8634741 -0 2.1595218
-3.6893488e+19 3.2489924 -2
-2.8170333 2 2.1372561
-1.0842022e-19 3.2248545 3.6893488e+19
-2.8583665 -3.6893488e+19 2.0970421
-3.6893488e+19 3.2519066 0
-2.8200965 2 2.0819225
-2 3.2255688 -0
-2.8589056 0 2.0407767
3.6893488e+19 3.248194 -1.0842022e-19
-2.8165259 3.6893488e+19 2.0198474
0 3.2249453 -0
-2.8584349 1.0842022e-19 1.9837216
-3.6893488e+19 3.2415948 1.0842022e-19
-2.8123333 -2 1.958688
1.0842022e-19 3.223772 -2
-2.8575494 -2 1.926622
2 3.2442305 -0
-2.8140078 0 1.901945
-1.0842022e-19 3.2226923 1.0842022e-19
-2.8567348 -0 1.8647088
-1.0842022e-19 3.2429712 -3.6893488e+19
-2.8132076 -0 1.8126935
0 3.2229345 3.6893488e+19
-2.8569174 2 1.7520447
3.6893488e+19 3.2050836 1.0842022e-19
-2.8755839 2 1.637651
0 3.2429428 -1.0842022e-19
-2.8466759 3.6893488e+19 1.3610227
-1.0842022e-19 3.2017643 3.6893488e+19
-2.8728445 3.6893488e+19 -1.5378327
-1.0842022e-19 3.2401626 1.0842022e-19
-2.8447208 -3.6893488e+19 -1.7024556
-1.0842022e-19 3.2062802 -1.0842022e-19
-2.8765714 3.6893488e+19 -1.7762191
-0 3.2414269 -1.0842022e-19
-2.8456099 3.6893488e+19 -1.8427166
-1.0842022e-19 3.2024839 1.0842022e-19
-2.8734384 2 -1.8795924
-2 3.209125 -2
-2.8228927 -3.6893488e+19 -1.9059961
2 3.1818011 -0
-2.8563685 -0 -1.9257863
-3.6893488e+19 3.1990006 1.0842022e-19
-2.8157725 2 -1.9556774
1.0842022e-19 3.1610751 -0
-2.8392632 -0 -1.9669906
1.0842022e-19 2.8336749 1.0842022e-19
-2.4693327 -2 -1.8568438
-2 2.7891634 2
-2.4772975 -2 -1.8475187
0 2.7739127 0
-2.3852737 3.6893488e+19 -1.8477662
-1.0842022e-19 2.7312572 0
-2.3057654 2 -1.8328267
-0 2.6759939 -2
-2.321492 3.6893488e+19 -1.8251255
-2 2.6437781 3.6893488e+19
-2.2501857 3.6893488e+19 -1.818159
3.6893488e+19 2.6091692 -2
-2.2710602 -0 -1.8152165
-2 2.5861895 3.6893488e+19
-2.1771941 -2 -1.8096598
1.0842022e-19 2.5566189 1.0842022e-19
-2.2128026 -3.6893488e+19 -1.8057389
3.6893488e+19 2.5423017 -2
-2.1214259 -1.0842022e-19 -1.8027371
-3.6893488e+19 2.5211296 3.6893488e+19
-2.1592362 2 -1.8010674
-2 2.5103195 -0
-2.0807865 -0 -1.7986121
2 2.4825187 2
-2.1141505 -1.0842022e-19 -1.7961401
2 2.4638417 2
-2.0447004 3.6893488e+19 -1.7933354
1.0842022e-19 2.4312096 0
-2.0754282 -1.0842022e-19 -1.7908907
-2 2.3935382 2
-2.0000334 1.0842022e-19 -1.7910532
-1.0842022e-19 2.3301551 1.0842022e-19
-2.0224795 1.0842022e-19 -1.7887797
0 2.2959025 1.0842022e-19
-1.9942105 -2 -1.7899046
3.6893488e+19 2.263772 -2
-1.967693 -2 -1.7882061
3.6893488e+19 2.2189116 1.0842022e-19
-1.9434981 0 -1.7845309
-2 2.1957173 0
-1.8915926 1.0842022e-19 -1.7854704
-1.0842022e-19 2.1604073 -0
-1.8803755 -2 -1.7851491
2 2.1336052 2
-1.8687224 -2 -1.7863327
-1.0842022e-19 2.1022131 -3.6893488e+19
-1.8487775 -1.0842022e-19 -1.7838798
-1.0842022e-19 3.1827087 2
-2.8597832 1.0842022e-19 2.6563945
1.0842022e-19 3.1888878 -3.6893488e+19
-2.8649206 -0 2.6483431
0 3.2532716 -3.6893488e+19
-2.859236 3.6893488e+19 2.6926043
-3.6893488e+19 3.1909888 -0
-2.8666677 1.0842022e-19 2.6363673
1.0842022e-19 3.2536867 -0
-2.8598249 2 2.6777062
-2 3.1983688 -1.0842022e-19
-2.8728039 -0 2.6287603
-1.0842022e-19 3.253511 -3.6893488e+19
-2.8595757 -1.0842022e-19 2.6618376
-2 3.2538719 -0
-2.8600879 -0 2.646874
-1.0842022e-19 3.2527707 -2
-2.8585258 2 2.6297064
-0 3.2697959 -3.6893488e+19
-2.8459539 -2 2.6429827
-1.0842022e-19 3.2700672 3.6893488e+19
-2.9108801 0 2.6424885
-1.0842022e-19 3.2693815 3.6893488e+19
-2.8454227 -3.6893488e+19 2.6261466
1.0842022e-19 3.2698183 2
-2.9105012 -3.6893488e+19 2.6255808
-2 3.2710242 -0
-2.8475292 0 2.61215
0 3.2091336 -3.6893488e+19
-2.8492625 2 2.5555091
2 3.2672288 1.0842022e-19
-2.8426623 0 2.5910482
-3.6893488e+19 3.2095044 3.6893488e+19
-2.8495448 0 2.5417297
0 3.231174 -1.0842022e-19
-2.8084998 -1.0842022e-19 2.5426481
-1.0842022e-19 3.2097082 -1.0842022e-19
-2.8496997 -1.0842022e-19 2.5278554
1.0842022e-19 3.2325618 -3.6893488e+19
-2.8093896 -0 2.5290785
-3.6893488e+19 3.2042439 2
-2.8455431 -2 2.5107455
-0 3.2336328 1.0842022e-19
-2.8100765 -1.0842022e-19 2.5152826
1.0842022e-19 3.2759936 0
-2.9198964 0 2.5501022
-1.0842022e-19 3.2347996 -3.6893488e+19
-2.8108244 0 2.5014963
3.6893488e+19 3.2531612 1.0842022e-19
-2.8851593 -2 2.5099411
-0 3.2380006 -0
-2.9057565 3.6893488e+19 2.4922566
-3.6893488e+19 3.2221382 -1.0842022e-19
-2.8348365 0 2.4524395
-0 3.2362049 -3.6893488e+19
-2.9042633 -3.6893488e+19 2.4607029
-3.6893488e+19 3.3000855 -0
-2.9256365 1.0842022e-19 2.5195982
-0 3.2136278 1.0842022e-19
-2.8854914 -2 2.4109921
-1.0842022e-19 3.2506332 0
-2.8554943 1.0842022e-19 2.420366
3.6893488e+19 3.2163315 -3.6893488e+19
-2.8877392 2 2.3849521
0 3.2872863 -2
-2.9074819 -2 2.4475372
-1.0842022e-19 3.2200503 2
-2.8908315 -1.0842022e-19 2.3593907
2 3.2883141 -3.6893488e+19
-2.9089398 2 2.4147496
-0 3.2154963 3.6893488e+19
-2.8870449 1.0842022e-19 2.3275955
-0 3.2287891 0
-2.8395534 2 2.3158624
-2 3.2533343 -0
-2.9212785 1.0842022e-19 2.3257821
1.0842022e-19 3.1817749 0
-2.8590066 -1.0842022e-19 2.2514205
-2 3.2343171 3.6893488e+19
-2.8434737 -2 2.2619009
2 3.2675784 0
-2.8431106 -1.0842022e-19 2.2706959
-2 3.2321017 3.6893488e+19
-2.8667345 -0 2.2180374
-0 3.268219 -2
-2.8439319 3.6893488e+19 2.22966
3.6893488e+19 3.2313471 -0
-2.8661604 -0 2.1596956
2 3.2664244 -2
-2.8416307 -1.0842022e-19 2.1638782
-3.6893488e+19 3.2251112 -2
-2.8614168 3.6893488e+19 2.0975759
-2 3.2897122 3.6893488e+19
-2.8714924 3.6893488e+19 2.132057
3.6893488e+19 3.2874625 -2
-2.937345 1.0842022e-19 2.1018763
-2 3.2510295 2
-2.8218904 -3.6893488e+19 2.0221691
-2 3.2806075 0
-2.9269161 3.6893488e+19 2.0264504
-0 3.2606144 2
-2.8341808 3.6893488e+19 1.9714538
0 3.279489 0
-2.9252143 0 1.9585946
-0 3.241168 2
-2.8149076 1.0842022e-19 1.9011302
2 3.2750854 1.0842022e-19
-2.9185147 1.0842022e-19 1.8896387
2 3.2624366 2
-2.8365173 3.6893488e+19 1.8250076
-2 3.2713101 -1.0842022e-19
-2.912771 0 1.7709098
-3.6893488e+19 3.2287114 1.0842022e-19
-2.8980329 -0 1.6449555
-2 3.2409537 -0
-2.8481803 1.0842022e-19 1.3602887
2 3.203033 2
-2.876682 2 -1.5384679
-2 3.2375283 -0
-2.845751 3.6893488e+19 -1.7015547
0 3.2022636 -3.6893488e+19
-2.8760421 1.0842022e-19 -1.7750512
1.0842022e-19 3.2380555 1.0842022e-19
-2.8461249 -1.0842022e-19 -1.8414236
-0 3.2002604 2
-2.8743768 -2 -1.879096
-0 3.2114377 1.0842022e-19
-2.8272479 -1.0842022e-19 -1.9069275
1.0842022e-19 3.1814754 -1.0842022e-19
-2.8587575 -1.0842022e-19 -1.925845
2 3.1993496 1.0842022e-19
-2.818675 -0 -1.9560283
-3.6893488e+19 3.1593585 2
-2.8403683 0 -1.96632
-2 2.8354251 3.6893488e+19
-2.4757617 -2 -1.8582765
-3.6893488e+19 2.7917314 -0
-2.4851303 -2 -1.8497394
2 2.7741292 -2
-2.3888202 -3.6893488e+19 -1.8481493
2 2.7301404 -0
-2.3078372 2 -1.8325185
-2 2.6759198 1.0842022e-19
-2.323997 0 -1.8252901
2 2.6447551 -2
-2.2530932 -1.0842022e-19 -1.8188007
0 2.6067128 -1.0842022e-19
-2.2713511 2 -1.8141038
3.6893488e+19 2.5859077 0
-2.180728 -2 -1.8096598
-1.0842022e-19 2.5566633 -0
-2.2165573 -1.0842022e-19 -1.8059453
3.6893488e+19 2.542294 -1.0842022e-19
-2.1248028 -2 -1.8028816
-2 2.5202773 -2
-2.1611996 0 -1.8006887
1.0842022e-19 2.5101013 2
-2.0835228 -0 -1.7986121
0 2.4822712 -2
-2.1168633 1.0842022e-19 -1.7962228
-0 2.4662988 -1.0842022e-19
-2.0489628 3.6893488e+19 -1.7943692
-2 2.4307802 -2
-2.0776942 -1.0842022e-19 -1.7908907
-1.0842022e-19 3.1827087 2
-2.8597832 1.0842022e-19 2.6563945
1.0842022e-19 3.1888878 -3.6893488e+19
-2.8649206 -0 2.6483431
0 3.2532716 -3.6893488e+19
-2.859236 3.6893488e+19 2.6926043
-3.6893488e+19 3.1909888 -0
-2.8666677 1.0842022e-19 2.6363673
1.0842022e-19 3.2536867 -0
-2.8598249 2 2.6777062
-2 3.1983688 -1.0842022e-19
-2.8728039 -0 2.6287603
-1.0842022e-19 3.253511 -3.6893488e+19
-2.8595757 -1.0842022e-19 2.6618376
-3.6893488e+19 3.210906 -3.6893488e+19
-2.8268707 -3.6893488e+19 2.6102633
-1.0842022e-19 3.2527707 -2
-2.8585258 2 2.6297064
-0 3.2697959 -3.6893488e+19
-2.8459539 -2 2.6429827
3.6893488e+19 3.1932347 -3.6893488e+19
-2.8371682 -0 2.5720761
-1.0842022e-19 3.2693815 3.6893488e+19
-2.8454227 -3.6893488e+19 2.6261466
2 3.199111 -2
-2.8416383 -1.0842022e-19 2.5625761
-2 3.2710242 -0
-2.8475292 0 2.61215
0 3.2091336 -3.6893488e+19
-2.8492625 2 2.5555091
2 3.2672288 1.0842022e-19
-2.8426623 0 2.5910482
-3.6893488e+19 3.2095044 3.6893488e+19
-2.8495448 0 2.5417297
0 3.231174 -1.0842022e-19
-2.8084998 -1.0842022e-19 2.5426481
-1.0842022e-19 3.2097082 -1.0842022e-19
-2.8496997 -1.0842022e-19 2.5278554
1.0842022e-19 3.2325618 -3.6893488e+19
-2.8093896 -0 2.5290785
-3.6893488e+19 3.2042439 2
-2.8455431 -2 2.5107455
-0 3.2336328 1.0842022e-19
-2.8100765 -1.0842022e-19 2.5152826
1.0842022e-19 3.2759936 0
-2.9198964 0 2.5501022
-1.0842022e-19 3.2347996 -3.6893488e+19
-2.8108244 0 2.5014963
3.6893488e+19 3.2531612 1.0842022e-19
-2.8851593 -2 2.5099411
-1.0842022e-19 3.1834567 -0
-2.860405 2 2.437237
-3.6893488e+19 3.2221382 -1.0842022e-19
-2.8348365 0 2.4524395
-0 3.188617 -2
-2.8646955 0 2.4156113
-3.6893488e+19 3.2502787 1.0842022e-19
-2.8549914 1.0842022e-19 2.4497032
3.6893488e+19 3.1864147 3.6893488e+19
-2.8628645 -3.6893488e+19 2.3868685
3.6893488e+19 3.2177649 -0
-2.8317349 -1.0842022e-19 2.392271
3.6893488e+19 3.2163315 -3.6893488e+19
-2.8877392 2 2.3849521
-0 3.2513571 -3.6893488e+19
-2.8565207 -1.0842022e-19 2.3915665
-1.0842022e-19 3.2200503 2
-2.8908315 -1.0842022e-19 2.3593907
-1.0842022e-19 3.253346 3.6893488e+19
-2.8593419 2 2.3644469
-0 3.2154963 3.6893488e+19
-2.8870449 1.0842022e-19 2.3275955
-0 3.2287891 0
-2.8395534 2 2.3158624
0 3.181447 -1.0842022e-19
-2.8587339 0 2.2774153
1.0842022e-19 3.1817749 0
-2.8590066 -1.0842022e-19 2.2514205
-2 3.2343171 3.6893488e+19
-2.8434737 -2 2.2619009
2 3.2675784 0
-2.8431106 -1.0842022e-19 2.2706959
-2 3.2321017 3.6893488e+19
-2.8667345 -0 2.2180374
-2 3.2387137 -1.0842022e-19
-2.813334 -2 2.1869869
3.6893488e+19 3.2313471 -0
-2.8661604 -0 2.1596956
-3.6893488e+19 3.2476525 2
-2.8190651 1.0842022e-19 2.1365404
-3.6893488e+19 3.2251112 -2
-2.8614168 3.6893488e+19 2.0975759
0 3.250417 1.0842022e-19
-2.8211048 -3.6893488e+19 2.0802362
3.6893488e+19 3.2874625 -2
-2.937345 1.0842022e-19 2.1018763
-2 3.2510295 2
-2.8218904 -3.6893488e+19 2.0221691
2 3.22456 -1.0842022e-19
-2.8609974 1.0842022e-19 1.9837648
-2 3.2454069 3.6893488e+19
-2.8176253 3.6893488e+19 1.9604828
-1.0842022e-19 3.2208474 2
-2.8581734 1.0842022e-19 1.9257067
-0 3.241168 2
-2.8149076 1.0842022e-19 1.9011302
2 3.2207615 1.0842022e-19
-2.858108 -0 1.8639675
2 3.2401774 2
-2.8142724 0 1.8117864
-3.6893488e+19 3.2207694 -2
-2.858114 0 1.7515892
2 3.2037516 2
-2.8772795 -2 1.6373975
-2 3.2409537 -0
-2.8481803 1.0842022e-19 1.3602887
2 3.203033 2
-2.876682 2 -1.5384679
-2 3.2375283 -0
-2.845751 3.6893488e+19 -1.7015547
0 3.2022636 -3.6893488e+19
-2.8760421 1.0842022e-19 -1.7750512
1.0842022e-19 3.2380555 1.0842022e-19
-2.8461249 -1.0842022e-19 -1.8414236
-0 3.2002604 2
-2.8743768 -2 -1.879096
-0 3.2114377 1.0842022e-19
-2.8272479 -1.0842022e-19 -1.9069275
1.0842022e-19 3.1814754 -1.0842022e-19
-2.8587575 -1.0842022e-19 -1.925845
2 3.1993496 1.0842022e-19
-2.818675 -0 -1.9560283
-3.6893488e+19 3.1593585 2
-2.8403683 0 -1.96632
-2 2.8354251 3.6893488e+19
-2.4757617 -2 -1.8582765
-3.6893488e+19 2.7917314 -0
-2.4851303 -2 -1.8497394
2 2.7741292 -2
-2.3888202 -3.6893488e+19 -1.8481493
2 2.7301404 -0
-2.3078372 2 -1.8325185
-2 2.6759198 1.0842022e-19
-2.323997 0 -1.8252901
2 2.6447551 -2
-2.2530932 -1.0842022e-19 -1.8188007
0 2.6067128 -1.0842022e-19
-2.2713511 2 -1.8141038
3.6893488e+19 2.5859077 0
-2.180728 -2 -1.8096598
-1.0842022e-19 2.5566633 -0
-2.2165573 -1.0842022e-19 -1.8059453
3.6893488e+19 2.542294 -1.0842022e-19
-2.1248028 -2 -1.8028816
-2 2.5202773 -2
-2.1611996 0 -1.8006887
1.0842022e-19 2.5101013 2
-2.0835228 -0 -1.7986121
0 2.4822712 -2
-2.1168633 1.0842022e-19 -1.7962228
-0 2.4662988 -1.0842022e-19
-2.0489628 3.6893488e+19 -1.7943692
-2 2.4307802 -2
-2.0776942 -1.0842022e-19 -1.7908907
-2 3.1829669 -2
-2.8626692 -0 2.657083
2 3.1899021 3.6893488e+19
-2.8684783 -2 2.6497016
3.6893488e+19 3.1867764 1.0842022e-19
-2.8658602 -2 2.6330962
-1.0842022e-19 3.2538245 1.0842022e-19
-2.8630266 -3.6893488e+19 2.6783392
0 3.2532451 -3.6893488e+19
-2.8621976 -1.0842022e-19 2.6617906
-1.0842022e-19 3.2528098 1.0842022e-19
-2.8615754 -0 2.6455834
-1.0842022e-19 3.2692747 2
-2.8484094 3.6893488e+19 2.6425557
0 3.2702425 -1.0842022e-19
-2.9144008 -2 2.643137
1.0842022e-19 3.2692125 -3.6893488e+19
-2.8483286 -1.0842022e-19 2.6262286
-0 3.2717509 -0
-2.9167142 3.6893488e+19 2.6286509
-1.0842022e-19 3.2705748 -3.6893488e+19
-2.8500915 -2 2.6118553
-3.6893488e+19 3.2078657 -1.0842022e-19
-2.8510551 -3.6893488e+19 2.5549712
-3.6893488e+19 3.2701039 -2
-2.8494823 0 2.5950096
-3.6893488e+19 3.2037616 2
-2.8479085 -0 2.5383728
-2 3.2700891 3.6893488e+19
-2.8494632 -2 2.5788126
2 3.2707088 -0
-2.8502648 -2 2.5633814
1.0842022e-19 3.2321329 3.6893488e+19
-2.8119111 -2 2.5146837
-1.0842022e-19 3.2755575 -1.0842022e-19
-2.9225514 2 2.5499289
0 3.2346258 -2
-2.8135238 0 2.5016189
2 3.2376664 1.0842022e-19
-2.9084876 2 2.4924591
-3.6893488e+19 3.2889624 -3.6893488e+19
-2.9132817 -0 2.5271654
0 3.2342968 -0
-2.9056649 -2 2.4593983
2 3.2108545 -3.6893488e+19
-2.8860288 -3.6893488e+19 2.4089818
-2 3.250838 2
-2.8587554 -3.6893488e+19 2.4211032
-1.0842022e-19 3.2161934 3.6893488e+19
-2.890501 2 2.3852603
0 3.2872081 0
-2.9107726 3.6893488e+19 2.4478343
2 3.2186739 -3.6893488e+19
-2.8925786 2 2.3587315
-2 3.2532263 -3.6893488e+19
-2.8621709 -0 2.3646157
-0 3.2189796 0
-2.8928349 -1.0842022e-19 2.3304088
-0 3.2890143 1.0842022e-19
-2.9133561 -1.0842022e-19 2.3816888
-0 3.2532148 -3.6893488e+19
-2.9242043 -2 2.3259854
2 3.2900152 -3.6893488e+19
-2.9147873 2 2.3484647
-0 3.1803238 3.6893488e+19
-2.8604553 -3.6893488e+19 2.2508504
-0 3.2331007 -0
-2.8454716 2 2.2614877
1.0842022e-19 3.2659423 0
-2.8440976 -2 2.2692685
1.0842022e-19 3.2321136 -2
-2.8696463 1.0842022e-19 2.2185187
-1.0842022e-19 3.266077 -2
-2.8442719 -2 2.2262323
-1.0842022e-19 3.2318261 -0
-2.869426 3.6893488e+19 2.1605151
-3.6893488e+19 3.2658722 -1.0842022e-19
-2.844007 1.0842022e-19 2.1633704
1.0842022e-19 3.2310486 -3.6893488e+19
-2.8688297 -3.6893488e+19 2.1022725
2 3.2448843 -2
-2.8201604 0 2.0765896
-2 3.2875969 0
-2.9410133 1.0842022e-19 2.1023943
1.0842022e-19 3.28212 0
-2.9326146 1.0842022e-19 2.0282195
-1.0842022e-19 3.2440665 0
-2.8196316 -2 1.960091
3.6893488e+19 3.2798505 -0
-2.9291344 1.0842022e-19 1.959074
-3.6893488e+19 3.2602997 -3.6893488e+19
-2.8367968 -1.0842022e-19 1.9103217
1.0842022e-19 3.2753494 1.0842022e-19
-2.9222322 -2 1.8899128
-3.6893488e+19 3.2589738 -0
-2.8350813 -3.6893488e+19 1.8225356
1.0842022e-19 3.2722929 3.6893488e+19
-2.9175451 0 1.7715852
2 3.2346723 0
-2.9059796 0 1.6469215
-0 3.2378757 -2
-2.8488863 -2 1.3590324
-2 3.2368946 0
-2.9078412 -2 -1.5508789
2 3.2391911 -2
-2.8498268 -0 -1.7024313
-0 3.2011914 -1.0842022e-19
-2.8779347 -3.6893488e+19 -1.7748597
-3.6893488e+19 3.2384522 1.0842022e-19
-2.8492987 -2 -1.8418024
3.6893488e+19 3.1996806 3.6893488e+19
-2.8766692 -0 -1.8790712
-2 3.2145953 -1.0842022e-19
-2.8322382 -0 -1.9081492
3.6893488e+19 3.1866217 -0
-2.8657305 0 -1.9281377
3.6893488e+19 3.1916933 1.0842022e-19
-2.8158607 1.0842022e-19 -1.9527075
0 3.1589966 -3.6893488e+19
-2.8425906 -0 -1.9663657
-2 2.8298781 1.0842022e-19
-2.4718006 -2 -1.8546335
2 2.7884171 0
-2.4831779 -1.0842022e-19 -1.8474299
3.6893488e+19 2.7722268 -3.6893488e+19
-2.3893459 -2 -1.8468082
2 2.7285466 2
-2.3095911 3.6893488e+19 -1.8320047
-0 2.6753762 -0
-2.3261447 -1.0842022e-19 -1.8252351
-2 2.6459646 2
-2.2561655 -0 -1.8195591
-1.0842022e-19 2.60519 -2
-2.2723315 -0 -1.8134856
-2 2.5860982 -2
-2.184871 -1.0842022e-19 -1.809921
2 2.5564723 3.6893488e+19
-2.2199574 -1.0842022e-19 -1.8060141
3.6893488e+19 2.5420468 3.6893488e+19
-2.1278737 -2 -1.8028816
-3.6893488e+19 2.5200062 3.6893488e+19
-2.1640389 0 -1.8006887
-1.0842022e-19 2.5099998 -2
-2.0864086 -3.6893488e+19 -1.7986913
-1.0842022e-19 2.4829507 1.0842022e-19
-2.1202884 -3.6893488e+19 -1.7966361
-0 2.4656675 2
-2.051259 -2 -1.794283
2 2.4324408 0
-2.0815613 -3.6893488e+19 -1.7916973
0 2.3919291 -1.0842022e-19
-2.0035546 -1.0842022e-19 -1.790653
1.0842022e-19 2.3285182 -1.0842022e-19
-2.0251789 3.6893488e+19 -1.7883241
-3.6893488e+19 2.2934268 -3.6893488e+19
-1.9957852 -2 -1.7888827
3.6893488e+19 2.2631962 0
-1.970463 -2 -1.7882061
-0 2.2233551 2
-1.9482499 -1.0842022e-19 -1.7863948
0 2.1977804 -3.6893488e+19
-1.8948435 -3.6893488e+19 -1.7864848
0 2.1606519 2
-1.8828336 -3.6893488e+19 -1.7855147
-3.6893488e+19 2.1343586 -2
-1.8736571 1.0842022e-19 -1.7869223
1.0842022e-19 2.1020854 0
-1.8527782 -0 -1.7840899
-2 3.1829669 -2
-2.8626692 -0 2.657083
2 3.1899021 3.6893488e+19
-2.8684783 -2 2.6497016
3.6893488e+19 3.1867764 1.0842022e-19
-2.8658602 -2 2.6330962
-1.0842022e-19 3.2538245 1.0842022e-19
-2.8630266 -3.6893488e+19 2.6783392
0 3.2532451 -3.6893488e+19
-2.8621976 -1.0842022e-19 2.6617906
-2 3.2151921 -1.0842022e-19
-2.832665 0 2.6139541
-1.0842022e-19 3.2692747 2
-2.8484094 3.6893488e+19 2.6425557
3.6893488e+19 3.1941135 0
-2.8405111 -1.0842022e-19 2.5730386
1.0842022e-19 3.2692125 -3.6893488e+19
-2.8483286 -1.0842022e-19 2.6262286
-0 3.1987469 -1.0842022e-19
-2.8440635 0 2.5626364
-1.0842022e-19 3.2705748 -3.6893488e+19
-2.8500915 -2 2.6118553
-3.6893488e+19 3.2078657 -1.0842022e-19
-2.8510551 -3.6893488e+19 2.5549712
-3.6893488e+19 3.2701039 -2
-2.8494823 0 2.5950096
-3.6893488e+19 3.2037616 2
-2.8479085 -0 2.5383728
-2 3.2700891 3.6893488e+19
-2.8494632 -2 2.5788126
2 3.2707088 -0
-2.8502648 -2 2.5633814
1.0842022e-19 3.2321329 3.6893488e+19
-2.8119111 -2 2.5146837
-3.6893488e+19 3.2230749 2
-2.8627164 2 2.5074577
0 3.2346258 -2
-2.8135238 0 2.5016189
2 3.1863029 -0
-2.8654635 0 2.4405909
0 3.2187729 3.6893488e+19
-2.8352256 -3.6893488e+19 2.4496348
0 3.1883657 -1.0842022e-19
-2.8671913 0 2.4158287
0 3.1810906 -3.6893488e+19
-2.8610973 1.0842022e-19 2.3825681
0 3.2180889 -1.0842022e-19
-2.8347363 1.0842022e-19 2.3929102
-1.0842022e-19 3.2161934 3.6893488e+19
-2.890501 2 2.3852603
-2 3.2510047 0
-2.8589938 -3.6893488e+19 2.3913836
2 3.2186739 -3.6893488e+19
-2.8925786 2 2.3587315
-2 3.2532263 -3.6893488e+19
-2.8621709 -0 2.3646157
-0 3.2189796 0
-2.8928349 -1.0842022e-19 2.3304088
3.6893488e+19 3.2276373 -0
-2.8415647 2 2.3153975
-0 3.1807442 1.0842022e-19
-2.8608074 1.0842022e-19 2.2772672
1.0842022e-19 3.224509 3.6893488e+19
-2.8393276 0 2.2850707
-0 3.1803238 3.6893488e+19
-2.8604553 -3.6893488e+19 2.2508504
-0 3.2331007 -0
-2.8454716 2 2.2614877
1.0842022e-19 3.2659423 0
-2.8440976 -2 2.2692685
1.0842022e-19 3.2321136 -2
-2.8696463 1.0842022e-19 2.2185187
0 3.2416854 -1.0842022e-19
-2.8180909 -2 2.190016
-1.0842022e-19 3.2318261 -0
-2.869426 3.6893488e+19 2.1605151
-3.6893488e+19 3.2360935 -3.6893488e+19
-2.8144734 -1.0842022e-19 2.1278818
1.0842022e-19 3.2310486 -3.6893488e+19
-2.8688297 -3.6893488e+19 2.1022725
2 3.2448843 -2
-2.8201604 0 2.0765896
0 3.2030985 3.6893488e+19
-2.8474 -1.0842022e-19 2.0275919
-1.0842022e-19 3.2258632 -3.6893488e+19
-2.8648541 2 1.984642
-1.0842022e-19 3.2440665 0
-2.8196316 -2 1.960091
1.0842022e-19 3.2220089 -2
-2.8618989 1.0842022e-19 1.926317
-3.6893488e+19 3.2602997 -3.6893488e+19
-2.8367968 -1.0842022e-19 1.9103217
1.0842022e-19 3.2753494 1.0842022e-19
-2.9222322 -2 1.8899128
-1.0842022e-19 3.237622 2
-2.8154624 -0 1.8109699
-2 3.2200639 2
-2.8604078 0 1.7515264
3.6893488e+19 3.2161098 1.0842022e-19
-2.8904309 -1.0842022e-19 1.6412945
-0 3.2378757 -2
-2.8488863 -2 1.3590324
3.6893488e+19 3.2038336 2
-2.8801479 -1.0842022e-19 -1.5389364
2 3.2391911 -2
-2.8498268 -0 -1.7024313
-0 3.2011914 -1.0842022e-19
-2.8779347 -3.6893488e+19 -1.7748597
-3.6893488e+19 3.2384522 1.0842022e-19
-2.8492987 -2 -1.8418024
3.6893488e+19 3.1996806 3.6893488e+19
-2.8766692 -0 -1.8790712
-2 3.2145953 -1.0842022e-19
-2.8322382 -0 -1.9081492
3.6893488e+19 3.1866217 -0
-2.8657305 0 -1.9281377
3.6893488e+19 3.1916933 1.0842022e-19
-2.8158607 1.0842022e-19 -1.9527075
0 3.1589966 -3.6893488e+19
-2.8425906 -0 -1.9663657
-2 2.8298781 1.0842022e-19
-2.4718006 -2 -1.8546335
2 2.7884171 0
-2.4831779 -1.0842022e-19 -1.8474299
3.6893488e+19 2.7722268 -3.6893488e+19
-2.3893459 -2 -1.8468082
2 2.7285466 2
-2.3095911 3.6893488e+19 -1.8320047
-0 2.6753762 -0
-2.3261447 -1.0842022e-19 -1.8252351
-2 2.6459646 2
-2.2561655 -0 -1.8195591
-1.0842022e-19 2.60519 -2
-2.2723315 -0 -1.8134856
-2 2.5860982 -2
-2.184871 -1.0842022e-19 -1.809921
2 2.5564723 3.6893488e+19
-2.2199574 -1.0842022e-19 -1.8060141
3.6893488e+19 2.5420468 3.6893488e+19
-2.1278737 -2 -1.8028816
-3.6893488e+19 2.5200062 3.6893488e+19
-2.1640389 0 -1.8006887
-1.0842022e-19 2.5099998 -2
-2.0864086 -3.6893488e+19 -1.7986913
-1.0842022e-19 2.4829507 1.0842022e-19
-2.1202884 -3.6893488e+19 -1.7966361
-0 2.4656675 2
-2.051259 -2 -1.794283
2 2.4324408 0
-2.0815613 -3.6893488e+19 -1.7916973
0 2.3919291 -1.0842022e-19
-2.0035546 -1.0842022e-19 -1.790653
1.0842022e-19 2.3285182 -1.0842022e-19
-2.0251789 3.6893488e+19 -1.7883241
-3.6893488e+19 2.2934268 -3.6893488e+19
-1.9957852 -2 -1.7888827
3.6893488e+19 2.2631962 0
-1.970463 -2 -1.7882061
-0 2.2233551 2
-1.9482499 -1.0842022e-19 -1.7863948
0 2.1977804 -3.6893488e+19
-1.8948435 -3.6893488e+19 -1.7864848
0 2.1606519 2
-1.8828336 -3.6893488e+19 -1.7855147
-3.6893488e+19 2.1343586 -2
-1.8736571 1.0842022e-19 -1.7869223
1.0842022e-19 2.1020854 0
-1.8527782 -0 -1.7840899
-1.0842022e-19 3.1860399 0
-2.8679411 3.6893488e+19 2.6328733
0 3.2530062 1.0842022e-19
-2.8648596 -1.0842022e-19 2.6617906
-2 3.2528315 1.0842022e-19
-2.8646078 0 2.6459911
2 3.1832271 2
-2.8655674 -1.0842022e-19 2.5896277
2 3.2100992 1.0842022e-19
-2.831754 3.6893488e+19 2.5962253
2 3.2689278 -1.0842022e-19
-2.8510869 -2 2.6423848
-3.6893488e+19 3.1941528 -1.0842022e-19
-2.8432224 -1.0842022e-19 2.5733943
1.0842022e-19 3.2690852 2
-2.8512924 3.6893488e+19 2.6263721
-3.6893488e+19 3.2015443 -1.0842022e-19
-2.8489342 1.0842022e-19 2.5649037
2 3.2688036 -0
-2.8509247 3.6893488e+19 2.6097937
-2 3.2074027 -2
-2.8534613 -3.6893488e+19 2.5549712
-1.0842022e-19 3.2700937 0
-2.8526092 1.0842022e-19 2.5952911
-2 3.2030432 -3.6893488e+19
-2.8500924 1.0842022e-19 2.5382078
-2 3.2700202 2
-2.8525133 1.0842022e-19 2.5790098
0 3.2866564 3.6893488e+19
-2.9430315 -2 2.5972188
-3.6893488e+19 3.2705805 3.6893488e+19
-2.8532448 2 2.5635009
1.0842022e-19 3.2876394 -3.6893488e+19
-2.9445508 1.0842022e-19 2.5808883
-1.0842022e-19 3.2321336 -0
-2.8147142 1.0842022e-19 2.5149105
-3.6893488e+19 3.2344477 3.6893488e+19
-2.8162248 1.0842022e-19 2.5017414
2 3.1821032 -0
-2.864619 -0 2.4368322
0 3.2867181 -3.6893488e+19
-2.9134753 1.0842022e-19 2.5252724
0 3.2316725 0
-2.9064469 -1.0842022e-19 2.4574142
-3.6893488e+19 3.2568104 -0
-2.8703458 -0 2.4623075
3.6893488e+19 3.2097154 2
-2.8879189 -3.6893488e+19 2.408422
-3.6893488e+19 3.2582955 3.6893488e+19
-2.8724875 2 2.4340324
-3.6893488e+19 3.2175128 0
-2.8944988 -0 2.3867779
0 3.2503729 3.6893488e+19
-2.861062 -3.6893488e+19 2.3907669
2 3.217468 -2
-2.8944607 1.0842022e-19 2.3582041
3.6893488e+19 3.2579966 3.6893488e+19
-2.8720562 -0 2.371835
2 3.2178016 3.6893488e+19
-2.8947423 0 2.3299434
-0 3.2527916 0
-2.9266236 -2 2.3258004
0 3.2069674 1.0842022e-19
-2.8856001 -0 2.2666764
2 3.2322929 3.6893488e+19
-2.8477566 2 2.261297
-1.0842022e-19 3.2394106 -3.6893488e+19
-2.8194642 -2 2.2459555
2 3.2886729 -2
-2.9461482 1.0842022e-19 2.2808168
1.0842022e-19 3.2410579 -0
-2.8205395 -1.0842022e-19 2.1898301
3.6893488e+19 3.2892749 3.6893488e+19
-2.9470787 -2 2.2434225
3.6893488e+19 3.2364502 -0
-2.8175318 3.6893488e+19 2.1284821
1.0842022e-19 3.2887275 -0
-2.9462326 2 2.1732993
-3.6893488e+19 3.2420571 -1.0842022e-19
-2.8211918 -2 2.0750012
2 3.287044 -2
-2.9436307 3.6893488e+19 2.1020727
-1.0842022e-19 3.2436347 -2
-2.8222215 -1.0842022e-19 2.0180576
-2 3.2824028 0
-2.9364579 -1.0842022e-19 2.0287802
-3.6893488e+19 3.2805297 0
-2.8662336 -1.0842022e-19 1.9887823
-2 3.2792323 -2
-2.9315577 -1.0842022e-19 1.9588233
3.6893488e+19 3.2811666 3.6893488e+19
-2.8670647 0 1.9233218
1.0842022e-19 3.2751729 -3.6893488e+19
-2.9252837 0 1.8899648
-3.6893488e+19 3.2406218 0
-2.820255 0 1.812274
1.0842022e-19 3.2730231 0
-2.9219613 -3.6893488e+19 1.772127
-0 3.2122838 0
-2.8900864 -1.0842022e-19 1.6402897
-0 3.2710183 3.6893488e+19
-2.8908348 -1.0842022e-19 1.3801293
-1.0842022e-19 3.2042248 1.0842022e-19
-2.883286 2 -1.5392592
-3.6893488e+19 3.2619295 -2
-2.877728 -3.6893488e+19 -1.716982
0 3.2008371 -1.0842022e-19
-2.8804271 -0 -1.7749076
2 3.2620885 -2
-2.8779571 0 -1.8578788
-3.6893488e+19 3.1978595 -3.6893488e+19
-2.8779147 -0 -1.8786907
-0 3.2117469 -0
-2.832942 -3.6893488e+19 -1.907328
-0 3.1998119 -1.0842022e-19
-2.8795621 -1.0842022e-19 -1.933722
1.0842022e-19 3.1911004 -2
-2.8180547 -2 -1.9526265
0 3.1569045 -1.0842022e-19
-2.8433557 -3.6893488e+19 -1.9654969
-2 2.8898611 -0
-2.5789742 0 -1.8768631
2 2.8317406 1.0842022e-19
-2.4784024 -0 -1.856148
3.6893488e+19 2.7931609 2
-2.4947526 -1.0842022e-19 -1.8513384
-0 2.7723811 3.6893488e+19
-2.3928001 2 -1.8471435
2 2.7301555 -0
-2.3134229 1.0842022e-19 -1.8328781
-3.6893488e+19 2.6773908 0
-2.3302696 -2 -1.8263872
2 2.6457453 -0
-2.2583239 -3.6893488e+19 -1.8196174
2 2.6059947 -2
-2.2750974 2 -1.8141038
2 2.5850999 -2
-2.187475 2 -1.8095293
-0 2.5569766 0
-2.224437 1.0842022e-19 -1.8064955
-0 2.5417974 -3.6893488e+19
-2.1309433 -2 -1.8028816
-1.0842022e-19 2.5197332 2
-2.1668768 0 -1.8006887
-0 2.5097778 3.6893488e+19
-2.0891416 -3.6893488e+19 -1.7986913
