# .PCD v0.7 - Point Cloud Data file format
VERSION 0.7
FIELDS x y z
SIZE 4 4 4
TYPE F F F
COUNT 1 1 1
WIDTH 1683
HEIGHT 1
VIEWPOINT 0 0 0 1 0 0 0
POINTS 1683
DATA ascii
2 3.1925213 -0
-1.6730461 2 2.563267
0 3.2516382 2
1.9467859 -3.6893488e+19 2.5991423
3.6893488e+19 3.2480679 3.6893488e+19
-1.9795675 2 2.5884185
-3.6893488e+19 3.2028995 3.6893488e+19
1.9270881 2 2.5511961
2 3.2472579 -2
-1.9791942 3.6893488e+19 2.573612
-1.0842022e-19 3.2176981 1.0842022e-19
1.9328746 -3.6893488e+19 2.5476484
3.6893488e+19 3.2460194 -3.6893488e+19
-1.9786233 -0 2.5586202
0 3.2475955 -2
-1.9793497 2 2.5453982
2 3.2023215 -0
-1.9584823 -2 2.5056374
-0 3.2015727 1.0842022e-19
1.9265693 -3.6893488e+19 2.49753
-2 3.2464709 2
-1.9788315 -3.6893488e+19 2.5164785
-0 3.2014375 -2
1.9265164 -3.6893488e+19 2.4717467
1.0842022e-19 3.2060502 0
-1.9602009 1.0842022e-19 2.4636855
-1.0842022e-19 3.2405279 -1.0842022e-19
-1.9760922 -1.0842022e-19 2.4709582
1.0842022e-19 3.1662617 1.0842022e-19
-2.1456971 0 2.3884046
-1.0842022e-19 3.1539884 -3.6893488e+19
-1.6579779 2 2.3648796
0 3.2581744 -3.6893488e+19
-2.2408395 3.6893488e+19 2.4525762
-0 3.156534 1.0842022e-19
-1.6589735 -0 2.3442373
-1.0842022e-19 3.1682622 1.0842022e-19
-2.147599 3.6893488e+19 2.3429728
3.6893488e+19 3.155549 2
-1.6585883 2 2.3205469
2 3.1664698 1.0842022e-19
-2.145895 3.6893488e+19 2.318011
-3.6893488e+19 3.1569698 2
-1.6591439 0 2.2987695
-2 3.1728268 3.6893488e+19
-2.151938 -1.0842022e-19 2.2990417
-3.6893488e+19 3.2133617 3.6893488e+19
-1.6811957 -1.0842022e-19 2.3141229
-2 3.171864 -3.6893488e+19
-2.1510227 3.6893488e+19 2.2746255
-2 3.2192633 -0
-1.6835035 3.6893488e+19 2.2917829
-2 3.1588089 0
-2.1386127 2 2.2362955
1.0842022e-19 3.1559787 3.6893488e+19
-1.6587563 -0 2.2093294
-0 3.183568 3.6893488e+19
-2.1621485 0 2.2170653
0 3.1504619 -0
-1.6565989 -3.6893488e+19 2.1582139
0 3.151746 1.0842022e-19
1.9070866 3.6893488e+19 2.1371422
1.0842022e-19 3.2404456 1.0842022e-19
-1.9760543 0 2.1952188
-3.6893488e+19 3.2564197 -0
1.9505253 -1.0842022e-19 2.186801
0 3.1527727 3.6893488e+19
-1.9356444 -3.6893488e+19 2.0705557
-2 3.1543379 -3.6893488e+19
-1.9363658 0 2.026592
0 3.1738596 2
1.9157332 2 2.0162203
1.0842022e-19 3.1561656 1.0842022e-19
-1.9372083 -3.6893488e+19 1.9824462
-1.0842022e-19 3.1681886 -0
1.9135158 -3.6893488e+19 1.9659456
3.6893488e+19 3.1723013 1.0842022e-19
1.9151239 -1.0842022e-19 1.920909
0 3.1603572 -2
-1.9391402 1.0842022e-19 1.8931894
1.0842022e-19 3.1622453 0
1.9111919 1.0842022e-19 1.8666545
0 3.1622524 2
-1.9400138 -2 1.8206779
3.6893488e+19 3.1680357 0
1.9134561 3.6893488e+19 1.7767377
-1.0842022e-19 3.1573808 1.0842022e-19
-1.9377685 0 1.7048612
-0 3.2584791 -1.0842022e-19
-2.2414191 1.0842022e-19 1.6447983
-3.6893488e+19 3.1473985 1.0842022e-19
-1.6554011 2 1.3045049
1.0842022e-19 3.2601497 -1.0842022e-19
-2.2445951 0 -1.5486612
0 3.1447353 3.6893488e+19
-1.6543596 0 -1.6538113
-2 3.1513674 0
-2.1315389 -0 -1.7463582
0 3.1449277 -1.0842022e-19
-1.6544348 1.0842022e-19 -1.7900603
0 3.1558225 1.0842022e-19
-2.1357737 2 -1.8402594
-2 3.1441321 3.6893488e+19
-1.6541238 -0 -1.8763331
0 3.1569197 -2
-2.1368165 3.6893488e+19 -1.9034015
-2 3.1412561 0
-1.6529992 -0 -1.9190804
0 3.1574044 2
-2.1372774 1.0842022e-19 -1.9491431
2 3.1446085 -0
-1.65431 -2 -1.9645803
0 3.1551881 -0
-2.1351705 -3.6893488e+19 -1.9933898
0 3.1204324 -2
-1.644856 -3.6893488e+19 -1.9928138
-1.0842022e-19 3.1022489 -2
-2.0848467 2 -2.0010109
-3.6893488e+19 3.1128886 2
-1.6419061 -3.6893488e+19 -2.0284216
0 2.9803884 3.6893488e+19
-1.8464187 -3.6893488e+19 -1.9612343
-2 2.8999479 -1.0842022e-19
1.7813835 -0 -1.9370334
2 2.7815635 -1.0842022e-19
1.7201881 -2 -1.8974406
-0 2.7541037 -1.0842022e-19
-1.734241 -3.6893488e+19 -1.8901964
-1.0842022e-19 2.715765 -0
1.6821187 -2 -1.8850007
-3.6893488e+19 2.6741021 1.0842022e-19
-1.6954756 3.6893488e+19 -1.8788888
0 2.6440153 1.0842022e-19
1.6540638 3.6893488e+19 -1.8752589
-2 2.6138484 -2
-1.6677036 -1.0842022e-19 -1.8665804
3.6893488e+19 2.5898798 2
1.6328963 3.6893488e+19 -1.8601872
-1.0842022e-19 2.5694511 -2
-1.6472402 -1.0842022e-19 -1.8550602
3.6893488e+19 2.550101 0
1.6096849 1.0842022e-19 -1.84954
-2 2.5294464 -2
-1.6288013 -1.0842022e-19 -1.8419756
-0 2.5153327 -3.6893488e+19
1.5824953 -0 -1.8384683
2 2.4988484 3.6893488e+19
-1.6049273 2 -1.8327228
-0 2.4796317 -0
-1.7279682 -3.6893488e+19 -1.8317633
-3.6893488e+19 2.4586687 -2
-1.3043605 -1.0842022e-19 -1.8288529
-3.6893488e+19 2.4388466 0
-1.7085832 3.6893488e+19 -1.8265926
-2 2.3710258 1.0842022e-19
-1.6763481 1.0842022e-19 -1.8164734
2 2.3288198 2
-1.6562876 1.0842022e-19 -1.8134019
-0 2.2847428 -1.0842022e-19
-1.6353378 -0 -1.8044139
-1.0842022e-19 2.2576573 -3.6893488e+19
1.451493 1.0842022e-19 -1.8018725
2 2.2276666 -3.6893488e+19
1.4367722 -3.6893488e+19 -1.8026997
3.6893488e+19 2.1847229 3.6893488e+19
1.4199809 -3.6893488e+19 -1.7993022
-2 2.1433935 1.0842022e-19
1.4038208 -1.0842022e-19 -1.7941775
2 3.2502804 1.0842022e-19
-2.2469094 -0 2.7143102
-3.6893488e+19 3.2563913 -1.0842022e-19
-1.7682891 -1.0842022e-19 2.7172265
-1.0842022e-19 3.2574346 0
-2.2555568 -1.0842022e-19 2.7124531
-3.6893488e+19 3.2402089 0
-2.2366331 -0 2.6759408
-1.0842022e-19 3.2412126 1.0842022e-19
-2.2376294 0 2.6624672
-0 3.2720337 -2
-1.7770311 -1.0842022e-19 2.6980741
-3.6893488e+19 3.2668848 1.0842022e-19
-2.2649381 1.0842022e-19 2.682656
0 3.1918817 -1.0842022e-19
-1.7469537 -1.0842022e-19 2.6010926
-1.0842022e-19 3.2561879 1.0842022e-19
-2.2543192 -0 2.6504366
-0 3.2566903 -3.6893488e+19
-1.7684561 -2 2.6430397
-3.6893488e+19 3.2221038 -0
-1.756922 1.0842022e-19 2.597811
-3.6893488e+19 3.2598674 -2
-2.2579718 -2 2.6261227
0 3.1970053 -2
-1.7498171 -2 2.5664473
-3.6893488e+19 3.2512376 1.0842022e-19
1.9253811 -0 2.5985658
-1.0842022e-19 3.2513237 -0
-2.0027852 0 2.5915573
3.6893488e+19 3.250133 0
1.9246099 -3.6893488e+19 2.5826764
-2 3.242625 2
-1.9977449 -1.0842022e-19 2.5706222
1.0842022e-19 3.2214909 3.6893488e+19
1.9145663 2 2.5500441
-0 3.2443135 2
-1.998594 -2 2.5575831
2 3.2463512 -2
-1.9996188 -2 2.5446827
1.0842022e-19 3.2270668 1.0842022e-19
1.9165125 -0 2.526366
-2 3.24577 0
-1.9993266 -2 2.5302153
-0 3.1961837 -0
1.9057332 3.6893488e+19 2.4915628
3.6893488e+19 3.2464318 -2
-1.9996593 -3.6893488e+19 2.5164785
-2 3.2017126 -3.6893488e+19
1.907663 0 2.4720058
-0 3.2431347 3.6893488e+19
-1.9980012 3.6893488e+19 2.5007153
-2 3.2398689 0
-1.9963589 -2 2.4703627
1.0842022e-19 3.2571867 0
-2.2553105 -3.6893488e+19 2.4800267
-3.6893488e+19 3.1533594 2
-1.725425 -1.0842022e-19 2.3643186
3.6893488e+19 3.2572651 -3.6893488e+19
-2.2553883 2 2.4510541
1.0842022e-19 3.2479184 0
-1.7641355 2 2.4216263
-0 3.2571292 1.0842022e-19
-2.2552536 3.6893488e+19 2.4217563
1.0842022e-19 3.2468121 -3.6893488e+19
-1.7638263 2 2.392689
-3.6893488e+19 3.1686389 -3.6893488e+19
-2.165585 3.6893488e+19 2.3197184
-3.6893488e+19 3.157522 -3.6893488e+19
-1.7277513 -2 2.2991805
3.6893488e+19 3.2535563 3.6893488e+19
-2.2517066 1.0842022e-19 2.3587096
-3.6893488e+19 3.2244687 -3.6893488e+19
-1.7575828 -1.0842022e-19 2.3216588
-1.0842022e-19 3.2525713 -2
-2.2507288 3.6893488e+19 2.3288908
3.6893488e+19 3.2206874 0
-1.7565262 0 2.2926741
3.6893488e+19 3.1703148 0
-2.1672487 3.6893488e+19 2.2500308
0 3.157654 1.0842022e-19
-1.727825 -0 2.2112339
-2 3.1514831 -0
-1.7243763 0 2.1592631
-3.6893488e+19 3.1570718 -3.6893488e+19
1.8920819 -0 2.1422508
-1.0842022e-19 3.2517676 -0
-2.0032318 -1.0842022e-19 2.2071376
2 3.2561858 -0
1.928835 3.6893488e+19 2.1863759
-0 3.1570146 -3.6893488e+19
-1.9546907 -2 2.0739574
2 3.1762869 -0
1.8987886 3.6893488e+19 2.0653787
-0 3.1535571 -1.0842022e-19
-1.9529519 0 2.0260797
-0 3.1719496 -0
1.8972747 -1.0842022e-19 2.0150046
-0 3.1590676 0
-1.9557233 2 1.9841256
0 3.1705248 3.6893488e+19
1.8967774 -3.6893488e+19 1.9671388
2 3.3167436 -3.6893488e+19
-2.0685854 -2 2.0418103
3.6893488e+19 3.1627917 -2
-1.9575961 -2 1.8940502
-0 3.2839785 -3.6893488e+19
1.9482362 0 1.9164556
-2 3.1608143 -2
-1.9566016 3.6893488e+19 1.8200108
-3.6893488e+19 3.1665301 0
1.8953832 -1.0842022e-19 1.7761821
1.0842022e-19 3.2184417 -2
-1.9855828 -0 1.7355856
1.0842022e-19 3.1491721 -1.0842022e-19
-1.7230847 3.6893488e+19 1.3053094
1.0842022e-19 3.1458838 -3.6893488e+19
-1.721247 2 -1.6542618
-0 3.1548591 1.0842022e-19
-2.1519058 3.6893488e+19 -1.7485409
2 3.1447325 3.6893488e+19
-1.7206036 -2 -1.7899818
-0 3.1409378 -2
-1.7184829 -1.0842022e-19 -1.8753116
2 3.2733829 -1.0842022e-19
-2.2713885 3.6893488e+19 -1.9561539
-2 3.1411235 -2
-1.7185867 -1.0842022e-19 -1.9190264
-0 3.1565912 1.0842022e-19
-2.1536252 -1.0842022e-19 -1.9487772
2 3.1440074 2
-1.7201984 -3.6893488e+19 -1.9642576
2 3.1543443 -1.0842022e-19
-2.1513946 0 -1.9929218
1.0842022e-19 3.1485879 1.0842022e-19
-1.7227583 3.6893488e+19 -2.0112746
-0 3.0997624 -3.6893488e+19
-2.0972109 -3.6893488e+19 -1.9992787
-1.0842022e-19 3.1116018 0
-1.702088 -1.0842022e-19 -2.0274398
0 2.8916388 -1.0842022e-19
1.7616951 2 -1.9112263
-1.0842022e-19 2.9746742 2
-1.8637173 1.0842022e-19 -1.9587383
-1.0842022e-19 2.8924243 2
1.7619694 1.0842022e-19 -1.933504
-1.0842022e-19 2.7796476 2
1.6952131 -0 -1.8964285
-2 2.7535226 3.6893488e+19
-1.7524985 -2 -1.889887
2 2.7144222 2
1.6620991 2 -1.8846034
0 2.6741934 3.6893488e+19
-1.71333 1.0842022e-19 -1.8789268
-2 2.6449111 1.0842022e-19
1.6378374 -2 -1.8755361
3.6893488e+19 2.6139443 3.6893488e+19
-1.6830304 1.0842022e-19 -1.8666631
-2 2.5892777 -2
1.6118389 1.0842022e-19 -1.8597565
-0 2.5684304 2
-1.6601411 1.0842022e-19 -1.8543433
-1.0842022e-19 2.5502436 -3.6893488e+19
1.5845904 0 -1.8496331
3.6893488e+19 2.5296731 -2
-1.6406497 -1.0842022e-19 -1.8421687
-2 2.5162191 -2
1.5608391 3.6893488e+19 -1.8391685
0 2.4995546 2
-1.6256149 -2 -1.8330332
-1.0842022e-19 2.4798033 2
-1.7381517 1.0842022e-19 -1.8318703
3.6893488e+19 2.4586599 -2
-1.3781652 -1.0842022e-19 -1.8288529
2 3.1734393 3.6893488e+19
-2.1703503 -3.6893488e+19 2.6427736
-3.6893488e+19 3.2563913 -1.0842022e-19
-1.7682891 -1.0842022e-19 2.7172265
-1.0842022e-19 3.2574346 0
-2.2555568 -1.0842022e-19 2.7124531
-3.6893488e+19 3.2402089 0
-2.2366331 -0 2.6759408
3.6893488e+19 3.1902933 -3.6893488e+19
-2.1870813 0 2.6197107
-1.0842022e-19 3.1909835 -2
-1.7464519 3.6893488e+19 2.613178
-2 3.16225 2
-2.1592429 -1.0842022e-19 2.584156
0 3.1918817 -1.0842022e-19
-1.7469537 -1.0842022e-19 2.6010926
-1.0842022e-19 3.2561879 1.0842022e-19
-2.2543192 -0 2.6504366
-0 3.2566903 -3.6893488e+19
-1.7684561 -2 2.6430397
-3.6893488e+19 3.2221038 -0
-1.756922 1.0842022e-19 2.597811
-3.6893488e+19 3.2598674 -2
-2.2579718 -2 2.6261227
0 3.1970053 -2
-1.7498171 -2 2.5664473
-3.6893488e+19 3.2512376 1.0842022e-19
1.9253811 -0 2.5985658
-1.0842022e-19 3.2513237 -0
-2.0027852 0 2.5915573
1.0842022e-19 3.2029271 -0
1.9080869 2 2.5511961
-2 3.242625 2
-1.9977449 -1.0842022e-19 2.5706222
1.0842022e-19 3.2214909 3.6893488e+19
1.9145663 2 2.5500441
-0 3.2443135 2
-1.998594 -2 2.5575831
2 3.2463512 -2
-1.9996188 -2 2.5446827
1.0842022e-19 3.2270668 1.0842022e-19
1.9165125 -0 2.526366
-2 3.24577 0
-1.9993266 -2 2.5302153
-0 3.1961837 -0
1.9057332 3.6893488e+19 2.4915628
3.6893488e+19 3.2464318 -2
-1.9996593 -3.6893488e+19 2.5164785
-2 3.2017126 -3.6893488e+19
1.907663 0 2.4720058
2 3.2056732 -0
-1.9791615 3.6893488e+19 2.4633389
-2 3.2398689 0
-1.9963589 -2 2.4703627
-3.6893488e+19 3.1640575 1.0842022e-19
-2.1610372 -1.0842022e-19 2.3864095
-3.6893488e+19 3.1533594 2
-1.725425 -1.0842022e-19 2.3643186
2 3.1656549 -1.0842022e-19
-2.1626227 -3.6893488e+19 2.3643765
3.6893488e+19 3.1571786 -2
-1.7275593 2 2.34479
-0 3.2571292 1.0842022e-19
-2.2552536 3.6893488e+19 2.4217563
1.0842022e-19 3.1569717 2
-1.7274437 -2 2.3216774
-3.6893488e+19 3.1686389 -3.6893488e+19
-2.165585 3.6893488e+19 2.3197184
-3.6893488e+19 3.157522 -3.6893488e+19
-1.7277513 -2 2.2991805
-3.6893488e+19 3.1698389 2
-2.1667764 -2 2.2969759
3.6893488e+19 3.1618519 -0
-1.7301711 -0 2.2792087
-3.6893488e+19 3.1726673 -1.0842022e-19
-2.169584 -0 2.2751923
3.6893488e+19 3.2206874 0
-1.7565262 0 2.2926741
-2 3.1493192 -3.6893488e+19
-2.1464062 2 2.2250826
0 3.157654 1.0842022e-19
-1.727825 -0 2.2112339
-2 3.1514831 -0
-1.7243763 0 2.1592631
-3.6893488e+19 3.1570718 -3.6893488e+19
1.8920819 -0 2.1422508
-1.0842022e-19 3.2517676 -0
-2.0032318 -1.0842022e-19 2.2071376
-2 3.1548929 1.0842022e-19
1.8913214 -1.0842022e-19 2.0948386
-0 3.1570146 -3.6893488e+19
-1.9546907 -2 2.0739574
2 3.1762869 -0
1.8987886 3.6893488e+19 2.0653787
-0 3.1535571 -1.0842022e-19
-1.9529519 0 2.0260797
-0 3.1719496 -0
1.8972747 -1.0842022e-19 2.0150046
-0 3.1590676 0
-1.9557233 2 1.9841256
0 3.1705248 3.6893488e+19
1.8967774 -3.6893488e+19 1.9671388
2 3.3167436 -3.6893488e+19
-2.0685854 -2 2.0418103
3.6893488e+19 3.1627917 -2
-1.9575961 -2 1.8940502
-3.6893488e+19 3.1607707 -2
1.8933729 -0 1.8657756
-2 3.1608143 -2
-1.9566016 3.6893488e+19 1.8200108
-3.6893488e+19 3.1665301 0
1.8953832 -1.0842022e-19 1.7761821
-3.6893488e+19 3.1580982 -1.0842022e-19
-1.9552357 -0 1.7052381
1.0842022e-19 3.1491721 -1.0842022e-19
-1.7230847 3.6893488e+19 1.3053094
1.0842022e-19 3.1458838 -3.6893488e+19
-1.721247 2 -1.6542618
-0 3.1548591 1.0842022e-19
-2.1519058 3.6893488e+19 -1.7485409
2 3.1447325 3.6893488e+19
-1.7206036 -2 -1.7899818
-0 3.1409378 -2
-1.7184829 -1.0842022e-19 -1.8753116
3.6893488e+19 3.1561065 -3.6893488e+19
-2.1531439 -0 -1.9031193
-2 3.1411235 -2
-1.7185867 -1.0842022e-19 -1.9190264
-0 3.1565912 1.0842022e-19
-2.1536252 -1.0842022e-19 -1.9487772
2 3.1440074 2
-1.7201984 -3.6893488e+19 -1.9642576
2 3.1543443 -1.0842022e-19
-2.1513946 0 -1.9929218
-2 3.1210806 0
-1.7073854 2 -1.9932437
-0 3.0997624 -3.6893488e+19
-2.0972109 -3.6893488e+19 -1.9992787
-1.0842022e-19 3.1116018 0
-1.702088 -1.0842022e-19 -2.0274398
0 2.8916388 -1.0842022e-19
1.7616951 2 -1.9112263
-1.0842022e-19 2.9746742 2
-1.8637173 1.0842022e-19 -1.9587383
-1.0842022e-19 2.8924243 2
1.7619694 1.0842022e-19 -1.933504
-1.0842022e-19 2.7796476 2
1.6952131 -0 -1.8964285
-2 2.7535226 3.6893488e+19
-1.7524985 -2 -1.889887
2 2.7144222 2
1.6620991 2 -1.8846034
0 2.6741934 3.6893488e+19
-1.71333 1.0842022e-19 -1.8789268
-2 2.6449111 1.0842022e-19
1.6378374 -2 -1.8755361
3.6893488e+19 2.6139443 3.6893488e+19
-1.6830304 1.0842022e-19 -1.8666631
-2 2.5892777 -2
1.6118389 1.0842022e-19 -1.8597565
-0 2.5684304 2
-1.6601411 1.0842022e-19 -1.8543433
-1.0842022e-19 2.5502436 -3.6893488e+19
1.5845904 0 -1.8496331
3.6893488e+19 2.5296731 -2
-1.6406497 -1.0842022e-19 -1.8421687
-2 2.5162191 -2
1.5608391 3.6893488e+19 -1.8391685
0 2.4995546 2
-1.6256149 -2 -1.8330332
-1.0842022e-19 2.4798033 2
-1.7381517 1.0842022e-19 -1.8318703
3.6893488e+19 2.4586599 -2
-1.3781652 -1.0842022e-19 -1.8288529
1.0842022e-19 3.2510743 -3.6893488e+19
-2.2598238 3.6893488e+19 2.7158604
1.0842022e-19 3.2563086 2
-1.8112816 -0 2.7170877
3.6893488e+19 3.2587764 -3.6893488e+19
-2.2677944 3.6893488e+19 2.7149408
-0 3.2430837 0
-2.2551336 1.0842022e-19 2.67851
-2 3.2436643 0
-2.255434 -1.0842022e-19 2.6645947
2 3.2717664 -1.0842022e-19
-1.8225161 2 2.6976457
0 3.1684477 1.0842022e-19
-2.1830301 2 2.589236
-1.0842022e-19 3.1936169 -1.0842022e-19
-1.7862073 -2 2.6024806
1.0842022e-19 3.2559159 -0
-2.2648342 1.0842022e-19 2.6500778
-3.6893488e+19 3.2566681 1.0842022e-19
-1.811543 1.0842022e-19 2.6430163
3.6893488e+19 3.259809 -2
-2.268863 -1.0842022e-19 2.6261005
1.0842022e-19 3.2525127 -2
-1.8085227 3.6893488e+19 2.6075308
-0 3.2505894 2
1.9038825 2 2.5976477
-0 3.2489095 2
-2.0218697 2 2.5890462
3.6893488e+19 3.2502544 -1.0842022e-19
1.9036767 -1.0842022e-19 2.5828199
1.0842022e-19 3.2431993 0
-2.0187581 -2 2.5710235
2 3.2389553 3.6893488e+19
1.9001293 -2 2.5471733
1.0842022e-19 3.2552907 -1.0842022e-19
-2.02823 -1.0842022e-19 2.5531573
-3.6893488e+19 3.2404814 -1.0842022e-19
1.9005979 2 2.534122
1.0842022e-19 3.2452946 -3.6893488e+19
-2.0198996 2 2.5299706
3.6893488e+19 3.2518585 -2
1.9046618 0 2.5274589
3.6893488e+19 3.2460177 -2
-2.0202937 3.6893488e+19 2.5162792
-2 3.2028832 0
1.8890538 -2 2.4732034
-2 3.2052312 2
-1.9980682 -0 2.4629292
2 3.1769583 1.0842022e-19
1.8810937 2 2.4219131
0 3.2397029 -1.0842022e-19
-2.0168526 1.0842022e-19 2.4702437
2 3.2601795 -3.6893488e+19
-2.2692463 1.0842022e-19 2.4856937
3.6893488e+19 3.1529763 1.0842022e-19
-1.7714388 0 2.3639822
-0 3.2577648 1.0842022e-19
-2.2667477 3.6893488e+19 2.4520054
3.6893488e+19 3.2480295 -3.6893488e+19
-1.8059804 -2 2.4217315
0 3.2570555 0
-2.2660136 -3.6893488e+19 2.4217052
3.6893488e+19 3.2480428 -0
-1.8059853 1.0842022e-19 2.3936722
-1.0842022e-19 3.2555716 -2
-2.264478 0 2.3904297
0 3.2447953 -2
-1.8048052 0 2.3632615
-3.6893488e+19 3.2531102 2
-2.2619309 -1.0842022e-19 2.3581381
-2 3.2257328 -2
-1.797878 -0 2.3225243
2 3.1628373 3.6893488e+19
-2.1772242 2 2.2688367
-1.0842022e-19 3.2230115 1.0842022e-19
-1.7968892 0 2.294127
-2 3.148351 3.6893488e+19
-2.1622331 1.0842022e-19 2.2240095
-2 3.1581419 0
-1.773316 2 2.2117982
-0 3.1530006 3.6893488e+19
-1.7714477 3.6893488e+19 2.1608207
3.6893488e+19 3.1512306 2
1.8713886 -1.0842022e-19 2.1366012
3.6893488e+19 3.2517617 -3.6893488e+19
-2.0243838 3.6893488e+19 2.207166
0 3.25634 0
1.9074138 -0 2.186615
-1.0842022e-19 3.1566365 -1.0842022e-19
-1.9715875 1.0842022e-19 2.0736845
-0 3.2642939 -0
1.9122982 -2 2.1410427
-2 3.1538343 -2
-1.9700606 -0 2.026293
0 3.1819005 3.6893488e+19
1.8826112 -3.6893488e+19 2.0212395
-2 3.3123846 0
-2.0904543 -0 2.1076109
-1.0842022e-19 3.2647352 -3.6893488e+19
1.9125692 -3.6893488e+19 2.0233784
-3.6893488e+19 3.3176684 3.6893488e+19
-2.0962129 -0 2.0426877
3.6893488e+19 3.2645385 3.6893488e+19
1.9124484 1.0842022e-19 1.9640977
2 3.1655977 -1.0842022e-19
-1.9764707 2 1.8950419
-3.6893488e+19 3.263907 -0
1.9120606 3.6893488e+19 1.9046823
2 3.1598735 1.0842022e-19
-1.9733515 0 1.8195809
0 3.2637157 -0
1.9119431 1.0842022e-19 1.816424
2 3.2148724 1.0842022e-19
-2.0033219 -3.6893488e+19 1.7338105
2 3.1578314 -1.0842022e-19
-2.1720438 1.0842022e-19 1.6035388
3.6893488e+19 3.1468804 -2
-1.7692236 -1.0842022e-19 1.304279
2 3.1543553 -0
-2.1684465 -3.6893488e+19 -1.7482728
-0 3.1446283 -1.0842022e-19
-1.7684052 2 -1.7899427
-3.6893488e+19 3.2757764 2
-2.285387 0 -1.8963271
1.0842022e-19 3.1417086 1.0842022e-19
-1.7673442 -3.6893488e+19 -1.875562
-0 3.2757068 -2
-2.2853148 -2 -1.9579408
-2 3.1416755 -0
-1.7673322 -3.6893488e+19 -1.9192693
1.0842022e-19 3.2756238 1.0842022e-19
-2.285229 1.0842022e-19 -2.0195427
-3.6893488e+19 3.1436846 2
-1.7680624 3.6893488e+19 -1.9640878
-2 3.2267621 -0
-2.2433767 0 -2.0364766
-1.0842022e-19 3.1488583 2
-1.7699424 0 -2.0114589
-3.6893488e+19 3.104502 2
-2.1168561 2 -2.0026987
3.6893488e+19 3.1106248 -0
-1.7560486 -2 -2.0266974
0 2.8932824 -0
1.7415076 2 -1.9118942
3.6893488e+19 2.9822426 -0
-1.8813937 -3.6893488e+19 -1.9620847
-3.6893488e+19 2.8925078 3.6893488e+19
1.7410321 -2 -1.9335331
-2 2.7822192 0
1.6733059 3.6893488e+19 -1.8977671
1.0842022e-19 2.7536256 0
-1.7632077 -1.0842022e-19 -1.8899558
2 2.7143226 3.6893488e+19
1.6425661 2 -1.8845673
-3.6893488e+19 2.6727865 -0
-1.7303882 1.0842022e-19 -1.8785102
-1.0842022e-19 2.645057 -0
1.6175975 0 -1.8755758
2 2.6139131 -0
-1.6983063 1.0842022e-19 -1.8666631
2 2.5881755 1.0842022e-19
1.5826676 0 -1.8589811
-3.6893488e+19 2.5682786 3.6893488e+19
-1.6734389 3.6893488e+19 -1.8542536
1.0842022e-19 2.5503843 1.0842022e-19
1.5594606 -3.6893488e+19 -1.8497261
-2 2.5298977 1.0842022e-19
-1.6525241 -2 -1.8423618
-2 2.5148656 -3.6893488e+19
1.5376493 1.0842022e-19 -1.8380682
3.6893488e+19 2.496778 -0
-1.635354 -0 -1.8318948
-0 2.4799716 3.6893488e+19
-1.7483491 3.6893488e+19 -1.8319772
-2 2.4591446 -3.6893488e+19
-1.41685 2 -1.8290738
3.6893488e+19 2.4389517 -0
-1.7271243 -1.0842022e-19 -1.8267064
-3.6893488e+19 2.3716474 3.6893488e+19
-1.6922995 -1.0842022e-19 -1.8168565
-3.6893488e+19 2.3245142 1.0842022e-19
-1.6679116 2 -1.8109956
-3.6893488e+19 2.2861288 -0
-1.6480501 -2 -1.8053459
-2 2.257194 2
1.4079384 2 -1.8015343
3.6893488e+19 2.2193661 -1.0842022e-19
1.3941146 -2 -1.7995918
-0 2.1833022 -3.6893488e+19
1.3830415 -2 -1.7987127
-3.6893488e+19 2.1400173 -3.6893488e+19
1.3645027 0 -1.7927065
1.0842022e-19 3.1747057 0
-2.1895063 -1.0842022e-19 2.6440139
1.0842022e-19 3.2563086 2
-1.8112816 -0 2.7170877
3.6893488e+19 3.2587764 -3.6893488e+19
-2.2677944 3.6893488e+19 2.7149408
-0 3.2430837 0
-2.2551336 1.0842022e-19 2.67851
-2 3.2436643 0
-2.255434 -1.0842022e-19 2.6645947
-0 3.1921043 -3.6893488e+19
-1.7856576 1.0842022e-19 2.6141107
0 3.1684477 1.0842022e-19
-2.1830301 2 2.589236
-1.0842022e-19 3.1936169 -1.0842022e-19
-1.7862073 -2 2.6024806
1.0842022e-19 3.2559159 -0
-2.2648342 1.0842022e-19 2.6500778
-3.6893488e+19 3.2566681 1.0842022e-19
-1.811543 1.0842022e-19 2.6430163
3.6893488e+19 3.259809 -2
-2.268863 -1.0842022e-19 2.6261005
-2 3.1970241 1.0842022e-19
-1.7874455 1.0842022e-19 2.5664692
3.6893488e+19 3.2066331 0
1.8902051 -2 2.5667479
-0 3.2489095 2
-2.0218697 2 2.5890462
-1.0842022e-19 3.2085917 -3.6893488e+19
1.8908064 3.6893488e+19 2.5549467
1.0842022e-19 3.2431993 0
-2.0187581 -2 2.5710235
2 3.2389553 3.6893488e+19
1.9001293 -2 2.5471733
2 3.2461851 2
-2.020385 1.0842022e-19 2.5446095
3.6893488e+19 3.2269378 -2
1.8964394 -3.6893488e+19 2.5262764
1.0842022e-19 3.2452946 -3.6893488e+19
-2.0198996 2 2.5299706
1.0842022e-19 3.1958983 -2
1.886909 3.6893488e+19 2.4912219
3.6893488e+19 3.2460177 -2
-2.0202937 3.6893488e+19 2.5162792
-2 3.2028832 0
1.8890538 -2 2.4732034
-2 3.2052312 2
-1.9980682 -0 2.4629292
2 3.1769583 1.0842022e-19
1.8810937 2 2.4219131
0 3.2397029 -1.0842022e-19
-2.0168526 1.0842022e-19 2.4702437
-3.6893488e+19 3.1641126 -0
-2.178544 -1.0842022e-19 2.3865252
3.6893488e+19 3.1529763 1.0842022e-19
-1.7714388 0 2.3639822
0 3.1649659 1.0842022e-19
-2.1794269 -2 2.363833
1.0842022e-19 3.1547441 1.0842022e-19
-1.7720813 -0 2.3427374
2 3.1627903 -0
-2.1771755 -0 2.3385959
0 3.1573031 -1.0842022e-19
-1.7730111 -2 2.3219478
0 3.1672347 -2
-2.1817746 -1.0842022e-19 2.3186986
-1.0842022e-19 3.1586938 3.6893488e+19
-1.7735165 -3.6893488e+19 2.3000486
2 3.1673152 -3.6893488e+19
-2.1818581 -2 2.2952397
-3.6893488e+19 3.1590698 -2
-1.7736531 -1.0842022e-19 2.2773299
2 3.1628373 3.6893488e+19
-2.1772242 2 2.2688367
0 3.1602051 1.0842022e-19
-1.7740657 -2 2.2550726
-2 3.148351 3.6893488e+19
-2.1622331 1.0842022e-19 2.2240095
-2 3.1581419 0
-1.773316 2 2.2117982
-0 3.1530006 3.6893488e+19
-1.7714477 3.6893488e+19 2.1608207
3.6893488e+19 3.1512306 2
1.8713886 -1.0842022e-19 2.1366012
-2 3.158107 0
-1.972389 -2 2.1205342
-2 3.1563811 -3.6893488e+19
1.8745514 -1.0842022e-19 2.0960875
-1.0842022e-19 3.1566365 -1.0842022e-19
-1.9715875 1.0842022e-19 2.0736845
-0 3.1691937 -0
1.8787097 -3.6893488e+19 2.0601141
-2 3.1538343 -2
-1.9700606 -0 2.026293
0 3.1819005 3.6893488e+19
1.8826112 -3.6893488e+19 2.0212395
-0 3.1603122 -2
-1.9735905 -3.6893488e+19 1.984858
-1.0842022e-19 3.1708908 -1.0842022e-19
1.8792307 -1.0842022e-19 1.9673162
-1.0842022e-19 3.1593118 -3.6893488e+19
-1.9730453 3.6893488e+19 1.9385622
3.6893488e+19 3.2645385 3.6893488e+19
1.9124484 1.0842022e-19 1.9640977
2 3.1655977 -1.0842022e-19
-1.9764707 2 1.8950419
-1.0842022e-19 3.1607616 3.6893488e+19
1.8761207 -3.6893488e+19 1.8657572
2 3.1598735 1.0842022e-19
-1.9733515 0 1.8195809
0 3.1673338 -2
1.8781385 -1.0842022e-19 1.7764655
-3.6893488e+19 3.1572199 -3.6893488e+19
-1.9719055 -1.0842022e-19 1.704814
2 3.1578314 -1.0842022e-19
-2.1720438 1.0842022e-19 1.6035388
3.6893488e+19 3.1468804 -2
-1.7692236 -1.0842022e-19 1.304279
2 3.1543553 -0
-2.1684465 -3.6893488e+19 -1.7482728
-0 3.1446283 -1.0842022e-19
-1.7684052 2 -1.7899427
-1.0842022e-19 3.1533518 2
-2.1674082 3.6893488e+19 -1.8390186
1.0842022e-19 3.1417086 1.0842022e-19
-1.7673442 -3.6893488e+19 -1.875562
1.0842022e-19 3.1566002 -1.0842022e-19
-2.1707697 -2 -1.9033309
-2 3.1416755 -0
-1.7673322 -3.6893488e+19 -1.9192693
-2 3.1565547 -1.0842022e-19
-2.1707227 3.6893488e+19 -1.9487925
-3.6893488e+19 3.1436846 2
-1.7680624 3.6893488e+19 -1.9640878
3.6893488e+19 3.153311 0
-2.167366 -1.0842022e-19 -1.9923413
-3.6893488e+19 3.1176052 -2
-1.7585852 2 -1.9909719
-3.6893488e+19 3.104502 2
-2.1168561 2 -2.0026987
3.6893488e+19 3.1106248 -0
-1.7560486 -2 -2.0266974
0 2.8932824 -0
1.7415076 2 -1.9118942
3.6893488e+19 2.9822426 -0
-1.8813937 -3.6893488e+19 -1.9620847
-3.6893488e+19 2.8925078 3.6893488e+19
1.7410321 -2 -1.9335331
-2 2.7822192 0
1.6733059 3.6893488e+19 -1.8977671
1.0842022e-19 2.7536256 0
-1.7632077 -1.0842022e-19 -1.8899558
2 2.7143226 3.6893488e+19
1.6425661 2 -1.8845673
-3.6893488e+19 2.6727865 -0
-1.7303882 1.0842022e-19 -1.8785102
-1.0842022e-19 2.645057 -0
1.6175975 0 -1.8755758
2 2.6139131 -0
-1.6983063 1.0842022e-19 -1.8666631
2 2.5881755 1.0842022e-19
1.5826676 0 -1.8589811
-3.6893488e+19 2.5682786 3.6893488e+19
-1.6734389 3.6893488e+19 -1.8542536
1.0842022e-19 2.5503843 1.0842022e-19
1.5594606 -3.6893488e+19 -1.8497261
-2 2.5298977 1.0842022e-19
-1.6525241 -2 -1.8423618
-2 2.5148656 -3.6893488e+19
1.5376493 1.0842022e-19 -1.8380682
3.6893488e+19 2.496778 -0
-1.635354 -0 -1.8318948
-0 2.4799716 3.6893488e+19
-1.7483491 3.6893488e+19 -1.8319772
-2 2.4591446 -3.6893488e+19
-1.41685 2 -1.8290738
3.6893488e+19 2.4389517 -0
-1.7271243 -1.0842022e-19 -1.8267064
-3.6893488e+19 2.3716474 3.6893488e+19
-1.6922995 -1.0842022e-19 -1.8168565
-3.6893488e+19 2.3245142 1.0842022e-19
-1.6679116 2 -1.8109956
-3.6893488e+19 2.2861288 -0
-1.6480501 -2 -1.8053459
-2 2.257194 2
1.4079384 2 -1.8015343
3.6893488e+19 2.2193661 -1.0842022e-19
1.3941146 -2 -1.7995918
-0 2.1833022 -3.6893488e+19
1.3830415 -2 -1.7987127
-3.6893488e+19 2.1400173 -3.6893488e+19
1.3645027 0 -1.7927065
0 3.1744196 3.6893488e+19
-2.2070935 1.0842022e-19 2.6438167
-2 3.255523 -2
-1.8535978 0 2.715672
-1.0842022e-19 3.2587316 -1.0842022e-19
-2.27865 3.6893488e+19 2.7149408
2 3.2446134 -1.0842022e-19
-2.2663455 -2 2.6799135
-0 3.2432737 -3.6893488e+19
-2.265624 -0 2.6643384
2 3.2713442 0
-1.8677518 -2 2.696965
-1.0842022e-19 3.1934795 1.0842022e-19
-1.8233744 1.0842022e-19 2.6023834
-3.6893488e+19 3.2560856 -0
-2.2758005 0 2.6504128
3.6893488e+19 3.2562914 -2
-1.8542851 -3.6893488e+19 2.6424522
-2 3.2582145 -2
-2.2780931 -3.6893488e+19 2.623857
0 3.2534735 -3.6893488e+19
-1.8517641 3.6893488e+19 2.6089032
-3.6893488e+19 3.2073009 -2
1.8674375 -1.0842022e-19 2.5671964
-3.6893488e+19 3.2476008 2
-2.0420587 -2 2.5881882
-3.6893488e+19 3.2092912 1.0842022e-19
1.8684927 -0 2.5553975
-2 3.2455885 -0
-2.0408776 3.6893488e+19 2.5726087
0 3.2388546 -0
1.8795828 -2 2.5470982
3.6893488e+19 3.2548809 -3.6893488e+19
-2.0491962 2 2.5526989
1.0842022e-19 3.2420816 1.0842022e-19
1.8804382 -3.6893488e+19 2.5350354
-3.6893488e+19 3.251344 1.0842022e-19
1.8832498 -2 2.5268791
-3.6893488e+19 3.2156079 -3.6893488e+19
-2.0232809 -1.0842022e-19 2.4999549
-0 3.2030904 3.6893488e+19
1.8652053 3.6893488e+19 2.4733977
-1.0842022e-19 3.1772263 3.6893488e+19
1.8514935 3.6893488e+19 2.4221582
0 3.2423861 3.6893488e+19
-2.0389979 0 2.4728642
-2 3.2593756 -2
-2.2793436 -3.6893488e+19 2.4842768
0 3.1509137 1.0842022e-19
-1.804334 1.0842022e-19 2.3621311
3.6893488e+19 3.2584951 0
-2.2783954 3.6893488e+19 2.4533644
-3.6893488e+19 3.1545441 3.6893488e+19
-1.805958 3.6893488e+19 2.3425796
1.0842022e-19 3.2569025 3.6893488e+19
-2.27668 -2 2.4215271
0 3.2484617 1.0842022e-19
-1.8479686 -0 2.3940163
-3.6893488e+19 3.2549841 -3.6893488e+19
-2.2746141 0 2.3895998
-3.6893488e+19 3.2439697 2
-1.8459593 -1.0842022e-19 2.3626673
0 3.2531598 -3.6893488e+19
-2.272649 -0 2.3582699
0 3.2275231 2
-1.8386024 -2 2.3237486
1.0842022e-19 3.2524703 3.6893488e+19
-2.2719066 -1.0842022e-19 2.3288705
0 3.2862649 2
-1.8780501 -3.6893488e+19 2.3560207
-2 3.2525136 0
-2.2719536 3.6893488e+19 2.3005254
0 3.2873325 3.6893488e+19
-1.8785276 1.0842022e-19 2.3251173
2 3.2533071 -1.0842022e-19
-2.2728078 0 2.2730136
-3.6893488e+19 3.29018 -1.0842022e-19
-1.8798014 -1.0842022e-19 2.2958207
2 3.150033 -2
1.8370769 0 2.1354294
3.6893488e+19 3.2502885 0
-2.0438056 0 2.2045331
1.0842022e-19 3.2560556 -3.6893488e+19
1.8857474 -3.6893488e+19 2.18611
1.0842022e-19 3.1556008 -0
-1.9880607 -0 2.0728898
-2 3.2645872 2
1.8902706 -3.6893488e+19 2.1414583
3.6893488e+19 3.2245598 1.0842022e-19
-2.0285351 -1.0842022e-19 2.0747116
-1.0842022e-19 3.1807654 -0
1.8533697 1.0842022e-19 2.0205142
2 3.2593472 -3.6893488e+19
-2.0544391 -3.6893488e+19 2.0469222
1.0842022e-19 3.2649195 -1.0842022e-19
1.8904467 -3.6893488e+19 2.0235558
-3.6893488e+19 3.2598112 0
-2.0549841 -1.0842022e-19 1.9894024
1.0842022e-19 3.2640824 0
1.890003 2 1.9637185
3.6893488e+19 3.2593107 3.6893488e+19
-2.0543964 -3.6893488e+19 1.9310136
1.0842022e-19 3.2637789 2
1.889842 2 1.9045999
3.6893488e+19 3.2597029 3.6893488e+19
-2.0548568 2 1.8716025
-2 3.2636342 2
1.8897654 -1.0842022e-19 1.8163559
1.0842022e-19 3.1577756 -0
-1.9893372 2 1.7051125
2 3.1518056 -1.0842022e-19
-2.1827385 2 1.600201
0 3.1468048 2
-1.8024961 -3.6893488e+19 1.3042507
3.6893488e+19 3.1469753 0
-2.1775365 3.6893488e+19 -1.5075651
0 3.144048 -1.0842022e-19
-1.8012629 0 -1.6535556
-2 3.1458671 -1.0842022e-19
-2.176343 3.6893488e+19 -1.7431033
2 3.1463025 3.6893488e+19
-1.8022714 0 -1.790648
3.6893488e+19 3.1477952 -2
-2.1784194 2 -1.8361068
-2 3.1418829 2
-1.8002945 -3.6893488e+19 -1.875622
3.6893488e+19 3.1562493 -0
-2.1875243 1.0842022e-19 -1.9032252
-1.0842022e-19 3.1399446 -2
-1.7994274 -1.0842022e-19 -1.9185269
1.0842022e-19 3.1562352 -2
-2.1875091 -1.0842022e-19 -1.9486705
3.6893488e+19 3.1446085 2
-1.8015137 2 -1.9645973
-2 3.227365 -1.0842022e-19
-2.2570574 -3.6893488e+19 -2.0368884
-2 3.1490948 -2
-1.8035204 -2 -2.0116224
0 3.1041293 -2
-2.1313918 -2 -2.0024765
-2 3.1107063 2
-1.7863488 1.0842022e-19 -2.0267694
0 2.8928015 -1.0842022e-19
1.7082431 1.0842022e-19 -1.9116887
-2 2.9757743 2
-1.889624 0 -1.9592595
-0 2.8915281 0
1.7075682 -2 -1.9330664
-1.0842022e-19 2.7834172 3.6893488e+19
1.6502533 0 -1.8983874
3.6893488e+19 2.753602 3.6893488e+19
-1.7738476 -1.0842022e-19 -1.8899558
0 2.714843 1.0842022e-19
1.6214359 3.6893488e+19 -1.8847117
1.0842022e-19 2.6729965 3.6893488e+19
-1.7482709 3.6893488e+19 -1.8785859
3.6893488e+19 2.6435804 -3.6893488e+19
1.5836561 -0 -1.8751005
1.0842022e-19 2.6132569 1.0842022e-19
-1.7132077 -0 -1.8662497
-2 2.5881913 1.0842022e-19
1.5542917 0 -1.8589811
-3.6893488e+19 2.567627 3.6893488e+19
-1.686426 3.6893488e+19 -1.8538055
-2 2.5494027 3.6893488e+19
1.533728 -1.0842022e-19 -1.8489814
-0 2.5321097 -2
-1.6655797 1.0842022e-19 -1.8441
3.6893488e+19 2.5150025 -3.6893488e+19
1.5154907 1.0842022e-19 -1.8381683
-2 2.4972289 -1.0842022e-19
-1.6459202 0 -1.8321018
3.6893488e+19 2.4801366 3.6893488e+19
-1.754275 -2 -1.8320842
0 2.459378 -3.6893488e+19
-1.4554858 -2 -1.8291842
0 3.1744196 3.6893488e+19
-2.2070935 1.0842022e-19 2.6438167
-2 3.255523 -2
-1.8535978 0 2.715672
1.0842022e-19 3.1691308 -2
-2.2013974 -2 2.6265888
2 3.2446134 -1.0842022e-19
-2.2663455 -2 2.6799135
-0 3.2432737 -3.6893488e+19
-2.265624 -0 2.6643384
0 3.1929162 -0
-1.8231223 -2 2.6147912
-1.0842022e-19 3.1934795 1.0842022e-19
-1.8233744 1.0842022e-19 2.6023834
-3.6893488e+19 3.2560856 -0
-2.2758005 0 2.6504128
3.6893488e+19 3.2562914 -2
-1.8542851 -3.6893488e+19 2.6424522
-2 3.2582145 -2
-2.2780931 -3.6893488e+19 2.623857
0 3.2534735 -3.6893488e+19
-1.8517641 3.6893488e+19 2.6089032
-3.6893488e+19 3.2073009 -2
1.8674375 -1.0842022e-19 2.5671964
-3.6893488e+19 3.2476008 2
-2.0420587 -2 2.5881882
-3.6893488e+19 3.2092912 1.0842022e-19
1.8684927 -0 2.5553975
-2 3.2455885 -0
-2.0408776 3.6893488e+19 2.5726087
0 3.2388546 -0
1.8795828 -2 2.5470982
3.6893488e+19 3.2548809 -3.6893488e+19
-2.0491962 2 2.5526989
-2 3.2230637 0
1.8753971 -0 2.5240195
-3.6893488e+19 3.195888 3.6893488e+19
1.861387 2 2.4911878
-3.6893488e+19 3.2156079 -3.6893488e+19
-2.0232809 -1.0842022e-19 2.4999549
-0 3.2030904 3.6893488e+19
1.8652053 3.6893488e+19 2.4733977
-1.0842022e-19 3.1772263 3.6893488e+19
1.8514935 3.6893488e+19 2.4221582
0 3.2423861 3.6893488e+19
-2.0389979 0 2.4728642
-0 3.1649392 -1.0842022e-19
-2.1968832 3.6893488e+19 2.3873637
0 3.1509137 1.0842022e-19
-1.804334 1.0842022e-19 2.3621311
-3.6893488e+19 3.1645839 3.6893488e+19
-2.1965008 -2 2.3635612
-3.6893488e+19 3.1545441 3.6893488e+19
-1.805958 3.6893488e+19 2.3425796
-2 3.1624706 -3.6893488e+19
-2.1942246 -1.0842022e-19 2.3383923
1.0842022e-19 3.1561079 -1.0842022e-19
-1.8066574 1.0842022e-19 2.3210139
-0 3.1635618 0
-2.1954 -0 2.315948
-2 3.1561909 -1.0842022e-19
-1.8066946 2 2.2982211
3.6893488e+19 3.1677089 -3.6893488e+19
-2.1998661 3.6893488e+19 2.2955694
-3.6893488e+19 3.1573126 -3.6893488e+19
-1.8071964 -0 2.2761478
-1.0842022e-19 3.1616781 -2
-2.1933711 -3.6893488e+19 2.2681282
-3.6893488e+19 3.1600978 -3.6893488e+19
-1.8084422 0 2.2550147
-1.0842022e-19 3.14993 3.6893488e+19
-2.1807187 3.6893488e+19 2.2259707
1.0842022e-19 3.1594999 -0
-1.8081747 -3.6893488e+19 2.2133498
3.6893488e+19 3.1548247 -1.0842022e-19
-2.1859901 -3.6893488e+19 2.1863186
-3.6893488e+19 3.1515527 -0
-1.8046199 0 2.1593585
2 3.150033 -2
1.8370769 0 2.1354294
3.6893488e+19 3.1571963 2
-1.9889972 -3.6893488e+19 2.1197414
2 3.1593332 -2
1.8420074 -1.0842022e-19 2.0985851
1.0842022e-19 3.1556008 -0
-1.9880607 -0 2.0728898
0 3.171648 0
1.8485361 -2 2.0619152
-2 3.1671507 1.0842022e-19
-1.9948399 -1.0842022e-19 2.0354302
-1.0842022e-19 3.1807654 -0
1.8533697 1.0842022e-19 2.0205142
-1.0842022e-19 3.1684821 -3.6893488e+19
-1.9956212 3.6893488e+19 1.9895567
1.0842022e-19 3.2649195 -1.0842022e-19
1.8904467 -3.6893488e+19 2.0235558
-3.6893488e+19 3.1625826 0
-1.9921588 -2 1.9400866
1.0842022e-19 3.2640824 0
1.890003 2 1.9637185
2 3.1684315 -0
-1.9955915 2 1.8960445
-2 3.1582503 -0
1.8414334 -2 1.8642741
-1.0842022e-19 3.1600227 -3.6893488e+19
-1.9906561 1.0842022e-19 1.8196698
1.0842022e-19 3.1646976 3.6893488e+19
1.8448514 -0 1.7755017
1.0842022e-19 3.1577756 -0
-1.9893372 2 1.7051125
2 3.1518056 -1.0842022e-19
-2.1827385 2 1.600201
0 3.1468048 2
-1.8024961 -3.6893488e+19 1.3042507
3.6893488e+19 3.1469753 0
-2.1775365 3.6893488e+19 -1.5075651
0 3.144048 -1.0842022e-19
-1.8012629 0 -1.6535556
-2 3.1458671 -1.0842022e-19
-2.176343 3.6893488e+19 -1.7431033
2 3.1463025 3.6893488e+19
-1.8022714 0 -1.790648
3.6893488e+19 3.1477952 -2
-2.1784194 2 -1.8361068
-2 3.1418829 2
-1.8002945 -3.6893488e+19 -1.875622
3.6893488e+19 3.1562493 -0
-2.1875243 1.0842022e-19 -1.9032252
-1.0842022e-19 3.1399446 -2
-1.7994274 -1.0842022e-19 -1.9185269
1.0842022e-19 3.1562352 -2
-2.1875091 -1.0842022e-19 -1.9486705
3.6893488e+19 3.1446085 2
-1.8015137 2 -1.9645973
-0 3.1532724 -0
-2.1843183 -2 -1.99236
0 3.1199348 -3.6893488e+19
-1.7904767 -2 -1.9925069
0 3.1041293 -2
-2.1313918 -2 -2.0024765
-2 3.1107063 2
-1.7863488 1.0842022e-19 -2.0267694
0 2.8928015 -1.0842022e-19
1.7082431 1.0842022e-19 -1.9116887
-2 2.9757743 2
-1.889624 0 -1.9592595
-0 2.8915281 0
1.7075682 -2 -1.9330664
-1.0842022e-19 2.7834172 3.6893488e+19
1.6502533 0 -1.8983874
3.6893488e+19 2.753602 3.6893488e+19
-1.7738476 -1.0842022e-19 -1.8899558
0 2.714843 1.0842022e-19
1.6214359 3.6893488e+19 -1.8847117
1.0842022e-19 2.6729965 3.6893488e+19
-1.7482709 3.6893488e+19 -1.8785859
3.6893488e+19 2.6435804 -3.6893488e+19
1.5836561 -0 -1.8751005
1.0842022e-19 2.6132569 1.0842022e-19
-1.7132077 -0 -1.8662497
-2 2.5881913 1.0842022e-19
1.5542917 0 -1.8589811
-3.6893488e+19 2.567627 3.6893488e+19
-1.686426 3.6893488e+19 -1.8538055
-2 2.5494027 3.6893488e+19
1.533728 -1.0842022e-19 -1.8489814
-0 2.5321097 -2
-1.6655797 1.0842022e-19 -1.8441
3.6893488e+19 2.5150025 -3.6893488e+19
1.5154907 1.0842022e-19 -1.8381683
-2 2.4972289 -1.0842022e-19
-1.6459202 0 -1.8321018
3.6893488e+19 2.4801366 3.6893488e+19
-1.754275 -2 -1.8320842
0 2.459378 -3.6893488e+19
-1.4554858 -2 -1.8291842
1.0842022e-19 3.1711543 -1.0842022e-19
-2.2213287 -3.6893488e+19 2.640857
-1.0842022e-19 3.2586546 3.6893488e+19
-2.2894697 0 2.7148862
-1.0842022e-19 3.2714863 -2
-1.8942243 0 2.6972172
-3.6893488e+19 3.2734323 0
-1.8952582 3.6893488e+19 2.6845493
-1.0842022e-19 3.2562079 -2
-2.2867315 0 2.650676
3.6893488e+19 3.2549155 0
-1.8854213 3.6893488e+19 2.6403611
-3.6893488e+19 3.249006 2
-1.8825459 -3.6893488e+19 2.617667
2 3.2579534 -0
-2.2886848 -1.0842022e-19 2.6235461
-2 3.2514172 -1.0842022e-19
-1.8835628 -2 2.6060059
-2 3.2080581 -1.0842022e-19
1.8293958 2 2.567709
-1.0842022e-19 3.2457042 -2
-2.0617719 -3.6893488e+19 2.5869327
-2 3.2091863 -2
1.8298992 -1.0842022e-19 2.5553155
2 3.2467413 -0
-2.0624242 -1.0842022e-19 2.5733912
-1.0842022e-19 3.2476058 -2
1.8470428 -3.6893488e+19 2.5382237
3.6893488e+19 3.260802 -1.0842022e-19
-2.0780616 0 2.5448992
0 3.2526698 3.6893488e+19
1.8504938 0 2.5283284
3.6893488e+19 3.2507527 -2
1.8487829 -0 2.5119808
-3.6893488e+19 3.2558227 1.0842022e-19
-2.0717983 1.0842022e-19 2.5101988
-3.6893488e+19 3.1757858 -0
1.8149952 -2 2.420718
1.0842022e-19 3.2588181 -0
-2.2896526 1.0842022e-19 2.4833229
3.6893488e+19 3.2582781 0
-2.2890484 3.6893488e+19 2.4530654
-1.0842022e-19 3.2595298 -0
-1.8878726 2 2.4395723
-3.6893488e+19 3.2562978 0
-2.2868323 3.6893488e+19 2.4206111
3.6893488e+19 3.2480063 3.6893488e+19
-1.8822803 1.0842022e-19 2.3936722
-1.0842022e-19 3.2546124 -1.0842022e-19
-2.284946 3.6893488e+19 2.3891017
2 3.2491462 2
-1.8825831 3.6893488e+19 2.3664825
2 3.1662674 -2
-2.2158597 -0 2.2946024
1.0842022e-19 3.2351317 3.6893488e+19
-1.8788606 -0 2.3289204
3.6893488e+19 3.2516479 0
-2.2816284 -2 2.3278584
0 3.2527015 0
-2.2828074 3.6893488e+19 2.3008029
1.0842022e-19 3.1568654 3.6893488e+19
-1.841143 3.6893488e+19 2.2103875
2 3.2533393 -3.6893488e+19
-2.2835209 -1.0842022e-19 2.2730973
-3.6893488e+19 3.1610472 1.0842022e-19
-1.8433647 -0 2.1690543
3.6893488e+19 3.149893 -2
1.8034412 -3.6893488e+19 2.1352789
1.0842022e-19 3.2389922 3.6893488e+19
-2.0575504 3.6893488e+19 2.1940579
1.0842022e-19 3.2492762 -3.6893488e+19
1.8477881 -3.6893488e+19 2.1751628
2 3.2357743 -0
-2.0555265 -3.6893488e+19 2.1367526
-3.6893488e+19 3.1608336 -1.0842022e-19
1.8083231 -3.6893488e+19 2.0539031
3.6893488e+19 3.2244501 -0
-2.0484042 -0 2.0746689
-2 3.2222466 0
1.8357271 3.6893488e+19 2.0465519
-3.6893488e+19 3.2596021 2
-2.0765524 -1.0842022e-19 2.0472438
0 3.2652581 -1.0842022e-19
1.8617281 1.0842022e-19 2.0238945
0 3.259567 2
-2.076508 -1.0842022e-19 1.9892011
-2 3.2638273 0
1.8604515 -2 1.9635036
-0 3.2593317 3.6893488e+19
-2.0762122 1.0842022e-19 1.9310464
-0 3.2639143 0
1.8605291 -1.0842022e-19 1.9046731
-2 3.2597706 -0
-2.0767643 -0 1.8716915
-2 3.2638791 3.6893488e+19
1.8604976 2 1.8165261
1.0842022e-19 3.1573915 0
-2.006228 -3.6893488e+19 1.7049396
-3.6893488e+19 3.1499875 -1.0842022e-19
-2.1976404 0 1.5992224
2 3.1461015 -2
-1.8354248 -3.6893488e+19 1.3039402
1.0842022e-19 3.3011694 1.0842022e-19
-2.3370495 -1.0842022e-19 -1.57618
1.0842022e-19 3.144907 -1.0842022e-19
-1.8347902 0 -1.6538966
-3.6893488e+19 3.3031359 -1.0842022e-19
-2.3392503 3.6893488e+19 -1.8111902
1.0842022e-19 3.1452243 -2
-1.8349588 1.0842022e-19 -1.7902039
-0 3.2979498 -1.0842022e-19
-2.3334463 -0 -1.9081481
-2 3.1427732 1.0842022e-19
-1.8336568 1.0842022e-19 -1.8759125
1.0842022e-19 3.296911 2
-2.3322837 -2 -1.9740123
-0 3.1417406 2
-1.8331082 -1.0842022e-19 -1.9193099
-1.0842022e-19 3.1425004 3.6893488e+19
-1.8335118 1.0842022e-19 -1.9634595
-3.6893488e+19 3.223572 1.0842022e-19
-2.2649958 -2 -2.0346601
0 3.1493912 -0
-1.8371724 1.0842022e-19 -2.0118272
-0 3.1021035 -3.6893488e+19
-2.1440516 -1.0842022e-19 -2.0010774
-2 3.1108792 0
-1.8167135 -2 -2.0269129
-2 2.9754775 -3.6893488e+19
-1.8995252 -1.0842022e-19 -1.9591497
-3.6893488e+19 2.9003403 3.6893488e+19
1.6786408 0 -1.9371793
0 2.7837405 1.0842022e-19
1.6266114 3.6893488e+19 -1.8985506
1.0842022e-19 2.7533276 3.6893488e+19
-1.7843298 -2 -1.8898182
3.6893488e+19 2.7134902 -2
1.5818197 -3.6893488e+19 -1.8843143
-2 2.6717088 2
-1.7576164 1.0842022e-19 -1.8782073
-1.0842022e-19 2.6438453 2
1.5507426 0 -1.8751798
1.0842022e-19 2.6130962 0
-1.7283685 -3.6893488e+19 -1.8661669
-0 2.5882049 -1.0842022e-19
1.5259145 0 -1.8589811
-1.0842022e-19 2.5673466 -2
-1.6995944 -2 -1.8536263
-0 2.547797 -0
1.5078837 -1.0842022e-19 -1.8477712
2 2.5310872 -2
-1.676789 0 -1.8433275
0 2.5152619 2
1.4867315 -0 -1.8383683
1.0842022e-19 2.4974279 -2
-1.656428 1.0842022e-19 -1.8322053
0 2.4795544 2
-1.7591716 1.0842022e-19 -1.8318703
-3.6893488e+19 2.4596078 -3.6893488e+19
-1.494162 1.0842022e-19 -1.8292947
-1.0842022e-19 2.4410267 2
-1.7467844 -0 -1.8277315
-3.6893488e+19 2.3710215 -0
-1.7076118 -1.0842022e-19 -1.816601
-0 2.3253872 0
-1.6820763 0 -1.8115618
-1.0842022e-19 2.2870133 0
-1.6606035 1.0842022e-19 -1.8059673
-0 2.2591875 -3.6893488e+19
1.3563105 0 -1.8028871
-2 2.2213728 1.0842022e-19
1.3353372 1.0842022e-19 -1.8003231
-0 2.1848104 -3.6893488e+19
1.3190221 -3.6893488e+19 -1.7993022
1.0842022e-19 2.1405401 -2
1.2992676 -3.6893488e+19 -1.7929165
1.0842022e-19 3.1711543 -1.0842022e-19
-2.2213287 -3.6893488e+19 2.640857
2 3.1690857 1.0842022e-19
-2.2190139 3.6893488e+19 2.6266162
-1.0842022e-19 3.2714863 -2
-1.8942243 0 2.6972172
-3.6893488e+19 3.2734323 0
-1.8952582 3.6893488e+19 2.6845493
-1.0842022e-19 3.2562079 -2
-2.2867315 0 2.650676
3.6893488e+19 3.2549155 0
-1.8854213 3.6893488e+19 2.6403611
-3.6893488e+19 3.249006 2
-1.8825459 -3.6893488e+19 2.617667
2 3.2579534 -0
-2.2886848 -1.0842022e-19 2.6235461
-2 3.2514172 -1.0842022e-19
-1.8835628 -2 2.6060059
-2 3.2080581 -1.0842022e-19
1.8293958 2 2.567709
-1.0842022e-19 3.2457042 -2
-2.0617719 -3.6893488e+19 2.5869327
-2 3.2091863 -2
1.8298992 -1.0842022e-19 2.5553155
2 3.2467413 -0
-2.0624242 -1.0842022e-19 2.5733912
-1.0842022e-19 3.2476058 -2
1.8470428 -3.6893488e+19 2.5382237
3.6893488e+19 3.260802 -1.0842022e-19
-2.0780616 0 2.5448992
-2 3.1957202 -0
1.8238903 2 2.4909832
-3.6893488e+19 3.2000411 3.6893488e+19
1.8258184 -1.0842022e-19 2.4701929
-3.6893488e+19 3.2558227 1.0842022e-19
-2.0717983 1.0842022e-19 2.5101988
-3.6893488e+19 3.1757858 -0
1.8149952 -2 2.420718
1.0842022e-19 3.1636569 2
-2.2129383 0 2.3862362
1.0842022e-19 3.1643236 3.6893488e+19
-2.2136843 -2 2.3633981
1.0842022e-19 3.1545591 0
-1.8399179 -1.0842022e-19 2.3426058
-3.6893488e+19 3.2562978 0
-2.2868323 3.6893488e+19 2.4206111
-2 3.1566823 1.0842022e-19
-1.8410459 0 2.321481
-3.6893488e+19 3.162215 -0
-2.2113247 -2 2.3149757
1.0842022e-19 3.1572638 -3.6893488e+19
-1.8413546 0 2.2990208
2 3.1662674 -2
-2.2158597 -0 2.2946024
-2 3.1574831 0
-1.8414713 -2 2.2762744
1.0842022e-19 3.1635616 -1.0842022e-19
-2.2128315 2 2.2694035
-0 3.1527493 2
-2.2007313 3.6893488e+19 2.2294123
1.0842022e-19 3.1568654 3.6893488e+19
-1.841143 3.6893488e+19 2.2103875
2 3.1536322 1.0842022e-19
-2.2017193 0 2.1851118
-3.6893488e+19 3.1610472 1.0842022e-19
-1.8433647 -0 2.1690543
3.6893488e+19 3.149893 -2
1.8034412 -3.6893488e+19 2.1352789
3.6893488e+19 3.1574051 -3.6893488e+19
-2.0062363 -3.6893488e+19 2.1199679
-1.0842022e-19 3.156198 -1.0842022e-19
1.8062546 -0 2.0959015
2 3.1564648 2
-2.005645 -2 2.0736098
-3.6893488e+19 3.1608336 -1.0842022e-19
1.8083231 -3.6893488e+19 2.0539031
2 3.1707282 1.0842022e-19
-2.014616 -0 2.0379066
-2 3.1711035 -1.0842022e-19
1.8129058 -2 2.014436
0 3.1697824 -3.6893488e+19
-2.0140209 -1.0842022e-19 1.9903249
1.0842022e-19 3.1563115 1.0842022e-19
1.8063053 -2 1.9597702
2 3.1716559 3.6893488e+19
-2.0151994 0 1.9442862
-2 3.2638273 0
1.8604515 -2 1.9635036
-0 3.16942 2
-2.0137932 -3.6893488e+19 1.896404
-0 3.2639143 0
1.8605291 -1.0842022e-19 1.9046731
-3.6893488e+19 3.1610122 -1.0842022e-19
-2.0085051 0 1.8201591
0 3.1593714 -0
1.8076706 3.6893488e+19 1.7735628
1.0842022e-19 3.1573915 0
-2.006228 -3.6893488e+19 1.7049396
-3.6893488e+19 3.1499875 -1.0842022e-19
-2.1976404 0 1.5992224
2 3.1461015 -2
-1.8354248 -3.6893488e+19 1.3039402
1.0842022e-19 3.1478703 -2
-2.1952708 0 -1.507888
1.0842022e-19 3.144907 -1.0842022e-19
-1.8347902 0 -1.6538966
3.6893488e+19 3.1466064 -1.0842022e-19
-2.1938565 3.6893488e+19 -1.7436011
1.0842022e-19 3.1452243 -2
-1.8349588 1.0842022e-19 -1.7902039
2 3.1479418 -1.0842022e-19
-2.1953509 -2 -1.8362225
-2 3.1427732 1.0842022e-19
-1.8336568 1.0842022e-19 -1.8759125
-3.6893488e+19 3.1577032 0
-2.2062755 -1.0842022e-19 -1.9038012
-0 3.1417406 2
-1.8331082 -1.0842022e-19 -1.9193099
-1.0842022e-19 3.1425004 3.6893488e+19
-1.8335118 1.0842022e-19 -1.9634595
3.6893488e+19 3.1533556 1.0842022e-19
-2.2014098 1.0842022e-19 -1.9924537
2 3.121918 2
-1.8225776 3.6893488e+19 -1.9938167
-0 3.1021035 -3.6893488e+19
-2.1440516 -1.0842022e-19 -2.0010774
-2 3.07427 2
-1.7972652 1.0842022e-19 -1.9988219
-2 2.9754775 -3.6893488e+19
-1.8995252 -1.0842022e-19 -1.9591497
-3.6893488e+19 2.9003403 3.6893488e+19
1.6786408 0 -1.9371793
0 2.7837405 1.0842022e-19
1.6266114 3.6893488e+19 -1.8985506
1.0842022e-19 2.7533276 3.6893488e+19
-1.7843298 -2 -1.8898182
3.6893488e+19 2.7134902 -2
1.5818197 -3.6893488e+19 -1.8843143
-2 2.6717088 2
-1.7576164 1.0842022e-19 -1.8782073
-1.0842022e-19 2.6438453 2
1.5507426 0 -1.8751798
1.0842022e-19 2.6130962 0
-1.7283685 -3.6893488e+19 -1.8661669
-0 2.5882049 -1.0842022e-19
1.5259145 0 -1.8589811
-1.0842022e-19 2.5673466 -2
-1.6995944 -2 -1.8536263
-0 2.547797 -0
1.5078837 -1.0842022e-19 -1.8477712
2 2.5310872 -2
-1.676789 0 -1.8433275
0 2.5152619 2
1.4867315 -0 -1.8383683
1.0842022e-19 2.4974279 -2
-1.656428 1.0842022e-19 -1.8322053
0 2.4795544 2
-1.7591716 1.0842022e-19 -1.8318703
-3.6893488e+19 2.4596078 -3.6893488e+19
-1.494162 1.0842022e-19 -1.8292947
-1.0842022e-19 2.4410267 2
-1.7467844 -0 -1.8277315
-3.6893488e+19 2.3710215 -0
-1.7076118 -1.0842022e-19 -1.816601
-0 2.3253872 0
-1.6820763 0 -1.8115618
-1.0842022e-19 2.2870133 0
-1.6606035 1.0842022e-19 -1.8059673
-0 2.2591875 -3.6893488e+19
1.3563105 0 -1.8028871
-2 2.2213728 1.0842022e-19
1.3353372 1.0842022e-19 -1.8003231
-0 2.1848104 -3.6893488e+19
1.3190221 -3.6893488e+19 -1.7993022
1.0842022e-19 2.1405401 -2
1.2992676 -3.6893488e+19 -1.7929165
-0 3.1707718 -3.6893488e+19
-2.2386525 -1.0842022e-19 2.6405752
-1.0842022e-19 3.2005613 1.0842022e-19
-1.8885965 -0 2.660593
1.0842022e-19 3.2604768 0
-2.3024981 1.0842022e-19 2.7182486
-2 3.2605195 0
-1.9102762 -2 2.6943429
-2 3.2716112 1.0842022e-19
-1.9171 -1.0842022e-19 2.697444
1.0842022e-19 3.2736647 1.0842022e-19
-1.9183632 -0 2.6849389
-2 3.2557776 0
-2.2970409 1.0842022e-19 2.6500778
2 3.2538755 -2
-1.9061885 2 2.6387868
1.0842022e-19 3.2493207 1.0842022e-19
-1.9035953 3.6893488e+19 2.6179161
-1.0842022e-19 3.2578437 -3.6893488e+19
-2.2994401 -3.6893488e+19 2.6234572
-2 3.250067 -0
-1.9038455 -3.6893488e+19 2.6041107
-1.0842022e-19 3.245559 2
-2.0825162 -1.0842022e-19 2.58687
2 3.2779753 2
-2.1230385 -2 2.6119766
2 3.2529137 -0
1.8082403 0 2.5718391
-0 3.1951141 2
1.7862464 -2 2.5204954
0 3.2492924 1.0842022e-19
1.8058729 -2 2.539191
-2 3.2607741 -1.0842022e-19
-2.0999548 0 2.5448992
-3.6893488e+19 3.2525232 -3.6893488e+19
1.8079574 -3.6893488e+19 2.5281577
-1.0842022e-19 3.2497249 -2
1.8060296 0 2.5110421
-1.0842022e-19 3.2557645 -1.0842022e-19
-2.0932319 1.0842022e-19 2.5101674
3.6893488e+19 3.2583053 0
-2.2999763 1.0842022e-19 2.4824555
-0 3.2381518 -3.6893488e+19
-1.9001596 -3.6893488e+19 2.4409685
3.6893488e+19 3.2586017 -0
-2.3003204 3.6893488e+19 2.4537177
0 3.2524803 0
-1.9053302 -1.0842022e-19 2.4276521
-1.0842022e-19 3.2559865 2
-2.2972834 0 2.4201787
2 3.15657 3.6893488e+19
-1.8750644 -1.0842022e-19 2.3214071
-1.0842022e-19 3.2542391 -3.6893488e+19
-2.295254 -2 2.3886037
-2 3.2540758 -0
-2.2950644 1.0842022e-19 2.3596985
1.0842022e-19 3.2343929 1.0842022e-19
-1.8990034 1.0842022e-19 2.3284349
-2 3.250731 2
-2.2911801 -1.0842022e-19 2.326725
3.6893488e+19 3.1585982 1.0842022e-19
-1.8756883 1.0842022e-19 2.2541041
1.0842022e-19 3.1558135 0
-2.2212811 0 2.23315
-0 3.1596823 -1.0842022e-19
-1.8760217 3.6893488e+19 2.2135968
-3.6893488e+19 3.2525144 0
-2.2932513 -3.6893488e+19 2.272259
-0 3.2908096 2
-1.9289111 -3.6893488e+19 2.2964883
3.6893488e+19 3.1519961 1.0842022e-19
1.7706265 -1.0842022e-19 2.1372924
2 3.2372568 -2
-2.0769453 1.0842022e-19 2.1925292
3.6893488e+19 3.1556499 3.6893488e+19
1.7719501 -0 2.0954232
-0 3.2350051 1.0842022e-19
-2.0754347 -0 2.1361816
2 3.1619399 -1.0842022e-19
