# .PCD v0.7 - Point Cloud Data file format
VERSION 0.7
FIELDS x y z
SIZE 4 4 4
TYPE F F F
COUNT 1 1 1
WIDTH 1721
HEIGHT 1
VIEWPOINT 0 0 0 1 0 0 0
POINTS 1721
DATA ascii
3.6893488e+19 3.1096973 -0
2.9332004 -2 2.3804116
-2 3.0466688 -2
2.8155527 1.0842022e-19 2.2949457
2 3.0512993 -3.6893488e+19
2.8628688 -0 2.2988019
-2 3.0494959 -0
2.8185599 -1.0842022e-19 2.2786233
2 3.0517282 3.6893488e+19
2.8633854 -0 2.2793758
0 3.0477531 -0
2.8167059 -1.0842022e-19 2.2580111
-0 3.096555 3.6893488e+19
2.9173725 3.6893488e+19 2.2981172
1.0842022e-19 3.00617 -1.0842022e-19
2.772476 -3.6893488e+19 2.1613166
-2 3.1007969 -0
2.9224813 0 2.278748
1.0842022e-19 3.0056345 -1.0842022e-19
2.7719064 -0 2.1279318
-0 3.0192726 2
2.8242977 -3.6893488e+19 2.1426461
-2 3.0063789 1.0842022e-19
2.7726984 3.6893488e+19 2.0964434
-0 3.0166621 -3.6893488e+19
2.8211536 1.0842022e-19 2.103924
3.6893488e+19 3.0072768 3.6893488e+19
2.7736533 -3.6893488e+19 2.0649936
-3.6893488e+19 3.0179365 3.6893488e+19
2.8226886 -0 2.0705676
-2 3.1244733 2
2.9827602 2 2.1817014
3.6893488e+19 3.0991621 -2
2.8992097 -1.0842022e-19 2.1172032
2 3.031852 0
2.8633554 3.6893488e+19 2.037405
2 3.0996177 -0
2.8997307 -2 2.0726311
-0 3.0327113 -0
2.8644631 1.0842022e-19 2.0006673
-3.6893488e+19 3.1004629 3.6893488e+19
2.9006972 -1.0842022e-19 2.0282915
-0 3.0324025 0
2.8640652 1.0842022e-19 1.9628451
-1.0842022e-19 3.01841 0
2.8068831 3.6893488e+19 1.9285939
-1.0842022e-19 3.0212376 -2
2.8496716 3.6893488e+19 1.9183931
-1.0842022e-19 3.0174134 -3.6893488e+19
2.8057435 -3.6893488e+19 1.893541
0 3.0432441 0
2.8780417 0 1.8931047
3.6893488e+19 3.0114942 0
2.7989759 -0 1.8384846
-0 3.0231466 0
2.8521328 0 1.8190717
0 3.0135899 -1.0842022e-19
2.8013718 0 1.7724481
2 3.0209432 0
2.849292 -2 1.7411464
0 3.0108442 -3.6893488e+19
2.7982326 -3.6893488e+19 1.6577427
0 2.9706933 -1.0842022e-19
2.7503271 -3.6893488e+19 1.5359721
0 3.0237863 2
2.8297336 0 1.326476
3.6893488e+19 2.9702559 -3.6893488e+19
2.7500944 0 -1.4036638
3.6893488e+19 3.1341567 3.6893488e+19
2.9626579 3.6893488e+19 -1.6647122
-2 2.9727752 -3.6893488e+19
2.7514343 0 -1.658066
-1.0842022e-19 3.0260396 2
2.8324475 1.0842022e-19 -1.7560713
2 2.9742231 3.6893488e+19
2.7522044 -3.6893488e+19 -1.7641994
-1.0842022e-19 3.037143 0
2.84582 0 -1.8361275
-0 2.9753165 -0
2.7527859 3.6893488e+19 -1.8245848
-1.0842022e-19 3.0378191 3.6893488e+19
2.8466341 -0 -1.89331
0 2.9755592 -1.0842022e-19
2.7529149 -2 -1.8799064
-2 3.0031366 -0
2.8048644 -1.0842022e-19 -1.9090259
-0 2.9778187 0
2.7541168 3.6893488e+19 -1.9107424
-2 2.9212949 3.6893488e+19
2.7536926 3.6893488e+19 -1.9097999
1.0842022e-19 2.8951201 -2
2.7258615 -1.0842022e-19 -1.9256413
-0 2.7849312 0
2.6173251 -0 -1.8885721
-1.0842022e-19 2.7019615 -1.0842022e-19
2.5413277 -3.6893488e+19 -1.8748792
-1.0842022e-19 2.6670086 1.0842022e-19
2.4767814 1.0842022e-19 -1.8616612
-0 2.6078284 -3.6893488e+19
2.4613018 3.6893488e+19 -1.8466698
0 2.5951483 1.0842022e-19
2.3946207 -2 -1.8431424
0 2.5552611 0
2.3935337 2 -1.8344526
-0 2.5509331 -2
2.3440678 0 -1.8346313
3.6893488e+19 2.5141041 1.0842022e-19
2.30196 2 -1.8260462
-2 2.4777393 2
2.2731085 -0 -1.8222967
-0 2.426662 -1.0842022e-19
2.2378182 -3.6893488e+19 -1.8150244
-1.0842022e-19 2.3911755 3.6893488e+19
2.1972454 0 -1.8119113
-0 3.1641519 3.6893488e+19
2.9958293 -0 2.6763573
2 3.1264954 1.0842022e-19
2.9507463 1.0842022e-19 2.6247771
-3.6893488e+19 3.089649 2
2.8589883 2 2.5725176
-3.6893488e+19 3.1624455 2
2.9937866 0 2.6465676
-3.6893488e+19 3.0893524 3.6893488e+19
2.8586748 3.6893488e+19 2.5610769
-2 3.1587157 -3.6893488e+19
2.989321 -3.6893488e+19 2.6291544
-2 3.1653821 2
2.9973023 1.0842022e-19 2.6213229
-1.0842022e-19 3.0973921 2
2.8671722 -0 2.5456972
-2 3.1620247 1.0842022e-19
2.9932828 -3.6893488e+19 2.6044586
0 3.0970509 1.0842022e-19
2.8668115 1.0842022e-19 2.5340896
-0 3.0530856 1.0842022e-19
2.862859 -2 2.5005665
2 3.1155794 3.6893488e+19
2.9685864 2 2.5517657
-0 3.0890758 3.6893488e+19
2.8853233 -0 2.5154328
1.0842022e-19 3.1197505 -2
2.9739327 0 2.5426071
2 3.0430505 2
2.8330204 0 2.439487
3.6893488e+19 3.1210022 2
2.9755373 -1.0842022e-19 2.5309849
0 3.0424905 -1.0842022e-19
2.8323839 -3.6893488e+19 2.4194107
0 3.1257234 3.6893488e+19
2.9815886 -3.6893488e+19 2.5218132
1.0842022e-19 3.0409737 0
2.8306603 -0 2.3981373
-1.0842022e-19 3.1156979 0
2.9687386 -3.6893488e+19 2.502182
-1.0842022e-19 3.0417523 1.0842022e-19
2.8315454 3.6893488e+19 2.3800931
0 3.1146257 0
2.9673641 -2 2.4782462
0 3.0418448 3.6893488e+19
2.8316503 -2 2.3611388
-0 3.1259766 2
2.9819133 -2 2.467782
-1.0842022e-19 3.0437663 2
2.8338339 2 2.3252187
-0 3.0450356 3.6893488e+19
2.8118346 0 2.3117654
-2 3.1099973 -3.6893488e+19
2.9309945 -3.6893488e+19 2.3801303
-3.6893488e+19 3.0482347 -2
2.8152158 3.6893488e+19 2.2960908
-1.0842022e-19 3.1063266 2
2.9266 -0 2.3528175
3.6893488e+19 3.1775236 -2
2.9518661 3.6893488e+19 2.3971763
-3.6893488e+19 3.1022592 1.0842022e-19
2.9217305 -0 2.3256507
-0 3.0971007 -1.0842022e-19
2.9155545 3.6893488e+19 2.2981172
-1.0842022e-19 3.0975823 1.0842022e-19
2.9161313 -2 2.2757592
-2 3.0074217 -2
2.772079 -1.0842022e-19 2.1300459
3.6893488e+19 3.1002929 0
2.9193764 -2 2.2549922
-3.6893488e+19 3.1117384 -0
2.8823354 1.0842022e-19 2.2381365
3.6893488e+19 3.0982552 -0
2.9169366 0 2.2114906
2 3.1112838 2
2.8818548 2 2.1917193
3.6893488e+19 3.0998909 -0
2.918895 -2 2.1679621
2 3.1269431 1.0842022e-19
2.9831522 2 2.1838171
-3.6893488e+19 3.0967271 -3.6893488e+19
2.8940182 -2 2.1140983
3.6893488e+19 3.1261735 -2
2.9821656 0 2.1329393
-0 3.1008458 -1.0842022e-19
2.8986986 -0 2.0732813
1.0842022e-19 3.1256216 2
2.9814582 -3.6893488e+19 2.0824859
3.6893488e+19 3.0994396 0
2.8971007 0 2.0270648
-0 3.1266282 2
2.9827485 3.6893488e+19 2.0333846
-3.6893488e+19 3.097934 2
2.8953898 3.6893488e+19 1.9811618
2 3.0215898 2
2.848114 3.6893488e+19 1.9183279
-0 3.1092026 3.6893488e+19
2.9081953 3.6893488e+19 1.9425235
0 3.0441067 -0
2.8769753 -2 1.893284
-3.6893488e+19 3.1067948 3.6893488e+19
2.9054592 2 1.8954269
2 3.1260159 3.6893488e+19
2.9819636 -2 1.8833554
-3.6893488e+19 3.0102074 3.6893488e+19
2.7956979 -1.0842022e-19 1.7703388
-3.6893488e+19 3.1247401 -0
2.9803286 2 1.7914836
3.6893488e+19 3.013788 1.0842022e-19
2.7997668 3.6893488e+19 1.6592849
1.0842022e-19 2.9707398 3.6893488e+19
2.7475431 3.6893488e+19 1.5357646
2 3.1350091 -0
2.9609389 -0 1.391439
-3.6893488e+19 2.9744461 1.0842022e-19
2.7507303 -0 -1.4048177
-2 3.1351101 -3.6893488e+19
2.96106 1.0842022e-19 -1.6648614
-2 3.0177147 -3.6893488e+19
2.782958 -2 -1.6787651
-0 3.0263402 -2
2.8308389 0 -1.7560078
-0 3.0182989 1.0842022e-19
2.7835755 1.0842022e-19 -1.7822897
2 3.0898707 -3.6893488e+19
2.9068985 -3.6893488e+19 -1.8745035
-3.6893488e+19 3.0195878 3.6893488e+19
2.7849379 -0 -1.8510849
-0 3.089226 -3.6893488e+19
2.9061267 2 -1.9186407
-3.6893488e+19 3.0190406 -1.0842022e-19
2.7843595 -1.0842022e-19 -1.8967813
2 3.0406773 -3.6893488e+19
2.8480034 -0 -1.9323226
1.0842022e-19 2.977931 3.6893488e+19
2.7525718 2 -1.9105569
-1.0842022e-19 2.9190114 -1.0842022e-19
2.7508235 0 -1.9086839
1.0842022e-19 2.8966529 0
2.7248793 -3.6893488e+19 -1.9260454
-0 2.7875662 3.6893488e+19
2.618592 0 -1.8896183
-2 2.7013576 0
2.5392671 -3.6893488e+19 -1.8741254
-2 2.6637268 3.6893488e+19
2.4701562 -1.0842022e-19 -1.8594482
1.0842022e-19 2.6126325 -1.0842022e-19
2.4648092 -1.0842022e-19 -1.8492677
0 2.5955558 -2
2.3926868 -1.0842022e-19 -1.843074
-3.6893488e+19 2.5563004 1.0842022e-19
2.3926051 1.0842022e-19 -1.8348122
-2 2.5493238 -1.0842022e-19
2.3401494 -2 -1.833199
-0 2.5146072 0
2.3006978 -3.6893488e+19 -1.8261285
-2 2.2604563 2
2.0838437 -0 -1.7131306
2 2.4788866 0
2.2721016 3.6893488e+19 -1.8224753
-0 2.4272997 -3.6893488e+19
2.2355802 -3.6893488e+19 -1.8150244
2 2.2599089 -2
2.0831418 3.6893488e+19 -1.7474174
0 2.3906794 -2
2.193965 -0 -1.8113955
0 2.355099 0
2.1253178 0 -1.808606
-1.0842022e-19 2.3060482 -0
2.0734742 0 -1.8028334
2 2.2689278 1.0842022e-19
2.0342402 -2 -1.7985392
1.0842022e-19 2.2321434 3.6893488e+19
2.0047979 -3.6893488e+19 -1.796111
3.6893488e+19 2.1541417 -3.6893488e+19
2.009007 -1.0842022e-19 -1.7893625
0 2.1179564 2
1.9858166 1.0842022e-19 -1.7872207
2 2.0913756 3.6893488e+19
1.9687815 -3.6893488e+19 -1.7872287
1.0842022e-19 2.0772192 2
1.9597089 1.0842022e-19 -1.7918047
-1.0842022e-19 3.0490544 -1.0842022e-19
2.8580327 -0 2.5578678
3.6893488e+19 3.0491405 -1.0842022e-19
2.8581357 0 2.5477753
-3.6893488e+19 3.089649 2
2.8589883 2 2.5725176
0 3.0509179 3.6893488e+19
2.8602636 -1.0842022e-19 2.5393331
-3.6893488e+19 3.0893524 3.6893488e+19
2.8586748 3.6893488e+19 2.5610769
3.6893488e+19 3.0513167 -3.6893488e+19
2.8607411 3.6893488e+19 2.5295234
2 3.0492785 -1.0842022e-19
2.8583009 -2 2.517534
-1.0842022e-19 3.0973921 2
2.8671722 -0 2.5456972
3.6893488e+19 3.0494866 0
2.8585503 -1.0842022e-19 2.5076437
0 3.0970509 1.0842022e-19
2.8668115 1.0842022e-19 2.5340896
-0 3.0530856 1.0842022e-19
2.862859 -2 2.5005665
2 3.1155794 3.6893488e+19
2.9685864 2 2.5517657
-0 3.0890758 3.6893488e+19
2.8853233 -0 2.5154328
1.0842022e-19 3.1197505 -2
2.9739327 0 2.5426071
2 3.0430505 2
2.8330204 0 2.439487
3.6893488e+19 3.1210022 2
2.9755373 -1.0842022e-19 2.5309849
0 3.0424905 -1.0842022e-19
2.8323839 -3.6893488e+19 2.4194107
0 3.1257234 3.6893488e+19
2.9815886 -3.6893488e+19 2.5218132
1.0842022e-19 3.0409737 0
2.8306603 -0 2.3981373
3.6893488e+19 3.0525568 2
2.8878064 3.6893488e+19 2.4172812
-1.0842022e-19 3.0417523 1.0842022e-19
2.8315454 3.6893488e+19 2.3800931
-1.0842022e-19 3.0523603 3.6893488e+19
2.8875546 -2 2.3965786
0 3.0418448 3.6893488e+19
2.8316503 -2 2.3611388
-0 3.1259766 2
2.9819133 -2 2.467782
-1.0842022e-19 3.0437663 2
2.8338339 2 2.3252187
-0 3.0450356 3.6893488e+19
2.8118346 0 2.3117654
-1.0842022e-19 3.0492251 -3.6893488e+19
2.858237 -0 2.3159595
-3.6893488e+19 3.0482347 -2
2.8152158 3.6893488e+19 2.2960908
-3.6893488e+19 3.0516937 1.0842022e-19
2.8611927 3.6893488e+19 2.2987227
3.6893488e+19 3.1775236 -2
2.9518661 3.6893488e+19 2.3971763
-3.6893488e+19 3.1022592 1.0842022e-19
2.9217305 -0 2.3256507
-2 3.0510163 -2
2.8603816 3.6893488e+19 2.2585363
-1.0842022e-19 3.0194097 1.0842022e-19
2.8225417 3.6893488e+19 2.17748
-2 3.0074217 -2
2.772079 -1.0842022e-19 2.1300459
3.6893488e+19 3.0199907 3.6893488e+19
2.8232372 3.6893488e+19 2.1430743
-1.0842022e-19 3.007314 -3.6893488e+19
2.771965 2 2.0972242
-0 3.0194089 2
2.8225408 1.0842022e-19 2.1070075
-1.0842022e-19 3.0079927 0
2.7726827 -0 2.0654318
1.0842022e-19 3.018091 -1.0842022e-19
2.8209627 -2 2.0702479
2 3.1269431 1.0842022e-19
2.9831522 2 2.1838171
0 3.0554955 3.6893488e+19
2.8471627 3.6893488e+19 2.0708008
-1.0842022e-19 3.0333254 0
2.8631566 1.0842022e-19 2.0384214
-0 3.1008458 -1.0842022e-19
2.8986986 -0 2.0732813
-1.0842022e-19 3.0311904 -2
2.8604198 -2 1.9988992
-0 3.0149367 -0
2.8010721 -1.0842022e-19 1.9600638
-0 3.1266282 2
2.9827485 3.6893488e+19 2.0333846
3.6893488e+19 3.0200331 -3.6893488e+19
2.8068635 2 1.9294057
2 3.0215898 2
2.848114 3.6893488e+19 1.9183279
-2 3.0167539 2
2.8031373 -2 1.8929733
-3.6893488e+19 3.0224864 -1.0842022e-19
2.8492634 0 1.8827511
-0 3.013216 0
2.7991168 3.6893488e+19 1.8395697
-2 3.02437 3.6893488e+19
2.8516777 2 1.8196127
-3.6893488e+19 3.0102074 3.6893488e+19
2.7956979 -1.0842022e-19 1.7703388
-1.0842022e-19 3.0237939 -0
2.8509393 1.0842022e-19 1.7432737
3.6893488e+19 3.013788 1.0842022e-19
2.7997668 3.6893488e+19 1.6592849
1.0842022e-19 2.9707398 3.6893488e+19
2.7475431 3.6893488e+19 1.5357646
-0 3.0283465 3.6893488e+19
2.833241 0 1.3295099
-3.6893488e+19 2.9744461 1.0842022e-19
2.7507303 -0 -1.4048177
0 3.0274575 2
2.8321764 3.6893488e+19 -1.6125529
3.6893488e+19 2.9739299 -2
2.7504573 -2 -1.658232
-0 3.0263402 -2
2.8308389 0 -1.7560078
1.0842022e-19 2.9771478 2
2.7521579 0 -1.7648635
-3.6893488e+19 3.0368445 1.0842022e-19
2.843415 -1.0842022e-19 -1.8355764
2 2.977248 3.6893488e+19
2.7522109 -1.0842022e-19 -1.8251176
2 3.0379241 3.6893488e+19
2.8447073 3.6893488e+19 -1.8931367
0 2.9785402 -0
2.7528937 1.0842022e-19 -1.8805393
-2 3.0039372 -1.0842022e-19
2.8040178 -2 -1.909278
1.0842022e-19 2.977931 3.6893488e+19
2.7525718 2 -1.9105569
-1.0842022e-19 2.9190114 -1.0842022e-19
2.7508235 0 -1.9086839
1.0842022e-19 2.8966529 0
2.7248793 -3.6893488e+19 -1.9260454
-0 2.7875662 3.6893488e+19
2.618592 0 -1.8896183
-2 2.7013576 0
2.5392671 -3.6893488e+19 -1.8741254
-2 2.6637268 3.6893488e+19
2.4701562 -1.0842022e-19 -1.8594482
1.0842022e-19 2.6126325 -1.0842022e-19
2.4648092 -1.0842022e-19 -1.8492677
0 2.5955558 -2
2.3926868 -1.0842022e-19 -1.843074
-3.6893488e+19 2.5563004 1.0842022e-19
2.3926051 1.0842022e-19 -1.8348122
-2 2.5493238 -1.0842022e-19
2.3401494 -2 -1.833199
-0 2.5146072 0
2.3006978 -3.6893488e+19 -1.8261285
-2 2.2604563 2
2.0838437 -0 -1.7131306
2 2.4788866 0
2.2721016 3.6893488e+19 -1.8224753
-0 2.4272997 -3.6893488e+19
2.2355802 -3.6893488e+19 -1.8150244
2 2.2599089 -2
2.0831418 3.6893488e+19 -1.7474174
0 2.3906794 -2
2.193965 -0 -1.8113955
0 2.355099 0
2.1253178 0 -1.808606
-1.0842022e-19 2.3060482 -0
2.0734742 0 -1.8028334
2 2.2689278 1.0842022e-19
2.0342402 -2 -1.7985392
1.0842022e-19 2.2321434 3.6893488e+19
2.0047979 -3.6893488e+19 -1.796111
3.6893488e+19 2.1541417 -3.6893488e+19
2.009007 -1.0842022e-19 -1.7893625
0 2.1179564 2
1.9858166 1.0842022e-19 -1.7872207
2 2.0913756 3.6893488e+19
1.9687815 -3.6893488e+19 -1.7872287
1.0842022e-19 2.0772192 2
1.9597089 1.0842022e-19 -1.7918047
3.6893488e+19 3.0883415 0
2.8553419 -3.6893488e+19 2.5819738
-3.6893488e+19 3.1218579 -3.6893488e+19
2.9425523 2 2.6195827
1.0842022e-19 3.0887101 -0
2.8557289 2 2.5711825
-3.6893488e+19 3.1633012 1.0842022e-19
2.9918747 2 2.6467695
-0 3.0897939 2
2.8568673 1.0842022e-19 2.5610521
0 3.1614888 -3.6893488e+19
2.9897172 0 2.6311307
-0 3.0509071 3.6893488e+19
2.8581131 1.0842022e-19 2.5185699
-1.0842022e-19 3.0978718 -2
2.865351 -0 2.5456972
0 3.1625111 0
2.9909341 0 2.6043227
0 3.0993814 2
2.8669364 -1.0842022e-19 2.5356028
0 3.0510478 0
2.8582804 -0 2.4969862
-0 3.1185806 3.6893488e+19
2.9697139 0 2.5537343
1.0842022e-19 3.0399797 2
2.8275242 2 2.4533265
0 3.1194601 0
2.9708347 0 2.5418882
1.0842022e-19 3.04268 -1.0842022e-19
2.830574 -1.0842022e-19 2.4382803
-2 3.0418761 -1.0842022e-19
2.8296661 -3.6893488e+19 2.4179094
3.6893488e+19 3.0411365 -1.0842022e-19
2.8288307 1.0842022e-19 2.3977697
2 3.1141198 2
2.9640291 -3.6893488e+19 2.5006738
-3.6893488e+19 3.0431015 2
2.8310504 -0 2.3812847
1.0842022e-19 3.1160197 -2
2.9664502 2 2.4792719
-0 3.0420084 2
2.8298156 1.0842022e-19 2.3608057
-0 3.1260054 3.6893488e+19
2.979176 -1.0842022e-19 2.4670355
0 3.0682738 0
2.8594816 -2 2.3518274
3.6893488e+19 3.2498157 1.0842022e-19
3.0124648 0 2.5137146
1.0842022e-19 3.1098669 3.6893488e+19
2.9282815 -3.6893488e+19 2.3793988
-0 3.2494404 -1.0842022e-19
3.0122676 3.6893488e+19 2.4951663
-0 3.1060562 -0
2.9237466 -2 2.351999
-2 3.1014206 3.6893488e+19
2.9182298 -0 2.324368
1.0842022e-19 3.0806923 -2
2.8473082 -3.6893488e+19 2.2857614
-1.0842022e-19 3.080133 3.6893488e+19
2.8467209 -0 2.2643044
-1.0842022e-19 3.0981529 -0
2.9143407 -1.0842022e-19 2.2757804
0 3.0779023 -1.0842022e-19
2.844378 1.0842022e-19 2.2334325
-2 3.1001983 -1.0842022e-19
2.916775 -3.6893488e+19 2.2545252
-3.6893488e+19 3.1107204 -3.6893488e+19
2.8788452 2 2.2360916
3.6893488e+19 3.1009698 3.6893488e+19
2.9176931 -3.6893488e+19 2.2143612
3.6893488e+19 3.1147087 -3.6893488e+19
2.8830338 -2 2.1952918
-1.0842022e-19 3.0996075 -0
2.9160719 -2 2.1669712
2 3.0832222 -0
2.9246535 3.6893488e+19 2.132858
-1.0842022e-19 3.0990622 -0
2.8942564 -1.0842022e-19 2.1160069
1.0842022e-19 3.1258037 -2
2.9789188 2 2.131923
3.6893488e+19 3.2018063 1.0842022e-19
3.0378878 3.6893488e+19 2.1492531
-0 3.0985448 3.6893488e+19
2.893672 -3.6893488e+19 2.0259454
0 3.2010205 -1.0842022e-19
3.0373869 1.0842022e-19 2.0887916
1.0842022e-19 3.0101552 1.0842022e-19
2.7938383 -3.6893488e+19 1.9225866
-2 3.0963249 -1.0842022e-19
2.9413517 0 1.9642889
-0 3.1080225 1.0842022e-19
2.9043767 -1.0842022e-19 1.9416064
1.0842022e-19 3.0447838 3.6893488e+19
2.8756683 2 1.8933737
1.0842022e-19 3.1078961 1.0842022e-19
2.9042339 -2 1.8956593
-0 3.0247769 -3.6893488e+19
2.8501718 2 1.8195754
-0 3.0098865 -1.0842022e-19
2.7935348 0 1.7699443
0 3.0251751 2
2.8506792 2 1.7440919
3.6893488e+19 3.0155199 1.0842022e-19
2.7788613 0 1.5561079
-2 3.1358261 -2
2.9591761 -0 1.3915178
-1.0842022e-19 3.0165734 3.6893488e+19
2.7799678 -1.0842022e-19 -1.4237326
-2 3.1360886 1.0842022e-19
2.9594886 1.0842022e-19 -1.6650221
-0 3.0162308 0
2.779608 0 -1.6775291
-0 3.0265846 0
2.8291667 -1.0842022e-19 -1.7559187
0 3.0184481 -3.6893488e+19
2.7819364 1.0842022e-19 -1.7821602
-3.6893488e+19 3.0379376 1.0842022e-19
2.8426781 -2 -1.8360487
-2 3.0189919 2
2.7825079 -0 -1.8502742
-1.0842022e-19 3.0387771 2
2.843677 1.0842022e-19 -1.8933367
1.0842022e-19 3.0188038 -3.6893488e+19
2.78231 0 -1.8964499
2 3.0405953 -1.0842022e-19
2.8458407 -0 -1.9319865
3.6893488e+19 2.9806368 2
2.7523935 0 -1.9112433
-1.0842022e-19 2.9193449 0
2.7490673 -2 -1.9085621
1.0842022e-19 2.914993 0
2.6858449 -1.0842022e-19 -1.9154024
2 2.8979709 2
2.7236297 -0 -1.9263545
-0 2.7904694 -0
2.6201701 -1.0842022e-19 -1.8907919
1.0842022e-19 2.7028506 -3.6893488e+19
2.538553 1.0842022e-19 -1.8745314
-1.0842022e-19 2.6658621 0
2.4697051 -2 -1.8603088
0 2.6112413 3.6893488e+19
2.4603608 -3.6893488e+19 -1.8480337
-2 2.5961773 -3.6893488e+19
2.3909979 -2 -1.8431424
3.6893488e+19 2.5586011 3.6893488e+19
2.3932769 -3.6893488e+19 -1.8360344
3.6893488e+19 2.5513964 2
2.3404191 -2 -1.8343297
3.6893488e+19 2.5153255 1.0842022e-19
2.2996781 -2 -1.8263755
-1.0842022e-19 2.4778631 2
2.2698667 1.0842022e-19 -1.8217611
-3.6893488e+19 2.4288008 -2
2.234319 2 -1.8154093
-0 2.3914759 -3.6893488e+19
2.1921613 -3.6893488e+19 -1.8114986
3.6893488e+19 3.0883415 0
2.8553419 -3.6893488e+19 2.5819738
-3.6893488e+19 3.1218579 -3.6893488e+19
2.9425523 2 2.6195827
1.0842022e-19 3.0887101 -0
2.8557289 2 2.5711825
-3.6893488e+19 3.0513358 -2
2.8586233 -2 2.5392826
-0 3.0897939 2
2.8568673 1.0842022e-19 2.5610521
2 3.0517619 -1.0842022e-19
2.8591301 1.0842022e-19 2.5294991
-0 3.0509071 3.6893488e+19
2.8581131 1.0842022e-19 2.5185699
-1.0842022e-19 3.0978718 -2
2.865351 -0 2.5456972
-0 3.0482385 -0
2.8549371 2 2.5061693
0 3.0993814 2
2.8669364 -1.0842022e-19 2.5356028
0 3.0510478 0
2.8582804 -0 2.4969862
-0 3.1185806 3.6893488e+19
2.9697139 0 2.5537343
1.0842022e-19 3.0399797 2
2.8275242 2 2.4533265
0 3.1194601 0
2.9708347 0 2.5418882
1.0842022e-19 3.04268 -1.0842022e-19
2.830574 -1.0842022e-19 2.4382803
-2 3.0418761 -1.0842022e-19
2.8296661 -3.6893488e+19 2.4179094
3.6893488e+19 3.0411365 -1.0842022e-19
2.8288307 1.0842022e-19 2.3977697
-3.6893488e+19 3.052568 -2
2.8855884 -0 2.4165988
-3.6893488e+19 3.0431015 2
2.8310504 -0 2.3812847
1.0842022e-19 3.0546944 1.0842022e-19
2.8882983 -0 2.3989716
-0 3.0420084 2
2.8298156 1.0842022e-19 2.3608057
-0 3.1260054 3.6893488e+19
2.979176 -1.0842022e-19 2.4670355
0 3.0441756 -2
2.8322632 1.0842022e-19 2.3251889
0 3.0466797 -0
2.8115866 3.6893488e+19 2.3130703
2 3.0520415 -1.0842022e-19
2.859463 1.0842022e-19 2.3184352
2 3.0502968 1.0842022e-19
2.8153856 3.6893488e+19 2.2977269
-1.0842022e-19 3.0524595 3.6893488e+19
2.8599606 3.6893488e+19 2.2990131
1.0842022e-19 3.0463426 2
2.8526807 -1.0842022e-19 2.2735298
1.0842022e-19 3.0806923 -2
2.8473082 -3.6893488e+19 2.2857614
-1.0842022e-19 3.080133 3.6893488e+19
2.8467209 -0 2.2643044
-3.6893488e+19 3.0203395 -2
2.8217342 -1.0842022e-19 2.1782854
0 3.0779023 -1.0842022e-19
2.844378 1.0842022e-19 2.2334325
-1.0842022e-19 3.0204666 -1.0842022e-19
2.8218853 -3.6893488e+19 2.143152
1.0842022e-19 3.0079453 3.6893488e+19
2.770906 -0 2.0975959
-0 3.0197768 -0
2.8210645 -2 2.1069365
1.0842022e-19 3.0090668 -3.6893488e+19
2.7720838 0 2.0663083
2 3.0192876 1.0842022e-19
2.8204823 -2 2.0711749
2 3.0832222 -0
2.9246535 3.6893488e+19 2.132858
-2 3.0558946 -0
2.8454998 -0 2.0707438
-0 3.0827494 -2
2.924051 1.0842022e-19 2.0881677
-1.0842022e-19 3.1271985 -0
2.9806964 -1.0842022e-19 2.0833235
2 3.0082619 1.0842022e-19
2.7916999 2 1.9544679
0 3.2010205 -1.0842022e-19
3.0373869 1.0842022e-19 2.0887916
1.0842022e-19 3.0101552 1.0842022e-19
2.7938383 -3.6893488e+19 1.9225866
-0 3.0223081 -0
2.8470256 -1.0842022e-19 1.9184909
-0 3.0116286 -0
2.7955024 -2 1.8900183
0 3.022706 -3.6893488e+19
2.8475325 -1.0842022e-19 1.8826357
-2 3.0101247 1.0842022e-19
2.7938039 0 1.8367354
-0 3.0247769 -3.6893488e+19
2.8501718 2 1.8195754
-0 3.0098865 -1.0842022e-19
2.7935348 0 1.7699443
0 3.0251751 2
2.8506792 2 1.7440919
2 2.9762592 3.6893488e+19
2.7500947 1.0842022e-19 1.5374253
-2 3.0253177 0
2.8276589 -1.0842022e-19 1.3269684
3.6893488e+19 2.9792514 -2
2.7516658 -3.6893488e+19 -1.40617
-3.6893488e+19 3.0288312 -3.6893488e+19
2.8318403 3.6893488e+19 -1.6133564
-0 2.9789002 2
2.7514815 -2 -1.6596709
-0 3.0265846 0
2.8291667 -1.0842022e-19 -1.7559187
0 2.9775853 0
2.7507911 -0 -1.7647986
-3.6893488e+19 3.0379376 1.0842022e-19
2.8426781 -2 -1.8360487
3.6893488e+19 2.9840474 1.0842022e-19
2.7541845 -3.6893488e+19 -1.8276888
-2 3.0041463 2
2.8024626 -0 -1.8761474
-3.6893488e+19 2.974942 -2
2.748806 1.0842022e-19 -1.8793792
-2 3.00157 0
2.7993965 -1.0842022e-19 -1.9075468
3.6893488e+19 2.9806368 2
2.7523935 0 -1.9112433
-1.0842022e-19 2.9193449 0
2.7490673 -2 -1.9085621
1.0842022e-19 2.914993 0
2.6858449 -1.0842022e-19 -1.9154024
2 2.8979709 2
2.7236297 -0 -1.9263545
-0 2.7904694 -0
2.6201701 -1.0842022e-19 -1.8907919
1.0842022e-19 2.7028506 -3.6893488e+19
2.538553 1.0842022e-19 -1.8745314
-1.0842022e-19 2.6658621 0
2.4697051 -2 -1.8603088
0 2.6112413 3.6893488e+19
2.4603608 -3.6893488e+19 -1.8480337
-2 2.5961773 -3.6893488e+19
2.3909979 -2 -1.8431424
3.6893488e+19 2.5586011 3.6893488e+19
2.3932769 -3.6893488e+19 -1.8360344
3.6893488e+19 2.5513964 2
2.3404191 -2 -1.8343297
3.6893488e+19 2.5153255 1.0842022e-19
2.2996781 -2 -1.8263755
-1.0842022e-19 2.4778631 2
2.2698667 1.0842022e-19 -1.8217611
-3.6893488e+19 2.4288008 -2
2.234319 2 -1.8154093
-0 2.3914759 -3.6893488e+19
2.1921613 -3.6893488e+19 -1.8114986
3.6893488e+19 3.0880206 0
2.8527489 0 2.5812047
-1.0842022e-19 3.1225941 -3.6893488e+19
2.9407895 2 2.6197393
0 3.0894189 1.0842022e-19
2.854208 3.6893488e+19 2.5714135
1.0842022e-19 3.0506983 -0
2.8557346 -3.6893488e+19 2.5382221
-3.6893488e+19 3.0905588 3.6893488e+19
2.8553977 -0 2.5613251
2 3.0523367 3.6893488e+19
2.8576729 3.6893488e+19 2.5295966
1.0842022e-19 3.0984309 2
2.8636127 3.6893488e+19 2.5457666
1.0842022e-19 3.0482264 -3.6893488e+19
2.8528101 -2 2.5057609
-2 3.1006513 -2
2.8659298 -1.0842022e-19 2.5362482
3.6893488e+19 3.0849648 3.6893488e+19
2.8962729 -3.6893488e+19 2.5260596
-2 3.1231217 0
2.9727576 -2 2.5569651
-0 3.0403807 -0
2.8259737 3.6893488e+19 2.4532845
3.6893488e+19 3.0406375 2
2.826262 0 2.4345806
0 3.0428724 -3.6893488e+19
2.8287706 -1.0842022e-19 2.4187179
1.0842022e-19 3.0438573 3.6893488e+19
2.8298764 2 2.4008954
-3.6893488e+19 3.0510864 -0
2.8814864 3.6893488e+19 2.4138696
2 3.0443437 -0
2.8304224 -0 2.3823361
-2 3.1166553 -1.0842022e-19
2.9645643 -1.0842022e-19 2.479306
3.6893488e+19 3.0436277 -1.0842022e-19
2.8296187 -1.0842022e-19 2.3622718
1.0842022e-19 3.0443392 1.0842022e-19
2.8304174 -0 2.3248901
-2 3.2505395 -3.6893488e+19
3.011456 1.0842022e-19 2.514019
-1.0842022e-19 3.1096513 0
2.925478 0 2.3785832
-1.0842022e-19 3.2506962 3.6893488e+19
3.0116196 1.0842022e-19 2.4964206
-2 3.1065297 -2
2.9217849 -1.0842022e-19 2.3519199
0 3.0768659 0
2.8411081 -1.0842022e-19 2.3028293
1.0842022e-19 3.1025829 2
2.9171157 1.0842022e-19 2.3249354
0 3.0797946 2
2.8441644 -0 2.2845953
-0 3.0489297 2
2.8536425 -1.0842022e-19 2.255945
0 3.0804205 -1.0842022e-19
2.8448174 2 2.2641721
-2 3.1056087 -2
2.9206953 -0 2.281249
-1.0842022e-19 3.0779655 -1.0842022e-19
2.8422556 -3.6893488e+19 2.2328632
2 3.0997777 -2
2.9137969 -1.0842022e-19 2.2538247
-0 3.1089499 1.0842022e-19
2.8745902 -2 2.2330427
-3.6893488e+19 3.0206256 2
2.820158 3.6893488e+19 2.1075037
-0 3.1081603 -2
2.8737659 1.0842022e-19 2.1866975
-2 3.099668 1.0842022e-19
2.9136674 -0 2.1663959
-0 3.1486511 0
3.002552 -0 2.2072716
3.6893488e+19 3.0996046 0
2.892457 0 2.1160355
0 3.2015047 1.0842022e-19
3.0360355 0 2.2080936
-3.6893488e+19 3.1007149 2
2.8937035 -2 2.072206
-2 3.2020841 0
3.0364027 0 2.1488345
-3.6893488e+19 3.1004748 -3.6893488e+19
2.8934338 0 2.0270648
2 3.201376 1.0842022e-19
3.035954 -1.0842022e-19 2.0884948
2 3.0102668 2
2.7921686 -1.0842022e-19 1.9224062
-3.6893488e+19 3.0962157 0
2.9386668 3.6893488e+19 1.9638652
1.0842022e-19 3.109695 2
2.903784 1.0842022e-19 1.9422178
3.6893488e+19 3.0434275 -2
2.8717821 0 1.8924768
3.6893488e+19 3.1090236 3.6893488e+19
2.9030304 0 1.895903
1.0842022e-19 3.0447397 2
2.8734448 3.6893488e+19 1.8333644
-1.0842022e-19 3.0100248 2
2.7918971 3.6893488e+19 1.7698077
1.0842022e-19 3.0253694 1.0842022e-19
2.848902 2 1.7438581
-1.0842022e-19 3.0093102 0
2.791095 2 1.6561186
2 3.0136678 -1.0842022e-19
2.7751563 -2 1.5545981
-2 3.0271714 1.0842022e-19
2.8279018 2 1.3280126
-1.0842022e-19 3.0166345 1.0842022e-19
2.7782524 -3.6893488e+19 -1.4235343
-3.6893488e+19 3.0318201 0
2.8334014 -3.6893488e+19 -1.6155372
-1.0842022e-19 3.0154879 -1.0842022e-19
2.7770557 -2 -1.6767911
0 3.036186 -1.0842022e-19
2.8385661 3.6893488e+19 -1.7602531
3.6893488e+19 3.0178745 -0
2.7795463 0 -1.7816095
1.0842022e-19 3.0370948 -0
2.8396413 3.6893488e+19 -1.8351041
-2 3.0174222 2
2.7790744 2 -1.8486527
2 3.0383928 0
2.841177 0 -1.8929236
-1.0842022e-19 3.0198095 3.6893488e+19
2.7815657 -3.6893488e+19 -1.8967963
1.0842022e-19 3.041558 -2
2.8449214 -0 -1.9323058
2 2.9212334 -2
2.7483311 -3.6893488e+19 -1.9090288
-1.0842022e-19 2.8980525 -1.0842022e-19
2.7209074 2 -1.9261168
-3.6893488e+19 2.7856803 -0
2.6119664 1.0842022e-19 -1.8882405
-2 2.7610013 -0
2.5429933 1.0842022e-19 -1.880716
-2 2.7043426 3.6893488e+19
2.5378335 -0 -1.8749373
-2 2.6608183 1.0842022e-19
2.461174 0 -1.8571124
0 2.6084712 2
2.4541945 3.6893488e+19 -1.8459554
-0 2.5966883 -2
2.389183 -2 -1.8431424
-2 2.556798 3.6893488e+19
2.3887231 2 -1.8344526
2 2.5526021 2
2.3396931 0 -1.8348575
-2 2.515717 -3.6893488e+19
2.2982869 -2 -1.8263755
-0 2.2625897 1.0842022e-19
2.0827098 -0 -1.7141602
-1.0842022e-19 2.4776998 -1.0842022e-19
2.2681265 -1.0842022e-19 -1.821404
-2 2.4303017 -1.0842022e-19
2.2330453 -1.0842022e-19 -1.8157941
3.6893488e+19 2.260778 -2
2.0804141 3.6893488e+19 -1.7474174
1.0842022e-19 2.3927042 -1.0842022e-19
2.1908393 -2 -1.8118081
-1.0842022e-19 2.3545356 3.6893488e+19
2.1199834 -0 -1.8078111
1.0842022e-19 2.3077707 3.6893488e+19
2.0711808 -0 -1.8033429
0 2.2720823 1.0842022e-19
2.0339375 1.0842022e-19 -1.8000925
1.0842022e-19 2.230844 1.0842022e-19
2.0008976 -3.6893488e+19 -1.795181
3.6893488e+19 2.1509135 3.6893488e+19
2.0039852 2 -1.7875063
-2 2.1200171 -2
1.9844118 -0 -1.7875856
1.0842022e-19 2.0929313 3.6893488e+19
1.9672525 -0 -1.7874249
-2 2.0733576 2
1.9548523 3.6893488e+19 -1.7892869
3.6893488e+19 3.0880206 0
2.8527489 0 2.5812047
-1.0842022e-19 3.1225941 -3.6893488e+19
2.9407895 2 2.6197393
0 3.0894189 1.0842022e-19
2.854208 3.6893488e+19 2.5714135
1.0842022e-19 3.0506983 -0
2.8557346 -3.6893488e+19 2.5382221
-3.6893488e+19 3.0905588 3.6893488e+19
2.8553977 -0 2.5613251
2 3.0523367 3.6893488e+19
2.8576729 3.6893488e+19 2.5295966
1.0842022e-19 3.0984309 2
2.8636127 3.6893488e+19 2.5457666
1.0842022e-19 3.0482264 -3.6893488e+19
2.8528101 -2 2.5057609
-2 3.1006513 -2
2.8659298 -1.0842022e-19 2.5362482
-2 3.0508273 2
2.8558874 1.0842022e-19 2.4958513
-2 3.1231217 0
2.9727576 -2 2.5569651
-0 3.0403807 -0
2.8259737 3.6893488e+19 2.4532845
3.6893488e+19 3.0406375 2
2.826262 0 2.4345806
0 3.0428724 -3.6893488e+19
2.8287706 -1.0842022e-19 2.4187179
1.0842022e-19 3.0438573 3.6893488e+19
2.8298764 2 2.4008954
-3.6893488e+19 3.0510864 -0
2.8814864 3.6893488e+19 2.4138696
2 3.0443437 -0
2.8304224 -0 2.3823361
1.0842022e-19 3.0548358 0
2.8862369 1.0842022e-19 2.3984931
3.6893488e+19 3.0436277 -1.0842022e-19
2.8296187 -1.0842022e-19 2.3622718
1.0842022e-19 3.0443392 1.0842022e-19
2.8304174 -0 2.3248901
0 3.0482426 0
2.8112376 -2 2.3142881
3.6893488e+19 3.0543821 -2
2.8600926 1.0842022e-19 2.3204045
3.6893488e+19 3.0505435 -3.6893488e+19
2.8136387 1.0842022e-19 2.2975633
-2 3.1065297 -2
2.9217849 -1.0842022e-19 2.3519199
0 3.0768659 0
2.8411081 -1.0842022e-19 2.3028293
1.0842022e-19 3.0451708 1.0842022e-19
2.8491955 -0 2.2720251
0 3.0797946 2
2.8441644 -0 2.2845953
-0 3.0489297 2
2.8536425 -1.0842022e-19 2.255945
0 3.0804205 -1.0842022e-19
2.8448174 2 2.2641721
-2 3.1056087 -2
2.9206953 -0 2.281249
-1.0842022e-19 3.0779655 -1.0842022e-19
2.8422556 -3.6893488e+19 2.2328632
-0 3.0212626 -2
2.8209114 1.0842022e-19 2.143697
1.0842022e-19 3.0072217 -0
2.7684293 -2 2.0961459
-3.6893488e+19 3.0206256 2
2.820158 3.6893488e+19 2.1075037
3.6893488e+19 3.0088694 -3.6893488e+19
2.7701488 -2 2.065634
-2 3.0195184 1.0842022e-19
2.8188481 2 2.0709512
-3.6893488e+19 3.0828547 -0
2.9217379 3.6893488e+19 2.1318002
3.6893488e+19 3.0996046 0
2.892457 0 2.1160355
-3.6893488e+19 3.0832508 0
2.9222398 -2 2.088114
-3.6893488e+19 3.1007149 2
2.8937035 -2 2.072206
-2 3.2020841 0
3.0364027 0 2.1488345
-3.6893488e+19 3.1004748 -3.6893488e+19
2.8934338 0 2.0270648
2 3.201376 1.0842022e-19
3.035954 -1.0842022e-19 2.0884948
2 3.0102668 2
2.7921686 -1.0842022e-19 1.9224062
-0 3.0199649 3.6893488e+19
2.8420544 3.6893488e+19 1.9167633
-2 3.0116606 3.6893488e+19
2.7937334 3.6893488e+19 1.8898292
1.0842022e-19 3.0226588 1.0842022e-19
2.8454676 3.6893488e+19 1.8823923
-3.6893488e+19 3.0124156 -2
2.7945809 -2 1.8382853
-1.0842022e-19 3.0267918 -3.6893488e+19
2.8507042 0 1.8206763
-1.0842022e-19 3.0100248 2
2.7918971 3.6893488e+19 1.7698077
1.0842022e-19 3.0253694 1.0842022e-19
2.848902 2 1.7438581
-1.0842022e-19 3.0093102 0
2.791095 2 1.6561186
-1.0842022e-19 2.9713717 -1.0842022e-19
2.7419102 -2 1.5355381
-2 3.0271714 1.0842022e-19
2.8279018 2 1.3280126
1.0842022e-19 2.9698243 2
2.7402954 -3.6893488e+19 -1.4028883
-3.6893488e+19 3.0318201 0
2.8334014 -3.6893488e+19 -1.6155372
3.6893488e+19 2.9681432 -0
2.7385411 -3.6893488e+19 -1.6558706
0 3.036186 -1.0842022e-19
2.8385661 3.6893488e+19 -1.7602531
3.6893488e+19 2.9731989 2
2.7438171 -1.0842022e-19 -1.7633249
1.0842022e-19 3.0370948 -0
2.8396413 3.6893488e+19 -1.8351041
0 2.9750729 3.6893488e+19
2.7457726 -1.0842022e-19 -1.8236582
-2 3.0055902 -3.6893488e+19
2.8023705 -3.6893488e+19 -1.876667
-2 2.9812429 3.6893488e+19
2.7511058 -3.6893488e+19 -1.8809159
-1.0842022e-19 3.0018806 -3.6893488e+19
2.797982 -1.0842022e-19 -1.9074963
2 2.9212334 -2
2.7483311 -3.6893488e+19 -1.9090288
-1.0842022e-19 2.8980525 -1.0842022e-19
2.7209074 2 -1.9261168
-3.6893488e+19 2.7856803 -0
2.6119664 1.0842022e-19 -1.8882405
-2 2.7610013 -0
2.5429933 1.0842022e-19 -1.880716
-2 2.7043426 3.6893488e+19
2.5378335 -0 -1.8749373
-2 2.6608183 1.0842022e-19
2.461174 0 -1.8571124
0 2.6084712 2
2.4541945 3.6893488e+19 -1.8459554
-0 2.5966883 -2
2.389183 -2 -1.8431424
-2 2.556798 3.6893488e+19
2.3887231 2 -1.8344526
2 2.5526021 2
2.3396931 0 -1.8348575
-2 2.515717 -3.6893488e+19
2.2982869 -2 -1.8263755
-0 2.2625897 1.0842022e-19
2.0827098 -0 -1.7141602
-1.0842022e-19 2.4776998 -1.0842022e-19
2.2681265 -1.0842022e-19 -1.821404
-2 2.4303017 -1.0842022e-19
2.2330453 -1.0842022e-19 -1.8157941
3.6893488e+19 2.260778 -2
2.0804141 3.6893488e+19 -1.7474174
1.0842022e-19 2.3927042 -1.0842022e-19
2.1908393 -2 -1.8118081
-1.0842022e-19 2.3545356 3.6893488e+19
2.1199834 -0 -1.8078111
1.0842022e-19 2.3077707 3.6893488e+19
2.0711808 -0 -1.8033429
0 2.2720823 1.0842022e-19
2.0339375 1.0842022e-19 -1.8000925
1.0842022e-19 2.230844 1.0842022e-19
2.0008976 -3.6893488e+19 -1.795181
3.6893488e+19 2.1509135 3.6893488e+19
2.0039852 2 -1.7875063
-2 2.1200171 -2
1.9844118 -0 -1.7875856
1.0842022e-19 2.0929313 3.6893488e+19
1.9672525 -0 -1.7874249
-2 2.0733576 2
1.9548523 3.6893488e+19 -1.7892869
1.0842022e-19 3.108072 -3.6893488e+19
2.8712893 2 2.6240013
-2 3.1100223 3.6893488e+19
2.8733118 -0 2.6141429
3.6893488e+19 3.0880749 1.0842022e-19
2.8505542 0 2.5808067
-1.0842022e-19 3.1243823 -0
2.9402602 3.6893488e+19 2.62094
0 3.0896103 3.6893488e+19
2.8521461 -0 2.5711567
3.6893488e+19 3.051137 -1.0842022e-19
2.8541262 -3.6893488e+19 2.5381968
1.0842022e-19 3.0523288 0
2.8555279 -1.0842022e-19 2.5291574
3.6893488e+19 3.0975974 3.6893488e+19
2.8604281 2 2.5446572
3.6893488e+19 3.0501976 2
2.8530216 -3.6893488e+19 2.5070539
3.6893488e+19 3.1013753 2
2.8643456 -2 2.5364485
-0 3.0833874 1.0842022e-19
2.8920517 -2 2.5243354
-1.0842022e-19 3.125277 -0
2.9727364 -2 2.5582275
1.0842022e-19 3.0407531 1.0842022e-19
2.8243906 -0 2.4532006
2 3.0432727 -2
2.8272016 -2 2.4378781
-0 3.1507998 -1.0842022e-19
3.0024436 -0 2.5520406
-2 3.0433021 -0
2.8272345 -1.0842022e-19 2.4187179
2 3.1497455 2
3.0017796 1.0842022e-19 2.5377514
3.6893488e+19 3.0440996 1.0842022e-19
2.8281243 -0 2.4006379
2 3.0512714 -2
2.8795114 0 2.4134388
0 3.0449378 -0
2.8290594 -0 2.3825464
-1.0842022e-19 3.1172891 -1.0842022e-19
2.9626739 0 2.4793403
0 3.0429769 -3.6893488e+19
2.8268714 2 2.360939
3.6893488e+19 3.0680285 -2
2.9006202 -2 2.3937132
-1.0842022e-19 3.0459785 2
2.8302207 -1.0842022e-19 2.3454101
-1.0842022e-19 3.043335 3.6893488e+19
2.8272712 -2 2.3233073
-1.0842022e-19 3.0478501 -1.0842022e-19
2.8088446 -1.0842022e-19 2.3134472
2 3.109726 -3.6893488e+19
2.9230247 0 2.3780768
3.6893488e+19 3.0505674 1.0842022e-19
2.8116622 0 2.2971816
1.0842022e-19 3.1082332 1.0842022e-19
2.9212694 1.0842022e-19 2.3530552
-2 3.0767872 -2
2.8388498 -2 2.3023441
1.0842022e-19 3.102351 -1.0842022e-19
2.9143519 -3.6893488e+19 2.3242199
2 3.0780075 2
2.8401151 0 2.2826676
2 3.1019421 0
2.9138713 3.6893488e+19 2.300869
-3.6893488e+19 3.0773613 -3.6893488e+19
2.8394451 2 2.2613699
2 3.1056221 1.0842022e-19
2.9181988 3.6893488e+19 2.2808251
-1.0842022e-19 3.0785787 1.0842022e-19
2.8407075 -3.6893488e+19 2.2331071
-3.6893488e+19 3.1039979 1.0842022e-19
2.9162891 2 2.2564907
-1.0842022e-19 3.1083882 2
2.8716173 -3.6893488e+19 2.2316298
2 3.1027043 -1.0842022e-19
2.9147675 -1.0842022e-19 2.2152119
-2 3.1078184 1.0842022e-19
2.8710265 2 2.1856863
-3.6893488e+19 3.1005852 3.6893488e+19
2.9122758 3.6893488e+19 2.1668434
2 3.1485727 0
3.0010409 -3.6893488e+19 2.2064252
-1.0842022e-19 3.1006353 0
2.8912008 1.0842022e-19 2.1165767
0 3.2024376 2
3.0349677 2 2.2082808
-2 3.100739 -0
2.8913164 1.0842022e-19 2.0717561
3.6893488e+19 3.101371 -2
2.8920214 -3.6893488e+19 2.0273659
-1.0842022e-19 3.113059 -0
2.9050617 0 1.9901457
3.6893488e+19 3.098428 -2
2.9389145 0 1.9648757
-2 3.0110352 3.6893488e+19
2.7912347 3.6893488e+19 1.8892906
0 3.0432265 3.6893488e+19
2.8693771 2 1.8921436
-1.0842022e-19 3.012146 2
2.792474 -2 1.8377539
2 3.0440912 -2
2.8704665 -3.6893488e+19 1.832562
-1.0842022e-19 3.0115798 3.6893488e+19
2.7918422 0 1.7704602
-0 3.0285225 -2
2.8508546 -2 1.7462424
-1.0842022e-19 3.0101001 -0
2.7901914 -0 1.6563647
-3.6893488e+19 3.0129731 1.0842022e-19
2.7726803 1.0842022e-19 1.553881
2 3.0268998 3.6893488e+19
2.8256242 -0 1.3275003
0 3.0138633 0
2.7736032 -2 -1.4214967
-2 3.0273533 -1.0842022e-19
2.8261576 -1.0842022e-19 -1.6113591
-3.6893488e+19 3.0170429 1.0842022e-19
2.7769003 2 -1.6775844
-0 3.0369248 -0
2.8374133 2 -1.7603929
-2 3.0164645 -0
2.7763004 2 -1.780573
-2 3.0391009 -3.6893488e+19
2.8399723 -0 -1.8362455
3.6893488e+19 3.0179257 3.6893488e+19
2.7778156 -3.6893488e+19 -1.8487685
-1.0842022e-19 3.0381656 3.6893488e+19
2.8388724 -0 -1.8925904
-1.0842022e-19 3.0191514 -0
2.7790866 -0 -1.8962389
-2 3.0402319 -1.0842022e-19
2.8413024 -0 -1.9311965
1.0842022e-19 2.9830618 -0
2.7504463 3.6893488e+19 -1.9116143
3.6893488e+19 2.9994037 3.6893488e+19
2.7936404 -2 -1.9382493
3.6893488e+19 2.8957083 -2
2.7153387 -0 -1.9248092
-2 2.7873156 0
2.6119316 -2 -1.8888017
0 2.7590411 -2
2.5390096 0 -1.879544
0 2.702667 2
2.5351121 -3.6893488e+19 -1.8736035
-0 2.6667602 3.6893488e+19
2.4649756 -3.6893488e+19 -1.8601243
0 2.6118093 -3.6893488e+19
2.4557707 -3.6893488e+19 -1.847644
-3.6893488e+19 2.5969791 1.0842022e-19
2.3871217 -1.0842022e-19 -1.8430055
-1.0842022e-19 2.5577283 -1.0842022e-19
2.3876452 -3.6893488e+19 -1.8347402
3.6893488e+19 2.552393 -0
2.3373771 0 -1.8344052
3.6893488e+19 2.5175214 2
2.2984712 -2 -1.8274457
2 2.4792707 0
2.267359 1.0842022e-19 -1.8217611
-0 2.4313679 -2
2.2312732 0 -1.8159866
3.6893488e+19 2.3932805 0
2.1887796 -2 -1.8118081
1.0842022e-19 3.108072 -3.6893488e+19
2.8712893 2 2.6240013
-2 3.1100223 3.6893488e+19
2.8733118 -0 2.6141429
3.6893488e+19 3.0880749 1.0842022e-19
2.8505542 0 2.5808067
-1.0842022e-19 3.1243823 -0
2.9402602 3.6893488e+19 2.62094
0 3.0896103 3.6893488e+19
2.8521461 -0 2.5711567
3.6893488e+19 3.051137 -1.0842022e-19
2.8541262 -3.6893488e+19 2.5381968
1.0842022e-19 3.0523288 0
2.8555279 -1.0842022e-19 2.5291574
3.6893488e+19 3.0975974 3.6893488e+19
2.8604281 2 2.5446572
3.6893488e+19 3.0501976 2
2.8530216 -3.6893488e+19 2.5070539
3.6893488e+19 3.1013753 2
2.8643456 -2 2.5364485
1.0842022e-19 3.0505235 -1.0842022e-19
2.8534048 -0 2.4945853
-1.0842022e-19 3.125277 -0
2.9727364 -2 2.5582275
1.0842022e-19 3.0407531 1.0842022e-19
2.8243906 -0 2.4532006
2 3.0432727 -2
2.8272016 -2 2.4378781
-0 3.1507998 -1.0842022e-19
3.0024436 -0 2.5520406
-2 3.0433021 -0
2.8272345 -1.0842022e-19 2.4187179
2 3.1497455 2
3.0017796 1.0842022e-19 2.5377514
3.6893488e+19 3.0440996 1.0842022e-19
2.8281243 -0 2.4006379
2 3.0512714 -2
2.8795114 0 2.4134388
0 3.0449378 -0
2.8290594 -0 2.3825464
-1.0842022e-19 3.0522237 -1.0842022e-19
2.8807111 -1.0842022e-19 2.3944249
0 3.0429769 -3.6893488e+19
2.8268714 2 2.360939
3.6893488e+19 3.0680285 -2
2.9006202 -2 2.3937132
-1.0842022e-19 3.0459785 2
2.8302207 -1.0842022e-19 2.3454101
-1.0842022e-19 3.043335 3.6893488e+19
2.8272712 -2 2.3233073
-1.0842022e-19 3.0478501 -1.0842022e-19
2.8088446 -1.0842022e-19 2.3134472
2 3.109726 -3.6893488e+19
2.9230247 0 2.3780768
3.6893488e+19 3.0505674 1.0842022e-19
2.8116622 0 2.2971816
1.0842022e-19 3.1082332 1.0842022e-19
2.9212694 1.0842022e-19 2.3530552
-0 3.0545709 0
2.8158135 -0 2.2817895
1.0842022e-19 3.102351 -1.0842022e-19
2.9143519 -3.6893488e+19 2.3242199
2 3.0780075 2
2.8401151 0 2.2826676
2 3.0453148 3.6893488e+19
2.8472795 -1.0842022e-19 2.2524593
-3.6893488e+19 3.0773613 -3.6893488e+19
2.8394451 2 2.2613699
2 3.1056221 1.0842022e-19
2.9181988 3.6893488e+19 2.2808251
-1.0842022e-19 3.0785787 1.0842022e-19
2.8407075 -3.6893488e+19 2.2331071
3.6893488e+19 3.0213063 1.0842022e-19
2.8190465 -3.6893488e+19 2.143152
-1.0842022e-19 3.1083882 2
2.8716173 -3.6893488e+19 2.2316298
-2 3.0215816 -3.6893488e+19
2.8193703 3.6893488e+19 2.1082125
-2 3.1078184 1.0842022e-19
2.8710265 2 2.1856863
-2 3.0205536 1.0842022e-19
2.8181615 -2 2.0716863
2 3.1485727 0
3.0010409 -3.6893488e+19 2.2064252
-1.0842022e-19 3.0073705 -3.6893488e+19
2.7871459 3.6893488e+19 2.0190716
0 3.2024376 2
3.0349677 2 2.2082808
3.6893488e+19 3.0077665 -3.6893488e+19
2.7875876 -2 1.9864662
-2 3.0077956 3.6893488e+19
2.7876203 -2 1.9534993
-2 3.0125577 1.0842022e-19
2.7929335 -2 1.923669
3.6893488e+19 3.0206237 -1.0842022e-19
2.8409045 1.0842022e-19 1.9168937
-2 3.0110352 3.6893488e+19
2.7912347 3.6893488e+19 1.8892906
-2 3.0255952 3.6893488e+19
2.8471673 3.6893488e+19 1.8835968
-1.0842022e-19 3.012146 2
2.792474 -2 1.8377539
2 3.0262988 1.0842022e-19
2.8480535 1.0842022e-19 1.8200046
-1.0842022e-19 3.0115798 3.6893488e+19
2.7918422 0 1.7704602
-0 3.0285225 -2
2.8508546 -2 1.7462424
-1.0842022e-19 3.0101001 -0
2.7901914 -0 1.6563647
1.0842022e-19 2.9690185 -3.6893488e+19
2.736331 3.6893488e+19 1.5345191
2 3.0268998 3.6893488e+19
2.8256242 -0 1.3275003
3.6893488e+19 2.9721851 3.6893488e+19
2.7396147 -3.6893488e+19 -1.4034473
-2 3.0273533 -1.0842022e-19
2.8261576 -1.0842022e-19 -1.6113591
2 2.9713895 0
2.7387898 3.6893488e+19 -1.6567377
-0 3.0369248 -0
2.8374133 2 -1.7603929
-2 3.0164645 -0
2.7763004 2 -1.780573
-3.6893488e+19 3.0088818 -3.6893488e+19
2.8044357 -1.0842022e-19 -1.8141645
-1.0842022e-19 2.9757762 -1.0842022e-19
2.7433383 0 -1.8236815
-2 3.0066049 3.6893488e+19
2.8017583 -2 -1.8769735
1.0842022e-19 2.9856708 0
2.7517991 3.6893488e+19 -1.8819405
1.0842022e-19 3.0024588 -1.0842022e-19
2.7968824 -1.0842022e-19 -1.907614
1.0842022e-19 2.9830618 -0
2.7504463 3.6893488e+19 -1.9116143
-3.6893488e+19 2.9201622 3.6893488e+19
2.7440958 -2 -1.9083794
3.6893488e+19 2.8957083 -2
2.7153387 -0 -1.9248092
-2 2.7873156 0
2.6119316 -2 -1.8888017
0 2.7590411 -2
2.5390096 0 -1.879544
0 2.702667 2
2.5351121 -3.6893488e+19 -1.8736035
-0 2.6667602 3.6893488e+19
2.4649756 -3.6893488e+19 -1.8601243
0 2.6118093 -3.6893488e+19
2.4557707 -3.6893488e+19 -1.847644
-3.6893488e+19 2.5969791 1.0842022e-19
2.3871217 -1.0842022e-19 -1.8430055
-1.0842022e-19 2.5577283 -1.0842022e-19
2.3876452 -3.6893488e+19 -1.8347402
3.6893488e+19 2.552393 -0
2.3373771 0 -1.8344052
3.6893488e+19 2.5175214 2
2.2984712 -2 -1.8274457
2 2.4792707 0
2.267359 1.0842022e-19 -1.8217611
-0 2.4313679 -2
2.2312732 0 -1.8159866
3.6893488e+19 2.3932805 0
2.1887796 -2 -1.8118081
2 3.1089089 1.0842022e-19
2.8697748 -0 2.6243682
-2 3.1105642 -2
2.8714802 2 2.6141977
0 3.1446762 3.6893488e+19
2.9613469 1.0842022e-19 2.6537969
-2 3.0894558 3.6893488e+19
2.8497329 1.0842022e-19 2.5817087
-3.6893488e+19 3.1248784 1.0842022e-19
2.938205 0 2.6208618
-1.0842022e-19 3.0900974 -1.0842022e-19
2.8503938 2 2.5711825
1.0842022e-19 3.1102178 2
2.8711233 -1.0842022e-19 2.578403
-1.0842022e-19 3.1426549 0
2.9589844 3.6893488e+19 2.6120045
3.6893488e+19 3.1101179 -2
2.8710203 -1.0842022e-19 2.56657
1.0842022e-19 3.1412029 -1.0842022e-19
2.9572868 0 2.5975473
-0 3.098232 -0
2.8587747 -3.6893488e+19 2.5447958
3.6893488e+19 3.1423795 -0
2.9586623 0 2.5854723
2 3.0837669 0
2.8901486 0 2.5242264
0 3.1274607 3.6893488e+19
2.9727297 -1.0842022e-19 2.5595114
3.6893488e+19 3.0426857 1.0842022e-19
2.8245394 -0 2.455549
2 3.13026 0
2.9762356 0 2.5489328
1.0842022e-19 3.0432687 -2
2.8251855 -3.6893488e+19 2.4372346
-0 3.151695 -3.6893488e+19
3.0015402 3.6893488e+19 2.5522177
2 3.0441618 -1.0842022e-19
2.8261759 0 2.4193339
1.0842022e-19 3.1503513 3.6893488e+19
3.0006988 2 2.5377138
-0 3.0441768 -3.6893488e+19
2.8261926 -0 2.4001598
3.6893488e+19 3.051846 -1.0842022e-19
2.8780303 -3.6893488e+19 2.4135463
-3.6893488e+19 3.0462606 3.6893488e+19
2.8285034 -1.0842022e-19 2.383703
3.6893488e+19 3.1158211 -3.6893488e+19
2.9581523 -3.6893488e+19 2.4766395
1.0842022e-19 3.0433497 -2
2.8252754 -2 2.3608723
3.6893488e+19 3.1121199 -2
2.953517 -2 2.4475608
-0 3.0463829 -2
2.8286388 1.0842022e-19 2.3453786
2 3.1128886 2
2.9544797 -1.0842022e-19 2.4242425
-1.0842022e-19 3.0439796 -3.6893488e+19
2.825974 -3.6893488e+19 2.3235462
3.6893488e+19 3.1102829 -1.0842022e-19
2.8711903 -2 2.3786364
-0 3.1115386 2
2.9226117 -3.6893488e+19 2.3793988
0 3.1091592 -0
2.8700325 2 2.3546329
2 3.0536501 -0
2.8549442 -0 2.2988019
0 3.1108623 -3.6893488e+19
2.8717871 -1.0842022e-19 2.3334186
0 3.1022749 0
2.911783 1.0842022e-19 2.3236527
-1.0842022e-19 3.079226 3.6893488e+19
2.8391933 0 2.283334
3.6893488e+19 3.10165 -1.0842022e-19
2.9110525 -2 2.300158
0 3.0791056 2
2.8390691 -2 2.2624068
-1.0842022e-19 3.1049318 2
2.9148889 -3.6893488e+19 2.27985
3.6893488e+19 3.0796053 2
2.8395841 -2 2.2339609
-3.6893488e+19 3.1063979 2
2.9166026 -3.6893488e+19 2.2578332
0 3.108763 2
2.8696244 1.0842022e-19 2.2314813
0 3.1020622 3.6893488e+19
2.9115343 -3.6893488e+19 2.2136524
-0 3.1094949 -2
2.8703785 -2 2.1871355
2 3.100451 0
2.909651 -2 2.1660442
-1.0842022e-19 3.1512644 1.0842022e-19
3.0012708 3.6893488e+19 2.2087526
-3.6893488e+19 3.0074728 -1.0842022e-19
2.7854941 -2 2.0187867
-2 3.0239458 3.6893488e+19
2.8430884 3.6893488e+19 2.0270278
1.0842022e-19 3.1003497 -2
2.8884788 1.0842022e-19 2.070931
2 3.0229039 -2
2.8417833 -3.6893488e+19 1.9899659
1.0842022e-19 3.1008184 -2
2.8889985 2 2.0265267
0 3.0229065 2
2.8417866 -1.0842022e-19 1.9539831
0 3.1157188 2
2.9055207 -1.0842022e-19 1.9915527
2 3.0997694 0
2.9380493 -2 1.9653482
3.6893488e+19 3.0111153 0
2.7895331 1.0842022e-19 1.8891305
-1.0842022e-19 3.0234807 -2
2.8425057 -3.6893488e+19 1.8823538
-2 3.0125008 -2
2.7910693 -3.6893488e+19 1.8377317
3.6893488e+19 3.0203452 1.0842022e-19
2.8385789 -2 1.8154891
3.6893488e+19 3.0133002 2
2.7919557 1.0842022e-19 1.7712038
-2 3.0292723 0
2.8497593 -1.0842022e-19 1.7464995
-0 3.0111079 -1.0842022e-19
2.7895248 -3.6893488e+19 1.656742
-3.6893488e+19 2.9764321 0
2.7408562 -0 1.5368214
-0 3.0282426 0
2.8252449 3.6893488e+19 1.3281702
0 3.0175266 0
2.7756259 3.6893488e+19 -1.4236425
-3.6893488e+19 3.0281842 0
2.8251767 2 -1.6117035
0 3.0178216 3.6893488e+19
2.7759297 -1.0842022e-19 -1.6778611
2 3.0171866 0
2.7752757 3.6893488e+19 -1.7807835
1.0842022e-19 3.0063396 -2
2.7996416 0 -1.8120195
3.6893488e+19 3.0185664 3.6893488e+19
2.7766972 0 -1.8490002
-2 3.007242 -3.6893488e+19
2.8006966 -2 -1.8770934
-1.0842022e-19 2.9854956 -2
2.7500968 -1.0842022e-19 -1.8817145
3.6893488e+19 3.0357165 2
2.8339813 3.6893488e+19 -1.9281037
2 2.9853818 -3.6893488e+19
2.7500381 -2 -1.9121708
-3.6893488e+19 2.9929464 1.0842022e-19
2.7881088 0 -1.9355303
-3.6893488e+19 2.8853867 -3.6893488e+19
2.6470542 1.0842022e-19 -1.9029758
2 2.894969 1.0842022e-19
2.7116892 -3.6893488e+19 -1.9242148
-0 2.7912803 -1.0842022e-19
2.6147978 1.0842022e-19 -1.8904858
1.0842022e-19 2.7628026 -2
2.5414038 1.0842022e-19 -1.8812338
-1.0842022e-19 2.7075369 -1.0842022e-19
2.5365083 -3.6893488e+19 -1.8754325
2 2.6664948 -1.0842022e-19
2.4618227 -1.0842022e-19 -1.8596326
1.0842022e-19 2.6135678 1.0842022e-19
2.4553304 0 -1.8483585
-3.6893488e+19 2.5985756 -3.6893488e+19
2.3865118 -1.0842022e-19 -1.8436898
-0 2.5581293 3.6893488e+19
2.3858995 -2 -1.8346683
0 2.5521798 3.6893488e+19
2.3350666 0 -1.8339529
0 2.5180454 1.0842022e-19
2.3356986 3.6893488e+19 -1.8251331
2 2.5173666 3.6893488e+19
2.2964647 -2 -1.8270341
2 2.4832172 -2
2.3025892 3.6893488e+19 -1.8213993
-0 2.482147 -1.0842022e-19
2.2673099 1.0842022e-19 -1.8226539
-2 2.4371343 -3.6893488e+19
2.2737322 -0 -1.8171682
-0 2.4278617 -0
2.2244267 -3.6893488e+19 -1.8141584
-1.0842022e-19 2.3934188 3.6893488e+19
2.1862354 2 -1.8116019
3.6893488e+19 2.3561625 3.6893488e+19
2.1169453 -3.6893488e+19 -1.8081517
3.6893488e+19 2.3088284 -3.6893488e+19
2.0681779 1.0842022e-19 -1.8034704
3.6893488e+19 2.2743626 3.6893488e+19
2.0326688 -2 -1.8010808
1.0842022e-19 2.2378607 -2
2.0013151 0 -1.797196
3.6893488e+19 2.153492 -0
2.0026655 0 -1.7880126
-0 2.1233237 3.6893488e+19
1.9837743 1.0842022e-19 -1.788498
3.6893488e+19 2.0973892 -0
1.9675342 -3.6893488e+19 -1.7889942
-3.6893488e+19 2.0876853 -0
1.9614577 -2 -1.796001
2 3.1089089 1.0842022e-19
2.8697748 -0 2.6243682
-2 3.1105642 -2
2.8714802 2 2.6141977
0 3.1446762 3.6893488e+19
2.9613469 1.0842022e-19 2.6537969
-2 3.0894558 3.6893488e+19
2.8497329 1.0842022e-19 2.5817087
-3.6893488e+19 3.1248784 1.0842022e-19
2.938205 0 2.6208618
-1.0842022e-19 3.0900974 -1.0842022e-19
2.8503938 2 2.5711825
1.0842022e-19 3.1102178 2
2.8711233 -1.0842022e-19 2.578403
2 3.0517879 0
2.8527675 3.6893488e+19 2.5282304
3.6893488e+19 3.1101179 -2
2.8710203 -1.0842022e-19 2.56657
1.0842022e-19 3.1412029 -1.0842022e-19
2.9572868 0 2.5975473
-0 3.098232 -0
2.8587747 -3.6893488e+19 2.5447958
2 3.0510304 3.6893488e+19
2.851882 -3.6893488e+19 2.5073714
1.0842022e-19 3.0509853 3.6893488e+19
2.8518293 -0 2.4945853
0 3.1274607 3.6893488e+19
2.9727297 -1.0842022e-19 2.5595114
3.6893488e+19 3.0426857 1.0842022e-19
2.8245394 -0 2.455549
2 3.13026 0
2.9762356 0 2.5489328
1.0842022e-19 3.0432687 -2
2.8251855 -3.6893488e+19 2.4372346
-0 3.151695 -3.6893488e+19
3.0015402 3.6893488e+19 2.5522177
2 3.0441618 -1.0842022e-19
2.8261759 0 2.4193339
-2 3.1128035 -3.6893488e+19
2.9543731 2 2.51073
-0 3.0441768 -3.6893488e+19
2.8261926 -0 2.4001598
3.6893488e+19 3.051846 -1.0842022e-19
2.8780303 -3.6893488e+19 2.4135463
-3.6893488e+19 3.0462606 3.6893488e+19
2.8285034 -1.0842022e-19 2.383703
3.6893488e+19 3.1158211 -3.6893488e+19
2.9581523 -3.6893488e+19 2.4766395
1.0842022e-19 3.0433497 -2
2.8252754 -2 2.3608723
2 3.0686834 -3.6893488e+19
2.8991172 -0 2.3938756
-0 3.0463829 -2
