# .PCD v0.7 - Point Cloud Data file format
VERSION 0.7
FIELDS x y z
SIZE 4 4 4
TYPE F F F
COUNT 1 1 1
WIDTH 1735
HEIGHT 1
VIEWPOINT 0 0 0 1 0 0 0
POINTS 1735
DATA ascii
2.9307363 1.0842022e-19 2.5387373
0 3.0118692 2
2.9202399 -1.0842022e-19 2.5077639
2 3.0507433 -2
2.9321012 2 2.5289452
-0 3.0087526 3.6893488e+19
2.9152386 -1.0842022e-19 2.4711268
-0 3.0474939 3.6893488e+19
3.0040214 -1.0842022e-19 2.5221467
0 3.0016811 3.6893488e+19
2.8854489 1.0842022e-19 2.4137888
2 3.0078447 1.0842022e-19
2.9403322 3.6893488e+19 2.4328821
-2 3.0010049 2
2.8844137 -2 2.394599
3.6893488e+19 3.0079608 1.0842022e-19
2.9405305 -2 2.4136975
1.0842022e-19 3.0006585 0
2.883883 0 2.3760366
3.6893488e+19 3.0071468 -3.6893488e+19
2.9391403 2 2.3931186
-1.0842022e-19 3.0014775 3.6893488e+19
2.8851373 -2 2.3592262
-3.6893488e+19 3.0080366 0
2.9406602 -1.0842022e-19 2.375174
-3.6893488e+19 3.0093157 0
2.9428446 3.6893488e+19 2.3576744
-0 3.0014825 -0
2.8851449 -0 2.3232632
-1.0842022e-19 3.0051363 0
2.9357071 -0 2.3328931
1.0842022e-19 3.0027347 3.6893488e+19
2.8870625 -0 2.3068488
3.6893488e+19 3.0093145 1.0842022e-19
2.8725774 -3.6893488e+19 2.2987556
-1.0842022e-19 3.0628541 -0
3.0010295 2 2.3639796
-1.0842022e-19 3.0070977 -0
2.8693924 2 2.2783186
1.0842022e-19 3.0163891 -2
2.9274933 3.6893488e+19 2.2906458
-0 3.0087528 2
2.8717704 -2 2.2621393
-1.0842022e-19 3.0569637 -0
2.9926064 1.0842022e-19 2.3127322
-2 3.0592318 -3.6893488e+19
2.9962461 3.6893488e+19 2.2927313
2 2.9606986 3.6893488e+19
2.8696578 -0 2.1529119
3.6893488e+19 2.9607668 -3.6893488e+19
2.8697124 -2 2.1198087
3.6893488e+19 2.942709 -3.6893488e+19
2.818037 3.6893488e+19 2.0759375
1.0842022e-19 2.9597428 -0
2.8688908 -1.0842022e-19 2.0859272
2 2.9430301 -0
2.8182678 2 2.0456007
-2 2.9608355 2
2.8697677 3.6893488e+19 2.0536206
-1.0842022e-19 2.9815474 3.6893488e+19
2.9111793 0 2.0222421
-3.6893488e+19 3.0559824 -0
2.9686115 -0 2.05983
0 2.9839952 -0
2.9132693 0 1.9880397
-1.0842022e-19 2.9472499 2
2.8424811 -1.0842022e-19 1.9134873
-2 2.9642165 -1.0842022e-19
2.8963809 0 1.9101185
2 2.9469554 2
2.8422556 -1.0842022e-19 1.8819541
2 2.9654517 2
2.8974357 3.6893488e+19 1.8763787
-3.6893488e+19 2.8898849 -2
2.7985539 0 1.8003964
-1.0842022e-19 2.9691358 -0
2.9005814 -1.0842022e-19 1.8109237
2 2.88557 -2
2.7952497 -3.6893488e+19 1.7385502
0 2.9680455 2
2.8996503 3.6893488e+19 1.7336439
2 2.9425168 3.6893488e+19
2.8388567 3.6893488e+19 1.6494207
-3.6893488e+19 2.898509 -1.0842022e-19
2.7862844 1.0842022e-19 1.5286396
-0 2.9698281 -0
2.8769832 -0 1.3417867
1.0842022e-19 3.0212336 2
2.8897023 1.0842022e-19 -1.4277799
0 2.9749398 2
2.8810847 -0 -1.5918624
2 2.9600666 -1.0842022e-19
2.8305066 1.0842022e-19 -1.6640526
-3.6893488e+19 2.9759333 -0
2.881882 -3.6893488e+19 -1.7448038
0 2.9010513 1.0842022e-19
2.7881107 3.6893488e+19 -1.751597
0 2.9424946 -1.0842022e-19
2.855051 -1.0842022e-19 -1.8020908
-3.6893488e+19 2.9057159 0
2.7914619 -3.6893488e+19 -1.8088046
2 2.9346755 -2
2.8487771 -3.6893488e+19 -1.861161
-2 2.913759 -2
2.7972398 1.0842022e-19 -1.8693179
3.6893488e+19 2.9263022 1.0842022e-19
2.8420587 3.6893488e+19 -1.8963119
-1.0842022e-19 2.909503 -2
2.7941823 -0 -1.8990563
-0 2.8584399 2
2.787607 0 -1.8986876
-0 2.8491433 2
2.7508206 -3.6893488e+19 -1.9010975
2 2.8203986 -3.6893488e+19
2.7570829 0 -1.9058585
3.6893488e+19 2.8224554 2
2.7753353 -2 -1.9227315
-3.6893488e+19 2.8064113 -2
2.7192683 -3.6893488e+19 -1.9180073
3.6893488e+19 2.6667128 -3.6893488e+19
2.6058187 -2 -1.8769346
2 2.6347418 -0
2.5446155 -1.0842022e-19 -1.8630745
-0 2.5793571 1.0842022e-19
2.5312285 -2 -1.849897
1.0842022e-19 2.5660505 0
2.4840307 3.6893488e+19 -1.8428603
2 2.5337834 0
2.4846289 -2 -1.8396838
2 2.5264056 1.0842022e-19
2.4233146 -0 -1.8350497
1.0842022e-19 2.4929721 -0
2.4209344 3.6893488e+19 -1.8296484
2 2.4874249 3.6893488e+19
2.373245 -2 -1.8274288
-3.6893488e+19 2.4371879 -3.6893488e+19
2.373302 1.0842022e-19 -1.8226283
3.6893488e+19 2.4341493 -2
2.3324492 -3.6893488e+19 -1.8206651
1.0842022e-19 2.3935647 2
2.3360534 -1.0842022e-19 -1.8174561
-2 2.3959341 2
2.3031862 -1.0842022e-19 -1.8174665
0 2.3584914 0
2.3061054 -3.6893488e+19 -1.8135734
-2 2.362884 -0
2.277878 1.0842022e-19 -1.8142742
-0 2.3312397 -1.0842022e-19
2.2259178 0 -1.81116
0 2.2871807 -2
2.1626146 -0 -1.8064082
-2 2.2540755 0
2.1150503 1.0842022e-19 -1.8032629
-1.0842022e-19 2.200125 -1.0842022e-19
2.0733647 1.0842022e-19 -1.7987075
2 2.1251752 -0
2.0703511 -2 -1.7937466
1.0842022e-19 2.0976994 -2
2.0468903 -2 -1.7945426
-1.0842022e-19 2.0736489 -3.6893488e+19
2.0263543 -0 -1.795123
1.0842022e-19 3.0689385 2
3.0045419 -1.0842022e-19 2.6226926
-1.0842022e-19 3.0096478 -3.6893488e+19
2.9144452 -2 2.5436792
3.6893488e+19 3.0475216 2
2.9251151 1.0842022e-19 2.567904
3.6893488e+19 3.0766823 3.6893488e+19
3.0107222 -0 2.6072931
3.6893488e+19 3.01004 2
2.9150712 3.6893488e+19 2.5247188
-1.0842022e-19 3.0089467 -0
2.913326 -3.6893488e+19 2.5139463
0 3.0507054 -2
2.9296641 -2 2.539073
3.6893488e+19 3.0078847 -2
2.9116309 -3.6893488e+19 2.5033107
1.0842022e-19 3.0519826 3.6893488e+19
2.9314892 1.0842022e-19 2.5295699
2 3.0093434 1.0842022e-19
2.9139593 1.0842022e-19 2.4712143
-0 3.0763171 -0
3.0271587 -3.6893488e+19 2.5478492
2 3.0045385 -2
2.8877151 0 2.4359925
-1.0842022e-19 3.0021601 -2
2.8840923 1.0842022e-19 2.4137485
-1.0842022e-19 3.0085847 1.0842022e-19
2.9392602 2 2.4331579
2 3.0947511 -3.6893488e+19
3.0125637 0 2.5204463
2 3.0622454 -0
3.0152068 1.0842022e-19 2.4996397
-1.0842022e-19 3.0961504 1.0842022e-19
3.0136297 -2 2.5091279
-1.0842022e-19 3.0633237 -0
3.0161228 0 2.4779336
1.0842022e-19 3.0024486 1.0842022e-19
2.8845317 2 2.3598931
3.6893488e+19 3.0647426 -3.6893488e+19
3.0173278 2 2.4566028
-1.0842022e-19 3.0968599 -0
3.0141699 0 2.4697096
-0 3.0638573 2
3.0165761 -0 2.4319394
2 3.0950317 2
3.0127776 0 2.4426284
-1.0842022e-19 3.0675871 2
2.9837515 -0 2.3848171
0 3.0628123 0
2.9469633 -2 2.359715
-1.0842022e-19 3.0621996 1.0842022e-19
2.9983275 -1.0842022e-19 2.362458
2 3.0638938 -1.0842022e-19
2.9485085 -3.6893488e+19 2.3391657
2 3.0582857 -2
2.99208 2 2.3356535
3.6893488e+19 3.0569513 0
2.9899502 -3.6893488e+19 2.3120649
3.6893488e+19 2.9872475 -0
2.8481028 3.6893488e+19 2.2089779
3.6893488e+19 3.0650365 -3.6893488e+19
3.0014277 1.0842022e-19 2.2976022
-0 3.1025639 2
3.031378 0 2.3076956
0 2.9618306 2
2.8685827 -3.6893488e+19 2.1198866
-1.0842022e-19 2.9875593 1.0842022e-19
2.8483257 -3.6893488e+19 2.1082852
-0 2.9616814 1.0842022e-19
2.8684638 -3.6893488e+19 2.0866377
0 2.9856706 0
2.8469763 -0 2.0734441
-3.6893488e+19 2.959657 -2
2.866848 3.6893488e+19 2.0522103
1.0842022e-19 2.9408567 3.6893488e+19
2.8357582 0 2.0037513
-3.6893488e+19 3.1330628 -2
3.075356 0 2.1821635
-0 3.0573397 0
2.9681425 -2 2.0605826
1.0842022e-19 3.0743544 1.0842022e-19
2.9940593 3.6893488e+19 2.0322065
1.0842022e-19 2.9584713 -3.6893488e+19
2.8894043 -1.0842022e-19 1.9413718
-1.0842022e-19 2.8912511 -1.0842022e-19
2.7979784 -2 1.8927319
-2 2.9621103 1.0842022e-19
2.8924954 2 1.909037
-2 2.9683001 1.0842022e-19
2.8977528 -3.6893488e+19 1.8768688
-1.0842022e-19 2.8889751 3.6893488e+19
2.7962451 -2 1.7996376
-1.0842022e-19 2.9685159 -2
2.8979359 1.0842022e-19 1.8102646
-2 2.9454536 3.6893488e+19
2.8392594 -1.0842022e-19 1.7625247
-2 2.9708524 -0
2.8999205 0 1.7345217
1.0842022e-19 2.9439991 3.6893488e+19
2.8381515 0 1.6496218
-2 2.9023592 1.0842022e-19
2.7874565 -3.6893488e+19 1.5298332
0 2.9775548 0
2.8811321 -3.6893488e+19 1.3448907
3.6893488e+19 2.9760823 3.6893488e+19
2.879957 -1.0842022e-19 -1.5919292
3.6893488e+19 2.9584384 -0
2.8275208 -0 -1.6631657
0 2.9812789 2
2.8841043 3.6893488e+19 -1.7470353
1.0842022e-19 2.9594662 1.0842022e-19
2.8282552 0 -1.7697648
2 2.993484 2
2.8938451 -0 -1.822084
0 2.9631152 3.6893488e+19
2.830862 0 -1.8344156
1.0842022e-19 2.9970675 -0
2.8967049 -1.0842022e-19 -1.8847468
-3.6893488e+19 2.9638937 -1.0842022e-19
2.8314183 -2 -1.8867041
-0 2.9995511 3.6893488e+19
2.8986871 0 -1.921093
-0 2.9127111 -1.0842022e-19
2.794852 0 -1.8999426
3.6893488e+19 2.8512845 -1.0842022e-19
2.7803569 -1.0842022e-19 -1.8954144
2 2.8415682 -3.6893488e+19
2.7380512 3.6893488e+19 -1.8975424
-0 2.820924 0
2.7561266 -3.6893488e+19 -1.9057873
-0 2.8233654 -0
2.7746518 0 -1.9228333
3.6893488e+19 2.8191388 -3.6893488e+19
2.7361147 1.0842022e-19 -1.9246364
1.0842022e-19 2.6669772 2
2.6041613 2 -1.8767323
-2 2.6380923 2
2.5455728 3.6893488e+19 -1.8646683
3.6893488e+19 2.5795219 3.6893488e+19
2.5298808 -0 -1.8495084
-2 2.567179 -1.0842022e-19
2.4831297 1.0842022e-19 -1.8432016
3.6893488e+19 2.5343218 -2
2.4829798 1.0842022e-19 -1.8396121
2 2.5270579 3.6893488e+19
2.4220169 2 -1.835125
-0 2.4959719 3.6893488e+19
2.4212558 -0 -1.8304352
-2 2.4884002 -3.6893488e+19
2.3719676 -2 -1.8274288
1.0842022e-19 2.4377842 2
2.3718338 3.6893488e+19 -1.822457
2 2.4354143 3.6893488e+19
2.3316133 -2 -1.8208433
-3.6893488e+19 2.3942533 0
2.3348608 1.0842022e-19 -1.8173636
3.6893488e+19 2.3957367 2
2.3013947 2 -1.8169863
-1.0842022e-19 2.3596706 0
2.3054879 3.6893488e+19 -1.8137724
-0 2.3630168 1.0842022e-19
2.2764752 -1.0842022e-19 -1.8139652
-2 3.0099559 -0
2.914937 0 2.5537694
-1.0842022e-19 3.0096478 -3.6893488e+19
2.9144452 -2 2.5436792
3.6893488e+19 3.0475216 2
2.9251151 1.0842022e-19 2.567904
-0 3.0081308 3.6893488e+19
2.9120238 -3.6893488e+19 2.5323181
3.6893488e+19 3.01004 2
2.9150712 3.6893488e+19 2.5247188
-1.0842022e-19 3.0089467 -0
2.913326 -3.6893488e+19 2.5139463
0 3.0507054 -2
2.9296641 -2 2.539073
3.6893488e+19 3.0078847 -2
2.9116309 -3.6893488e+19 2.5033107
1.0842022e-19 3.0519826 3.6893488e+19
2.9314892 1.0842022e-19 2.5295699
2 3.0093434 1.0842022e-19
2.9139593 1.0842022e-19 2.4712143
-3.6893488e+19 3.0482283 -3.6893488e+19
3.0033014 2 2.5222111
2 3.0045385 -2
2.8877151 0 2.4359925
-1.0842022e-19 3.0021601 -2
2.8840923 1.0842022e-19 2.4137485
-1.0842022e-19 3.0085847 1.0842022e-19
2.9392602 2 2.4331579
-2 3.0015073 3.6893488e+19
2.8830981 -2 2.394599
0 3.0079951 1.0842022e-19
2.9382584 1.0842022e-19 2.4128311
-1.0842022e-19 3.0016026 -0
2.8832433 -0 2.3766992
-1.0842022e-19 3.0633237 -0
3.0161228 0 2.4779336
1.0842022e-19 3.0024486 1.0842022e-19
2.8845317 2 2.3598931
1.0842022e-19 3.0065837 0
2.9358609 2 2.3722305
-1.0842022e-19 3.0968599 -0
3.0141699 0 2.4697096
3.6893488e+19 3.0093751 0
2.9406028 -0 2.3569593
-1.0842022e-19 3.0032434 3.6893488e+19
2.8857427 -2 2.3248765
0 3.0031171 1.0842022e-19
2.88555 3.6893488e+19 2.3066993
0 3.0628123 0
2.9469633 -2 2.359715
-0 3.0102634 1.0842022e-19
2.9154279 -2 2.302161
0 3.0078332 -1.0842022e-19
2.8684061 -1.0842022e-19 2.2785916
-1.0842022e-19 3.0112886 -2
2.9170642 3.6893488e+19 2.2844844
3.6893488e+19 3.0569513 0
2.9899502 -3.6893488e+19 2.3120649
3.6893488e+19 2.9872475 -0
2.8481028 3.6893488e+19 2.2089779
3.6893488e+19 3.0650365 -3.6893488e+19
3.0014277 1.0842022e-19 2.2976022
2 2.9622002 -0
2.8688776 2 2.1533792
0 2.9618306 2
2.8685827 -3.6893488e+19 2.1198866
-1.0842022e-19 2.9875593 1.0842022e-19
2.8483257 -3.6893488e+19 2.1082852
-0 2.9616814 1.0842022e-19
2.8684638 -3.6893488e+19 2.0866377
0 2.9856706 0
2.8469763 -0 2.0734441
-3.6893488e+19 2.959657 -2
2.866848 3.6893488e+19 2.0522103
1.0842022e-19 2.9408567 3.6893488e+19
2.8357582 0 2.0037513
-3.6893488e+19 3.1330628 -2
3.075356 0 2.1821635
-1.0842022e-19 2.9398797 -2
2.8350141 -2 1.9722606
2 2.8884106 -1.0842022e-19
2.795815 -0 1.9189695
1.0842022e-19 2.9584713 -3.6893488e+19
2.8894043 -1.0842022e-19 1.9413718
-1.0842022e-19 2.8912511 -1.0842022e-19
2.7979784 -2 1.8927319
-2 2.9621103 1.0842022e-19
2.8924954 2 1.909037
-2 2.9683001 1.0842022e-19
2.8977528 -3.6893488e+19 1.8768688
-1.0842022e-19 2.8889751 3.6893488e+19
2.7962451 -2 1.7996376
-1.0842022e-19 2.9685159 -2
2.8979359 1.0842022e-19 1.8102646
0 2.8880818 2
2.7955647 -1.0842022e-19 1.7396246
-2 2.9708524 -0
2.8999205 0 1.7345217
1.0842022e-19 2.9439991 3.6893488e+19
2.8381515 0 1.6496218
-2 2.9023592 1.0842022e-19
2.7874565 -3.6893488e+19 1.5298332
0 2.9775548 0
2.8811321 -3.6893488e+19 1.3448907
3.6893488e+19 2.9760823 3.6893488e+19
2.879957 -1.0842022e-19 -1.5919292
3.6893488e+19 2.9584384 -0
2.8275208 -0 -1.6631657
0 2.9812789 2
2.8841043 3.6893488e+19 -1.7470353
-1.0842022e-19 2.9030752 -0
2.7879679 2 -1.7519976
-3.6893488e+19 2.9386361 -2
2.8500714 -0 -1.8001792
3.6893488e+19 2.9137988 -3.6893488e+19
2.795629 -2 -1.8121152
3.6893488e+19 2.9360266 2
2.8479888 -3.6893488e+19 -1.8613993
2 2.9122992 0
2.7945578 0 -1.8679997
3.6893488e+19 2.9219234 -2
2.8367331 3.6893488e+19 -1.894506
-0 2.9127111 -1.0842022e-19
2.794852 0 -1.8999426
3.6893488e+19 2.8512845 -1.0842022e-19
2.7803569 -1.0842022e-19 -1.8954144
2 2.8415682 -3.6893488e+19
2.7380512 3.6893488e+19 -1.8975424
-0 2.820924 0
2.7561266 -3.6893488e+19 -1.9057873
-0 2.8233654 -0
2.7746518 0 -1.9228333
3.6893488e+19 2.8191388 -3.6893488e+19
2.7361147 1.0842022e-19 -1.9246364
1.0842022e-19 2.6669772 2
2.6041613 2 -1.8767323
-2 2.6380923 2
2.5455728 3.6893488e+19 -1.8646683
3.6893488e+19 2.5795219 3.6893488e+19
2.5298808 -0 -1.8495084
-2 2.567179 -1.0842022e-19
2.4831297 1.0842022e-19 -1.8432016
3.6893488e+19 2.5343218 -2
2.4829798 1.0842022e-19 -1.8396121
2 2.5270579 3.6893488e+19
2.4220169 2 -1.835125
-0 2.4959719 3.6893488e+19
2.4212558 -0 -1.8304352
-2 2.4884002 -3.6893488e+19
2.3719676 -2 -1.8274288
1.0842022e-19 2.4377842 2
2.3718338 3.6893488e+19 -1.822457
2 2.4354143 3.6893488e+19
2.3316133 -2 -1.8208433
-3.6893488e+19 2.3942533 0
2.3348608 1.0842022e-19 -1.8173636
3.6893488e+19 2.3957367 2
2.3013947 2 -1.8169863
-1.0842022e-19 2.3596706 0
2.3054879 3.6893488e+19 -1.8137724
-0 2.3630168 1.0842022e-19
2.2764752 -1.0842022e-19 -1.8139652
3.6893488e+19 3.0107849 3.6893488e+19
2.9140284 -0 2.5541031
1.0842022e-19 3.0482895 1.0842022e-19
2.9238565 2 2.5788329
1.0842022e-19 3.0827715 3.6893488e+19
3.014158 1.0842022e-19 2.6256032
-0 3.0480275 0
2.9234843 2 2.5678508
1.0842022e-19 3.0779865 -0
3.0103595 3.6893488e+19 2.6079724
3.6893488e+19 3.0100794 -0
2.9129083 -0 2.524188
1.0842022e-19 3.0571158 0
2.9363983 2 2.5556059
-2 3.0096071 -3.6893488e+19
2.9121585 -3.6893488e+19 2.5140684
2 3.0517671 -0
2.928798 1.0842022e-19 2.5395529
-3.6893488e+19 3.0093362 -2
2.9117286 1.0842022e-19 2.5042062
1.0842022e-19 3.0525217 -0
2.9298701 1.0842022e-19 2.5295467
2 3.01283 -3.6893488e+19
2.9172752 0 2.4958851
3.6893488e+19 3.0110896 3.6893488e+19
2.9145122 -2 2.4733989
-3.6893488e+19 3.0769007 3.6893488e+19
3.0261838 -3.6893488e+19 2.5477207
3.6893488e+19 3.0046279 -0
2.8857479 -2 2.4352787
-0 3.0970204 0
3.0128589 3.6893488e+19 2.5341325
-3.6893488e+19 3.0097013 -0
2.9388201 0 2.4340641
2 3.0953639 -3.6893488e+19
3.0116038 -0 2.5203884
0 3.0633874 1.0842022e-19
3.0147669 -3.6893488e+19 2.5001776
-3.6893488e+19 3.0963223 3.6893488e+19
3.0123301 3.6893488e+19 2.5087414
-0 3.0647757 1.0842022e-19
3.01594 -2 2.479084
-2 3.0034938 -0
2.8840299 2 2.3606651
0 3.097378 -3.6893488e+19
3.0131295 3.6893488e+19 2.469476
2 3.0666847 -1.0842022e-19
3.0175526 2 2.4348645
-1.0842022e-19 3.0956941 2
3.0118542 2 2.4425967
3.6893488e+19 3.0716333 -0
3.0217335 -0 2.4177935
-1.0842022e-19 3.0676508 -0
2.9812243 3.6893488e+19 2.3841293
-3.6893488e+19 3.0640037 -0
2.9461858 2 2.3604121
-2 3.0633376 1.0842022e-19
2.9974625 2 2.3630216
-0 3.0638723 0
2.9459991 -2 2.3385103
1.0842022e-19 3.0583694 1.0842022e-19
2.9895747 2 2.3350453
2 3.0629649 -0
2.9447095 -3.6893488e+19 2.3158767
-3.6893488e+19 3.056447 -0
2.9865229 -2 2.3109035
3.6893488e+19 3.0623448 -2
2.9438283 -2 2.2936742
3.6893488e+19 3.0711534 0
3.0049355 2 2.3027487
1.0842022e-19 3.062216 0
2.9436455 0 2.2720101
1.0842022e-19 2.9646769 -1.0842022e-19
2.868866 -0 2.154696
-3.6893488e+19 3.0627315 2
2.9443781 0 2.2509115
2 3.0564311 1.0842022e-19
2.9864974 -0 2.2398279
-0 3.0627499 0
2.9444041 2 2.2087946
1.0842022e-19 3.0580556 0
2.9890766 0 2.1983058
-1.0842022e-19 3.0624731 -0
2.9440107 0 2.1654224
2 2.9597371 -2
2.8649447 -0 2.0516334
2 3.0557723 2
2.9632289 0 2.1012974
-0 3.1343906 0
3.0747545 -3.6893488e+19 2.1826999
1.0842022e-19 3.0584743 0
2.9673223 -2 2.0611095
2 3.0749257 -0
2.9922452 -0 2.0321417
3.6893488e+19 2.9615886 1.0842022e-19
2.8899755 0 1.9422461
-1.0842022e-19 2.8937728 1.0842022e-19
2.7982726 -3.6893488e+19 1.8933663
0 2.9651887 2
2.8930171 -2 1.9097415
-1.0842022e-19 2.8932652 -0
2.797888 -0 1.8562821
3.6893488e+19 2.9710586 -2
2.8979762 -3.6893488e+19 1.8773333
2 2.8895009 -0
2.7950366 -1.0842022e-19 1.799526
2 2.9719434 0
2.8987238 2 1.8112062
-1.0842022e-19 2.9498279 2
2.8407328 -1.0842022e-19 1.7635992
-3.6893488e+19 2.9733305 -3.6893488e+19
2.8998957 -2 1.7352334
-2 2.9460289 -3.6893488e+19
2.8378551 -1.0842022e-19 1.6500071
-1.0842022e-19 2.9048941 -0
2.7876685 -1.0842022e-19 1.5305182
-0 2.9784045 0
2.8797634 -3.6893488e+19 1.3448232
-2 2.902962 -3.6893488e+19
2.7862957 -3.6893488e+19 -1.3815674
-0 2.9750199 1.0842022e-19
2.8770766 -1.0842022e-19 -1.5909944
-2 2.9575624 2
2.8250883 -0 -1.6625503
-2 2.9935901 -0
2.8918178 1.0842022e-19 -1.7514135
-0 2.9628716 0
2.8288603 -2 -1.7705657
0 2.9969611 -1.0842022e-19
2.8944936 -2 -1.8230592
-2 2.9612296 1.0842022e-19
2.8276937 -3.6893488e+19 -1.833174
2 2.9975176 -0
2.8949354 0 -1.884588
3.6893488e+19 2.963589 -2
2.8293698 -1.0842022e-19 -1.8863596
-1.0842022e-19 2.9987345 -0
2.8959014 -2 -1.9204575
-3.6893488e+19 2.9658737 -1.0842022e-19
2.8309932 2 -1.9189416
2 2.850697 2
2.7783875 3.6893488e+19 -1.8948689
-3.6893488e+19 2.8408318 -1.0842022e-19
2.7343073 -2 -1.8969498
3.6893488e+19 2.8203225 -1.0842022e-19
2.7542758 -2 -1.9051715
-1.0842022e-19 2.8224149 2
2.7723939 2 -1.9219433
3.6893488e+19 2.8188789 -1.0842022e-19
2.7330847 -2 -1.9241472
1.0842022e-19 2.6673315 2
2.6025846 2 -1.8765589
-1.0842022e-19 2.652391 -1.0842022e-19
2.5548005 2 -1.8730046
2 2.5794916 -3.6893488e+19
2.5283725 -1.0842022e-19 -1.8489902
0 2.568109 1.0842022e-19
2.4819183 -1.0842022e-19 -1.8434063
2 2.5340962 -1.0842022e-19
2.4800403 -2 -1.8389665
-3.6893488e+19 2.5279076 -1.0842022e-19
2.4210155 -3.6893488e+19 -1.8353505
0 2.4995487 3.6893488e+19
2.4220462 -2 -1.831458
1.0842022e-19 2.48838 -1.0842022e-19
2.3699348 -3.6893488e+19 -1.827018
-1.0842022e-19 2.4414203 3.6893488e+19
2.3729362 -1.0842022e-19 -1.8236557
-1.0842022e-19 2.4378693 -3.6893488e+19
2.3316743 1.0842022e-19 -1.8215562
1.0842022e-19 2.3951292 -2
2.3338268 1.0842022e-19 -1.8173636
1.0842022e-19 2.3945413 1.0842022e-19
2.2988546 -2 -1.8160259
-1.0842022e-19 2.3600895 3.6893488e+19
2.3042235 -3.6893488e+19 -1.8135734
0 2.3633435 2
2.275223 0 -1.8137593
2 2.3328865 3.6893488e+19
2.2230172 1.0842022e-19 -1.8113867
-2 2.2890656 0
2.1607499 0 -1.8069171
-3.6893488e+19 2.2536156 1.0842022e-19
2.1103771 -2 -1.8022757
0 2.2014098 1.0842022e-19
2.0707169 3.6893488e+19 -1.7985526
-3.6893488e+19 2.1358831 0
2.0760155 0 -1.7977926
-2 2.0984983 2
2.0444307 1.0842022e-19 -1.794178
3.6893488e+19 3.0107849 3.6893488e+19
2.9140284 -0 2.5541031
1.0842022e-19 3.0482895 1.0842022e-19
2.9238565 2 2.5788329
-3.6893488e+19 3.0106199 3.6893488e+19
2.9137666 3.6893488e+19 2.5441649
-0 3.0480275 0
2.9234843 2 2.5678508
-3.6893488e+19 3.0109673 -0
2.9143181 -2 2.534826
3.6893488e+19 3.0100794 -0
2.9129083 -0 2.524188
1.0842022e-19 3.0571158 0
2.9363983 2 2.5556059
-2 3.0096071 -3.6893488e+19
2.9121585 -3.6893488e+19 2.5140684
2 3.0517671 -0
2.928798 1.0842022e-19 2.5395529
-3.6893488e+19 3.0093362 -2
2.9117286 1.0842022e-19 2.5042062
1.0842022e-19 3.0525217 -0
2.9298701 1.0842022e-19 2.5295467
2 3.01283 -3.6893488e+19
2.9172752 0 2.4958851
3.6893488e+19 3.0110896 3.6893488e+19
2.9145122 -2 2.4733989
-3.6893488e+19 3.0769007 3.6893488e+19
3.0261838 -3.6893488e+19 2.5477207
3.6893488e+19 3.0046279 -0
2.8857479 -2 2.4352787
1.0842022e-19 3.0027115 0
2.8828447 -3.6893488e+19 2.4138288
-3.6893488e+19 3.0097013 -0
2.9388201 0 2.4340641
2 3.0040758 -2
2.8849113 0 2.3978364
-1.0842022e-19 3.0085444 -1.0842022e-19
2.9368653 0 2.4127934
2 3.0028183 -3.6893488e+19
2.8830063 -1.0842022e-19 2.3777668
-0 3.0647757 1.0842022e-19
3.01594 -2 2.479084
-2 3.0034938 -0
2.8840299 2 2.3606651
2 3.0033679 -2
2.8838389 -2 2.3424227
2 3.0666847 -1.0842022e-19
3.0175526 2 2.4348645
3.6893488e+19 3.0041432 -0
2.8850136 0 2.3253829
3.6893488e+19 3.0716333 -0
3.0217335 -0 2.4177935
-0 3.0034232 -1.0842022e-19
2.8839228 -3.6893488e+19 2.3064599
-3.6893488e+19 3.0640037 -0
2.9461858 2 2.3604121
3.6893488e+19 3.0138953 3.6893488e+19
2.9189665 -1.0842022e-19 2.3057394
-2 3.0083907 -2
2.867162 2 2.2786736
0 3.013051 0
2.9176261 1.0842022e-19 2.2858067
0 3.0085065 2
2.8673265 3.6893488e+19 2.2609117
-3.6893488e+19 3.056447 -0
2.9865229 -2 2.3109035
3.6893488e+19 3.0623448 -2
2.9438283 -2 2.2936742
3.6893488e+19 3.0711534 0
3.0049355 2 2.3027487
1.0842022e-19 3.062216 0
2.9436455 0 2.2720101
1.0842022e-19 2.9646769 -1.0842022e-19
2.868866 -0 2.154696
-3.6893488e+19 3.0627315 2
2.9443781 0 2.2509115
-1.0842022e-19 2.9639168 3.6893488e+19
2.8682628 -1.0842022e-19 2.1207838
-2 2.9789181 2
2.840261 -3.6893488e+19 2.101279
1.0842022e-19 2.9638169 3.6893488e+19
2.8681834 3.6893488e+19 2.0874906
-1.0842022e-19 3.0624731 -0
2.9440107 0 2.1654224
2 2.9597371 -2
2.8649447 -0 2.0516334
-1.0842022e-19 2.941088 -2
2.8341124 0 2.0033798
-0 3.1343906 0
3.0747545 -3.6893488e+19 2.1826999
-2 2.9422982 -3.6893488e+19
2.8350291 -2 1.9730384
-3.6893488e+19 2.8953559 0
2.7994719 0 1.9216492
3.6893488e+19 2.9615886 1.0842022e-19
2.8899755 0 1.9422461
-1.0842022e-19 2.8937728 1.0842022e-19
2.7982726 -3.6893488e+19 1.8933663
0 2.9651887 2
2.8930171 -2 1.9097415
-1.0842022e-19 2.8932652 -0
2.797888 -0 1.8562821
3.6893488e+19 2.9710586 -2
2.8979762 -3.6893488e+19 1.8773333
2 2.8895009 -0
2.7950366 -1.0842022e-19 1.799526
2 2.9719434 0
2.8987238 2 1.8112062
3.6893488e+19 2.8948822 3.6893488e+19
2.7991128 3.6893488e+19 1.7433391
-3.6893488e+19 2.9733305 -3.6893488e+19
2.8998957 -2 1.7352334
-2 2.9460289 -3.6893488e+19
2.8378551 -1.0842022e-19 1.6500071
-1.0842022e-19 2.9048941 -0
2.7876685 -1.0842022e-19 1.5305182
-0 2.9784045 0
2.8797634 -3.6893488e+19 1.3448232
-2 2.902962 -3.6893488e+19
2.7862957 -3.6893488e+19 -1.3815674
-0 2.9750199 1.0842022e-19
2.8770766 -1.0842022e-19 -1.5909944
-2 2.9575624 2
2.8250883 -0 -1.6625503
-2 2.9935901 -0
2.8918178 1.0842022e-19 -1.7514135
-0 2.9125395 3.6893488e+19
2.7931004 -0 -1.7547371
3.6893488e+19 2.9354894 -0
2.8456967 -1.0842022e-19 -1.7985603
-1.0842022e-19 2.915132 2
2.7949424 2 -1.8123682
-1.0842022e-19 2.9360557 1.0842022e-19
2.8461463 1.0842022e-19 -1.8609228
-1.0842022e-19 2.9117961 1.0842022e-19
2.7925723 2 -1.8672507
3.6893488e+19 2.9231954 -1.0842022e-19
2.8359375 -0 -1.8946397
-1.0842022e-19 2.9150095 0
2.7948554 3.6893488e+19 -1.9004965
2 2.850697 2
2.7783875 3.6893488e+19 -1.8948689
-3.6893488e+19 2.8408318 -1.0842022e-19
2.7343073 -2 -1.8969498
3.6893488e+19 2.8203225 -1.0842022e-19
2.7542758 -2 -1.9051715
-1.0842022e-19 2.8224149 2
2.7723939 2 -1.9219433
3.6893488e+19 2.8188789 -1.0842022e-19
2.7330847 -2 -1.9241472
1.0842022e-19 2.6673315 2
2.6025846 2 -1.8765589
-1.0842022e-19 2.652391 -1.0842022e-19
2.5548005 2 -1.8730046
2 2.5794916 -3.6893488e+19
2.5283725 -1.0842022e-19 -1.8489902
0 2.568109 1.0842022e-19
2.4819183 -1.0842022e-19 -1.8434063
2 2.5340962 -1.0842022e-19
2.4800403 -2 -1.8389665
-3.6893488e+19 2.5279076 -1.0842022e-19
2.4210155 -3.6893488e+19 -1.8353505
0 2.4995487 3.6893488e+19
2.4220462 -2 -1.831458
1.0842022e-19 2.48838 -1.0842022e-19
2.3699348 -3.6893488e+19 -1.827018
-1.0842022e-19 2.4414203 3.6893488e+19
2.3729362 -1.0842022e-19 -1.8236557
-1.0842022e-19 2.4378693 -3.6893488e+19
2.3316743 1.0842022e-19 -1.8215562
1.0842022e-19 2.3951292 -2
2.3338268 1.0842022e-19 -1.8173636
1.0842022e-19 2.3945413 1.0842022e-19
2.2988546 -2 -1.8160259
-1.0842022e-19 2.3600895 3.6893488e+19
2.3042235 -3.6893488e+19 -1.8135734
0 2.3633435 2
2.275223 0 -1.8137593
2 2.3328865 3.6893488e+19
2.2230172 1.0842022e-19 -1.8113867
-2 2.2890656 0
2.1607499 0 -1.8069171
-3.6893488e+19 2.2536156 1.0842022e-19
2.1103771 -2 -1.8022757
0 2.2014098 1.0842022e-19
2.0707169 3.6893488e+19 -1.7985526
-3.6893488e+19 2.1358831 0
2.0760155 0 -1.7977926
-2 2.0984983 2
2.0444307 1.0842022e-19 -1.794178
-2 3.0487688 -3.6893488e+19
2.9221866 -0 2.5787506
-0 3.0114005 1.0842022e-19
2.9127781 -3.6893488e+19 2.5444345
3.6893488e+19 3.0484564 2
2.9217453 -1.0842022e-19 2.567718
-0 3.077492 3.6893488e+19
3.0085716 2 2.6066923
3.6893488e+19 3.010283 -1.0842022e-19
2.9110134 -1.0842022e-19 2.5238342
-2 3.0548596 1.0842022e-19
2.9307938 2 2.5527985
-2 3.0086546 0
2.9084423 3.6893488e+19 2.5125546
-0 3.054106 0
2.9297287 1.0842022e-19 2.5412562
-3.6893488e+19 3.0098746 -0
2.9103687 1.0842022e-19 2.5042062
-2 3.0530584 2
2.9282484 0 2.5295236
1.0842022e-19 3.0126762 3.6893488e+19
2.9147925 -1.0842022e-19 2.4945681
-1.0842022e-19 3.0125492 3.6893488e+19
2.914592 1.0842022e-19 2.4750595
-1.0842022e-19 3.073734 -3.6893488e+19
3.0220582 -2 2.5441866
-2 3.0030653 -0
2.8812985 -2 2.4317524
-3.6893488e+19 3.0712633 2
3.0199821 0 2.5298994
0 3.0964515 0
3.0110025 3.6893488e+19 2.5331059
1.0842022e-19 3.0700226 2
3.0189393 -0 2.5168526
3.6893488e+19 3.0959985 0
3.0106614 -3.6893488e+19 2.5203497
-2 3.0679584 -3.6893488e+19
3.0172045 2 2.5032673
2 3.0032203 1.0842022e-19
2.881532 0 2.3776197
3.6893488e+19 3.0672469 -3.6893488e+19
3.0166066 -2 2.4817805
0 3.0042431 -1.0842022e-19
2.8830729 0 2.361016
3.6893488e+19 3.003845 -2
2.882473 -2 2.3423893
3.6893488e+19 3.0679774 -3.6893488e+19
3.0172205 1.0842022e-19 2.4356771
3.6893488e+19 3.0978396 3.6893488e+19
3.0120482 1.0842022e-19 2.4444633
0 3.0681067 -2
2.9792972 2 2.38392
1.0842022e-19 3.0641055 -2
2.9438586 -3.6893488e+19 2.3598602
-3.6893488e+19 3.0633056 -1.0842022e-19
2.9947417 2 2.3622327
2 3.0635421 -2
2.9430625 0 2.3375273
-2 3.0580826 0
2.9864941 -0 2.3340404
-3.6893488e+19 3.0629368 -3.6893488e+19
2.9422073 2 2.315263
-0 3.0642207 -2
2.9440215 1.0842022e-19 2.2948904
-1.0842022e-19 2.9626179 -0
2.8652604 -1.0842022e-19 2.1852026
-3.6893488e+19 3.0623636 -3.6893488e+19
2.9413974 -1.0842022e-19 2.2716341
0 2.9628556 2
2.865448 -3.6893488e+19 2.1522746
-2 3.0632107 2
2.9425945 2 2.2508299
-0 3.0555022 0
2.9824193 1.0842022e-19 2.2373316
3.6893488e+19 3.063509 -1.0842022e-19
2.9430158 3.6893488e+19 2.2090554
0 3.0563221 -3.6893488e+19
2.9837136 0 2.1948595
-0 3.0630026 3.6893488e+19
2.9423003 -0 2.1653547
1.0842022e-19 2.9609852 3.6893488e+19
2.8639712 2 2.0518258
0 3.089643 1.0842022e-19
3.0354278 2 2.1811268
1.0842022e-19 3.0574245 0
2.9632025 3.6893488e+19 2.1024973
-1.0842022e-19 2.9669893 -3.6893488e+19
2.8924465 -2 2.0122602
-2 3.0573401 -1.0842022e-19
2.9630754 -3.6893488e+19 2.0593531
0 2.963186 -1.0842022e-19
2.8892503 2 1.9762942
-1.0842022e-19 2.8928566 2
2.7959623 -2 1.89275
-0 2.9642558 -3.6893488e+19
2.8901494 1.0842022e-19 1.9090698
-3.6893488e+19 2.8914993 -0
2.7949398 -3.6893488e+19 1.8547884
2 2.9678903 2
2.8932037 2 1.8761981
-2 2.8962111 0
2.7984896 3.6893488e+19 1.8021818
-1.0842022e-19 2.9550114 0
2.8427873 3.6893488e+19 1.7649192
3.6893488e+19 2.9774384 -2
2.9012277 -3.6893488e+19 1.7367518
-2 2.9498076 2
2.8388669 -1.0842022e-19 1.6509789
-2 2.9157019 -1.0842022e-19
2.7937117 1.0842022e-19 1.5343734
-2 2.9757676 -1.0842022e-19
2.8756428 2 1.3431588
2 2.9158082 3.6893488e+19
2.7937868 2 -1.38551
2 2.9749269 2
2.874979 -2 -1.5905046
0 2.9627001 -1.0842022e-19
2.8269179 0 -1.6640707
-3.6893488e+19 2.9957919 -0
2.891453 0 -1.7517143
-2 2.9614856 0
2.8260601 -0 -1.7698609
0 2.9968157 1.0842022e-19
2.8922613 -2 -1.8225911
0 2.9133008 -0
2.7920151 -1.0842022e-19 -1.8111956
3.6893488e+19 2.9982071 2
2.8933599 -2 -1.8844953
2 2.9634807 0
2.8274696 1.0842022e-19 -1.886075
2 2.9918277 1.0842022e-19
2.8883231 2 -1.9177487
1.0842022e-19 2.9628625 -3.6893488e+19
2.8270326 1.0842022e-19 -1.9175384
0 2.9152894 3.6893488e+19
2.8278921 -1.0842022e-19 -1.9211957
2 2.841975 1.0842022e-19
2.7332408 -2 -1.8971692
0 2.8191257 -3.6893488e+19
2.7519658 2 -1.9042715
3.6893488e+19 2.823653 0
2.7719903 -1.0842022e-19 -1.922223
3.6893488e+19 2.8173172 -1.0842022e-19
2.7281079 0 -1.9229519
2 2.6694 1.0842022e-19
2.6024537 2 -1.8769058
0 2.6456146 -1.0842022e-19
2.5480399 -3.6893488e+19 -1.868346
0 2.5806017 3.6893488e+19
2.5278296 1.0842022e-19 -1.8492494
1.0842022e-19 2.5689383 -0
2.4805503 -2 -1.8435428
2 2.5341513 2
2.4775879 -1.0842022e-19 -1.8385361
2 2.528259 -2
2.4192581 1.0842022e-19 -1.8352002
3.6893488e+19 2.4960732 -0
2.416888 3.6893488e+19 -1.8295697
3.6893488e+19 2.4867601 2
2.3667054 -2 -1.82595
-1.0842022e-19 2.4450653 2
2.3740222 -2 -1.8248545
1.0842022e-19 2.4397311 -3.6893488e+19
2.3312755 3.6893488e+19 -1.8220017
-3.6893488e+19 2.3965738 1.0842022e-19
2.3332713 -3.6893488e+19 -1.8176413
-2 2.3947263 1.0842022e-19
2.2973709 -2 -1.8157377
-1.0842022e-19 2.3585999 -2
2.3013587 -2 -1.8123792
-0 2.3644602 -2
2.2745695 -1.0842022e-19 -1.8139652
-2 3.0487688 -3.6893488e+19
2.9221866 -0 2.5787506
-0 3.0114005 1.0842022e-19
2.9127781 -3.6893488e+19 2.5444345
3.6893488e+19 3.0484564 2
2.9217453 -1.0842022e-19 2.567718
0 3.0115092 3.6893488e+19
2.9129496 -2 2.534826
3.6893488e+19 3.010283 -1.0842022e-19
2.9110134 -1.0842022e-19 2.5238342
-2 3.0548596 1.0842022e-19
2.9307938 2 2.5527985
-2 3.0086546 0
2.9084423 3.6893488e+19 2.5125546
-0 3.054106 0
2.9297287 1.0842022e-19 2.5412562
-3.6893488e+19 3.0098746 -0
2.9103687 1.0842022e-19 2.5042062
-2 3.0530584 2
2.9282484 0 2.5295236
1.0842022e-19 3.0126762 3.6893488e+19
2.9147925 -1.0842022e-19 2.4945681
-1.0842022e-19 3.0125492 3.6893488e+19
2.914592 1.0842022e-19 2.4750595
-1.0842022e-19 3.073734 -3.6893488e+19
3.0220582 -2 2.5441866
-2 3.0030653 -0
2.8812985 -2 2.4317524
-3.6893488e+19 3.0712633 2
3.0199821 0 2.5298994
-0 3.003212 -2
2.8815193 -3.6893488e+19 2.4138288
2 3.0106769 1.0842022e-19
2.9381332 3.6893488e+19 2.4347339
-1.0842022e-19 3.0041103 2
2.8828731 -2 2.397104
1.0842022e-19 3.0092814 -0
2.9357877 2 2.4130571
2 3.0032203 1.0842022e-19
2.881532 0 2.3776197
3.6893488e+19 3.0672469 -3.6893488e+19
3.0166066 -2 2.4817805
0 3.0042431 -1.0842022e-19
2.8830729 0 2.361016
3.6893488e+19 3.003845 -2
2.882473 -2 2.3423893
3.6893488e+19 3.0679774 -3.6893488e+19
3.0172205 1.0842022e-19 2.4356771
-3.6893488e+19 3.0065281 2
2.8865161 -1.0842022e-19 2.3277872
1.0842022e-19 3.0053873 3.6893488e+19
2.8847969 -3.6893488e+19 2.3082244
-3.6893488e+19 3.011277 2
2.8692076 0 2.2993367
-0 3.0116892 -0
2.913234 3.6893488e+19 2.3025556
2 3.0080843 -1.0842022e-19
2.8646958 2 2.277827
-0 3.0041828 -3.6893488e+19
2.9013805 2 2.2755992
-3.6893488e+19 3.0094435 -0
2.8666167 -0 2.2613721
-0 3.0642207 -2
2.9440215 1.0842022e-19 2.2948904
-1.0842022e-19 2.9626179 -0
2.8652604 -1.0842022e-19 2.1852026
-3.6893488e+19 3.0623636 -3.6893488e+19
2.9413974 -1.0842022e-19 2.2716341
0 2.9628556 2
2.865448 -3.6893488e+19 2.1522746
-2 3.0632107 2
2.9425945 2 2.2508299
2 2.9646354 -0
2.8668532 -1.0842022e-19 2.1205888
3.6893488e+19 3.063509 -1.0842022e-19
2.9430158 3.6893488e+19 2.2090554
1.0842022e-19 2.963165 2
2.8656924 -2 2.086318
3.6893488e+19 2.9490819 -2
2.817296 3.6893488e+19 2.047966
1.0842022e-19 2.9609852 3.6893488e+19
2.8639712 2 2.0518258
0 3.089643 1.0842022e-19
3.0354278 2 2.1811268
-3.6893488e+19 2.9475434 -1.0842022e-19
2.8371611 2 2.0065799
-1.0842022e-19 2.9669893 -3.6893488e+19
2.8924465 -2 2.0122602
2 2.9446201 2
2.8349588 -1.0842022e-19 1.9737661
0 2.963186 -1.0842022e-19
2.8892503 2 1.9762942
-1.0842022e-19 2.8928566 2
2.7959623 -2 1.89275
-0 2.9642558 -3.6893488e+19
2.8901494 1.0842022e-19 1.9090698
-3.6893488e+19 2.8914993 -0
2.7949398 -3.6893488e+19 1.8547884
2 2.9678903 2
2.8932037 2 1.8761981
-2 2.8962111 0
2.7984896 3.6893488e+19 1.8021818
2 2.8954647 -3.6893488e+19
2.7979269 2 1.7432163
3.6893488e+19 2.9774384 -2
2.9012277 -3.6893488e+19 1.7367518
3.6893488e+19 2.8918533 -3.6893488e+19
2.7952063 0 1.6315265
-2 2.9157019 -1.0842022e-19
2.7937117 1.0842022e-19 1.5343734
-2 2.9757676 -1.0842022e-19
2.8756428 2 1.3431588
2 2.9158082 3.6893488e+19
2.7937868 2 -1.38551
2 2.9749269 2
2.874979 -2 -1.5905046
-0 2.917068 0
2.794677 3.6893488e+19 -1.6478899
-3.6893488e+19 2.9957919 -0
2.891453 0 -1.7517143
2 2.9152963 -0
2.7934251 -2 -1.7553619
-1.0842022e-19 2.9376194 3.6893488e+19
2.8455229 2 -1.7990479
0 2.9133008 -0
2.7920151 -1.0842022e-19 -1.8111956
3.6893488e+19 2.9982071 2
2.8933599 -2 -1.8844953
-3.6893488e+19 2.915163 -3.6893488e+19
2.7933309 2 -1.8687786
-3.6893488e+19 2.9186809 3.6893488e+19
2.83057 -3.6893488e+19 -1.8928003
-1.0842022e-19 2.9172087 -3.6893488e+19
2.7947762 2 -1.9010135
-0 2.8506408 2
2.7768488 3.6893488e+19 -1.8945456
2 2.841975 1.0842022e-19
2.7332408 -2 -1.8971692
0 2.8191257 -3.6893488e+19
2.7519658 2 -1.9042715
3.6893488e+19 2.823653 0
2.7719903 -1.0842022e-19 -1.922223
3.6893488e+19 2.8173172 -1.0842022e-19
2.7281079 0 -1.9229519
2 2.6694 1.0842022e-19
2.6024537 2 -1.8769058
0 2.6456146 -1.0842022e-19
2.5480399 -3.6893488e+19 -1.868346
0 2.5806017 3.6893488e+19
2.5278296 1.0842022e-19 -1.8492494
1.0842022e-19 2.5689383 -0
2.4805503 -2 -1.8435428
2 2.5341513 2
2.4775879 -1.0842022e-19 -1.8385361
2 2.528259 -2
2.4192581 1.0842022e-19 -1.8352002
3.6893488e+19 2.4960732 -0
2.416888 3.6893488e+19 -1.8295697
3.6893488e+19 2.4867601 2
2.3667054 -2 -1.82595
-1.0842022e-19 2.4450653 2
2.3740222 -2 -1.8248545
1.0842022e-19 2.4397311 -3.6893488e+19
2.3312755 3.6893488e+19 -1.8220017
-3.6893488e+19 2.3965738 1.0842022e-19
2.3332713 -3.6893488e+19 -1.8176413
-2 2.3947263 1.0842022e-19
2.2973709 -2 -1.8157377
-1.0842022e-19 2.3585999 -2
2.3013587 -2 -1.8123792
-0 2.3644602 -2
2.2745695 -1.0842022e-19 -1.8139652
0 3.0485222 2
2.9194992 -3.6893488e+19 2.5778737
2 3.01158 0
2.9108427 -2 2.54403
-2 3.0477331 0
2.9183905 3.6893488e+19 2.566364
-3.6893488e+19 3.0763171 -2
3.0062599 3.6893488e+19 2.6046808
-2 3.0116384 -2
2.9109344 3.6893488e+19 2.5246935
1.0842022e-19 3.053894 2
2.927048 -3.6893488e+19 2.5512829
3.6893488e+19 3.0088751 -0
2.9065943 0 2.5122373
3.6893488e+19 3.0548682 -0
2.928417 0 2.5414481
-2 3.1109886 -2
3.0334878 1.0842022e-19 2.6023874
0 3.0412779 1.0842022e-19
2.9574866 -1.0842022e-19 2.5236449
0 3.0430737 0
2.9603071 -2 2.5145991
0 3.0743508 -3.6893488e+19
3.0211308 -0 2.544101
-1.0842022e-19 3.0030212 2
2.8791595 1.0842022e-19 2.430829
-2 3.0720873 2
3.0192389 1.0842022e-19 2.5300021
-3.6893488e+19 3.0050433 -2
2.8821895 3.6893488e+19 2.416003
1.0842022e-19 3.0702994 2
3.0177443 2 2.5164981
3.6893488e+19 3.004586 -1.0842022e-19
2.8815041 0 2.3970656
0 3.0684674 -3.6893488e+19
3.0162127 2 2.5031166
1.0842022e-19 3.0035458 2
2.8799453 0 2.377362
-2 3.0684657 -1.0842022e-19
3.0162115 3.6893488e+19 2.4825716
-0 3.0052884 -0
2.8825567 0 2.361788
0 3.0796824 -1.0842022e-19
3.0255876 -2 2.4751201
-1.0842022e-19 3.0037251 0
2.8802142 2 2.3415554
1.0842022e-19 3.070982 3.6893488e+19
3.0183148 1.0842022e-19 2.4388297
-1.0842022e-19 3.0979538 0
3.0107093 2 2.4437356
-3.6893488e+19 3.0685589 -0
2.9773695 2 2.3837106
3.6893488e+19 3.0118611 -3.6893488e+19
2.867981 3.6893488e+19 2.2994528
-2 3.0637813 -1.0842022e-19
2.992831 0 2.3620355
2 3.0585718 0
2.9846489 0 2.3338819
-3.6893488e+19 3.1654081 3.6893488e+19
3.0418768 1.0842022e-19 2.4177248
3.6893488e+19 3.0536816 2
2.9769683 -2 2.3068264
0 2.9579477 2
2.8217661 3.6893488e+19 2.1789834
3.6893488e+19 3.0549369 3.6893488e+19
2.9789398 -0 2.2862751
-1.0842022e-19 2.9567652 -1.0842022e-19
2.8209352 -2 2.1464748
-0 2.9636147 1.0842022e-19
2.8640811 2 2.1521049
-1.0842022e-19 2.9593303 1.0842022e-19
2.8227377 1.0842022e-19 2.1171696
1.0842022e-19 3.0562062 1.0842022e-19
2.9809334 0 2.2374487
-1.0842022e-19 3.0677595 -2
2.9465325 0 2.214422
2 3.0563903 -3.6893488e+19
2.9812224 -0 2.1940422
-2 2.9631627 3.6893488e+19
2.8637261 0 2.0526271
0 3.0785666 -1.0842022e-19
3.0246549 3.6893488e+19 2.1661527
0 3.059453 -3.6893488e+19
2.9637237 2 2.104126
-3.6893488e+19 3.0786974 2
3.0247645 1.0842022e-19 2.1183827
3.6893488e+19 3.0783098 -1.0842022e-19
3.0244403 -2 2.0700948
-2 2.8895233 0
2.7918558 -2 1.9184508
-1.0842022e-19 2.9651101 1.0842022e-19
2.8887944 -1.0842022e-19 1.9428619
1.0842022e-19 2.8938801 -0
2.79512 1.0842022e-19 1.8928407
-0 2.966378 -0
2.8898542 -1.0842022e-19 1.9094466
1.0842022e-19 2.8915703 -1.0842022e-19
2.7933893 2 1.8543785
0 2.9634054 -2
2.8873692 -1.0842022e-19 1.8744289
1.0842022e-19 2.8909907 2
2.7929552 3.6893488e+19 1.7995037
-3.6893488e+19 2.9601212 -2
2.884624 2 1.8057445
1.0842022e-19 2.8974936 3.6893488e+19
2.7978275 0 1.7439837
-1.0842022e-19 2.9790146 -3.6893488e+19
2.9004173 2 1.7370129
1.0842022e-19 2.9509435 1.0842022e-19
2.8378756 3.6893488e+19 1.6510627
0 2.9160604 1.0842022e-19
2.792335 -3.6893488e+19 1.5342168
1.0842022e-19 2.9780276 -0
2.8753996 0 1.3437437
1.0842022e-19 2.963419 1.0842022e-19
2.8256104 2 -1.4007478
3.6893488e+19 2.977529 -0
2.8750081 3.6893488e+19 -1.5912392
-2 2.9642701 0
2.8262086 -1.0842022e-19 -1.664324
3.6893488e+19 2.982414 -2
2.8788443 1.0842022e-19 -1.7460825
3.6893488e+19 2.961673 0
2.8243837 2 -1.7696526
2 2.9395547 3.6893488e+19
2.8451865 2 -1.7994576
1.0842022e-19 2.9119165 -3.6893488e+19
2.7894232 -3.6893488e+19 -1.81023
1.0842022e-19 2.9964345 3.6893488e+19
2.8898547 1.0842022e-19 -1.8837408
2 2.9149585 -3.6893488e+19
2.7915606 2 -1.8682094
0 2.9982467 -0
2.8912778 -2 -1.919588
0 2.9158328 1.0842022e-19
2.7921751 1.0842022e-19 -1.900238
3.6893488e+19 2.9103508 0
2.8222525 -2 -1.9188116
3.6893488e+19 2.8343298 -3.6893488e+19
2.7198179 2 -1.8936141
-3.6893488e+19 2.8199313 1.0842022e-19
2.7512453 2 -1.9043425
3.6893488e+19 2.8232625 2
2.7702212 -2 -1.9216381
3.6893488e+19 2.8166435 -0
2.724499 -1.0842022e-19 -1.9222455
-1.0842022e-19 2.6723318 3.6893488e+19
2.6030352 -1.0842022e-19 -1.8775128
-3.6893488e+19 2.6487896 0
2.5487988 -0 -1.8698171
0 2.5824764 -2
2.5279231 -0 -1.8500266
-0 2.5701649 -3.6893488e+19
2.4797759 0 -1.8439524
3.6893488e+19 2.5348711 -2
2.4762583 2 -1.8386079
-3.6893488e+19 2.5282083 0
2.416903 -3.6893488e+19 -1.8347489
0 2.4977367 -2
2.4160674 3.6893488e+19 -1.8298057
1.0842022e-19 2.4883168 0
2.3658781 2 -1.8261966
-3.6893488e+19 2.4458518 -3.6893488e+19
2.3726959 -0 -1.8247689
-0 2.4405968 -0
2.3301232 3.6893488e+19 -1.8220017
-2 2.3976359 2
2.3323915 2 -1.8177339
2 2.3953044 -2
2.2961872 2 -1.8156418
-2 2.3616779 -3.6893488e+19
2.3023334 -3.6893488e+19 -1.8135734
2 2.3657749 0
2.2740619 1.0842022e-19 -1.8142742
-1.0842022e-19 2.3333075 -1.0842022e-19
2.2183814 0 -1.8109332
-0 2.2895286 0
2.1568611 -0 -1.8065354
-0 2.2582011 1.0842022e-19
2.112838 -2 -1.8048142
2 2.2051041 1.0842022e-19
2.0697682 -3.6893488e+19 -1.7993267
0 2.1368291 0
2.0733578 -1.0842022e-19 -1.7974553
-2 2.0955093 1.0842022e-19
2.0388179 -3.6893488e+19 -1.7919903
0 3.0485222 2
2.9194992 -3.6893488e+19 2.5778737
2 3.01158 0
2.9108427 -2 2.54403
-2 3.0477331 0
2.9183905 3.6893488e+19 2.566364
0 3.0113759 1.0842022e-19
2.910522 -2 2.5340946
-2 3.0116384 -2
2.9109344 3.6893488e+19 2.5246935
1.0842022e-19 3.053894 2
2.927048 -3.6893488e+19 2.5512829
3.6893488e+19 3.0088751 -0
2.9065943 0 2.5122373
3.6893488e+19 3.0548682 -0
2.928417 0 2.5414481
3.6893488e+19 3.009711 1.0842022e-19
2.9079072 2 2.5035229
0 3.0116715 -3.6893488e+19
2.9109862 -2 2.4916618
-3.6893488e+19 3.0109372 -1.0842022e-19
2.9098332 -3.6893488e+19 2.4711704
0 3.0743508 -3.6893488e+19
3.0211308 -0 2.544101
-1.0842022e-19 3.0030212 2
2.8791595 1.0842022e-19 2.430829
-2 3.0720873 2
3.0192389 1.0842022e-19 2.5300021
-3.6893488e+19 3.0050433 -2
2.8821895 3.6893488e+19 2.416003
-0 3.0090475 -2
2.9330854 -3.6893488e+19 2.4310696
3.6893488e+19 3.004586 -1.0842022e-19
2.8815041 0 2.3970656
2 3.0098035 -2
2.9343493 1.0842022e-19 2.4129817
1.0842022e-19 3.0035458 2
2.8799453 0 2.377362
-2 3.0684657 -1.0842022e-19
3.0162115 3.6893488e+19 2.4825716
-0 3.0052884 -0
2.8825567 0 2.361788
0 3.0796824 -1.0842022e-19
3.0255876 -2 2.4751201
-1.0842022e-19 3.0037251 0
2.8802142 2 2.3415554
1.0842022e-19 3.070982 3.6893488e+19
3.0183148 1.0842022e-19 2.4388297
-1.0842022e-19 3.0033121 -0
2.8795953 -1.0842022e-19 2.3230417
-2 3.0061879 0
2.8839049 1.0842022e-19 2.3085835
3.6893488e+19 3.0118611 -3.6893488e+19
2.867981 3.6893488e+19 2.2994528
2 3.0177484 1.0842022e-19
2.9205308 -3.6893488e+19 2.3089232
-0 3.0031676 -2
2.89763 -1.0842022e-19 2.2739332
-3.6893488e+19 3.1654081 3.6893488e+19
3.0418768 1.0842022e-19 2.4177248
3.6893488e+19 3.0057216 0
2.9016414 -1.0842022e-19 2.2583697
0 2.9579477 2
2.8217661 3.6893488e+19 2.1789834
-3.6893488e+19 2.9609294 -0
2.8619723 0 2.1827214
-1.0842022e-19 2.9567652 -1.0842022e-19
2.8209352 -2 2.1464748
-0 2.9636147 1.0842022e-19
2.8640811 2 2.1521049
-1.0842022e-19 2.9593303 1.0842022e-19
2.8227377 1.0842022e-19 2.1171696
0 2.9652512 2
2.8653662 3.6893488e+19 2.1203158
-1.0842022e-19 3.0677595 -2
2.9465325 0 2.214422
-0 2.9658859 0
2.8658648 -0 2.0875971
-2 2.9631627 3.6893488e+19
2.8637261 0 2.0526271
1.0842022e-19 2.9719927 0
2.8945477 2 2.0489061
-1.0842022e-19 2.9446294 -2
2.8331447 3.6893488e+19 2.0044084
-1.0842022e-19 2.9664829 2
2.8899419 3.6893488e+19 2.0114017
-3.6893488e+19 2.9656882 3.6893488e+19
2.8892777 -1.0842022e-19 1.977018
-2 2.8895233 0
2.7918558 -2 1.9184508
-1.0842022e-19 2.9651101 1.0842022e-19
2.8887944 -1.0842022e-19 1.9428619
1.0842022e-19 2.8938801 -0
2.79512 1.0842022e-19 1.8928407
-0 2.966378 -0
2.8898542 -1.0842022e-19 1.9094466
1.0842022e-19 2.8915703 -1.0842022e-19
2.7933893 2 1.8543785
0 2.9634054 -2
2.8873692 -1.0842022e-19 1.8744289
1.0842022e-19 2.8909907 2
2.7929552 3.6893488e+19 1.7995037
-3.6893488e+19 2.9601212 -2
2.884624 2 1.8057445
1.0842022e-19 2.8974936 3.6893488e+19
2.7978275 0 1.7439837
-1.0842022e-19 2.9790146 -3.6893488e+19
2.9004173 2 1.7370129
2 2.8972263 -1.0842022e-19
2.7976272 -2 1.6330678
0 2.9160604 1.0842022e-19
2.792335 -3.6893488e+19 1.5342168
1.0842022e-19 2.9780276 -0
2.8753996 0 1.3437437
1.0842022e-19 2.9196954 -0
2.794889 -1.0842022e-19 -1.3865247
3.6893488e+19 2.977529 -0
2.8750081 3.6893488e+19 -1.5912392
2 2.9178381 1.0842022e-19
2.7935841 3.6893488e+19 -1.6478899
-0 2.9365563 -1.0842022e-19
2.8428319 -0 -1.7226902
-3.6893488e+19 2.9146824 -1.0842022e-19
2.7913668 1.0842022e-19 -1.7549294
2 2.9395547 3.6893488e+19
2.8451865 2 -1.7994576
1.0842022e-19 2.9119165 -3.6893488e+19
2.7894232 -3.6893488e+19 -1.81023
-2 2.9430711 3.6893488e+19
2.8479481 -3.6893488e+19 -1.8637291
2 2.9149585 -3.6893488e+19
2.7915606 2 -1.8682094
2 2.9181204 -1.0842022e-19
2.8283539 1.0842022e-19 -1.8923155
0 2.9158328 1.0842022e-19
2.7921751 1.0842022e-19 -1.900238
3.6893488e+19 2.8506768 1.0842022e-19
2.7753899 -1.0842022e-19 -1.8942627
3.6893488e+19 2.8343298 -3.6893488e+19
2.7198179 2 -1.8936141
-3.6893488e+19 2.8199313 1.0842022e-19
2.7512453 2 -1.9043425
3.6893488e+19 2.8232625 2
2.7702212 -2 -1.9216381
3.6893488e+19 2.8166435 -0
2.724499 -1.0842022e-19 -1.9222455
-1.0842022e-19 2.6723318 3.6893488e+19
2.6030352 -1.0842022e-19 -1.8775128
-3.6893488e+19 2.6487896 0
2.5487988 -0 -1.8698171
0 2.5824764 -2
2.5279231 -0 -1.8500266
-0 2.5701649 -3.6893488e+19
2.4797759 0 -1.8439524
3.6893488e+19 2.5348711 -2
2.4762583 2 -1.8386079
-3.6893488e+19 2.5282083 0
2.416903 -3.6893488e+19 -1.8347489
0 2.4977367 -2
2.4160674 3.6893488e+19 -1.8298057
1.0842022e-19 2.4883168 0
2.3658781 2 -1.8261966
-3.6893488e+19 2.4458518 -3.6893488e+19
2.3726959 -0 -1.8247689
-0 2.4405968 -0
2.3301232 3.6893488e+19 -1.8220017
-2 2.3976359 2
2.3323915 2 -1.8177339
2 2.3953044 -2
2.2961872 2 -1.8156418
-2 2.3616779 -3.6893488e+19
2.3023334 -3.6893488e+19 -1.8135734
2 2.3657749 0
2.2740619 1.0842022e-19 -1.8142742
-1.0842022e-19 2.3333075 -1.0842022e-19
2.2183814 0 -1.8109332
-0 2.2895286 0
2.1568611 -0 -1.8065354
-0 2.2582011 1.0842022e-19
2.112838 -2 -1.8048142
2 2.2051041 1.0842022e-19
2.0697682 -3.6893488e+19 -1.7993267
0 2.1368291 0
2.0733578 -1.0842022e-19 -1.7974553
-2 2.0955093 1.0842022e-19
2.0388179 -3.6893488e+19 -1.7919903
-2 3.0794177 0
3.0073955 -3.6893488e+19 2.6318192
3.6893488e+19 3.0484593 -1.0842022e-19
2.9172347 -1.0842022e-19 2.5772436
-1.0842022e-19 3.0110955 -2
2.9080217 -3.6893488e+19 2.5429239
-0 3.0479434 -1.0842022e-19
2.9165134 0 2.5660455
-1.0842022e-19 3.0793266 3.6893488e+19
3.0073242 -3.6893488e+19 2.6072669
-2 3.012357 -0
2.9099932 3.6893488e+19 2.5249209
3.6893488e+19 3.0544653 -2
2.9256308 2 2.5513327
-1.0842022e-19 3.0100234 1.0842022e-19
2.9063463 1.0842022e-19 2.5128965
-2 3.0550139 -3.6893488e+19
2.9263978 -3.6893488e+19 2.5410881
2 3.11185 3.6893488e+19
3.0327368 -3.6893488e+19 2.6025522
0 3.0413277 -1.0842022e-19
2.9552662 -1.0842022e-19 2.5231681
3.6893488e+19 3.0437081 -0
2.9589863 -1.0842022e-19 2.5146646
2 3.0744209 0
3.019845 -0 2.5435655
-2 3.0034099 0
2.8778107 -3.6893488e+19 2.4307029
-1.0842022e-19 3.0735266 3.6893488e+19
3.0191011 -3.6893488e+19 2.5306804
-2 3.0047679 3.6893488e+19
2.8798354 -0 2.4147952
2 3.0135145 0
2.9383693 -3.6893488e+19 2.4376099
2 3.0049031 -3.6893488e+19
2.8800366 2 2.3968344
-1.0842022e-19 3.0689983 -0
3.0153346 1.0842022e-19 2.5030224
0 3.0027704 2
2.876857 1.0842022e-19 2.3755212
2 3.0703282 -3.6893488e+19
3.0164406 2 2.4844053
1.0842022e-19 3.0065491 0
2.8824909 0 2.362911
-2 3.0796885 -1.0842022e-19
3.0242264 0 2.4741619
-3.6893488e+19 3.0058775 2
2.8814898 3.6893488e+19 2.3438241
2 3.0717084 0
3.0175889 1.0842022e-19 2.4389272
-3.6893488e+19 3.003999 2
2.8786891 -3.6893488e+19 2.3233263
1.0842022e-19 3.0733206 2
2.9820409 1.0842022e-19 2.3887351
-2 3.0136838 -3.6893488e+19
2.8686199 1.0842022e-19 2.3010211
0 3.0635755 0
2.9900336 1.0842022e-19 2.3611057
3.6893488e+19 3.059653 -2
2.9839039 3.6893488e+19 2.3344107
2 3.1656365 -2
3.0405219 0 2.417239
3.6893488e+19 3.0554399 -1.0842022e-19
2.97732 -0 2.3080125
0 2.9637814 -1.0842022e-19
2.8241742 2 2.1837044
-1.0842022e-19 3.0532165 0
2.9738455 0 2.2841156
2 2.9641819 0
2.8244543 3.6893488e+19 2.1522229
1.0842022e-19 3.0562994 0
2.9786632 -0 2.2651529
-3.6893488e+19 2.9617007 1.0842022e-19
2.8227201 -1.0842022e-19 2.1184325
0 3.0561304 -2
2.9783988 -1.0842022e-19 2.2363954
-0 3.0691729 2
2.9461915 3.6893488e+19 2.2156889
1.0842022e-19 3.0573952 2
2.9803755 -3.6893488e+19 2.1946461
0 2.9630678 2
2.8618248 3.6893488e+19 2.051986
3.6893488e+19 3.0795727 1.0842022e-19
3.0241301 3.6893488e+19 2.1665771
-2 2.9429412 2
2.8301921 2 2.0029798
1.0842022e-19 3.0791285 2
3.0237606 -2 2.1181142
2 2.9462101 -2
2.8326287 -1.0842022e-19 1.9737159
3.6893488e+19 3.0791957 1.0842022e-19
3.0238166 3.6893488e+19 2.0703051
-1.0842022e-19 2.8882332 -3.6893488e+19
2.7894096 -1.0842022e-19 1.9175864
-2 3.0574732 -1.0842022e-19
3.0057483 1.0842022e-19 2.0044737
0 2.8925474 3.6893488e+19
2.7926257 -1.0842022e-19 1.8920975
-1.0842022e-19 3.0521722 -3.6893488e+19
3.001339 2 1.9561943
-1.0842022e-19 2.9497368 -2
2.8352578 -1.0842022e-19 1.8814855
-3.6893488e+19 2.9628618 0
2.8849967 -2 1.873629
-2 2.891856 1.0842022e-19
2.7921104 1.0842022e-19 1.7995707
-1.0842022e-19 3.0794728 -3.6893488e+19
3.0240469 -1.0842022e-19 1.8791597
-2 2.8950138 -1.0842022e-19
2.7944643 3.6893488e+19 1.7420191
2 3.0785232 -1.0842022e-19
3.023257 1.0842022e-19 1.7872198
-1.0842022e-19 2.8959484 -2
2.795161 -2 1.6323977
2 2.9179521 2
2.7921405 -0 1.5346669
0 2.9826376 1.0842022e-19
2.877116 2 1.3454306
-2 2.962523 0
2.8232949 1.0842022e-19 -1.4001988
-3.6893488e+19 2.9809067 1.0842022e-19
2.8757637 2 -1.5923522
1.0842022e-19 2.9633248 1.0842022e-19
2.8238552 3.6893488e+19 -1.6637087
3.6893488e+19 2.9389691 -0
2.8429949 -3.6893488e+19 -1.7234925
-3.6893488e+19 2.9125252 -0
2.7883472 2 -1.7540323
-1.0842022e-19 2.9948068 2
2.8866246 2 -1.8210112
1.0842022e-19 2.9149275 -3.6893488e+19
2.7900262 2 -1.8112646
2 2.9465299 0
2.8489027 -3.6893488e+19 -1.8651323
-3.6893488e+19 2.9182813 0
2.7923708 -0 -1.8697373
-2 2.9923599 2
2.8847127 3.6893488e+19 -1.9172637
-0 2.9162385 -3.6893488e+19
2.7909427 -3.6893488e+19 -1.9001272
2 2.8986385 -0
2.811482 2 -1.9136796
-2 2.8344936 -2
2.7176094 -0 -1.8934385
-1.0842022e-19 2.8207414 2
2.7506161 1.0842022e-19 -1.9044373
-2 2.8219545 -2
2.7677934 1.0842022e-19 -1.9205956
3.6893488e+19 2.8146708 -0
2.7191448 -1.0842022e-19 -1.9208599
-2 2.6728098 2
2.6016824 -1.0842022e-19 -1.8773972
3.6893488e+19 2.6438174 -1.0842022e-19
2.5435724 -1.0842022e-19 -1.8663232
