# .PCD v0.7 - Point Cloud Data file format
VERSION 0.7
FIELDS x y z
SIZE 4 4 4
TYPE F F F
COUNT 1 1 1
WIDTH 1709
HEIGHT 1
VIEWPOINT 0 0 0 1 0 0 0
POINTS 1709
DATA ascii
2.9241056 -3.6893488e+19 1.5827068
1.0842022e-19 2.9169145 0
2.9359951 3.6893488e+19 1.3855042
-1.0842022e-19 2.938338 -0
2.9120815 -0 -1.3832492
2 2.9090481 2
2.9277687 3.6893488e+19 -1.5725635
2 2.9403713 2
2.9139929 -1.0842022e-19 -1.6682875
0 2.907598 -0
2.9262521 0 -1.7300175
2 2.9519899 2
2.9249156 -2 -1.7805746
2 2.8972318 -3.6893488e+19
2.9154115 -2 -1.8012018
-2 2.9582574 0
2.9308078 -2 -1.8529041
-3.6893488e+19 2.8986371 3.6893488e+19
2.9168813 2 -1.8662
-3.6893488e+19 2.9103355 0
2.8857565 -2 -1.8834686
-0 2.8919497 2
2.9098878 -2 -1.9002295
-3.6893488e+19 2.8808892 1.0842022e-19
2.8580739 -3.6893488e+19 -1.9030801
0 2.8208947 1.0842022e-19
2.8355808 -1.0842022e-19 -1.8989265
-3.6893488e+19 2.8138614 2
2.7950611 1.0842022e-19 -1.9002019
-1.0842022e-19 2.7975409 -3.6893488e+19
2.8111582 -1.0842022e-19 -1.9121412
-1.0842022e-19 2.6073339 3.6893488e+19
2.6071041 -3.6893488e+19 -1.8717777
-0 2.410409 0
2.4563107 0 -1.7834884
-1.0842022e-19 2.535809 3.6893488e+19
2.5356252 0 -1.8450081
1.0842022e-19 2.4093807 1.0842022e-19
2.4551673 0 -1.8002391
-2 2.4983294 0
2.498009 -0 -1.8365479
-2 2.409833 0
2.4556704 2 -1.81762
-2 2.4407783 2
2.4404948 0 -1.8295985
-3.6893488e+19 2.3866117 -3.6893488e+19
2.4298518 -0 -1.8229342
1.0842022e-19 2.3941917 3.6893488e+19
2.3939381 -2 -1.8236293
-1.0842022e-19 2.3524122 -0
2.3918273 1.0842022e-19 -1.8202381
-3.6893488e+19 2.352572 -0
2.3523452 -2 -1.8166745
-1.0842022e-19 2.318073 -2
2.3536475 -2 -1.8146009
-3.6893488e+19 2.3262939 3.6893488e+19
2.3260841 -1.0842022e-19 -1.8153807
2 3.0461011 1.0842022e-19
3.0596526 2 2.6293845
0 2.9824624 1.0842022e-19
2.9535627 -0 2.5286887
-3.6893488e+19 3.0399432 -2
3.0532129 -1.0842022e-19 2.597023
-1.0842022e-19 3.0424933 -3.6893488e+19
3.0558796 0 2.5877881
2 2.9810603 -0
2.9522445 -1.0842022e-19 2.5087075
1.0842022e-19 3.0140493 -0
3.0261338 3.6893488e+19 2.5438755
1.0842022e-19 2.9815714 0
2.9527252 1.0842022e-19 2.4988511
-1.0842022e-19 2.9576931 3.6893488e+19
2.9786401 -0 2.4902706
-2 2.9851949 1.0842022e-19
2.9561317 0 2.4834013
3.6893488e+19 2.9593782 -0
2.9804022 -2 2.4729288
1.0842022e-19 3.0449584 2
3.0447686 2 2.5347161
2 3.020858 -0
3.0511518 3.6893488e+19 2.5091443
-3.6893488e+19 2.9730716 2
2.9727674 -2 2.4183478
3.6893488e+19 2.9831078 -2
2.9827969 0 2.4077315
2 3.0423498 2
3.0421617 3.6893488e+19 2.4464407
3.6893488e+19 3.0184591 2
3.0484846 2 2.4222376
2 3.0428152 1.0842022e-19
3.0426269 3.6893488e+19 2.4236634
-1.0842022e-19 2.938976 1.0842022e-19
2.9880729 0 2.3266091
-3.6893488e+19 3.0421913 3.6893488e+19
3.0420034 2 2.3993692
-2 2.9812131 -1.0842022e-19
2.9523883 2 2.3099298
2 3.0163906 -3.6893488e+19
3.0285821 -2 2.3508551
-2 2.9876602 -2
2.9584491 1.0842022e-19 2.2951751
-0 3.0145981 1.0842022e-19
3.0267079 -1.0842022e-19 2.3268855
-1.0842022e-19 3.0334647 -3.6893488e+19
3.016485 1.0842022e-19 2.3212092
-1.0842022e-19 2.950233 2
2.9708385 1.0842022e-19 2.2597489
-0 2.9831951 3.6893488e+19
2.9542515 -2 2.2550924
-2 2.9559112 3.6893488e+19
2.9767766 -1.0842022e-19 2.2389235
-0 2.9264026 0
2.900861 2 2.1672986
-0 2.9582174 -2
2.9791882 -3.6893488e+19 2.2041237
2 2.9255226 -3.6893488e+19
2.9000335 3.6893488e+19 2.1336308
3.6893488e+19 2.9653265 3.6893488e+19
2.9866228 -2 2.1733708
-3.6893488e+19 2.9266639 -1.0842022e-19
2.9011066 -1.0842022e-19 2.1017964
3.6893488e+19 3.0648394 2
3.0792484 -0 2.2609007
1.0842022e-19 2.9249234 2
2.8994703 0 2.0676727
1.0842022e-19 2.9555755 2
2.9764254 1.0842022e-19 2.0905895
3.6893488e+19 2.9228466 3.6893488e+19
2.9701393 3.6893488e+19 2.0590076
3.6893488e+19 2.9292154 1.0842022e-19
2.9289393 3.6893488e+19 2.0295608
-2 2.9286921 0
2.9766388 0 2.0274131
2 2.9248738 -1.0842022e-19
2.9246004 1.0842022e-19 1.9931331
-0 2.925921 -2
2.9735575 2 1.9900051
2 2.9253225 -0
2.9250488 2 1.9597846
2 2.9290156 2
2.9769983 2 1.955899
1.0842022e-19 2.9254415 0
2.9251678 2 1.9262426
-0 2.9274542 0
2.9752624 0 1.9194572
0 2.9232862 -2
2.9230137 1.0842022e-19 1.8919429
-0 2.9211919 2
2.9682996 1.0842022e-19 1.8818144
2 2.922833 2
2.9225609 1.0842022e-19 1.8418541
-1.0842022e-19 2.9209242 -3.6893488e+19
2.9680018 0 1.8182248
-0 2.924304 -0
2.924031 1.0842022e-19 1.7756829
-1.0842022e-19 2.9229763 -0
2.9702835 -1.0842022e-19 1.7471861
-2 2.9246495 -3.6893488e+19
2.9243762 -0 1.6676542
-3.6893488e+19 2.9068215 -3.6893488e+19
2.8824527 -1.0842022e-19 1.5623072
1.0842022e-19 2.9169145 0
2.9359951 3.6893488e+19 1.3855042
-1.0842022e-19 2.938338 -0
2.9120815 -0 -1.3832492
2 2.9090481 2
2.9277687 3.6893488e+19 -1.5725635
2 2.9403713 2
2.9139929 -1.0842022e-19 -1.6682875
0 2.907598 -0
2.9262521 0 -1.7300175
-2 2.9003117 2
2.876333 -3.6893488e+19 -1.762787
2 2.8972318 -3.6893488e+19
2.9154115 -2 -1.8012018
-0 2.9027166 -3.6893488e+19
2.8785937 -1.0842022e-19 -1.8252821
-3.6893488e+19 2.8986371 3.6893488e+19
2.9168813 2 -1.8662
-3.6893488e+19 2.9103355 0
2.8857565 -2 -1.8834686
-2 2.8515847 1.0842022e-19
2.8676755 3.6893488e+19 -1.8847581
-3.6893488e+19 2.8808892 1.0842022e-19
2.8580739 -3.6893488e+19 -1.9030801
0 2.8208947 1.0842022e-19
2.8355808 -1.0842022e-19 -1.8989265
-3.6893488e+19 2.8138614 2
2.7950611 1.0842022e-19 -1.9002019
-1.0842022e-19 2.7975409 -3.6893488e+19
2.8111582 -1.0842022e-19 -1.9121412
-1.0842022e-19 2.6073339 3.6893488e+19
2.6071041 -3.6893488e+19 -1.8717777
-0 2.410409 0
2.4563107 0 -1.7834884
-1.0842022e-19 2.535809 3.6893488e+19
2.5356252 0 -1.8450081
1.0842022e-19 2.4093807 1.0842022e-19
2.4551673 0 -1.8002391
-2 2.4983294 0
2.498009 -0 -1.8365479
-2 2.409833 0
2.4556704 2 -1.81762
-2 2.4407783 2
2.4404948 0 -1.8295985
-3.6893488e+19 2.3866117 -3.6893488e+19
2.4298518 -0 -1.8229342
1.0842022e-19 2.3941917 3.6893488e+19
2.3939381 -2 -1.8236293
-1.0842022e-19 2.3524122 -0
2.3918273 1.0842022e-19 -1.8202381
-3.6893488e+19 2.352572 -0
2.3523452 -2 -1.8166745
-1.0842022e-19 2.318073 -2
2.3536475 -2 -1.8146009
-3.6893488e+19 2.3262939 3.6893488e+19
2.3260841 -1.0842022e-19 -1.8153807
2 3.04706 0
3.0590291 -0 2.6295736
-2 3.0405676 3.6893488e+19
3.0522752 2 2.5968206
-0 3.0433369 0
3.055156 1.0842022e-19 2.587837
1.0842022e-19 2.9787502 -2
2.9477139 3.6893488e+19 2.5068331
-3.6893488e+19 3.0146234 0
3.0252857 3.6893488e+19 2.5437102
-0 3.0186741 2
3.0012567 3.6893488e+19 2.5276313
-2 2.9577966 2
2.9762421 1.0842022e-19 2.4890423
3.6893488e+19 3.020885 -3.6893488e+19
3.003324 3.6893488e+19 2.5192208
1.0842022e-19 2.9600394 -1.0842022e-19
2.978575 -3.6893488e+19 2.4723158
0 3.0455992 -1.0842022e-19
3.0438638 0 2.53459
0 3.0161281 -0
3.0443368 1.0842022e-19 2.5152392
-2 3.0218122 3.6893488e+19
3.0506237 -3.6893488e+19 2.5093021
1.0842022e-19 3.0434055 -2
3.041683 1.0842022e-19 2.5087879
-1.0842022e-19 3.0431263 1.0842022e-19
3.0414057 -2 2.4934919
1.0842022e-19 3.0012088 -0
2.9994681 -1.0842022e-19 2.4027457
3.6893488e+19 3.0442789 -0
3.0425513 3.6893488e+19 2.4482136
0 3.01895 0
3.0474579 -1.0842022e-19 2.4217813
0 3.0435376 2
3.0418143 2 2.4236
-0 2.9369266 3.6893488e+19
2.9832397 -0 2.3241403
3.6893488e+19 3.042978 -0
3.0412581 1.0842022e-19 2.3993993
-0 3.0407534 -1.0842022e-19
3.0219045 -0 2.3736053
-0 3.0178301 -0
3.0286214 -1.0842022e-19 2.3517878
2 2.9780617 0
2.9470701 2 2.2886546
-3.6893488e+19 3.0151289 3.6893488e+19
3.0258114 0 2.3266468
3.6893488e+19 3.0329819 -2
3.0146368 -2 2.3198745
0 3.0158587 -2
3.0265703 -3.6893488e+19 2.3059208
-0 3.0316336 3.6893488e+19
3.013376 -1.0842022e-19 2.2966347
-3.6893488e+19 3.05951 -1.0842022e-19
3.0719807 2 2.3310151
-3.6893488e+19 3.0317018 2
3.0134399 -1.0842022e-19 2.2750103
-2 3.0551064 2
3.0673997 3.6893488e+19 2.3015549
0 2.928299 -1.0842022e-19
2.9005332 -2 2.1351855
0 2.9632761 -0
2.9819422 2 2.1703541
1.0842022e-19 3.0318654 0
3.0135927 1.0842022e-19 2.2136705
-1.0842022e-19 3.0654423 0
3.0781522 0 2.2606866
2 3.0330763 -3.6893488e+19
3.014725 -3.6893488e+19 2.1722162
-1.0842022e-19 3.0651815 -2
3.0778806 0 2.2199743
-1.0842022e-19 3.0887685 -3.6893488e+19
3.1246769 1.0842022e-19 2.2436929
-0 2.9342327 -0
2.9316835 -2 2.0320904
1.0842022e-19 3.0882559 -0
3.12411 -1.0842022e-19 2.1865096
1.0842022e-19 2.9259415 3.6893488e+19
2.9234409 2 1.9931078
-2 2.9241884 3.6893488e+19
2.9691513 -2 1.9883348
-0 2.9289596 3.6893488e+19
2.9264414 -1.0842022e-19 1.9610263
-1.0842022e-19 3.0805411 1.0842022e-19
3.1155777 0 2.0663545
-0 2.9188919 2
2.9164329 -3.6893488e+19 1.9230764
2 2.9248447 -2
2.969877 -3.6893488e+19 1.9179336
2 2.962806 -2
2.960089 2 1.9047902
1.0842022e-19 2.9206166 -2
2.9652007 -1.0842022e-19 1.8812521
2 2.9600101 -1.0842022e-19
2.9573095 1.0842022e-19 1.860305
2 2.9216051 3.6893488e+19
2.9662941 1.0842022e-19 1.8179754
-3.6893488e+19 2.9241734 -1.0842022e-19
2.9216833 -3.6893488e+19 1.7752433
3.6893488e+19 2.9286089 2
2.9740403 -2 1.7497505
-1.0842022e-19 2.9308579 -3.6893488e+19
2.9283285 2 1.6696613
-0 2.9414659 0
2.9128468 -3.6893488e+19 1.5777589
-3.6893488e+19 2.91693 0
2.9337289 3.6893488e+19 1.3851392
-1.0842022e-19 2.9436624 -3.6893488e+19
2.9149008 -2 -1.3845365
-0 2.8950956 -3.6893488e+19
2.9110146 2 -1.5653036
-2 2.9445136 -0
2.9156969 -2 -1.6694534
3.6893488e+19 2.8958945 -2
2.9118457 -2 -1.7228028
-3.6893488e+19 2.9426956 0
2.9139969 -2 -1.7770014
-0 2.9014809 -3.6893488e+19
2.9176571 -1.0842022e-19 -1.8026003
-0 2.9022019 1.0842022e-19
2.8761282 0 -1.824535
0 2.9011579 -2
2.917321 -1.0842022e-19 -1.8670621
3.6893488e+19 2.9099312 3.6893488e+19
2.8833563 -2 -1.8830097
0 2.890599 3.6893488e+19
2.9063368 -1.0842022e-19 -1.8993028
-2 2.8805494 -2
2.8558793 0 -1.9025681
-1.0842022e-19 2.8198259 -1.0842022e-19
2.8327122 3.6893488e+19 -1.8980252
2 2.8146341 1.0842022e-19
2.7942371 1.0842022e-19 -1.9002019
3.6893488e+19 2.8004758 3.6893488e+19
2.8125825 1.0842022e-19 -1.9132934
-3.6893488e+19 2.6195133 -3.6893488e+19
2.6586807 -0 -1.8768592
2 2.6022522 -3.6893488e+19
2.6001842 -1.0842022e-19 -1.8676332
-3.6893488e+19 2.536557 0
2.5348749 0 -1.8450081
2 2.5007892 3.6893488e+19
2.4986339 -3.6893488e+19 -1.8373712
0 2.4142025 -3.6893488e+19
2.4581065 1.0842022e-19 -1.8191084
3.6893488e+19 2.4401648 3.6893488e+19
2.4375808 -0 -1.8287804
0 2.3885729 -0
2.4297605 -0 -1.8233606
2 2.3961062 1.0842022e-19
2.3937809 1.0842022e-19 -1.8240731
0 2.3495986 1.0842022e-19
2.3866551 -1.0842022e-19 -1.8181169
-0 2.3564949 -2
2.3544021 2 -1.8183013
3.6893488e+19 2.3189993 -0
2.3528123 -2 -1.8146009
1.0842022e-19 2.3273244 -0
2.3254027 -0 -1.8154833
-3.6893488e+19 2.2959058 0
2.2767231 2 -1.8093472
1.0842022e-19 2.2606328 -1.0842022e-19
2.237473 0 -1.8075638
-1.0842022e-19 2.2084584 -1.0842022e-19
2.1787376 -0 -1.8033888
0 2.1577141 -2
2.1312828 -1.0842022e-19 -1.7995563
2 3.04706 0
3.0590291 -0 2.6295736
-2 3.0405676 3.6893488e+19
3.0522752 2 2.5968206
-0 3.0433369 0
3.055156 1.0842022e-19 2.587837
1.0842022e-19 2.9787502 -2
2.9477139 3.6893488e+19 2.5068331
-3.6893488e+19 3.0146234 0
3.0252857 3.6893488e+19 2.5437102
1.0842022e-19 2.9796617 0
2.9485664 3.6893488e+19 2.4956527
-2 2.9577966 2
2.9762421 1.0842022e-19 2.4890423
-3.6893488e+19 2.9844129 -2
2.9530096 -3.6893488e+19 2.481437
1.0842022e-19 2.9600394 -1.0842022e-19
2.978575 -3.6893488e+19 2.4723158
0 3.0455992 -1.0842022e-19
3.0438638 0 2.53459
0 3.0161281 -0
3.0443368 1.0842022e-19 2.5152392
-2 3.0218122 3.6893488e+19
3.0506237 -3.6893488e+19 2.5093021
1.0842022e-19 2.9764118 -1.0842022e-19
2.9736149 0 2.420202
-3.6893488e+19 2.977314 1.0842022e-19
2.9745121 -1.0842022e-19 2.4017901
1.0842022e-19 3.0012088 -0
2.9994681 -1.0842022e-19 2.4027457
3.6893488e+19 3.0442789 -0
3.0425513 3.6893488e+19 2.4482136
0 3.01895 0
3.0474579 -1.0842022e-19 2.4217813
2 2.9777322 2
2.9749277 0 2.3447044
-0 2.9369266 3.6893488e+19
2.9832397 -0 2.3241403
3.6893488e+19 3.042978 -0
3.0412581 1.0842022e-19 2.3993993
-0 2.9830778 3.6893488e+19
2.951761 0 2.3103669
-3.6893488e+19 2.9713225 1.0842022e-19
2.9903131 -2 2.3095348
2 2.9780617 0
2.9470701 2 2.2886546
-0 2.9673781 1.0842022e-19
2.9862096 0 2.2879119
-0 2.9711068 -0
2.9405661 2 2.2662628
-1.0842022e-19 2.97224 -3.6893488e+19
2.9912672 1.0842022e-19 2.2717011
-1.0842022e-19 2.9947901 -3.6893488e+19
2.962714 2 2.2605724
-3.6893488e+19 2.9571166 -0
2.9755347 2 2.2388775
3.6893488e+19 2.9265883 1.0842022e-19
2.8989336 -3.6893488e+19 2.166455
0 2.9597313 -0
2.9782546 3.6893488e+19 2.2043798
0 2.928299 -1.0842022e-19
2.9005332 -2 2.1351855
0 2.9632761 -0
2.9819422 2 2.1703541
-3.6893488e+19 2.9283059 -1.0842022e-19
2.9005399 1.0842022e-19 2.1022832
-3.6893488e+19 2.9546621 -1.0842022e-19
2.9729812 0 2.1257401
-2 2.9268346 -0
2.899164 -2 2.0683179
1.0842022e-19 2.9557426 -0
2.9741051 1.0842022e-19 2.0897839
-2 2.9240777 2
2.9690289 3.6893488e+19 2.0590076
-0 2.9342327 -0
2.9316835 -2 2.0320904
3.6893488e+19 2.9242899 1.0842022e-19
2.9692636 -3.6893488e+19 2.023767
1.0842022e-19 2.9259415 3.6893488e+19
2.9234409 2 1.9931078
-2 2.9241884 3.6893488e+19
2.9691513 -2 1.9883348
-0 2.9289596 3.6893488e+19
2.9264414 -1.0842022e-19 1.9610263
-1.0842022e-19 3.0805411 1.0842022e-19
3.1155777 0 2.0663545
-0 2.9188919 2
2.9164329 -3.6893488e+19 1.9230764
2 2.9248447 -2
2.969877 -3.6893488e+19 1.9179336
2 2.962806 -2
2.960089 2 1.9047902
1.0842022e-19 2.9206166 -2
2.9652007 -1.0842022e-19 1.8812521
3.6893488e+19 2.9220784 -2
2.9196005 1.0842022e-19 1.8409021
2 2.9216051 3.6893488e+19
2.9662941 1.0842022e-19 1.8179754
-3.6893488e+19 2.9241734 -1.0842022e-19
2.9216833 -3.6893488e+19 1.7752433
3.6893488e+19 2.9286089 2
2.9740403 -2 1.7497505
-1.0842022e-19 2.9308579 -3.6893488e+19
2.9283285 2 1.6696613
-3.6893488e+19 2.9075947 1.0842022e-19
2.8811715 3.6893488e+19 1.5622025
-3.6893488e+19 2.91693 0
2.9337289 3.6893488e+19 1.3851392
-1.0842022e-19 2.9436624 -3.6893488e+19
2.9149008 -2 -1.3845365
-0 2.8950956 -3.6893488e+19
2.9110146 2 -1.5653036
1.0842022e-19 2.9051657 -3.6893488e+19
2.8788996 -1.0842022e-19 -1.6544535
3.6893488e+19 2.8958945 -2
2.9118457 -2 -1.7228028
0 2.9010234 0
2.875026 0 -1.762693
-0 2.9014809 -3.6893488e+19
2.9176571 -1.0842022e-19 -1.8026003
-0 2.9022019 1.0842022e-19
2.8761282 0 -1.824535
0 2.9011579 -2
2.917321 -1.0842022e-19 -1.8670621
3.6893488e+19 2.9099312 3.6893488e+19
2.8833563 -2 -1.8830097
-1.0842022e-19 2.8545389 0
2.868824 -0 -1.8855193
-2 2.8805494 -2
2.8558793 0 -1.9025681
-1.0842022e-19 2.8198259 -1.0842022e-19
2.8327122 3.6893488e+19 -1.8980252
2 2.8146341 1.0842022e-19
2.7942371 1.0842022e-19 -1.9002019
3.6893488e+19 2.8004758 3.6893488e+19
2.8125825 1.0842022e-19 -1.9132934
-3.6893488e+19 2.6195133 -3.6893488e+19
2.6586807 -0 -1.8768592
2 2.6022522 -3.6893488e+19
2.6001842 -1.0842022e-19 -1.8676332
-3.6893488e+19 2.536557 0
2.5348749 0 -1.8450081
2 2.5007892 3.6893488e+19
2.4986339 -3.6893488e+19 -1.8373712
0 2.4142025 -3.6893488e+19
2.4581065 1.0842022e-19 -1.8191084
3.6893488e+19 2.4401648 3.6893488e+19
2.4375808 -0 -1.8287804
0 2.3885729 -0
2.4297605 -0 -1.8233606
2 2.3961062 1.0842022e-19
2.3937809 1.0842022e-19 -1.8240731
0 2.3495986 1.0842022e-19
2.3866551 -1.0842022e-19 -1.8181169
-0 2.3564949 -2
2.3544021 2 -1.8183013
3.6893488e+19 2.3189993 -0
2.3528123 -2 -1.8146009
1.0842022e-19 2.3273244 -0
2.3254027 -0 -1.8154833
-3.6893488e+19 2.2959058 0
2.2767231 2 -1.8093472
1.0842022e-19 2.2606328 -1.0842022e-19
2.237473 0 -1.8075638
-1.0842022e-19 2.2084584 -1.0842022e-19
2.1787376 -0 -1.8033888
0 2.1577141 -2
2.1312828 -1.0842022e-19 -1.7995563
-1.0842022e-19 3.0442102 2
3.0545697 -2 2.5879836
-0 2.9749498 -0
2.941987 2 2.5042136
0 3.015147 3.6893488e+19
3.024483 3.6893488e+19 2.543545
-3.6893488e+19 3.0200522 -2
3.0013099 3.6893488e+19 2.5284193
2 2.9618211 -1.0842022e-19
2.9780822 -1.0842022e-19 2.4920905
1.0842022e-19 3.020401 -0
3.0016344 1.0842022e-19 2.5181272
3.6893488e+19 2.9633462 0
2.9796612 -1.0842022e-19 2.4745049
1.0842022e-19 3.046339 -3.6893488e+19
3.0431614 2 2.534611
0 3.0551913 -1.0842022e-19
3.0519187 -1.0842022e-19 2.5308065
0 3.0231695 3.6893488e+19
3.050643 0 2.5098946
2 3.044162 -3.6893488e+19
3.0410078 1.0842022e-19 2.5088265
-1.0842022e-19 3.0439701 -3.6893488e+19
3.040818 3.6893488e+19 2.4937134
-1.0842022e-19 3.0022807 3.6893488e+19
2.9991515 1.0842022e-19 2.4034846
0 3.0214007 2
3.0486963 2 2.4473929
1.0842022e-19 3.0201769 1.0842022e-19
3.0473495 1.0842022e-19 2.4225636
-2 3.0469608 -0
3.0437768 2 2.4275019
1.0842022e-19 3.0404634 3.6893488e+19
3.0203044 1.0842022e-19 2.3723819
3.6893488e+19 3.0184894 -0
3.0279431 1.0842022e-19 2.3517597
1.0842022e-19 2.9975724 -3.6893488e+19
2.9630394 3.6893488e+19 2.2997503
-1.0842022e-19 3.0154574 -3.6893488e+19
3.0248044 -1.0842022e-19 2.3262222
1.0842022e-19 3.0323997 -2
3.0128002 0 2.3184888
3.6893488e+19 3.0161886 -1.0842022e-19
3.0255613 -2 2.3055241
-0 3.0306375 0
3.0111606 0 2.2949119
-0 2.9590569 -1.0842022e-19
2.9752207 -0 2.2397077
2 3.0324595 -0
3.012856 1.0842022e-19 2.2751215
0 3.0286252 0
3.0384359 3.6893488e+19 2.2746837
-3.6893488e+19 3.0283949 -3.6893488e+19
3.0381975 2 2.2519617
-3.6893488e+19 3.0327373 2
3.0131147 -1.0842022e-19 2.2140448
-0 3.0286708 1.0842022e-19
3.0384831 0 2.2094283
-0 3.0331523 0
3.0135009 2 2.1713672
-1.0842022e-19 2.9582875 1.0842022e-19
2.9744244 2 2.0908151
-0 3.0849855 1.0842022e-19
3.1186762 -2 2.2368639
-2 3.0527892 2
3.0495427 -3.6893488e+19 2.1424487
1.0842022e-19 3.0887713 -2
3.1228426 -0 2.1859965
-1.0842022e-19 3.0525262 1.0842022e-19
3.0492826 0 2.0944996
-3.6893488e+19 2.9257545 1.0842022e-19
2.9685743 2 1.9885701
2 3.052093 2
3.0488539 -2 2.0465086
2 3.0807836 3.6893488e+19
3.1140516 1.0842022e-19 2.0657332
2 3.027379 -1.0842022e-19
3.0244048 2 1.9786578
-3.6893488e+19 2.9250686 -2
2.9678192 -1.0842022e-19 1.9175693
0 2.9671278 -2
2.9621189 1.0842022e-19 1.9058571
-2 2.9218793 2
2.9643092 -1.0842022e-19 1.8812913
-3.6893488e+19 2.9630373 -1.0842022e-19
2.9580724 2 1.8612796
3.6893488e+19 2.923753 2
2.9663713 0 1.8184358
-2 3.0539865 -0
3.0507271 -1.0842022e-19 1.839824
3.6893488e+19 2.9284644 -1.0842022e-19
2.9715564 -1.0842022e-19 1.7489934
3.6893488e+19 3.0522575 -3.6893488e+19
3.0490165 3.6893488e+19 1.7374665
-0 2.9086175 -1.0842022e-19
2.8802583 1.0842022e-19 1.5622444
-1.0842022e-19 2.9163396 1.0842022e-19
2.9309995 2 1.3846058
-1.0842022e-19 2.9325514 -1.0842022e-19
2.9025311 -2 -1.3808682
-0 2.8964038 -1.0842022e-19
2.9103615 2 -1.5654496
0 2.9552743 -0
2.923677 -3.6893488e+19 -1.6731598
0 2.900331 2
2.914427 2 -1.7247283
-1.0842022e-19 2.9579804 -0
2.9261954 -3.6893488e+19 -1.781891
0 2.9582396 3.6893488e+19
2.9264364 2 -1.8518174
-3.6893488e+19 2.9017432 -1.0842022e-19
2.915889 0 -1.8668009
-2 2.9513874 -1.0842022e-19
2.9200599 -0 -1.8961271
1.0842022e-19 2.8872519 -2
2.9008873 0 -1.8976482
-1.0842022e-19 2.8797271 -1.0842022e-19
2.8533731 3.6893488e+19 -1.9018914
3.6893488e+19 2.820205 0
2.8314798 0 -1.8978249
3.6893488e+19 2.8123817 3.6893488e+19
2.7907016 0 -1.8987868
-1.0842022e-19 2.7994611 -2
2.8100054 -0 -1.9123293
-1.0842022e-19 2.626806 -2
2.6647027 1.0842022e-19 -1.8790143
0 2.613663 -3.6893488e+19
2.6097634 -0 -1.874886
-0 2.542928 -2
2.5723886 2 -1.8499762
0 2.5372531 3.6893488e+19
2.534173 0 -1.8450081
2 2.5012016 -3.6893488e+19
2.5264657 -0 -1.8388559
2 2.4992521 2
2.4938989 -3.6893488e+19 -1.8358741
2 2.4300709 2
2.4733245 2 -1.8260016
-3.6893488e+19 2.4396396 -3.6893488e+19
2.4349256 2 -1.8280442
2 2.3897905 -0
2.428993 -3.6893488e+19 -1.8234458
1.0842022e-19 2.3975995 -2
2.3933361 -2 -1.8243393
2 2.3500412 -3.6893488e+19
2.3852458 -2 -1.8178402
3.6893488e+19 2.3580685 -3.6893488e+19
2.354229 3.6893488e+19 -1.8186841
0 2.3195269 -1.0842022e-19
2.3516626 1.0842022e-19 -1.8144027
1.0842022e-19 2.3279426 -0
2.3244262 -1.0842022e-19 -1.8153807
-1.0842022e-19 3.0442102 2
3.0545697 -2 2.5879836
-0 2.9749498 -0
2.941987 2 2.5042136
0 3.015147 3.6893488e+19
3.024483 3.6893488e+19 2.543545
0 2.9786894 -0
2.945467 0 2.4935205
2 2.9618211 -1.0842022e-19
2.9780822 -1.0842022e-19 2.4920905
-1.0842022e-19 2.9856098 -1.0842022e-19
2.9519072 3.6893488e+19 2.4815264
3.6893488e+19 2.9633462 0
2.9796612 -1.0842022e-19 2.4745049
1.0842022e-19 3.046339 -3.6893488e+19
3.0431614 2 2.534611
0 3.0551913 -1.0842022e-19
3.0519187 -1.0842022e-19 2.5308065
0 3.0231695 3.6893488e+19
3.050643 0 2.5098946
-1.0842022e-19 2.9787979 -1.0842022e-19
2.973664 1.0842022e-19 2.4212835
-3.6893488e+19 2.980231 3.6893488e+19
2.9750819 -2 2.4032662
-1.0842022e-19 3.0022807 3.6893488e+19
2.9991515 1.0842022e-19 2.4034846
0 3.0214007 2
3.0486963 2 2.4473929
1.0842022e-19 3.0201769 1.0842022e-19
3.0473495 1.0842022e-19 2.4225636
3.6893488e+19 2.9775703 -0
2.9724495 3.6893488e+19 2.3437526
-2 2.9972231 1.0842022e-19
2.9627147 1.0842022e-19 2.3187268
-3.6893488e+19 2.9743757 -0
2.9910791 1.0842022e-19 2.3107502
1.0842022e-19 2.9975724 -3.6893488e+19
2.9630394 3.6893488e+19 2.2997503
-1.0842022e-19 3.0154574 -3.6893488e+19
3.0248044 -1.0842022e-19 2.3262222
0 2.9696345 3.6893488e+19
2.9370406 2 2.2648256
1.0842022e-19 2.9723601 0
2.9889925 0 2.2710812
3.6893488e+19 3.0006928 2
2.9665883 -0 2.2634439
-0 2.9590569 -1.0842022e-19
2.9752207 -0 2.2397077
2 3.0324595 -0
3.012856 1.0842022e-19 2.2751215
0 3.0286252 0
3.0384359 3.6893488e+19 2.2746837
-3.6893488e+19 2.9615531 -1.0842022e-19
2.9778049 2 2.1677291
-2 2.9668794 0
2.9344769 -1.0842022e-19 2.1331346
3.6893488e+19 2.9559045 -3.6893488e+19
2.9719572 -1.0842022e-19 2.1258113
2 2.9659257 1.0842022e-19
2.9335892 -2 2.0966785
-1.0842022e-19 2.9582875 1.0842022e-19
2.9744244 2 2.0908151
0 2.9231684 2
2.9657278 -3.6893488e+19 2.0575137
0 2.934489 -1.0842022e-19
2.9298301 3.6893488e+19 2.0315731
0 2.9240937 -1.0842022e-19
2.9667461 1.0842022e-19 2.022903
-1.0842022e-19 3.0525262 1.0842022e-19
3.0492826 0 2.0944996
-3.6893488e+19 2.9257545 1.0842022e-19
2.9685743 2 1.9885701
3.6893488e+19 2.9242308 3.6893488e+19
2.919682 1.0842022e-19 1.9581944
3.6893488e+19 2.9239943 1.0842022e-19
2.9666369 0 1.9523515
1.0842022e-19 2.9228399 -2
2.9183059 3.6893488e+19 1.9242843
-3.6893488e+19 2.9250686 -2
2.9678192 -1.0842022e-19 1.9175693
-0 2.9216051 -1.0842022e-19
2.9170845 0 1.8906685
-2 2.9218793 2
2.9643092 -1.0842022e-19 1.8812913
-3.6893488e+19 2.9630373 -1.0842022e-19
2.9580724 2 1.8612796
3.6893488e+19 2.923753 2
2.9663713 0 1.8184358
-3.6893488e+19 2.924937 1.0842022e-19
2.9203808 -3.6893488e+19 1.7751491
3.6893488e+19 2.9284644 -1.0842022e-19
2.9715564 -1.0842022e-19 1.7489934
3.6893488e+19 3.0522575 -3.6893488e+19
3.0490165 3.6893488e+19 1.7374665
-0 2.9086175 -1.0842022e-19
2.8802583 1.0842022e-19 1.5622444
-1.0842022e-19 2.9163396 1.0842022e-19
2.9309995 2 1.3846058
-1.0842022e-19 2.9325514 -1.0842022e-19
2.9025311 -2 -1.3808682
-0 2.8964038 -1.0842022e-19
2.9103615 2 -1.5654496
0 2.9050848 -0
2.8769708 1.0842022e-19 -1.6540707
0 2.900331 2
2.914427 2 -1.7247283
-2 2.909991 0
2.8815367 0 -1.7654513
-1.0842022e-19 2.8984094 2
2.8707588 -0 -1.8222029
-3.6893488e+19 2.9017432 -1.0842022e-19
2.915889 0 -1.8668009
-3.6893488e+19 2.8971477 -2
2.8695846 2 -1.8785682
-1.0842022e-19 2.8543985 2
2.8668773 1.0842022e-19 -1.8851222
-1.0842022e-19 2.8797271 -1.0842022e-19
2.8533731 3.6893488e+19 -1.9018914
3.6893488e+19 2.820205 0
2.8314798 0 -1.8978249
3.6893488e+19 2.8123817 3.6893488e+19
2.7907016 0 -1.8987868
-1.0842022e-19 2.7994611 -2
2.8100054 -0 -1.9123293
-1.0842022e-19 2.626806 -2
2.6647027 1.0842022e-19 -1.8790143
0 2.613663 -3.6893488e+19
2.6097634 -0 -1.874886
-0 2.542928 -2
2.5723886 2 -1.8499762
0 2.5372531 3.6893488e+19
2.534173 0 -1.8450081
2 2.5012016 -3.6893488e+19
2.5264657 -0 -1.8388559
2 2.4992521 2
2.4938989 -3.6893488e+19 -1.8358741
2 2.4300709 2
2.4733245 2 -1.8260016
-3.6893488e+19 2.4396396 -3.6893488e+19
2.4349256 2 -1.8280442
2 2.3897905 -0
2.428993 -3.6893488e+19 -1.8234458
1.0842022e-19 2.3975995 -2
2.3933361 -2 -1.8243393
2 2.3500412 -3.6893488e+19
2.3852458 -2 -1.8178402
3.6893488e+19 2.3580685 -3.6893488e+19
2.354229 3.6893488e+19 -1.8186841
0 2.3195269 -1.0842022e-19
2.3516626 1.0842022e-19 -1.8144027
1.0842022e-19 2.3279426 -0
2.3244262 -1.0842022e-19 -1.8153807
-2 2.9762871 -3.6893488e+19
2.9409068 -0 2.5043097
-0 3.015887 -2
3.0238087 2 2.5435686
0 3.0208907 1.0842022e-19
3.0007679 1.0842022e-19 2.5286047
0 3.0191698 3.6893488e+19
3.0271893 0 2.5360367
-3.6893488e+19 3.0208566 -0
3.0007365 -1.0842022e-19 2.5179262
2 2.9643023 1.0842022e-19
2.9781356 1.0842022e-19 2.4741986
-0 3.0506415 2
3.0458622 1.0842022e-19 2.5379972
-2 3.0531461 -0
3.048327 -1.0842022e-19 2.5282042
1.0842022e-19 3.0240817 2
3.0500624 -3.6893488e+19 2.5100129
1.0842022e-19 2.9801705 2
2.972537 2 2.4213994
-1.0842022e-19 3.0447757 -0
3.0400896 -3.6893488e+19 2.4937871
3.6893488e+19 3.0026476 -1.0842022e-19
2.9972625 0 2.4030273
3.6893488e+19 3.02283 -3.6893488e+19
3.048692 -3.6893488e+19 2.4484565
3.6893488e+19 2.9750137 3.6893488e+19
2.9674623 0 2.3599358
-1.0842022e-19 3.021457 2
3.047189 3.6893488e+19 2.4233456
-1.0842022e-19 3.0487022 -2
3.0439537 -2 2.4288976
3.6893488e+19 3.0287683 -3.6893488e+19
3.0551932 1.0842022e-19 2.4113164
-3.6893488e+19 3.0413077 -1.0842022e-19
3.0196683 2 2.3725567
-1.0842022e-19 3.0195849 -3.6893488e+19
3.0276167 3.6893488e+19 2.3522401
0 2.9987392 -2
2.9616909 -0 2.2997229
2 3.0152895 -3.6893488e+19
3.0231934 1.0842022e-19 2.3251345
1.0842022e-19 3.0334527 2
3.0123968 2 2.3188994
2 2.9714744 3.6893488e+19
2.9855213 -2 2.2698412
-1.0842022e-19 3.0012808 0
2.9652297 1.0842022e-19 2.2634201
1.0842022e-19 2.9606483 3.6893488e+19
2.9743726 2 2.2400768
-0 2.9806385 -3.6893488e+19
2.9449348 0 2.2170141
-3.6893488e+19 3.0307903 -0
3.0391562 -0 2.2760699
0 2.9827082 -1.0842022e-19
2.9468508 -2 2.1820755
3.6893488e+19 3.0283251 -3.6893488e+19
3.0366173 0 2.2512174
-3.6893488e+19 2.9659588 -3.6893488e+19
2.9313457 -2 2.1314497
2 3.0289268 0
3.0372372 -1.0842022e-19 2.208607
0 3.0340483 -1.0842022e-19
3.012948 -0 2.1716728
0 2.9294789 -3.6893488e+19
2.9701898 -3.6893488e+19 2.0612025
-2 3.0535736 0
3.0487478 -3.6893488e+19 2.1424487
1.0842022e-19 2.9254844 -2
2.9658167 2 2.023011
-2 3.0531542 0
3.0483351 2 2.0943227
1.0842022e-19 3.0500789 3.6893488e+19
3.0785239 -1.0842022e-19 2.0853295
-1.0842022e-19 3.0532093 2
3.0483892 2 2.0468354
2 3.0843272 2
3.1160188 0 2.0681984
1.0842022e-19 3.0280976 1.0842022e-19
3.0236766 2 1.9786578
-3.6893488e+19 3.0626533 -1.0842022e-19
3.0922904 -2 1.9957981
0 2.9207828 0
2.9140935 0 1.8900313
0 2.9210308 0
2.9609411 1.0842022e-19 1.8806506
3.6893488e+19 2.9324386 2
2.9255641 -1.0842022e-19 1.8450954
-3.6893488e+19 3.0536854 1.0842022e-19
3.0824726 -0 1.8882287
-1.0842022e-19 3.0539501 -3.6893488e+19
3.049118 3.6893488e+19 1.8392432
3.6893488e+19 3.0514007 2
3.0799711 -2 1.7996495
0 3.0531743 0
3.0483546 -2 1.7375711
3.6893488e+19 2.9401128 2
2.9074197 -0 1.5761865
1.0842022e-19 2.9132886 1.0842022e-19
2.925602 -0 1.383258
-3.6893488e+19 2.9388797 -3.6893488e+19
2.9062781 -1.0842022e-19 -1.3824601
1.0842022e-19 2.8996119 1.0842022e-19
2.9115179 3.6893488e+19 -1.5664718
2 2.9081357 1.0842022e-19
2.8778179 -3.6893488e+19 -1.6548537
1.0842022e-19 2.903332 -3.6893488e+19
2.9153485 -3.6893488e+19 -1.7258008
-0 2.9105773 -1.0842022e-19
2.8800781 -2 -1.7653102
0 2.920614 3.6893488e+19
2.9331455 0 -1.8100905
-1.0842022e-19 2.9103849 -2
2.8799 -3.6893488e+19 -1.8276367
1.0842022e-19 2.8846822 3.6893488e+19
2.8961432 1.0842022e-19 -1.8559061
-3.6893488e+19 2.9566591 3.6893488e+19
2.9227369 1.0842022e-19 -1.8974744
-1.0842022e-19 2.8820786 -1.0842022e-19
2.8934622 -3.6893488e+19 -1.8952819
3.6893488e+19 2.9164031 -0
2.8854711 3.6893488e+19 -1.9161569
1.0842022e-19 2.8184192 0
2.8279061 3.6893488e+19 -1.896603
-0 2.8130512 -2
2.7897966 -2 -1.8987432
1.0842022e-19 2.7989683 2
2.8078756 -0 -1.911624
-0 2.7829046 -3.6893488e+19
2.7784071 -2 -1.9216805
-3.6893488e+19 2.6250305 -3.6893488e+19
2.6605804 -3.6893488e+19 -1.8780372
-2 2.6108699 -1.0842022e-19
2.6051331 1.0842022e-19 -1.8723263
-3.6893488e+19 2.5408278 0
2.5683961 -2 -1.8477212
3.6893488e+19 2.5368416 3.6893488e+19
2.5322816 0 -1.8441254
-1.0842022e-19 2.5015051 -1.0842022e-19
2.5253458 -1.0842022e-19 -1.838499
-3.6893488e+19 2.5005391 -3.6893488e+19
2.4931126 -2 -1.8360987
-3.6893488e+19 2.4390423 1.0842022e-19
2.4806602 -3.6893488e+19 -1.8296049
-2 2.4448631 1.0842022e-19
2.4377911 -3.6893488e+19 -1.8299257
-0 2.390914 -0
2.4279695 -3.6893488e+19 -1.8234458
3.6893488e+19 2.3995168 3.6893488e+19
2.3931656 3.6893488e+19 -1.8247831
1.0842022e-19 2.3530648 -2
2.3865323 3.6893488e+19 -1.818947
-3.6893488e+19 2.3595281 2
2.3538127 -0 -1.8189712
1.0842022e-19 2.3202801 1.0842022e-19
2.3506401 2 -1.8143035
1.0842022e-19 2.3295012 -1.0842022e-19
2.3242629 3.6893488e+19 -1.8157912
1.0842022e-19 2.2994921 0
2.2772448 0 -1.8107035
-1.0842022e-19 2.2620466 -0
2.2351618 2 -1.8076906
0 2.2095358 3.6893488e+19
2.1753998 1.0842022e-19 -1.8029668
2 2.1668916 1.0842022e-19
2.1359234 3.6893488e+19 -1.8026458
-2 2.9762871 -3.6893488e+19
2.9409068 -0 2.5043097
-0 3.015887 -2
3.0238087 2 2.5435686
-3.6893488e+19 2.9834611 -2
2.9475479 -0 2.4972286
0 2.9636297 -3.6893488e+19
2.9774427 2 2.492682
-0 2.9887335 -1.0842022e-19
2.9524286 3.6893488e+19 2.4834459
2 2.9643023 1.0842022e-19
2.9781356 1.0842022e-19 2.4741986
-2 2.9806576 3.6893488e+19
2.9730165 -2 2.4604421
3.6893488e+19 2.9744477 1.0842022e-19
2.9669054 1.0842022e-19 2.4354117
1.0842022e-19 3.0240817 2
3.0500624 -3.6893488e+19 2.5100129
1.0842022e-19 2.9801705 2
2.972537 2 2.4213994
-1.0842022e-19 2.981343 -1.0842022e-19
2.973691 3.6893488e+19 2.4031556
3.6893488e+19 3.0026476 -1.0842022e-19
2.9972625 0 2.4030273
3.6893488e+19 3.02283 -3.6893488e+19
3.048692 -3.6893488e+19 2.4484565
3.6893488e+19 2.9750137 3.6893488e+19
2.9674623 0 2.3599358
-1.0842022e-19 3.021457 2
3.047189 3.6893488e+19 2.4233456
3.6893488e+19 2.9782331 -2
2.9706304 -1.0842022e-19 2.3433402
3.6893488e+19 3.0287683 -3.6893488e+19
3.0551932 1.0842022e-19 2.4113164
-3.6893488e+19 2.9995735 -1.0842022e-19
2.9624634 -0 2.3194549
3.6893488e+19 2.9746668 -0
2.9888089 -1.0842022e-19 2.3101001
0 2.9987392 -2
2.9616909 -0 2.2997229
1.0842022e-19 2.968884 -0
2.9828537 0 2.2873282
-1.0842022e-19 2.9698663 2
2.934963 -0 2.2643123
2 2.9714744 3.6893488e+19
2.9855213 -2 2.2698412
-1.0842022e-19 3.0012808 0
2.9652297 1.0842022e-19 2.2634201
1.0842022e-19 2.9606483 3.6893488e+19
2.9743726 2 2.2400768
-0 2.9806385 -3.6893488e+19
2.9449348 0 2.2170141
3.6893488e+19 2.9573772 -3.6893488e+19
2.971004 3.6893488e+19 2.199688
0 2.9827082 -1.0842022e-19
2.9468508 -2 2.1820755
-0 2.9609814 -0
2.9747157 3.6893488e+19 2.1660836
-3.6893488e+19 2.9659588 -3.6893488e+19
2.9313457 -2 2.1314497
2 3.0289268 0
3.0372372 -1.0842022e-19 2.208607
-0 2.9704471 1.0842022e-19
2.9355006 -1.0842022e-19 2.0991919
0 2.9294789 -3.6893488e+19
2.9701898 -3.6893488e+19 2.0612025
-1.0842022e-19 2.9301443 3.6893488e+19
2.9233062 1.0842022e-19 2.0280373
1.0842022e-19 2.9254844 -2
2.9658167 2 2.023011
-1.0842022e-19 2.9312408 2
2.9243853 3.6893488e+19 1.9949017
2 2.9248345 -1.0842022e-19
2.9651053 -0 1.9873703
2 2.9194553 -2
2.912787 2 1.9553188
-2 2.9213836 1.0842022e-19
2.9613276 1.0842022e-19 1.9505275
3.6893488e+19 2.9209971 0
2.9143045 -3.6893488e+19 1.9230764
-0 2.9261675 -3.6893488e+19
2.9665647 -3.6893488e+19 1.9175196
0 2.9207828 0
2.9140935 0 1.8900313
0 2.9210308 0
2.9609411 1.0842022e-19 1.8806506
3.6893488e+19 2.9324386 2
2.9255641 -1.0842022e-19 1.8450954
0 2.9246373 0
2.9648895 -1.0842022e-19 1.8182822
1.0842022e-19 2.9300022 -0
2.9231663 -1.0842022e-19 1.7765462
1.0842022e-19 2.9266226 3.6893488e+19
2.967063 -1.0842022e-19 1.7472105
-0 2.929816 2
2.9229832 -3.6893488e+19 1.6684046
2 2.9089711 0
2.8785913 -3.6893488e+19 1.5619508
1.0842022e-19 2.9132886 1.0842022e-19
2.925602 -0 1.383258
-3.6893488e+19 2.9388797 -3.6893488e+19
2.9062781 -1.0842022e-19 -1.3824601
1.0842022e-19 2.8996119 1.0842022e-19
2.9115179 3.6893488e+19 -1.5664718
2 2.9081357 1.0842022e-19
2.8778179 -3.6893488e+19 -1.6548537
1.0842022e-19 2.903332 -3.6893488e+19
2.9153485 -3.6893488e+19 -1.7258008
-0 2.9105773 -1.0842022e-19
2.8800781 -2 -1.7653102
0 2.920614 3.6893488e+19
2.9331455 0 -1.8100905
-1.0842022e-19 2.9103849 -2
2.8799 -3.6893488e+19 -1.8276367
1.0842022e-19 2.8846822 3.6893488e+19
2.8961432 1.0842022e-19 -1.8559061
0 2.9130151 -2
2.8823347 -1.0842022e-19 -1.8833798
-1.0842022e-19 2.8820786 -1.0842022e-19
2.8934622 -3.6893488e+19 -1.8952819
3.6893488e+19 2.874969 0
2.847115 3.6893488e+19 -1.8996235
1.0842022e-19 2.8184192 0
2.8279061 3.6893488e+19 -1.896603
-0 2.8130512 -2
2.7897966 -2 -1.8987432
1.0842022e-19 2.7989683 2
2.8078756 -0 -1.911624
-0 2.7829046 -3.6893488e+19
2.7784071 -2 -1.9216805
-3.6893488e+19 2.6250305 -3.6893488e+19
2.6605804 -3.6893488e+19 -1.8780372
-2 2.6108699 -1.0842022e-19
2.6051331 1.0842022e-19 -1.8723263
-3.6893488e+19 2.5408278 0
2.5683961 -2 -1.8477212
3.6893488e+19 2.5368416 3.6893488e+19
2.5322816 0 -1.8441254
-1.0842022e-19 2.5015051 -1.0842022e-19
2.5253458 -1.0842022e-19 -1.838499
-3.6893488e+19 2.5005391 -3.6893488e+19
2.4931126 -2 -1.8360987
-3.6893488e+19 2.4390423 1.0842022e-19
2.4806602 -3.6893488e+19 -1.8296049
-2 2.4448631 1.0842022e-19
2.4377911 -3.6893488e+19 -1.8299257
-0 2.390914 -0
2.4279695 -3.6893488e+19 -1.8234458
3.6893488e+19 2.3995168 3.6893488e+19
2.3931656 3.6893488e+19 -1.8247831
1.0842022e-19 2.3530648 -2
2.3865323 3.6893488e+19 -1.818947
-3.6893488e+19 2.3595281 2
2.3538127 -0 -1.8189712
1.0842022e-19 2.3202801 1.0842022e-19
2.3506401 2 -1.8143035
1.0842022e-19 2.3295012 -1.0842022e-19
2.3242629 3.6893488e+19 -1.8157912
1.0842022e-19 2.2994921 0
2.2772448 0 -1.8107035
-1.0842022e-19 2.2620466 -0
2.2351618 2 -1.8076906
0 2.2095358 3.6893488e+19
2.1753998 1.0842022e-19 -1.8029668
2 2.1668916 1.0842022e-19
2.1359234 3.6893488e+19 -1.8026458
1.0842022e-19 3.0568483 -1.0842022e-19
3.0325639 -2 2.6254754
-2 3.0837631 0
3.057349 -0 2.6319067
3.6893488e+19 3.1372623 2
3.1467137 -0 2.7085798
-1.0842022e-19 2.9815474 3.6893488e+19
2.9434373 1.0842022e-19 2.5064967
-1.0842022e-19 3.0178902 -3.6893488e+19
3.0244281 -1.0842022e-19 2.5449848
-3.6893488e+19 3.0178876 0
2.9933739 1.0842022e-19 2.5248501
-2 3.0163324 -1.0842022e-19
3.0228324 -0 2.5322604
-3.6893488e+19 3.021106 2
2.9993012 -1.0842022e-19 2.5175245
2 3.0254147 0
3.0499387 3.6893488e+19 2.5338745
1.0842022e-19 3.050822 2
3.0444911 1.0842022e-19 2.5374293
2 2.9763315 0
2.9663069 3.6893488e+19 2.4360168
-3.6893488e+19 3.0230725 0
3.0473881 -0 2.5083151
0 2.9739506 0
2.9639761 2 2.4148717
1.0842022e-19 2.9535561 3.6893488e+19
2.9939423 1.0842022e-19 2.4098866
2 3.0458667 -3.6893488e+19
3.0396399 -1.0842022e-19 2.4943407
0 2.9529824 0
2.9933176 3.6893488e+19 2.3902786
2 3.0026355 -1.0842022e-19
2.9946373 -2 2.4019718
0 3.0238845 2
3.0482721 -3.6893488e+19 2.4489026
0 2.9784067 -1.0842022e-19
2.9683383 0 2.3615749
-1.0842022e-19 3.0221515 -2
3.0463848 -1.0842022e-19 2.4232152
1.0842022e-19 2.978801 -3.6893488e+19
2.9687243 -2 2.3428643
1.0842022e-19 2.9556897 2
2.9962659 3.6893488e+19 2.3352187
1.0842022e-19 3.0397556 1.0842022e-19
3.0336576 3.6893488e+19 2.3920207
-1.0842022e-19 3.0409408 3.6893488e+19
3.0179155 0 2.3711877
-0 3.0198348 0
3.0264204 -0 2.3516183
-1.0842022e-19 3.0378356 1.0842022e-19
3.0150561 3.6893488e+19 2.3451197
-3.6893488e+19 3.0170033 -0
3.0235198 0 2.326355
-1.0842022e-19 3.0339339 3.6893488e+19
3.0114632 -0 2.3186684
0 3.0170002 2
3.0235164 -1.0842022e-19 2.304805
-0 2.9732547 -3.6893488e+19
2.9358008 -2 2.2449176
-1.0842022e-19 3.0165052 2
3.0230095 3.6893488e+19 2.2827685
1.0842022e-19 2.979697 1.0842022e-19
2.9417334 -1.0842022e-19 2.214972
2 3.0280025 -2
3.0347872 2 2.2725937
0 3.029511 -3.6893488e+19
3.0363324 3.6893488e+19 2.2516091
-1.0842022e-19 3.0032353 -2
2.9663882 -1.0842022e-19 2.1636117
-1.0842022e-19 2.959157 -2
2.9703629 1.0842022e-19 2.1264541
-2 3.0340257 -3.6893488e+19
3.0115476 2 2.17062
-0 3.062727 -1.0842022e-19
3.0703592 -3.6893488e+19 2.2126267
3.6893488e+19 3.0551426 -2
3.0823135 1.0842022e-19 2.1909518
-1.0842022e-19 3.0549133 -1.0842022e-19
3.0484962 2 2.1431675
-0 3.0537033 -0
3.0807462 1.0842022e-19 2.1386268
1.0842022e-19 3.054337 0
3.0479321 -2 2.0947773
2 3.0521004 -0
3.0790005 -1.0842022e-19 2.0866234
1.0842022e-19 3.0546601 -0
3.0482483 -0 2.0474889
-0 2.9189594 -2
2.956265 -3.6893488e+19 1.9488038
-3.6893488e+19 3.0287025 -0
3.0228372 -1.0842022e-19 1.9785663
3.6893488e+19 3.0571492 2
3.0844989 -2 1.9907805
-0 2.9228938 2
2.9139938 0 1.8903722
-2 2.9178007 2
2.9550033 1.0842022e-19 1.8792777
-0 2.9193542 -1.0842022e-19
2.9105287 0 1.8378874
0 3.0556552 -3.6893488e+19
3.0828717 2 1.8887274
-2 3.0544207 2
3.0480142 -3.6893488e+19 1.8390234
3.6893488e+19 3.0471926 -1.0842022e-19
3.0736556 -0 1.7967187
-3.6893488e+19 3.0531738 3.6893488e+19
3.0467935 -0 1.7369603
-1.0842022e-19 2.9114335 0
2.8788724 -2 1.5626217
3.6893488e+19 2.9142721 0
2.9243827 2 1.3832159
0 2.9102433 -0
2.8777761 -0 -1.3720356
-3.6893488e+19 2.9129136 3.6893488e+19
2.922991 2 -1.5723132
1.0842022e-19 2.908987 -1.0842022e-19
2.8766193 1.0842022e-19 -1.6548016
1.0842022e-19 2.9104693 -1.0842022e-19
2.8779843 -1.0842022e-19 -1.7649341
0 2.92153 -0
2.9318175 -0 -1.8099947
2 2.9125748 -3.6893488e+19
2.8799231 0 -1.8282255
-1.0842022e-19 2.8868105 1.0842022e-19
2.896251 3.6893488e+19 -1.8565593
-0 2.9506888 3.6893488e+19
2.9150209 1.0842022e-19 -1.8951944
-0 2.8843744 -1.0842022e-19
2.8937552 1.0842022e-19 -1.8957618
-2 2.9170907 3.6893488e+19
2.8840818 -0 -1.9160289
3.6893488e+19 2.8199759 3.6893488e+19
2.827785 -3.6893488e+19 -1.8969234
1.0842022e-19 2.8126159 1.0842022e-19
2.7878752 2 -1.8981771
-3.6893488e+19 2.7976811 -2
2.8049462 1.0842022e-19 -1.9104954
2 2.7801998 -2
2.7743027 -3.6893488e+19 -1.9196019
0 2.6311703 -3.6893488e+19
2.6651108 0 -1.8797613
2 2.6135831 3.6893488e+19
2.6059313 -0 -1.8735452
1.0842022e-19 2.5455427 2
2.5718589 2 -1.8506849
-1.0842022e-19 2.5359766 2
2.5299582 -3.6893488e+19 -1.842903
-3.6893488e+19 2.5023105 -3.6893488e+19
2.5247772 3.6893488e+19 -1.8385704
3.6893488e+19 2.5012739 3.6893488e+19
2.4919715 -1.0842022e-19 -1.8361735
0 2.4423242 3.6893488e+19
2.4817102 0 -1.8305449
0 2.4452975 2
2.435926 0 -1.8295985
1.0842022e-19 2.3922033 -2
2.4271264 1.0842022e-19 -1.8235312
-1.0842022e-19 2.4005463 0
2.3921168 3.6893488e+19 -1.8247831
-2 2.3528984 -3.6893488e+19
2.3843217 0 -1.8183014
-1.0842022e-19 2.3606324 2
2.3530428 2 -1.8190669
1.0842022e-19 2.3198524 3.6893488e+19
2.3483331 -0 -1.8135102
-3.6893488e+19 2.3305278 -2
2.3235717 3.6893488e+19 -1.8158939
1.0842022e-19 3.0568483 -1.0842022e-19
3.0325639 -2 2.6254754
-2 3.0837631 0
3.057349 -0 2.6319067
3.6893488e+19 3.1372623 2
3.1467137 -0 2.7085798
-1.0842022e-19 2.9815474 3.6893488e+19
2.9434373 1.0842022e-19 2.5064967
-1.0842022e-19 3.0178902 -3.6893488e+19
3.0244281 -1.0842022e-19 2.5449848
-1.0842022e-19 2.9863498 2
2.9478598 3.6893488e+19 2.4989901
-2 3.0163324 -1.0842022e-19
3.0228324 -0 2.5322604
-3.6893488e+19 3.021106 2
2.9993012 -1.0842022e-19 2.5175245
2 3.0254147 0
3.0499387 3.6893488e+19 2.5338745
3.6893488e+19 2.9786825 -0
2.9686084 1.0842022e-19 2.4573715
2 2.9763315 0
2.9663069 3.6893488e+19 2.4360168
-3.6893488e+19 3.0230725 0
3.0473881 -0 2.5083151
0 2.9739506 0
2.9639761 2 2.4148717
1.0842022e-19 2.9535561 3.6893488e+19
2.9939423 1.0842022e-19 2.4098866
0 2.9830253 -3.6893488e+19
2.9728596 1.0842022e-19 2.4035246
0 2.9529824 0
2.9933176 3.6893488e+19 2.3902786
2 3.0026355 -1.0842022e-19
2.9946373 -2 2.4019718
1.0842022e-19 2.9509192 -0
2.9910705 -3.6893488e+19 2.3695331
0 2.9784067 -1.0842022e-19
2.9683383 0 2.3615749
-3.6893488e+19 2.9564986 2
2.9971471 1.0842022e-19 2.3549442
1.0842022e-19 2.978801 -3.6893488e+19
2.9687243 -2 2.3428643
1.0842022e-19 2.9556897 2
2.9962659 3.6893488e+19 2.3352187
1.0842022e-19 3.0072773 0
3.0018628 0 2.3480797
-1.0842022e-19 3.0409408 3.6893488e+19
3.0179155 0 2.3711877
2 2.9760337 0
2.9876516 -2 2.3101566
-1.0842022e-19 2.9917221 0
2.9528069 3.6893488e+19 2.2947915
-3.6893488e+19 3.0170033 -0
3.0235198 0 2.326355
1.0842022e-19 2.9695418 0
2.9323819 -3.6893488e+19 2.2634909
-1.0842022e-19 2.9823031 1.0842022e-19
2.9940741 0 2.2752967
-0 2.9732547 -3.6893488e+19
2.9358008 -2 2.2449176
0 2.9623687 0
2.9736531 2 2.2405841
1.0842022e-19 2.979697 1.0842022e-19
2.9417334 -1.0842022e-19 2.214972
-1.0842022e-19 2.9595675 -3.6893488e+19
2.9707835 2 2.2006264
3.6893488e+19 2.9654453 2
2.9768047 -2 2.1689827
-1.0842022e-19 3.0032353 -2
2.9663882 -1.0842022e-19 2.1636117
-1.0842022e-19 2.959157 -2
2.9703629 1.0842022e-19 2.1264541
-2 3.0340257 -3.6893488e+19
3.0115476 2 2.17062
-0 3.062727 -1.0842022e-19
3.0703592 -3.6893488e+19 2.2126267
-1.0842022e-19 2.9310055 -3.6893488e+19
2.9693837 0 2.0614161
-3.6893488e+19 2.9203286 0
2.9114828 -3.6893488e+19 2.0209942
-2 2.9283504 3.6893488e+19
2.9664924 0 2.0240643
3.6893488e+19 2.923342 -1.0842022e-19
2.9144325 3.6893488e+19 1.9897979
1.0842022e-19 2.9231813 1.0842022e-19
2.9608629 1.0842022e-19 1.9857706
-1.0842022e-19 2.9271843 -1.0842022e-19
2.9181941 -2 1.9585646
-0 2.9189594 -2
2.956265 -3.6893488e+19 1.9488038
-0 2.9209216 2
2.9120631 2 1.9226006
3.6893488e+19 2.9256995 -3.6893488e+19
2.9636052 3.6893488e+19 1.9168572
-0 2.9228938 2
2.9139938 0 1.8903722
-2 2.9178007 2
2.9550033 1.0842022e-19 1.8792777
-0 2.9193542 -1.0842022e-19
2.9105287 0 1.8378874
-3.6893488e+19 2.9183316 -1.0842022e-19
2.9555814 0 1.8148679
-0 2.9288328 -3.6893488e+19
2.9198077 -3.6893488e+19 1.7757456
-2 2.9270003 1.0842022e-19
2.9650221 0 1.7467221
0 2.9353898 -2
2.9262266 -1.0842022e-19 1.6701499
-1.0842022e-19 2.9114335 0
2.8788724 -2 1.5626217
3.6893488e+19 2.9142721 0
2.9243827 2 1.3832159
0 2.9102433 -0
2.8777761 -0 -1.3720356
-3.6893488e+19 2.9129136 3.6893488e+19
2.922991 2 -1.5723132
1.0842022e-19 2.908987 -1.0842022e-19
2.8766193 1.0842022e-19 -1.6548016
1.0842022e-19 2.9104693 -1.0842022e-19
2.8779843 -1.0842022e-19 -1.7649341
3.6893488e+19 2.8935938 2
2.9031997 -0 -1.7977345
2 2.9125748 -3.6893488e+19
2.8799231 0 -1.8282255
-1.0842022e-19 2.8868105 1.0842022e-19
2.896251 3.6893488e+19 -1.8565593
0 2.915257 2
2.8823931 -3.6893488e+19 -1.8837795
0 2.8233302 3.6893488e+19
2.8312211 1.0842022e-19 -1.8702254
-2 2.9170907 3.6893488e+19
2.8840818 -0 -1.9160289
3.6893488e+19 2.8199759 3.6893488e+19
2.827785 -3.6893488e+19 -1.8969234
1.0842022e-19 2.8126159 1.0842022e-19
2.7878752 2 -1.8981771
-3.6893488e+19 2.7976811 -2
2.8049462 1.0842022e-19 -1.9104954
2 2.7801998 -2
2.7743027 -3.6893488e+19 -1.9196019
0 2.6311703 -3.6893488e+19
2.6651108 0 -1.8797613
2 2.6135831 3.6893488e+19
2.6059313 -0 -1.8735452
1.0842022e-19 2.5455427 2
2.5718589 2 -1.8506849
-1.0842022e-19 2.5359766 2
2.5299582 -3.6893488e+19 -1.842903
-3.6893488e+19 2.5023105 -3.6893488e+19
2.5247772 3.6893488e+19 -1.8385704
3.6893488e+19 2.5012739 3.6893488e+19
2.4919715 -1.0842022e-19 -1.8361735
0 2.4423242 3.6893488e+19
2.4817102 0 -1.8305449
0 2.4452975 2
2.435926 0 -1.8295985
1.0842022e-19 2.3922033 -2
2.4271264 1.0842022e-19 -1.8235312
-1.0842022e-19 2.4005463 0
2.3921168 3.6893488e+19 -1.8247831
-2 2.3528984 -3.6893488e+19
2.3843217 0 -1.8183014
-1.0842022e-19 2.3606324 2
2.3530428 2 -1.8190669
1.0842022e-19 2.3198524 3.6893488e+19
2.3483331 -0 -1.8135102
-3.6893488e+19 2.3305278 -2
2.3235717 3.6893488e+19 -1.8158939
-3.6893488e+19 3.0336044 1.0842022e-19
3.0390069 -2 2.6085536
-3.6893488e+19 3.0916114 -0
3.0629256 2 2.6534562
-3.6893488e+19 3.0314455 -0
3.0368068 1.0842022e-19 2.5940871
0 3.0929315 -1.0842022e-19
3.0641346 2 2.6279302
2 3.1332488 -2
3.1405492 -3.6893488e+19 2.6867273
-2 2.9821651 -1.0842022e-19
2.9416766 -1.0842022e-19 2.5062082
3.6893488e+19 3.0174909 1.0842022e-19
3.0225863 3.6893488e+19 2.5437574
3.6893488e+19 3.018805 -1.0842022e-19
2.9924657 -1.0842022e-19 2.5251281
1.0842022e-19 3.015949 -2
3.0210149 3.6893488e+19 2.5311003
-0 3.020467 0
2.9955108 -0 2.5162523
3.6893488e+19 3.0238495 1.0842022e-19
3.0290661 -0 2.5281882
-0 3.0101001 -0
3.0317745 2 2.5173275
3.6893488e+19 3.0524313 -2
3.0445182 3.6893488e+19 2.5382285
-3.6893488e+19 3.0116432 3.6893488e+19
3.0334463 -0 2.5078428
2 3.0634556 -2
3.055254 -2 2.5361927
-1.0842022e-19 3.0242696 2
3.0471249 -1.0842022e-19 2.5087099
-0 2.9742801 -2
2.9618707 2 2.4140992
-1.0842022e-19 2.9563994 3.6893488e+19
2.9944317 -2 2.4112837
1.0842022e-19 2.9804986 0
2.9679265 0 2.400388
2 2.95398 3.6893488e+19
2.9918106 2 2.3900263
-2 3.0035043 1.0842022e-19
2.9937432 1.0842022e-19 2.4023237
-3.6893488e+19 3.024749 0
3.0476444 -1.0842022e-19 2.4490399
-2 2.9798985 3.6893488e+19
2.9673421 -2 2.3617754
0 3.0226963 -1.0842022e-19
3.0454202 2 2.4228568
-2 2.9854906 -1.0842022e-19
2.9727879 -2 2.3467662
3.6893488e+19 2.95661 -2
2.9946597 3.6893488e+19 2.3349409
-1.0842022e-19 3.0394754 -3.6893488e+19
3.0319014 3.6893488e+19 2.390641
2 3.0420768 2
3.0175505 3.6893488e+19 2.3717411
1.0842022e-19 3.0202539 -1.0842022e-19
3.0254018 -3.6893488e+19 2.3512225
-0 3.0390332 -0
3.0147624 -0 2.3457224
0 3.0177412 -2
3.0228412 3.6893488e+19 2.3263814
1.0842022e-19 3.0360165 -1.0842022e-19
3.0119989 -2 2.3202338
-3.6893488e+19 3.0183475 1.0842022e-19
3.0234594 -2 2.3055241
-2 2.975909 0
2.935946 1.0842022e-19 2.2464972
2 2.9682288 3.6893488e+19
2.9771481 2 2.2454734
0 3.0275922 -2
3.0328798 -0 2.2714634
-3.6893488e+19 3.0361576 -1.0842022e-19
3.0121284 -3.6893488e+19 2.2549081
-3.6893488e+19 3.0297801 -0
3.0351098 -1.0842022e-19 2.251178
0 3.0334883 -3.6893488e+19
3.0096829 3.6893488e+19 2.2119107
-3.6893488e+19 2.9640121 0
2.9728513 3.6893488e+19 2.1294174
1.0842022e-19 3.0342045 -2
3.010339 1.0842022e-19 2.1698728
-1.0842022e-19 2.9704356 0
2.9793971 -1.0842022e-19 2.0970345
-0 3.0545738 -3.6893488e+19
3.0799541 1.0842022e-19 2.1888788
-3.6893488e+19 3.0552921 2
3.0473044 -3.6893488e+19 2.1426499
-3.6893488e+19 3.0535319 0
3.0788257 -1.0842022e-19 2.1373034
-2 3.0991647 -0
3.090029 -2 2.144551
-3.6893488e+19 3.0516911 -2
3.0768313 2 2.085212
-1.0842022e-19 3.0995255 -2
3.0903802 2 2.0904262
-1.0842022e-19 3.0510416 3.6893488e+19
3.0761278 -0 2.0348873
-1.0842022e-19 3.0307143 2
3.0233696 1.0842022e-19 1.9796278
2 2.9239895 2
2.959321 3.6893488e+19 1.9157146
-2 2.924022 -0
2.9129276 2 1.8903869
1.0842022e-19 3.0537024 -2
3.07901 -2 1.9374114
2 2.9202497 -3.6893488e+19
2.9092538 -0 1.8377967
-3.6893488e+19 3.0544071 0
3.0797739 -0 1.8877683
-2 3.0546858 -2
3.0467138 2 1.8386624
1.0842022e-19 3.0483789 1.0842022e-19
3.0732431 -1.0842022e-19 1.7969141
1.0842022e-19 3.0554507 2
3.0474586 -3.6893488e+19 1.7381296
3.6893488e+19 2.9111807 3.6893488e+19
2.876653 2 1.5620557
-1.0842022e-19 2.9177904 -3.6893488e+19
2.9257488 -0 1.383988
-2 2.9116926 3.6893488e+19
2.8771219 0 -1.3723125
-2 2.914546 -2
2.9224427 3.6893488e+19 -1.5725635
-1.0842022e-19 2.9045806 1.0842022e-19
2.8706071 2 -1.6527656
-2 2.9164031 2
2.9243352 2 -1.7318699
-1.0842022e-19 2.9059286 3.6893488e+19
2.8718419 -2 -1.7630534
-3.6893488e+19 2.8935986 2
2.9010963 -2 -1.7972747
0 2.9158728 3.6893488e+19
2.8809509 1.0842022e-19 -1.8293575
-3.6893488e+19 2.8881102 -2
2.8955033 2 -1.856716
0 2.912987 -2
2.8783073 0 -1.8827285
0 2.8854489 1.0842022e-19
2.8927913 0 -1.8957784
0 2.9149642 -0
2.8801186 -3.6893488e+19 -1.9147851
-0 2.8189967 3.6893488e+19
2.8250732 -1.0842022e-19 -1.8960822
3.6893488e+19 2.8115735 -0
2.7854099 -0 -1.897328
0 2.8010156 2
2.8067496 -2 -1.911859
-1.0842022e-19 2.7805152 1.0842022e-19
2.7731757 -3.6893488e+19 -1.919359
-2 2.6240461 -2
2.6552157 -0 -1.8769741
-1.0842022e-19 2.6224699 -2
2.6127243 -2 -1.8769847
3.6893488e+19 2.5452852 2
2.5698917 -0 -1.8498473
-1.0842022e-19 2.5395684 -1.0842022e-19
2.531992 -1.0842022e-19 -1.845076
-0 2.5027761 -2
2.5238402 0 -1.8383563
2 2.502007 -1.0842022e-19
2.4908266 -0 -1.8362484
-2 2.443754 -2
2.4807324 2 -1.8306233
-0 2.4451888 2
2.4335406 2 -1.8290259
0 2.3934903 0
2.4262803 -0 -1.8236164
0 2.4008591 -1.0842022e-19
2.3903706 3.6893488e+19 -1.8244281
2 2.3540733 3.6893488e+19
2.3835785 -0 -1.8183936
-3.6893488e+19 2.3617346 2
2.3522701 -3.6893488e+19 -1.8191625
-2 2.3205953 -3.6893488e+19
2.3473108 -1.0842022e-19 -1.813411
0 2.331553 -0
2.3228779 2 -1.8159965
3.6893488e+19 2.3024068 0
2.2770131 0 -1.8116077
1.0842022e-19 2.2622178 2
2.2303975 -2 -1.8069293
-3.6893488e+19 2.2113945 1.0842022e-19
2.1726503 -3.6893488e+19 -1.802826
