# .PCD v0.7 - Point Cloud Data file format
VERSION 0.7
FIELDS x y z
SIZE 4 4 4
TYPE F F F
COUNT 1 1 1
WIDTH 1712
HEIGHT 1
VIEWPOINT 0 0 0 1 0 0 0
POINTS 1712
DATA ascii
2.6513009 -0 2.4392869
-0 3.0518975 0
2.683547 -0 2.3944149
-1.0842022e-19 3.0707493 1.0842022e-19
2.6348948 3.6893488e+19 2.4022093
-0 3.0523591 2
2.6842098 2 2.3766999
-3.6893488e+19 3.0551076 -3.6893488e+19
2.6881568 0 2.3616738
2 3.0953248 -1.0842022e-19
2.6643848 -3.6893488e+19 2.3919902
-3.6893488e+19 3.0793157 -3.6893488e+19
2.6451743 0 2.354306
0 3.070735 1.0842022e-19
2.5925405 3.6893488e+19 2.3139079
-2 3.0632243 3.6893488e+19
2.6570685 1.0842022e-19 2.3021119
3.6893488e+19 3.0336215 -3.6893488e+19
2.6185963 0 2.2567244
-2 3.0149257 -1.0842022e-19
2.532937 2 2.2066424
0 3.0329404 -0
2.6177111 1.0842022e-19 2.2286701
-0 3.0148711 -3.6893488e+19
2.5328786 1.0842022e-19 2.1756639
-3.6893488e+19 3.0333388 2
2.6182292 2 2.1958055
1.0842022e-19 3.0129089 0
2.5307832 -2 2.1418903
0 3.0338426 1.0842022e-19
2.6188836 3.6893488e+19 2.1630366
-3.6893488e+19 3.0113823 3.6893488e+19
2.5291529 -2 2.1092169
-2 3.0354288 3.6893488e+19
2.6209452 -3.6893488e+19 2.1316433
3.6893488e+19 3.0107446 0
2.5284717 1.0842022e-19 2.0780456
2 3.0598576 0
2.652693 -1.0842022e-19 2.1277542
1.0842022e-19 3.0040691 1.0842022e-19
2.5213423 -3.6893488e+19 2.0401647
0 3.0033097 1.0842022e-19
2.6137712 2 2.0168231
0 3.0020239 3.6893488e+19
2.5524251 -3.6893488e+19 1.9666901
2 3.0036213 -0
2.6142187 -1.0842022e-19 1.9568565
-2 3.0014203 -3.6893488e+19
2.5517008 3.6893488e+19 1.9368291
-1.0842022e-19 3.005904 0
2.617497 -2 1.9283285
1.0842022e-19 3.0023298 0
2.5527923 0 1.9080691
3.6893488e+19 3.002032 -2
2.6119363 1.0842022e-19 1.8957233
0 3.0023897 1.0842022e-19
2.5528641 -3.6893488e+19 1.8786849
-3.6893488e+19 3.0033498 -1.0842022e-19
2.6138289 2 1.8578607
-3.6893488e+19 3.0034544 2
2.554142 1.0842022e-19 1.824378
1.0842022e-19 3.0038915 2
2.6146066 2 1.7981544
-0 3.0105829 2
2.562696 1.0842022e-19 1.7692778
-1.0842022e-19 3.0047147 -3.6893488e+19
2.6157889 -0 1.7266434
-2 3.1597514 -0
2.7416961 3.6893488e+19 1.7564125
-0 3.0000181 -0
2.5170159 1.0842022e-19 1.5775224
0 3.001925 -1.0842022e-19
2.5190523 -0 -1.2290035
2 2.9957361 2
2.5721309 1.0842022e-19 -1.5198777
-1.0842022e-19 2.8819215 -0
2.407887 2 -1.5730482
2 3.1023457 3.6893488e+19
2.7079108 -1.0842022e-19 -1.7591435
-0 2.8812273 3.6893488e+19
2.4071455 3.6893488e+19 -1.6868856
-1.0842022e-19 2.8768544 -0
2.4897625 -0 -1.731878
3.6893488e+19 2.8805146 0
2.4063845 -0 -1.762207
2 2.8761437 -2
2.4888387 0 -1.7848587
-3.6893488e+19 2.8788178 -2
2.4045722 -0 -1.8053601
-0 2.8762465 2
2.4889724 1.0842022e-19 -1.8290597
2 2.7870669 -2
2.3065834 3.6893488e+19 -1.7948544
2 2.8769844 2
2.4899313 3.6893488e+19 -1.8737323
-3.6893488e+19 2.786747 2
2.306242 -2 -1.8278164
0 2.7931492 2
2.3809786 -2 -1.8528574
3.6893488e+19 2.7815025 -0
2.3377991 3.6893488e+19 -1.875062
3.6893488e+19 2.7803161 0
2.4025545 3.6893488e+19 -1.8850666
-2 2.7651973 1.0842022e-19
2.3182333 2 -1.8833103
3.6893488e+19 2.6838293 0
2.3115053 2 -1.8598368
-1.0842022e-19 2.6389587 3.6893488e+19
2.2167451 -1.0842022e-19 -1.8432596
1.0842022e-19 2.6010084 2
2.2520368 3.6893488e+19 -1.8358954
-2 2.5807385 2
2.1468818 -3.6893488e+19 -1.8299452
3.6893488e+19 2.5520325 -1.0842022e-19
2.1837406 1.0842022e-19 -1.8244663
-0 2.538434 -3.6893488e+19
2.0961168 -0 -1.8206245
-2 2.5095208 -1.0842022e-19
2.0614214 -1.0842022e-19 -1.8162351
-1.0842022e-19 2.4703193 -3.6893488e+19
2.0321882 1.0842022e-19 -1.8120898
0 2.4385741 3.6893488e+19
2.0649121 -1.0842022e-19 -1.8091071
1.0842022e-19 2.4302139 3.6893488e+19
2.0081253 -0 -1.808784
2 3.0862796 3.6893488e+19
2.6053603 2 2.574568
-1.0842022e-19 3.1174653 2
2.7232964 -0 2.5932584
-2 3.0864255 -1.0842022e-19
2.6055145 0 2.5543122
1.0842022e-19 3.1199744 -0
2.7265279 -1.0842022e-19 2.5842447
3.6893488e+19 3.0839446 -3.6893488e+19
2.6028926 1.0842022e-19 2.5419924
3.6893488e+19 3.1144037 -2
2.719353 -1.0842022e-19 2.5680592
1.0842022e-19 3.0907044 3.6893488e+19
2.6100361 2 2.5376518
3.6893488e+19 3.0734532 1.0842022e-19
2.5918062 -2 2.5133841
-1.0842022e-19 3.0722268 -0
2.5905101 0 2.5027444
-3.6893488e+19 3.061044 3.6893488e+19
2.6506257 0 2.4861827
3.6893488e+19 3.0704453 2
2.5886276 -1.0842022e-19 2.4835725
1.0842022e-19 3.0647488 -1.0842022e-19
2.6553972 3.6893488e+19 2.4729171
3.6893488e+19 3.0510278 2
2.6787314 0 2.4478199
-3.6893488e+19 3.0519977 -2
2.6801128 -3.6893488e+19 2.4308567
1.0842022e-19 3.1023099 1.0842022e-19
2.6687362 -2 2.4834473
-0 3.0526347 -3.6893488e+19
2.68102 3.6893488e+19 2.4133675
-3.6893488e+19 3.0521228 3.6893488e+19
2.6802912 -3.6893488e+19 2.3943388
0 3.0762148 -0
2.6377208 -1.0842022e-19 2.408742
-0 3.0509245 -3.6893488e+19
2.6785843 1.0842022e-19 2.3745608
-2 3.0552776 -1.0842022e-19
2.6847842 -1.0842022e-19 2.3615355
-2 3.0957439 3.6893488e+19
2.6609323 -3.6893488e+19 2.3921585
-0 3.0790987 -2
2.6411486 -1.0842022e-19 2.3537948
0 3.0763235 -0
2.63785 -1.0842022e-19 2.3315301
-1.0842022e-19 3.0681682 -1.0842022e-19
2.5862212 -1.0842022e-19 2.3111787
3.6893488e+19 3.0554819 -3.6893488e+19
2.6434615 -1.0842022e-19 2.2943938
-3.6893488e+19 3.1004066 2
2.7013249 -3.6893488e+19 2.3169065
-1.0842022e-19 3.0176349 3.6893488e+19
2.5328207 0 2.2109904
2 3.034631 3.6893488e+19
2.6166055 0 2.2311215
-1.0842022e-19 3.0175519 -0
2.532733 -1.0842022e-19 2.1796722
-2 3.1321735 -1.0842022e-19
2.7422407 2 2.3004007
-0 3.0142057 1.0842022e-19
2.529197 0 2.143549
3.6893488e+19 3.1324432 -2
2.7425878 -3.6893488e+19 2.2780218
1.0842022e-19 3.0120165 -2
2.5268834 3.6893488e+19 2.1098373
-3.6893488e+19 3.1329312 0
2.7432168 1.0842022e-19 2.255789
-0 3.0121918 -3.6893488e+19
2.5270686 -0 2.0796363
-0 3.0359414 -0
2.6182933 -2 2.0983014
-2 3.0070193 0
2.5216029 0 2.0433297
-1.0842022e-19 3.0027835 3.6893488e+19
2.6100209 2 2.0160191
-1.0842022e-19 3.0068498 3.6893488e+19
2.5552776 0 2.0006461
2 3.0058556 -3.6893488e+19
2.6143959 -2 1.9888587
2 3.0040464 0
2.5519457 -0 1.9682579
-2 3.0077116 2
2.6170397 -2 1.9599954
1.0842022e-19 3.0001812 2
2.5473516 3.6893488e+19 1.9357625
3.6893488e+19 3.0913298 0
2.7361307 3.6893488e+19 1.9876349
2 3.1619291 0
2.7395964 -1.0842022e-19 2.0078459
2 3.0795324 2
2.7193284 3.6893488e+19 1.9403547
-2 3.0011802 0
2.5485392 -1.0842022e-19 1.877968
-1.0842022e-19 3.0806324 1.0842022e-19
2.7208953 2 1.901804
2 3.1645002 2
2.7426522 -1.0842022e-19 1.9129038
-1.0842022e-19 3.0753887 -1.0842022e-19
2.7134268 3.6893488e+19 1.8467073
2 3.1629708 -2
2.7408342 1.0842022e-19 1.8534716
-2 3.0759561 -0
2.7142351 -0 1.7698807
-1.0842022e-19 3.1616604 0
2.7392771 1.0842022e-19 1.7569213
-2 3.0005853 -3.6893488e+19
2.5148036 1.0842022e-19 1.5778403
-0 3.0020704 0
2.5163732 1.0842022e-19 -1.2289761
-1.0842022e-19 3.0024858 0
2.5168121 1.0842022e-19 -1.6308371
1.0842022e-19 3.0424433 1.0842022e-19
2.6266677 1.0842022e-19 -1.7224864
-2 3.004369 3.6893488e+19
2.5188022 -0 -1.7492203
-2 3.0439892 -0
2.628659 3.6893488e+19 -1.8057376
-1.0842022e-19 3.0053334 -1.0842022e-19
2.5198212 0 -1.8090094
2 2.8767607 3.6893488e+19
2.4852688 2 -1.7849849
-1.0842022e-19 2.8776929 -1.0842022e-19
2.3991234 -3.6893488e+19 -1.8046991
-0 2.8766851 -0
2.4851716 -2 -1.8291241
-1.0842022e-19 2.8771853 -3.6893488e+19
2.398587 -1.0842022e-19 -1.8480209
3.6893488e+19 2.8754025 -3.6893488e+19
2.4835193 -2 -1.8724782
1.0842022e-19 2.7905695 0
2.3070567 -3.6893488e+19 -1.8303766
0 2.8717251 1.0842022e-19
2.4787829 -0 -1.8943435
-0 2.7877402 -1.0842022e-19
2.409807 1.0842022e-19 -1.8678669
-3.6893488e+19 2.7814839 -2
2.3345563 -2 -1.8749115
2 2.7799916 -3.6893488e+19
2.398771 -0 -1.8847836
-1.0842022e-19 2.7666612 3.6893488e+19
2.3169389 -2 -1.8839411
-3.6893488e+19 2.6841192 2
2.3091419 1.0842022e-19 -1.8597733
-3.6893488e+19 2.6391442 1.0842022e-19
2.2125156 3.6893488e+19 -1.8431926
0 2.5798032 2
2.1419859 3.6893488e+19 -1.8292054
-0 2.5386603 -0
2.0930858 -0 -1.8206245
-3.6893488e+19 2.3860416 3.6893488e+19
2.0249052 2 -1.7638547
0 2.5115149 -3.6893488e+19
2.060822 1.0842022e-19 -1.8175534
3.6893488e+19 2.4716425 2
2.0302842 0 -1.8124691
0 2.3862514 -0
2.0250545 3.6893488e+19 -1.7869906
-2 2.4300745 -1.0842022e-19
2.0055814 1.0842022e-19 -1.8085805
0 2.3878944 -3.6893488e+19
1.9549518 -2 -1.8061383
2 2.3380911 -1.0842022e-19
1.9286373 -2 -1.8026639
-2 2.2974908 -2
1.9071853 2 -1.7987977
0 2.2627225 -1.0842022e-19
1.8888147 -1.0842022e-19 -1.7939736
3.6893488e+19 2.2167101 -3.6893488e+19
1.916175 -1.0842022e-19 -1.7932105
0 2.1780374 3.6893488e+19
1.9024054 0 -1.7923387
-2 2.142246 -1.0842022e-19
1.8896617 -3.6893488e+19 -1.7903818
-2 2.1162448 -2
1.8804038 3.6893488e+19 -1.7907192
2 3.0862796 3.6893488e+19
2.6053603 2 2.574568
-1.0842022e-19 3.1174653 2
2.7232964 -0 2.5932584
-2 3.0864255 -1.0842022e-19
2.6055145 0 2.5543122
1.0842022e-19 3.1199744 -0
2.7265279 -1.0842022e-19 2.5842447
3.6893488e+19 3.0839446 -3.6893488e+19
2.6028926 1.0842022e-19 2.5419924
3.6893488e+19 3.1144037 -2
2.719353 -1.0842022e-19 2.5680592
1.0842022e-19 3.0907044 3.6893488e+19
2.6100361 2 2.5376518
3.6893488e+19 3.0734532 1.0842022e-19
2.5918062 -2 2.5133841
-1.0842022e-19 3.0722268 -0
2.5905101 0 2.5027444
-3.6893488e+19 3.061044 3.6893488e+19
2.6506257 0 2.4861827
3.6893488e+19 3.0704453 2
2.5886276 -1.0842022e-19 2.4835725
1.0842022e-19 3.0647488 -1.0842022e-19
2.6553972 3.6893488e+19 2.4729171
3.6893488e+19 3.0510278 2
2.6787314 0 2.4478199
-3.6893488e+19 3.0519977 -2
2.6801128 -3.6893488e+19 2.4308567
-2 3.0771849 -1.0842022e-19
2.6388741 0 2.4489706
-0 3.0526347 -3.6893488e+19
2.68102 3.6893488e+19 2.4133675
-3.6893488e+19 3.0521228 3.6893488e+19
2.6802912 -3.6893488e+19 2.3943388
0 3.0762148 -0
2.6377208 -1.0842022e-19 2.408742
-0 3.0509245 -3.6893488e+19
2.6785843 1.0842022e-19 2.3745608
-2 3.0552776 -1.0842022e-19
2.6847842 -1.0842022e-19 2.3615355
-2 3.0957439 3.6893488e+19
2.6609323 -3.6893488e+19 2.3921585
-0 3.0790987 -2
2.6411486 -1.0842022e-19 2.3537948
0 3.0763235 -0
2.63785 -1.0842022e-19 2.3315301
-1.0842022e-19 3.0681682 -1.0842022e-19
2.5862212 -1.0842022e-19 2.3111787
3.6893488e+19 3.0554819 -3.6893488e+19
2.6434615 -1.0842022e-19 2.2943938
1.0842022e-19 3.0330346 -2
2.6145492 -2 2.2559752
-1.0842022e-19 3.0176349 3.6893488e+19
2.5328207 0 2.2109904
2 3.034631 3.6893488e+19
2.6166055 0 2.2311215
-1.0842022e-19 3.0175519 -0
2.532733 -1.0842022e-19 2.1796722
-2 3.0346458 -3.6893488e+19
2.6166246 3.6893488e+19 2.1974816
-0 3.0142057 1.0842022e-19
2.529197 0 2.143549
-2 3.0355654 -1.0842022e-19
2.6178091 -0 2.1651909
1.0842022e-19 3.0120165 -2
2.5268834 3.6893488e+19 2.1098373
0 3.0345447 -2
2.6164942 0 2.1301382
-0 3.0121918 -3.6893488e+19
2.5270686 -0 2.0796363
-0 3.0359414 -0
2.6182933 -2 2.0983014
-2 3.0070193 0
2.5216029 0 2.0433297
-1.0842022e-19 3.0027835 3.6893488e+19
2.6100209 2 2.0160191
-1.0842022e-19 3.0068498 3.6893488e+19
2.5552776 0 2.0006461
2 3.0058556 -3.6893488e+19
2.6143959 -2 1.9888587
2 3.0040464 0
2.5519457 -0 1.9682579
-2 3.0077116 2
2.6170397 -2 1.9599954
1.0842022e-19 3.0001812 2
2.5473516 3.6893488e+19 1.9357625
0 3.00788 -1.0842022e-19
2.6172791 2 1.9295368
-0 3.0023181 -0
2.5498915 -2 1.9079379
3.6893488e+19 3.0024159 -2
2.6094971 0 1.8958083
-2 3.0011802 0
2.5485392 -1.0842022e-19 1.877968
3.6893488e+19 3.0023813 1.0842022e-19
2.609448 -3.6893488e+19 1.8567526
-1.0842022e-19 3.0035036 1.0842022e-19
2.5513005 -2 1.8242602
-2 3.0093396 -2
2.6193581 -0 1.801704
3.6893488e+19 3.0084212 -2
2.5571451 -3.6893488e+19 1.7679687
-2 3.0759561 -0
2.7142351 -0 1.7698807
-1.0842022e-19 3.1616604 0
2.7392771 1.0842022e-19 1.7569213
-2 3.0005853 -3.6893488e+19
2.5148036 1.0842022e-19 1.5778403
-0 3.0020704 0
2.5163732 1.0842022e-19 -1.2289761
-1.0842022e-19 3.0024858 0
2.5168121 1.0842022e-19 -1.6308371
1.0842022e-19 2.8772137 -0
2.4858522 -3.6893488e+19 -1.6434891
-3.6893488e+19 2.8799827 -3.6893488e+19
2.4015431 2 -1.6861457
0 2.8772938 0
2.4859555 1.0842022e-19 -1.7319512
-0 2.8783636 1.0842022e-19
2.3998322 2 -1.7613363
2 2.8767607 3.6893488e+19
2.4852688 2 -1.7849849
-1.0842022e-19 2.8776929 -1.0842022e-19
2.3991234 -3.6893488e+19 -1.8046991
-0 2.8766851 -0
2.4851716 -2 -1.8291241
2 2.7876899 -2
2.3040135 0 -1.7951044
3.6893488e+19 2.8754025 -3.6893488e+19
2.4835193 -2 -1.8724782
1.0842022e-19 2.7905695 0
2.3070567 -3.6893488e+19 -1.8303766
1.0842022e-19 2.7923286 -1.0842022e-19
2.3765199 -2 -1.8520266
-0 2.7877402 -1.0842022e-19
2.409807 1.0842022e-19 -1.8678669
-3.6893488e+19 2.7814839 -2
2.3345563 -2 -1.8749115
2 2.7799916 -3.6893488e+19
2.398771 -0 -1.8847836
-1.0842022e-19 2.7666612 3.6893488e+19
2.3169389 -2 -1.8839411
-3.6893488e+19 2.6841192 2
2.3091419 1.0842022e-19 -1.8597733
-3.6893488e+19 2.6391442 1.0842022e-19
2.2125156 3.6893488e+19 -1.8431926
0 2.5798032 2
2.1419859 3.6893488e+19 -1.8292054
-0 2.5386603 -0
2.0930858 -0 -1.8206245
-3.6893488e+19 2.3860416 3.6893488e+19
2.0249052 2 -1.7638547
0 2.5115149 -3.6893488e+19
2.060822 1.0842022e-19 -1.8175534
3.6893488e+19 2.4716425 2
2.0302842 0 -1.8124691
0 2.3862514 -0
2.0250545 3.6893488e+19 -1.7869906
-2 2.4300745 -1.0842022e-19
2.0055814 1.0842022e-19 -1.8085805
0 2.3878944 -3.6893488e+19
1.9549518 -2 -1.8061383
2 2.3380911 -1.0842022e-19
1.9286373 -2 -1.8026639
-2 2.2974908 -2
1.9071853 2 -1.7987977
0 2.2627225 -1.0842022e-19
1.8888147 -1.0842022e-19 -1.7939736
3.6893488e+19 2.2167101 -3.6893488e+19
1.916175 -1.0842022e-19 -1.7932105
0 2.1780374 3.6893488e+19
1.9024054 0 -1.7923387
-2 2.142246 -1.0842022e-19
1.8896617 -3.6893488e+19 -1.7903818
-2 2.1162448 -2
1.8804038 3.6893488e+19 -1.7907192
-0 3.0888076 3.6893488e+19
2.6042387 1.0842022e-19 2.5767832
0 3.1228242 -1.0842022e-19
2.725893 -0 2.6094406
-0 3.1205347 3.6893488e+19
2.7229707 -0 2.5958352
2 3.0860369 -2
2.6013417 3.6893488e+19 2.5537515
-0 3.1183057 -3.6893488e+19
2.7201254 1.0842022e-19 2.5824583
-3.6893488e+19 3.1147387 2
2.7155726 1.0842022e-19 2.5680847
0 3.0696099 -0
2.5841665 0 2.5196564
-1.0842022e-19 3.086885 -1.0842022e-19
2.6800184 0 2.5335236
-1.0842022e-19 3.0721035 -0
2.5867739 -2 2.5121047
-2 3.0871429 -3.6893488e+19
2.6803477 1.0842022e-19 2.5234892
-0 3.0720327 -2
2.5866997 -3.6893488e+19 2.5024183
-1.0842022e-19 3.0621247 2
2.6484132 3.6893488e+19 2.4874625
-1.0842022e-19 3.0711119 0
2.5857372 -1.0842022e-19 2.4842453
1.0842022e-19 3.0658629 2
2.6531847 0 2.4741931
-1.0842022e-19 3.0515685 -3.6893488e+19
2.6759465 3.6893488e+19 2.4482081
1.0842022e-19 3.0815167 2
2.6402473 1.0842022e-19 2.4743807
-2 3.0516679 0
2.6760871 -1.0842022e-19 2.429987
3.6893488e+19 3.1020799 0
2.6644535 -1.0842022e-19 2.4827578
-1.0842022e-19 3.0531194 -2
2.6781371 0 2.4136455
3.6893488e+19 3.0782499 1.0842022e-19
2.6364019 0 2.4305091
-1.0842022e-19 3.0534811 3.6893488e+19
2.678648 -3.6893488e+19 2.3957441
0 3.0778608 -1.0842022e-19
2.6359437 -3.6893488e+19 2.4104865
-1.0842022e-19 3.0523994 1.0842022e-19
2.6771202 0 2.3760474
1.0842022e-19 3.0550067 -3.6893488e+19
2.6808026 -2 2.3608794
-0 3.0903974 -0
2.6507013 -3.6893488e+19 2.3857954
0 3.0736301 -3.6893488e+19
2.6309633 1.0842022e-19 2.3285394
-2 3.0731912 3.6893488e+19
2.5879111 1.0842022e-19 2.3158741
-3.6893488e+19 3.0550284 1.0842022e-19
2.6393552 -2 2.2937102
1.0842022e-19 3.0178587 -0
2.5300584 0 2.2422993
0 3.1005235 1.0842022e-19
2.6974273 -2 2.316746
-3.6893488e+19 3.1198826 0
2.6367292 -0 2.3183348
1.0842022e-19 3.0600779 2
2.6458004 1.0842022e-19 2.2618477
-3.6893488e+19 3.0948339 0
2.6105397 -2 2.2767007
-1.0842022e-19 3.1334133 -3.6893488e+19
2.7394097 2 2.3011224
2 3.0937641 0
2.609421 -0 2.2558515
-1.0842022e-19 3.1325862 -2
2.738354 -1.0842022e-19 2.2778926
0 3.0923746 2
2.6079681 -3.6893488e+19 2.2198725
1.0842022e-19 3.1341136 1.0842022e-19
2.7403035 3.6893488e+19 2.2563634
3.6893488e+19 3.0919914 3.6893488e+19
2.6075675 0 2.1796675
-3.6893488e+19 3.0375769 -0
2.617079 -3.6893488e+19 2.0999999
-2 3.0926166 2
2.6082213 -1.0842022e-19 2.1407506
-2 3.0069385 1.0842022e-19
2.5779705 -2 2.0324826
0 3.0048342 -3.6893488e+19
2.5499797 -2 1.9984865
3.6893488e+19 3.0029857 -3.6893488e+19
2.5478039 3.6893488e+19 1.9671785
-2 3.0056846 1.0842022e-19
2.6111386 -1.0842022e-19 1.9581504
3.6893488e+19 3.0045378 2
2.5496311 -2 1.9388511
-3.6893488e+19 3.0075305 3.6893488e+19
2.6137457 -0 1.9291272
-1.0842022e-19 3.1627274 -0
2.7358451 1.0842022e-19 2.0081458
0 3.0826657 -0
2.7198691 3.6893488e+19 1.9419863
-2 3.0020339 1.0842022e-19
2.5466838 -2 1.8783035
2 3.0049722 0
2.6101322 0 1.8589146
2 3.1642518 -3.6893488e+19
2.7376394 -2 1.9126801
-2 3.0785191 -0
2.7140126 -3.6893488e+19 1.8486326
3.6893488e+19 3.1624513 0
2.7355201 -3.6893488e+19 1.8530076
1.0842022e-19 3.0765536 -0
2.7112362 0 1.7700115
0 3.1627588 1.0842022e-19
2.735882 -2 1.7571708
-2 3.0022089 -1.0842022e-19
2.513696 -0 1.5790142
-2 3.1337752 -2
2.7398717 1.0842022e-19 1.5104862
1.0842022e-19 3.0009439 2
2.5123732 2 -1.227796
1.0842022e-19 3.1342494 -2
2.7404768 0 -1.599213
1.0842022e-19 3.0019038 -1.0842022e-19
2.5133767 -3.6893488e+19 -1.6304456
3.6893488e+19 3.0419445 2
2.622654 3.6893488e+19 -1.7219206
0 3.0045443 -3.6893488e+19
2.5161374 -0 -1.7492203
3.6893488e+19 3.0441766 3.6893488e+19
2.6255031 -1.0842022e-19 -1.805701
0 3.0043607 -2
2.5159454 0 -1.8081822
-0 2.9987416 -0
2.5683105 -1.0842022e-19 -1.8366044
-3.6893488e+19 2.8784363 1.0842022e-19
2.3956726 3.6893488e+19 -1.804929
-1.0842022e-19 2.8756921 -2
2.4795539 2 -1.8284153
1.0842022e-19 2.8746653 -3.6893488e+19
2.3917294 3.6893488e+19 -1.8463784
-3.6893488e+19 2.8697679 -2
2.471992 -1.0842022e-19 -1.8685594
-1.0842022e-19 2.8759522 2
2.3930752 -3.6893488e+19 -1.8827715
3.6893488e+19 2.8662677 -1.0842022e-19
2.4675241 2 -1.8921051
-3.6893488e+19 2.7902441 1.0842022e-19
2.4099517 3.6893488e+19 -1.869753
1.0842022e-19 2.7802052 1.0842022e-19
2.3298457 3.6893488e+19 -1.8735837
0 2.7788396 3.6893488e+19
2.3938432 3.6893488e+19 -1.8841045
-0 2.7681844 -0
2.3156953 3.6893488e+19 -1.884602
-1.0842022e-19 2.6898158 2
2.310606 3.6893488e+19 -1.8626332
2 2.6393261 -1.0842022e-19
2.208298 1.0842022e-19 -1.8431256
3.6893488e+19 2.5802977 -1.0842022e-19
2.1388123 -0 -1.8293533
-2 2.5379276 0
2.0889363 0 -1.819977
3.6893488e+19 2.5108812 -1.0842022e-19
2.0570982 3.6893488e+19 -1.8169382
-1.0842022e-19 2.4665165 2
2.0245817 -1.0842022e-19 -1.8102881
-0 2.4306462 0
2.0034692 -2 -1.8086822
-0 3.0888076 3.6893488e+19
2.6042387 1.0842022e-19 2.5767832
0 3.1228242 -1.0842022e-19
2.725893 -0 2.6094406
-0 3.1205347 3.6893488e+19
2.7229707 -0 2.5958352
2 3.0860369 -2
2.6013417 3.6893488e+19 2.5537515
-0 3.1183057 -3.6893488e+19
2.7201254 1.0842022e-19 2.5824583
-3.6893488e+19 3.1147387 2
2.7155726 1.0842022e-19 2.5680847
0 3.0696099 -0
2.5841665 0 2.5196564
-1.0842022e-19 3.086885 -1.0842022e-19
2.6800184 0 2.5335236
-1.0842022e-19 3.0721035 -0
2.5867739 -2 2.5121047
-2 3.0871429 -3.6893488e+19
2.6803477 1.0842022e-19 2.5234892
-0 3.0720327 -2
2.5866997 -3.6893488e+19 2.5024183
-1.0842022e-19 3.0621247 2
2.6484132 3.6893488e+19 2.4874625
-1.0842022e-19 3.0711119 0
2.5857372 -1.0842022e-19 2.4842453
1.0842022e-19 3.0658629 2
2.6531847 0 2.4741931
-1.0842022e-19 3.0515685 -3.6893488e+19
2.6759465 3.6893488e+19 2.4482081
1.0842022e-19 3.0815167 2
2.6402473 1.0842022e-19 2.4743807
-2 3.0516679 0
2.6760871 -1.0842022e-19 2.429987
0 3.0783851 1.0842022e-19
2.6365609 1.0842022e-19 2.4502685
-1.0842022e-19 3.0531194 -2
2.6781371 0 2.4136455
3.6893488e+19 3.0782499 1.0842022e-19
2.6364019 0 2.4305091
-1.0842022e-19 3.0534811 3.6893488e+19
2.678648 -3.6893488e+19 2.3957441
0 3.0778608 -1.0842022e-19
2.6359437 -3.6893488e+19 2.4104865
-1.0842022e-19 3.0523994 1.0842022e-19
2.6771202 0 2.3760474
1.0842022e-19 3.0550067 -3.6893488e+19
2.6808026 -2 2.3608794
-0 3.0903974 -0
2.6507013 -3.6893488e+19 2.3857954
0 3.0736301 -3.6893488e+19
2.6309633 1.0842022e-19 2.3285394
0 3.0181851 -2
2.5303996 -3.6893488e+19 2.2621131
-3.6893488e+19 3.0550284 1.0842022e-19
2.6393552 -2 2.2937102
1.0842022e-19 3.0178587 -0
2.5300584 0 2.2422993
0 3.1005235 1.0842022e-19
2.6974273 -2 2.316746
1.0842022e-19 3.0171275 -3.6893488e+19
2.5292938 -1.0842022e-19 2.2097998
3.6893488e+19 3.0339813 -2
2.6124892 0 2.2296207
0 3.0171945 -0
2.5293639 -1.0842022e-19 2.178803
2 3.0352702 1.0842022e-19
2.6141346 1.0842022e-19 2.198087
2 3.0121894 -1.0842022e-19
2.5241308 -2 2.1402767
-3.6893488e+19 3.0359237 -0
2.6149688 2 2.1653633
2 3.0113833 -1.0842022e-19
2.523288 -0 2.1087208
-3.6893488e+19 3.0360892 -0
2.61518 -1.0842022e-19 2.131881
-0 3.0100811 1.0842022e-19
2.5219266 -3.6893488e+19 2.0767577
-2 3.0042911 2
2.5745912 -3.6893488e+19 2.0594888
-1.0842022e-19 3.0086741 -0
2.5204556 -3.6893488e+19 2.0450151
-2 3.0069385 1.0842022e-19
2.5779705 -2 2.0324826
0 3.0048342 -3.6893488e+19
2.5499797 -2 1.9984865
3.6893488e+19 3.0029857 -3.6893488e+19
2.5478039 3.6893488e+19 1.9671785
-2 3.0056846 1.0842022e-19
2.6111386 -1.0842022e-19 1.9581504
3.6893488e+19 3.0045378 2
2.5496311 -2 1.9388511
-3.6893488e+19 3.0075305 3.6893488e+19
2.6137457 -0 1.9291272
0 3.0052698 -1.0842022e-19
2.5504925 3.6893488e+19 1.9096618
0 3.0045352 -2
2.6095147 -1.0842022e-19 1.896896
-2 3.0020339 1.0842022e-19
2.5466838 -2 1.8783035
2 3.0049722 0
2.6101322 0 1.8589146
-2 3.004539 -1.0842022e-19
2.5496325 -2 1.8249193
0 3.0065756 2
2.6123967 -2 1.7996584
-3.6893488e+19 3.0058036 3.6893488e+19
2.5511212 -2 1.7664111
0 3.0072534 -3.6893488e+19
2.613354 -0 1.7284752
3.6893488e+19 3.0034888 -1.0842022e-19
2.5483961 -0 1.662341
-2 3.0022089 -1.0842022e-19
2.513696 -0 1.5790142
-2 3.1337752 -2
2.7398717 1.0842022e-19 1.5104862
1.0842022e-19 3.0009439 2
2.5123732 2 -1.227796
1.0842022e-19 3.1342494 -2
2.7404768 0 -1.599213
1.0842022e-19 2.8832977 0
2.4007552 -0 -1.5734866
0 2.8776495 -2
2.4820523 -1.0842022e-19 -1.6435344
0 2.8798816 2
2.3971834 -0 -1.685968
3.6893488e+19 2.8778486 0
2.4823067 0 -1.7320975
1.0842022e-19 2.8821304 0
2.3995347 3.6893488e+19 -1.7625989
1.0842022e-19 2.8773746 1.0842022e-19
2.4817016 3.6893488e+19 -1.7851112
-3.6893488e+19 2.8784363 1.0842022e-19
2.3956726 3.6893488e+19 -1.804929
-1.0842022e-19 2.8756921 -2
2.4795539 2 -1.8284153
2 2.7884922 2
2.3016317 2 -1.7954614
-3.6893488e+19 2.8697679 -2
2.471992 -1.0842022e-19 -1.8685594
2 2.7871447 -3.6893488e+19
2.3002226 -2 -1.8278164
2 2.7873399 0
2.3667765 -3.6893488e+19 -1.8479651
-3.6893488e+19 2.7902441 1.0842022e-19
2.4099517 3.6893488e+19 -1.869753
1.0842022e-19 2.7802052 1.0842022e-19
2.3298457 3.6893488e+19 -1.8735837
0 2.7788396 3.6893488e+19
2.3938432 3.6893488e+19 -1.8841045
-0 2.7681844 -0
2.3156953 3.6893488e+19 -1.884602
-1.0842022e-19 2.6898158 2
2.310606 3.6893488e+19 -1.8626332
2 2.6393261 -1.0842022e-19
2.208298 1.0842022e-19 -1.8431256
3.6893488e+19 2.5802977 -1.0842022e-19
2.1388123 -0 -1.8293533
-2 2.5379276 0
2.0889363 0 -1.819977
3.6893488e+19 2.5108812 -1.0842022e-19
2.0570982 3.6893488e+19 -1.8169382
-1.0842022e-19 2.4665165 2
2.0245817 -1.0842022e-19 -1.8102881
-0 2.4306462 0
2.0034692 -2 -1.8086822
-1.0842022e-19 3.0889344 -2
2.6008365 -2 2.5766978
-0 3.1231716 -2
2.7223232 1.0842022e-19 2.6094966
-2 3.1212294 -1.0842022e-19
2.7198651 2 2.596215
-1.0842022e-19 3.0862799 -2
2.5980887 2 2.5537782
-2 3.114397 -0
2.7112174 -2 2.5786748
-1.0842022e-19 3.0689356 1.0842022e-19
2.5801356 2 2.5285003
3.6893488e+19 3.138505 -0
2.7417307 -2 2.5885479
0 3.0706429 0
2.5819027 2 2.5203562
2 3.0872927 0
2.6769114 2 2.5336463
1.0842022e-19 3.0700226 -3.6893488e+19
2.5812604 -1.0842022e-19 2.510246
1.0842022e-19 3.0854156 0
2.6745355 3.6893488e+19 2.5218768
0 3.0721185 3.6893488e+19
2.5834301 2 2.5023253
-0 3.088964 -3.6893488e+19
2.6790266 -2 2.5144839
-0 3.0720005 -0
2.583308 -1.0842022e-19 2.4852769
0 3.0667827 -3.6893488e+19
2.6509516 2 2.4752049
-2 3.0529025 -2
2.6745057 -3.6893488e+19 2.4498041
2 3.0816948 2
2.6369388 -0 2.4742961
2 3.1016214 2
2.6601841 -0 2.4817843
1.0842022e-19 3.0538168 3.6893488e+19
2.675787 -3.6893488e+19 2.4142408
-2 3.0784848 3.6893488e+19
2.6331942 0 2.4305091
3.6893488e+19 3.0529549 3.6893488e+19
2.6745791 -3.6893488e+19 2.3947186
1.0842022e-19 3.0778878 -1.0842022e-19
2.6324975 1.0842022e-19 2.4102268
-1.0842022e-19 3.0533304 1.0842022e-19
2.6751056 -1.0842022e-19 2.3768811
-1.0842022e-19 3.0544217 -1.0842022e-19
2.6766348 -2 2.3598781
0 3.0913248 1.0842022e-19
2.6481726 -2 2.3865697
-1.0842022e-19 3.0544865 -2
2.6767256 -2 2.3233378
0 3.0720749 -2
2.6257164 3.6893488e+19 2.3267267
-1.0842022e-19 3.0724051 2
2.5837269 3.6893488e+19 2.3149056
0 3.0568342 0
2.63836 -1.0842022e-19 2.2952197
-3.6893488e+19 3.0180588 -3.6893488e+19
2.527472 -0 2.2423544
-1.0842022e-19 3.10515 2
2.6995134 2 2.320678
2 3.0946007 0
2.6067019 2 2.2963879
-0 3.0345871 -3.6893488e+19
2.6102018 -2 2.2302709
2 3.092885 3.6893488e+19
2.6049259 -0 2.2749622
-0 3.1345119 -2
2.7366767 -1.0842022e-19 2.3017509
-1.0842022e-19 3.0928977 -1.0842022e-19
2.604939 -0 2.2550447
-3.6893488e+19 3.1344564 2
2.7366066 -3.6893488e+19 2.2790344
-1.0842022e-19 3.093406 -0
2.6054652 -2 2.220989
-1.0842022e-19 3.135956 2
2.7385046 3.6893488e+19 2.2573934
-0 3.092993 3.6893488e+19
2.6050377 -0 2.1806521
-0 3.0924118 -3.6893488e+19
2.6044359 -2 2.140269
-0 3.0148923 2
2.6212361 3.6893488e+19 2.028264
1.0842022e-19 3.0042977 3.6893488e+19
2.5466511 -1.0842022e-19 1.9977862
-3.6893488e+19 3.0025375 -0
2.5445979 -2 1.9666387
1.0842022e-19 3.00475 2
2.5471787 0 1.9388734
2 3.1152787 3.6893488e+19
2.7559617 2 2.003854
0 3.0822442 -0
2.7156267 -0 1.9415784
-0 3.0073121 3.6893488e+19
2.5501676 3.6893488e+19 1.8808968
-2 3.080251 3.6893488e+19
2.7128336 -3.6893488e+19 1.901358
-2 3.0615859 -0
2.6134808 0 1.86955
-0 3.0789194 -3.6893488e+19
2.7109673 -2 1.8487128
3.6893488e+19 3.0624695 2
2.6145115 -0 1.797613
0 3.0760086 -2
2.7068877 -2 1.7696451
-2 3.0039401 1.0842022e-19
2.5462341 -3.6893488e+19 1.6625137
-0 3.0033071 -2
2.5122023 2 1.5797724
2 3.1342223 -1.0842022e-19
2.73631 0 1.5105388
-2 3.0005889 -1.0842022e-19
2.5093887 3.6893488e+19 -1.2273294
2 3.1352925 3.6893488e+19
2.7376647 0 -1.5996473
2 3.0034554 3.6893488e+19
2.5123558 1.0842022e-19 -1.6311659
-1.0842022e-19 3.0452099 3.6893488e+19
2.6236472 -0 -1.7242287
-1.0842022e-19 3.0051293 2
2.5140886 -1.0842022e-19 -1.7496346
0 3.0467286 0
2.6255693 1.0842022e-19 -1.8071272
-0 3.0070024 0
2.5160275 -3.6893488e+19 -1.8099672
-2 2.9934697 1.0842022e-19
2.5622923 1.0842022e-19 -1.8342053
-3.6893488e+19 3.0050519 1.0842022e-19
2.5140085 -1.0842022e-19 -1.8673768
3.6893488e+19 2.8761625 -2
2.4761088 1.0842022e-19 -1.828512
2 2.8738148 -3.6893488e+19
2.3869417 -3.6893488e+19 -1.8457357
3.6893488e+19 2.8754139 3.6893488e+19
2.4751613 3.6893488e+19 -1.8720864
-3.6893488e+19 2.8732893 1.0842022e-19
2.3863981 0 -1.8817475
-3.6893488e+19 2.877564 1.0842022e-19
2.4778829 -0 -1.8963742
-2 2.7840133 2
2.3980334 2 -1.8642931
0 2.7807653 3.6893488e+19
2.3275268 -3.6893488e+19 -1.8739023
0 2.7774892 -1.0842022e-19
2.3888898 1.0842022e-19 -1.8833405
-3.6893488e+19 2.7667592 2
2.3111882 -3.6893488e+19 -1.8837909
-2 2.6972575 -1.0842022e-19
2.3134067 -3.6893488e+19 -1.8664465
0 2.6403232 -0
2.2053316 0 -1.8435278
-0 2.3873868 0
2.0214536 1.0842022e-19 -1.732119
-1.0842022e-19 2.5830472 3.6893488e+19
2.1385164 2 -1.8309071
0 2.5381339 -3.6893488e+19
2.0861225 0 -1.819977
-3.6893488e+19 2.388613 0
2.0223129 -3.6893488e+19 -1.7645299
-1.0842022e-19 2.5104702 -2
2.0538516 3.6893488e+19 -1.8164988
2 2.4675672 3.6893488e+19
2.0227203 0 -1.8105726
-2 2.3862379 2
2.0206485 -2 -1.7866957
0 2.4326258 3.6893488e+19
2.0023398 2 -1.8093946
-1.0842022e-19 2.3869648 1.0842022e-19
1.9502769 -1.0842022e-19 -1.8054653
1.0842022e-19 2.3406997 2
1.9263319 -0 -1.803798
-1.0842022e-19 2.3019588 -2
1.9062812 -2 -1.8011746
0 2.2657011 -2
1.8875157 1.0842022e-19 -1.7956634
-3.6893488e+19 2.2203362 -1.0842022e-19
1.9147893 -3.6893488e+19 -1.7942147
3.6893488e+19 2.1774108 3.6893488e+19
1.8997498 -0 -1.7917954
1.0842022e-19 2.1434107 2
1.8878373 0 -1.7905767
2 2.1145926 -2
1.8777404 3.6893488e+19 -1.7896769
-1.0842022e-19 3.0889344 -2
2.6008365 -2 2.5766978
-0 3.1231716 -2
2.7223232 1.0842022e-19 2.6094966
-2 3.1212294 -1.0842022e-19
2.7198651 2 2.596215
-1.0842022e-19 3.0862799 -2
2.5980887 2 2.5537782
-2 3.114397 -0
2.7112174 -2 2.5786748
-1.0842022e-19 3.0689356 1.0842022e-19
2.5801356 2 2.5285003
3.6893488e+19 3.138505 -0
2.7417307 -2 2.5885479
0 3.0706429 0
2.5819027 2 2.5203562
2 3.0872927 0
2.6769114 2 2.5336463
1.0842022e-19 3.0700226 -3.6893488e+19
2.5812604 -1.0842022e-19 2.510246
1.0842022e-19 3.0854156 0
2.6745355 3.6893488e+19 2.5218768
0 3.0721185 3.6893488e+19
2.5834301 2 2.5023253
2 3.0685477 1.0842022e-19
2.6531858 -1.0842022e-19 2.4971075
-0 3.0720005 -0
2.583308 -1.0842022e-19 2.4852769
0 3.0667827 -3.6893488e+19
2.6509516 2 2.4752049
-2 3.0529025 -2
2.6745057 -3.6893488e+19 2.4498041
2 3.0816948 2
2.6369388 -0 2.4742961
-2 3.07936 -2
2.6342151 2 2.4512825
1.0842022e-19 3.0538168 3.6893488e+19
2.675787 -3.6893488e+19 2.4142408
-2 3.0784848 3.6893488e+19
2.6331942 0 2.4305091
3.6893488e+19 3.0529549 3.6893488e+19
2.6745791 -3.6893488e+19 2.3947186
1.0842022e-19 3.0778878 -1.0842022e-19
2.6324975 1.0842022e-19 2.4102268
-1.0842022e-19 3.0533304 1.0842022e-19
2.6751056 -1.0842022e-19 2.3768811
-1.0842022e-19 3.0544217 -1.0842022e-19
2.6766348 -2 2.3598781
0 3.0913248 1.0842022e-19
2.6481726 -2 2.3865697
1.0842022e-19 3.0322464 1.0842022e-19
2.6455569 0 2.2997208
0 3.0720749 -2
2.6257164 3.6893488e+19 2.3267267
2 3.0173039 0
2.5266907 -3.6893488e+19 2.261086
0 3.0568342 0
2.63836 -1.0842022e-19 2.2952197
-3.6893488e+19 3.0180588 -3.6893488e+19
2.527472 -0 2.2423544
-1.0842022e-19 3.10515 2
2.6995134 2 2.320678
-1.0842022e-19 3.0170865 3.6893488e+19
2.5264657 -3.6893488e+19 2.2094374
-0 3.0345871 -3.6893488e+19
2.6102018 -2 2.2302709
-0 3.0145938 1.0842022e-19
2.5238855 1.0842022e-19 2.17436
1.0842022e-19 3.0345721 -2
2.6101828 3.6893488e+19 2.1966436
2 3.0119944 1.0842022e-19
2.5211947 -2 2.1397388
-3.6893488e+19 3.0381048 -1.0842022e-19
2.6146543 0 2.1682072
2 3.0109162 2
2.5200787 2 2.1078525
-1.0842022e-19 3.135956 2
2.7385046 3.6893488e+19 2.2573934
-2 3.0082552 -3.6893488e+19
2.5173242 -3.6893488e+19 2.0742579
-1.0842022e-19 3.0072389 0
2.5162723 -3.6893488e+19 2.0431919
-0 3.0148923 2
2.6212361 3.6893488e+19 2.028264
1.0842022e-19 3.0042977 3.6893488e+19
2.5466511 -1.0842022e-19 1.9977862
-3.6893488e+19 3.0025375 -0
2.5445979 -2 1.9666387
1.0842022e-19 3.00475 2
2.5471787 0 1.9388734
-1.0842022e-19 3.007133 -3.6893488e+19
2.6103616 0 1.9286972
2 3.0054023 1.0842022e-19
2.6079361 1.0842022e-19 1.89727
-0 3.0073121 3.6893488e+19
2.5501676 3.6893488e+19 1.8808968
0 3.0053093 2
2.6078057 -3.6893488e+19 1.8590226
-1.0842022e-19 3.0040314 -3.6893488e+19
2.5463405 1.0842022e-19 1.824378
-3.6893488e+19 3.0062356 1.0842022e-19
2.6091042 2 1.7992774
3.6893488e+19 3.0065267 -1.0842022e-19
2.5492513 -2 1.7667093
0 3.0074155 -2
2.6107574 -0 1.7284229
-2 3.0039401 1.0842022e-19
2.5462341 -3.6893488e+19 1.6625137
-0 3.0033071 -2
2.5122023 2 1.5797724
-3.6893488e+19 3.0120671 3.6893488e+19
2.5816984 0 1.4348944
-2 3.0005889 -1.0842022e-19
2.5093887 3.6893488e+19 -1.2273294
2 3.1352925 3.6893488e+19
2.7376647 0 -1.5996473
2 3.0034554 3.6893488e+19
2.5123558 1.0842022e-19 -1.6311659
-0 2.877466 -0
2.4777586 0 -1.6433535
-3.6893488e+19 2.8735282 3.6893488e+19
2.3866453 -1.0842022e-19 -1.6827418
3.6893488e+19 2.8777249 -3.6893488e+19
2.4780862 -2 -1.7318414
-3.6893488e+19 2.8731177 -3.6893488e+19
2.3862202 -0 -1.7592683
3.6893488e+19 2.8774889 -3.6893488e+19
2.4777875 -3.6893488e+19 -1.7850354
0 2.8738384 1.0842022e-19
2.3869662 -1.0842022e-19 -1.8026299
3.6893488e+19 2.8761625 -2
2.4761088 1.0842022e-19 -1.828512
-1.0842022e-19 2.7897034 -1.0842022e-19
2.2998767 1.0842022e-19 -1.7960684
3.6893488e+19 2.8754139 3.6893488e+19
2.4751613 3.6893488e+19 -1.8720864
-3.6893488e+19 2.7899868 -1.0842022e-19
2.3001702 -2 -1.8296939
-3.6893488e+19 2.7942891 -0
2.3724818 -3.6893488e+19 -1.8531804
-2 2.7840133 2
2.3980334 2 -1.8642931
0 2.7807653 3.6893488e+19
2.3275268 -3.6893488e+19 -1.8739023
0 2.7774892 -1.0842022e-19
2.3888898 1.0842022e-19 -1.8833405
-3.6893488e+19 2.7667592 2
2.3111882 -3.6893488e+19 -1.8837909
-2 2.6972575 -1.0842022e-19
2.3134067 -3.6893488e+19 -1.8664465
0 2.6403232 -0
2.2053316 0 -1.8435278
-0 2.3873868 0
2.0214536 1.0842022e-19 -1.732119
-1.0842022e-19 2.5830472 3.6893488e+19
2.1385164 2 -1.8309071
0 2.5381339 -3.6893488e+19
2.0861225 0 -1.819977
-3.6893488e+19 2.388613 0
2.0223129 -3.6893488e+19 -1.7645299
-1.0842022e-19 2.5104702 -2
2.0538516 3.6893488e+19 -1.8164988
2 2.4675672 3.6893488e+19
2.0227203 0 -1.8105726
-2 2.3862379 2
2.0206485 -2 -1.7866957
0 2.4326258 3.6893488e+19
2.0023398 2 -1.8093946
-1.0842022e-19 2.3869648 1.0842022e-19
1.9502769 -1.0842022e-19 -1.8054653
1.0842022e-19 2.3406997 2
1.9263319 -0 -1.803798
-1.0842022e-19 2.3019588 -2
1.9062812 -2 -1.8011746
0 2.2657011 -2
1.8875157 1.0842022e-19 -1.7956634
-3.6893488e+19 2.2203362 -1.0842022e-19
1.9147893 -3.6893488e+19 -1.7942147
3.6893488e+19 2.1774108 3.6893488e+19
1.8997498 -0 -1.7917954
1.0842022e-19 2.1434107 2
1.8878373 0 -1.7905767
2 2.1145926 -2
1.8777404 3.6893488e+19 -1.7896769
1.0842022e-19 3.1232178 1.0842022e-19
2.7180879 1.0842022e-19 2.6092448
0 3.0819399 3.6893488e+19
2.5898919 -3.6893488e+19 2.5596831
-2 3.1215937 2
2.7160511 -2 2.5962691
1.0842022e-19 3.0865953 2
2.5946589 2 2.5538583
-2 3.1146684 -2
2.7073653 -1.0842022e-19 2.5786486
3.6893488e+19 3.0692098 -0
2.5768569 0 2.5285521
-2 3.0789745 0
2.6625984 -0 2.5364363
0 3.0712149 -2
2.5789099 1.0842022e-19 2.5206561
1.0842022e-19 3.081548 -3.6893488e+19
2.6658256 0 2.5285857
-0 3.0731194 -0
2.5808601 -1.0842022e-19 2.5125875
-3.6893488e+19 3.0831449 3.6893488e+19
2.6678288 -3.6893488e+19 2.5198138
1.0842022e-19 3.0707591 1.0842022e-19
2.5784433 2 2.5010912
-0 3.0909145 -1.0842022e-19
2.6775732 0 2.5157869
0 3.0698647 0
2.5775275 3.6893488e+19 2.4817336
2 3.0669851 -1.0842022e-19
2.6475611 1.0842022e-19 2.475117
-1.0842022e-19 3.0529175 -3.6893488e+19
2.6709702 -0 2.4494159
-1.0842022e-19 3.0817692 3.6893488e+19
2.6332607 -1.0842022e-19 2.4740424
-1.0842022e-19 3.0561912 1.0842022e-19
2.6755199 -1.0842022e-19 2.4356616
1.0842022e-19 3.1009109 3.6893488e+19
2.6553731 3.6893488e+19 2.4804459
2 3.0538902 -0
2.672322 1.0842022e-19 2.4139631
1.0842022e-19 3.0806623 1.0842022e-19
2.6319818 1.0842022e-19 2.4330337
-2 3.0521228 1.0842022e-19
2.6698661 -1.0842022e-19 2.3932755
-3.6893488e+19 3.0776913 0
2.6285501 -2 2.4096699
1.0842022e-19 3.05352 0
2.6718075 3.6893488e+19 2.3767724
-3.6893488e+19 3.0533841 -3.6893488e+19
2.6716187 2 2.3583243
-2 3.0914352 -2
2.6444268 -1.0842022e-19 2.3864014
-2 3.0546181 -3.6893488e+19
2.6733336 0 2.3231826
2 3.0731242 2
2.6232738 -1.0842022e-19 2.3275423
2 3.0725322 2
2.5802588 0 2.3148177
-1.0842022e-19 3.0710106 -3.6893488e+19
2.6526098 2 2.3086052
0 3.0930097 -1.0842022e-19
2.6012268 0 2.3147976
-3.6893488e+19 3.1068659 0
2.6975796 3.6893488e+19 2.3219619
-1.0842022e-19 3.0938692 -1.0842022e-19
2.602107 -0 2.2955596
-1.0842022e-19 3.0343471 2
2.6066267 3.6893488e+19 2.2294705
-3.6893488e+19 3.0923023 -0
2.6005027 0 2.2743104
-3.6893488e+19 3.0359645 0
2.6086555 -0 2.1984594
1.0842022e-19 3.092375 -3.6893488e+19
2.6005769 -0 2.2544844
3.6893488e+19 3.0366194 -2
2.6094766 1.0842022e-19 2.1657081
-3.6893488e+19 3.0127211 1.0842022e-19
2.5190151 -3.6893488e+19 2.1100852
-0 3.0634484 1.0842022e-19
2.6431255 1.0842022e-19 2.167732
-2 3.0076444 -3.6893488e+19
2.5138166 3.6893488e+19 2.0732732
-1.0842022e-19 3.066529 -2
2.6469891 0 2.1346207
2 3.0077143 3.6893488e+19
2.5138881 -1.0842022e-19 2.0435359
2 3.2499812 3.6893488e+19
2.8474166 2 2.2623703
-1.0842022e-19 3.0066488 -0
2.5464814 1.0842022e-19 1.9998873
0 3.0278871 3.6893488e+19
2.6361849 1.0842022e-19 2.0087271
-1.0842022e-19 3.0055778 2
2.5452442 -1.0842022e-19 1.9690803
3.6893488e+19 3.0289598 3.6893488e+19
2.6376758 1.0842022e-19 1.9766964
-3.6893488e+19 3.0053933 3.6893488e+19
2.5450311 0 1.9392067
3.6893488e+19 3.1135182 -2
2.752594 -2 2.0023999
-0 3.0575798 -1.0842022e-19
2.6053169 -3.6893488e+19 1.9420962
-2 3.082459 -1.0842022e-19
2.7120247 0 1.9415275
2 3.0599334 -0
2.6080358 0 1.907546
-0 3.0793428 -1.0842022e-19
2.7076941 -1.0842022e-19 1.900804
1.0842022e-19 3.0594516 -2
2.6074791 3.6893488e+19 1.8676903
-1.0842022e-19 3.0786591 1.0842022e-19
2.706744 3.6893488e+19 1.8483318
-0 3.0599451 3.6893488e+19
2.6080494 2 1.7960886
3.6893488e+19 3.0807042 -2
2.7095859 -2 1.7715946
0 3.0029924 -0
2.5422573 0 1.6617843
-1.0842022e-19 3.0042951 2
2.5103872 -0 1.5804327
1.0842022e-19 3.010047 -0
2.5761495 2 1.4333179
-1.0842022e-19 3.0012422 3.6893488e+19
2.507261 1.0842022e-19 -1.2277685
-1.0842022e-19 3.0048068 -1.0842022e-19
2.510911 1.0842022e-19 -1.6317765
-1.0842022e-19 2.8771808 -3.6893488e+19
2.4730582 -2 -1.6431271
0 3.005029 2
2.5111384 0 -1.7493683
2 2.9942498 -0
2.5599427 -3.6893488e+19 -1.7765563
1.0842022e-19 3.0057833 2
2.5119109 -3.6893488e+19 -1.8089658
1.0842022e-19 2.9959037 -1.0842022e-19
2.5609798 0 -1.8350639
-0 3.0020463 1.0842022e-19
2.5080845 1.0842022e-19 -1.8643594
3.6893488e+19 2.877784 -2
2.4738147 -1.0842022e-19 -1.8292208
-1.0842022e-19 2.8726144 0
2.381541 3.6893488e+19 -1.8448788
-0 2.8736973 -2
2.4686892 1.0842022e-19 -1.870754
1.0842022e-19 2.873904 0
2.3828614 -3.6893488e+19 -1.8818754
2 2.8752542 3.6893488e+19
2.4706419 0 -1.8953589
2 2.783978 0
2.3946497 -0 -1.8640449
-0 2.7749224 -2
2.317591 0 -1.8685377
0 2.7751491 -3.6893488e+19
2.3823798 2 -1.8820953
-0 2.7658231 3.6893488e+19
2.3070796 2 -1.8832202
3.6893488e+19 2.705797 -1.0842022e-19
2.3167148 -1.0842022e-19 -1.8708318
-0 2.6412187 -2
2.2019367 -0 -1.8438629
-3.6893488e+19 2.5825815 3.6893488e+19
2.1341991 3.6893488e+19 -1.8304632
-0 2.5391905 -3.6893488e+19
2.0840735 -1.0842022e-19 -1.8205435
-3.6893488e+19 2.5110269 -1.0842022e-19
2.0515389 0 -1.8167624
-0 2.4691179 -2
2.020963 2 -1.8110467
3.6893488e+19 2.4339101 1.0842022e-19
2.000627 0 -1.8098017
1.0842022e-19 3.1232178 1.0842022e-19
2.7180879 1.0842022e-19 2.6092448
0 3.0819399 3.6893488e+19
2.5898919 -3.6893488e+19 2.5596831
-2 3.1215937 2
2.7160511 -2 2.5962691
1.0842022e-19 3.0865953 2
2.5946589 2 2.5538583
-2 3.1146684 -2
2.7073653 -1.0842022e-19 2.5786486
3.6893488e+19 3.0692098 -0
2.5768569 0 2.5285521
-2 3.0789745 0
2.6625984 -0 2.5364363
0 3.0712149 -2
2.5789099 1.0842022e-19 2.5206561
1.0842022e-19 3.081548 -3.6893488e+19
2.6658256 0 2.5285857
-0 3.0731194 -0
2.5808601 -1.0842022e-19 2.5125875
-3.6893488e+19 3.0831449 3.6893488e+19
2.6678288 -3.6893488e+19 2.5198138
1.0842022e-19 3.0707591 1.0842022e-19
2.5784433 2 2.5010912
-3.6893488e+19 3.0688102 2
2.6498504 -1.0842022e-19 2.4971075
0 3.0698647 0
2.5775275 3.6893488e+19 2.4817336
2 3.0669851 -1.0842022e-19
2.6475611 1.0842022e-19 2.475117
-1.0842022e-19 3.0529175 -3.6893488e+19
2.6709702 -0 2.4494159
-1.0842022e-19 3.0817692 3.6893488e+19
2.6332607 -1.0842022e-19 2.4740424
-1.0842022e-19 3.0561912 1.0842022e-19
2.6755199 -1.0842022e-19 2.4356616
1.0842022e-19 3.1009109 3.6893488e+19
2.6553731 3.6893488e+19 2.4804459
2 3.0538902 -0
2.672322 1.0842022e-19 2.4139631
1.0842022e-19 3.0806623 1.0842022e-19
2.6319818 1.0842022e-19 2.4330337
-2 3.0521228 1.0842022e-19
2.6698661 -1.0842022e-19 2.3932755
-3.6893488e+19 3.0776913 0
2.6285501 -2 2.4096699
1.0842022e-19 3.05352 0
2.6718075 3.6893488e+19 2.3767724
-3.6893488e+19 3.0533841 -3.6893488e+19
2.6716187 2 2.3583243
-2 3.0914352 -2
2.6444268 -1.0842022e-19 2.3864014
0 3.032182 -3.6893488e+19
2.6421535 3.6893488e+19 2.2993789
2 3.0731242 2
2.6232738 -1.0842022e-19 2.3275423
1.0842022e-19 3.0206709 2
2.5271552 -2 2.2641966
0 3.0572946 -1.0842022e-19
2.6354072 -2 2.295419
3.6893488e+19 3.0182095 0
2.5246348 0 2.2422993
-3.6893488e+19 3.1068659 0
2.6975796 3.6893488e+19 2.3219619
-1.0842022e-19 3.0180192 2
2.5244401 3.6893488e+19 2.2107315
-1.0842022e-19 3.0343471 2
2.6066267 3.6893488e+19 2.2294705
3.6893488e+19 3.0152543 1.0842022e-19
2.5216088 0 2.1751328
-3.6893488e+19 3.0359645 0
2.6086555 -0 2.1984594
1.0842022e-19 3.015367 2
2.5217242 0 2.1444902
3.6893488e+19 3.0366194 -2
2.6094766 1.0842022e-19 2.1657081
-3.6893488e+19 3.0127211 1.0842022e-19
2.5190151 -3.6893488e+19 2.1100852
-3.6893488e+19 3.0376174 3.6893488e+19
2.6107285 2 2.1333072
-2 3.0076444 -3.6893488e+19
2.5138166 3.6893488e+19 2.0732732
-1.0842022e-19 3.066529 -2
2.6469891 0 2.1346207
2 3.0077143 3.6893488e+19
2.5138881 -1.0842022e-19 2.0435359
3.6893488e+19 3.015753 -1.0842022e-19
2.6193221 0 2.0289135
-1.0842022e-19 3.0066488 -0
2.5464814 1.0842022e-19 1.9998873
0 3.0278871 3.6893488e+19
2.6361849 1.0842022e-19 2.0087271
-1.0842022e-19 3.0055778 2
2.5452442 -1.0842022e-19 1.9690803
3.6893488e+19 3.0289598 3.6893488e+19
2.6376758 1.0842022e-19 1.9766964
-3.6893488e+19 3.0053933 3.6893488e+19
2.5450311 0 1.9392067
3.6893488e+19 3.1135182 -2
2.752594 -2 2.0023999
0 3.0045664 2
2.5440757 -2 1.9089872
-2 3.082459 -1.0842022e-19
2.7120247 0 1.9415275
-2 3.0083477 -0
2.548444 2 1.8813239
1.0842022e-19 3.0076966 1.0842022e-19
2.6081259 1.0842022e-19 1.8609954
-0 3.0082464 2
2.548327 0 1.8275323
-0 3.0064697 3.6893488e+19
2.606421 2 1.7992774
1.0842022e-19 3.0007479 -0
2.5396645 3.6893488e+19 1.7634119
3.6893488e+19 3.0807042 -2
2.7095859 -2 1.7715946
0 3.0029924 -0
2.5422573 0 1.6617843
-1.0842022e-19 3.0042951 2
2.5103872 -0 1.5804327
1.0842022e-19 3.010047 -0
2.5761495 2 1.4333179
-1.0842022e-19 3.0012422 3.6893488e+19
2.507261 1.0842022e-19 -1.2277685
-1.0842022e-19 3.0048068 -1.0842022e-19
2.510911 1.0842022e-19 -1.6317765
-1.0842022e-19 2.8771808 -3.6893488e+19
2.4730582 -2 -1.6431271
2 2.8739011 -3.6893488e+19
2.3828583 2 -1.682801
3.6893488e+19 2.8784537 -3.6893488e+19
2.4746547 0 -1.7320975
-0 2.8777881 -1.0842022e-19
2.3868384 -2 -1.7608573
-2 2.8797078 3.6893488e+19
2.4762278 0 -1.7858436
3.6893488e+19 2.8737271 -0
2.3826802 1.0842022e-19 -1.8024576
3.6893488e+19 2.877784 -2
2.4738147 -1.0842022e-19 -1.8292208
-1.0842022e-19 2.8726144 0
2.381541 3.6893488e+19 -1.8448788
-0 2.8736973 -2
2.4686892 1.0842022e-19 -1.870754
-0 2.7901218 0
2.2970722 -1.0842022e-19 -1.8296512
-1.0842022e-19 2.7932212 -1.0842022e-19
2.3677566 3.6893488e+19 -1.8521651
2 2.783978 0
2.3946497 -0 -1.8640449
-0 2.7749224 -2
2.317591 0 -1.8685377
0 2.7751491 -3.6893488e+19
2.3823798 2 -1.8820953
-0 2.7658231 3.6893488e+19
2.3070796 2 -1.8832202
3.6893488e+19 2.705797 -1.0842022e-19
2.3167148 -1.0842022e-19 -1.8708318
-0 2.6412187 -2
2.2019367 -0 -1.8438629
-3.6893488e+19 2.5825815 3.6893488e+19
2.1341991 3.6893488e+19 -1.8304632
-0 2.5391905 -3.6893488e+19
2.0840735 -1.0842022e-19 -1.8205435
-3.6893488e+19 2.5110269 -1.0842022e-19
2.0515389 0 -1.8167624
-0 2.4691179 -2
2.020963 2 -1.8110467
3.6893488e+19 2.4339101 1.0842022e-19
2.000627 0 -1.8098017
3.6893488e+19 3.124948 1.0842022e-19
2.7159491 3.6893488e+19 2.6106155
2 3.0821908 -0
2.5864446 3.6893488e+19 2.5597107
-2 3.1226549 2
2.7130995 -2 2.5969744
0 3.0856063 -1.0842022e-19
2.5899038 -3.6893488e+19 2.5527635
0 3.1148791 -2
2.7034361 0 2.5785699
0 3.0883622 -1.0842022e-19
2.592695 -3.6893488e+19 2.545068
-1.0842022e-19 3.079185 0
2.6590793 2 2.5363855
2 3.0707166 2
2.5748236 2 2.5200562
-0 3.0808825 0
2.6611888 -2 2.5277994
2 3.0727701 3.6893488e+19
2.5769033 -3.6893488e+19 2.5121288
-3.6893488e+19 3.1101105 -1.0842022e-19
2.6975105 1.0842022e-19 2.5414152
0 3.0696931 0
2.573787 -3.6893488e+19 2.5000899
0 3.0690711 -0
2.6465104 -1.0842022e-19 2.4971075
-0 3.0698693 -3.6893488e+19
2.5739653 3.6893488e+19 2.4814196
-3.6893488e+19 3.0689774 3.6893488e+19
2.6463943 -1.0842022e-19 2.4777126
2 3.0529301 2
2.6674359 1.0842022e-19 2.4490278
2 3.0803311 3.6893488e+19
2.6278543 -0 2.4716325
-3.6893488e+19 3.0543416 -1.0842022e-19
2.6693809 3.6893488e+19 2.4326379
1.0842022e-19 3.1008489 0
2.651324 1.0842022e-19 2.4799998
3.6893488e+19 3.0527654 1.0842022e-19
2.6672089 3.6893488e+19 2.4120574
-2 3.0804658 2
2.6280086 -0 2.432451
1.0842022e-19 3.0540905 -1.0842022e-19
2.6690347 -2 2.3954782
-0 3.0771358 -0
2.6241994 2 2.4086678
-2 3.053561 0
2.6683054 -3.6893488e+19 2.3764822
3.6893488e+19 3.0725627 1.0842022e-19
2.6189685 2 2.383841
-3.6893488e+19 3.0528688 -3.6893488e+19
2.6673515 -2 2.3573918
-1.0842022e-19 3.091454 -1.0842022e-19
2.6405776 1.0842022e-19 2.3861322
3.6893488e+19 3.0541027 3.6893488e+19
2.6690516 -2 2.3223433
-0 3.075634 -0
2.6224816 -1.0842022e-19 2.3298383
0 3.0713935 2
2.5755091 2 2.3134971
-1.0842022e-19 3.0713916 -1.0842022e-19
2.6493943 0 2.3087192
3.6893488e+19 3.0957975 3.6893488e+19
2.6002257 -2 2.3171446
-1.0842022e-19 3.0710769 2
2.6490033 -2 2.2894366
-2 3.0938272 -3.6893488e+19
2.5982301 -0 2.2953267
1.0842022e-19 3.0700927 -2
2.6477799 2 2.2696521
2 3.092802 3.6893488e+19
2.5971918 -0 2.2745275
2 3.0143371 -3.6893488e+19
2.5177219 0 2.1426973
1.0842022e-19 3.0142248 -3.6893488e+19
2.5176082 3.6893488e+19 2.1119049
-2 3.0669472 -0
2.6438713 -3.6893488e+19 2.1720498
3.6893488e+19 3.015368 -0
2.5187662 3.6893488e+19 2.0827422
-1.0842022e-19 3.0674129 2
2.6444499 0 2.1353796
-0 3.010334 2
2.5136678 -2 2.0463223
-2 3.0048504 -3.6893488e+19
2.5667033 -2 2.0295105
0 3.2506447 3.6893488e+19
2.8453867 -2 2.2628186
1.0842022e-19 3.0044725 0
2.5410824 0 1.997582
3.6893488e+19 3.0264277 0
2.6309159 2 2.0071354
-1.0842022e-19 3.1759636 1.0842022e-19
2.7372453 2 2.1148598
2 3.2251129 1.0842022e-19
2.8273513 -2 2.1357503
-3.6893488e+19 3.0088272 -1.0842022e-19
2.5460637 0 1.9416065
3.6893488e+19 3.1145856 -1.0842022e-19
2.7511983 1.0842022e-19 2.002912
2 3.0027463 -0
2.5391078 -1.0842022e-19 1.9077318
3.6893488e+19 3.0839119 -0
2.7101285 2 1.9421903
-1.0842022e-19 3.0632598 -2
2.6083272 2 1.9091172
0 3.0804093 -3.6893488e+19
2.7053018 -1.0842022e-19 1.9011554
-1.0842022e-19 3.0626881 -2
2.6076732 -2 1.8700442
-2 3.0792522 -0
2.7037077 -1.0842022e-19 1.8485323
-3.6893488e+19 3.0037603 0
2.5402679 -1.0842022e-19 1.7649695
-1.0842022e-19 3.0815356 3.6893488e+19
2.7068541 2 1.7718302
-1.0842022e-19 3.0032728 -1.0842022e-19
2.53971 2 1.6618419
3.6893488e+19 3.0001934 -0
2.5033972 -3.6893488e+19 1.5769843
2 3.0094836 -1.0842022e-19
2.5724609 -1.0842022e-19 1.4327713
2 3.001955 -3.6893488e+19
2.5051813 2 -1.2282625
-2 3.0108845 3.6893488e+19
2.5742021 -0 -1.526861
1.0842022e-19 3.005007 -2
2.5082724 3.6893488e+19 -1.6317921
3.6893488e+19 2.8779666 -3.6893488e+19
2.4697001 3.6893488e+19 -1.6433082
3.6893488e+19 3.0053806 1.0842022e-19
2.508651 -3.6893488e+19 -1.7495458
0 2.9987118 2
2.5598752 -0 -1.7777996
-3.6893488e+19 3.0054388 -1.0842022e-19
2.5087099 -0 -1.8085958
2 2.9983377 -0
2.5596428 -2 -1.8359225
1.0842022e-19 3.0019116 3.6893488e+19
2.5051374 3.6893488e+19 -1.864072
3.6893488e+19 2.8800018 -1.0842022e-19
2.4722292 0 -1.8302519
1.0842022e-19 2.8703804 -0
2.3751233 -2 -1.8434148
2 2.8741817 -3.6893488e+19
2.4649966 2 -1.8708715
0 2.8761508 3.6893488e+19
2.3809676 1.0842022e-19 -1.8825796
0 2.8740704 2
2.4648583 -0 -1.8947819
-3.6893488e+19 2.7848253 3.6893488e+19
2.3924878 1.0842022e-19 -1.8645413
-0 2.7798698 -0
2.3201334 1.0842022e-19 -1.8727338
3.6893488e+19 2.781888 -2
2.3884399 2 -1.8852081
0 2.7642238 0
2.3022366 -3.6893488e+19 -1.882319
0 2.6959488 -3.6893488e+19
2.3072572 2 -1.8653026
-2 2.6430719 -3.6893488e+19
2.1996214 -0 -1.8447343
-2 2.3899782 -2
2.0186937 -2 -1.733247
-3.6893488e+19 2.5819929 0
2.1297555 -3.6893488e+19 -1.8299452
-0 2.5391686 -0
2.08077 -1.0842022e-19 -1.8203816
3.6893488e+19 2.3886139 1.0842022e-19
2.0177538 -1.0842022e-19 -1.7642767
3.6893488e+19 2.5115826 -0
2.0492153 -2 -1.817026
-0 2.4687531 3.6893488e+19
2.0180953 -3.6893488e+19 -1.8107622
-3.6893488e+19 2.3885875 0
2.0177357 -1.0842022e-19 -1.7873838
-3.6893488e+19 2.4344757 -1.0842022e-19
1.9984909 -0 -1.8099034
1.0842022e-19 2.3877246 0
1.9463449 -0 -1.8055775
1.0842022e-19 2.3380311 0
1.9211799 -1.0842022e-19 -1.8021599
1.0842022e-19 2.2978044 3.6893488e+19
1.9008089 -0 -1.7985181
-0 2.263423 1.0842022e-19
1.8833982 -1.0842022e-19 -1.7939736
2 2.217464 -2
1.9110405 -1.0842022e-19 -1.7928758
-0 2.177259 0
1.8971901 0 -1.7914332
1.0842022e-19 2.1408811 -1.0842022e-19
1.8846579 -0 -1.7892131
0 2.1332879 3.6893488e+19
1.8820421 -1.0842022e-19 -1.7978065
3.6893488e+19 3.124948 1.0842022e-19
