# .PCD v0.7 - Point Cloud Data file format
VERSION 0.7
FIELDS x y z
SIZE 4 4 4
TYPE F F F
COUNT 1 1 1
WIDTH 1706
HEIGHT 1
VIEWPOINT 0 0 0 1 0 0 0
POINTS 1706
DATA ascii
2.611619 2 1.3014277
-3.6893488e+19 3.2327895 -0
2.6020908 -1.0842022e-19 -1.5385095
-2 3.1369116 -1.0842022e-19
2.6182086 3.6893488e+19 -1.654968
-1.0842022e-19 3.1312597 -2
2.5280466 -1.0842022e-19 -1.737455
-3.6893488e+19 3.1426616 -3.6893488e+19
2.6236806 -0 -1.7936908
1.0842022e-19 3.130764 2
2.5276852 -1.0842022e-19 -1.8299357
-1.0842022e-19 3.1444097 1.0842022e-19
2.6253443 3.6893488e+19 -1.8799484
-3.6893488e+19 3.1335075 -1.0842022e-19
2.529686 -1.0842022e-19 -1.8967001
0 3.1460774 -0
2.6269312 2 -1.9259381
-1.0842022e-19 3.0729609 0
2.4710608 -1.0842022e-19 -1.9101862
2 3.0669646 -3.6893488e+19
2.5516427 -3.6893488e+19 -1.9271667
2 2.8768439 3.6893488e+19
2.3586276 1.0842022e-19 -1.8769534
-3.6893488e+19 2.8202736 -3.6893488e+19
2.2171412 0 -1.8565794
0 2.7720234 3.6893488e+19
2.2588739 -0 -1.839528
0 2.7313013 1.0842022e-19
2.2603202 -0 -1.8302064
2 2.6977894 1.0842022e-19
2.1334264 3.6893488e+19 -1.8262775
0 2.6551068 1.0842022e-19
2.1882181 1.0842022e-19 -1.8211926
0 2.6338027 -1.0842022e-19
2.0786366 1.0842022e-19 -1.8194821
-0 2.6065278 -2
2.1356685 -1.0842022e-19 -1.8183444
1.0842022e-19 2.5936308 0
2.044239 0 -1.8188062
-1.0842022e-19 2.5624287 -3.6893488e+19
2.087965 1.0842022e-19 -1.8125633
2 2.5497024 2
2.0066247 0 -1.8112149
2 2.5275006 3.6893488e+19
2.0501821 -0 -1.8077204
-1.0842022e-19 2.5207887 3.6893488e+19
1.981867 1.0842022e-19 -1.8087896
-1.0842022e-19 2.4991403 2
2.0199687 3.6893488e+19 -1.8038456
2 2.4935296 0
1.9612961 -0 -1.8066642
2 2.4550958 -2
1.9961464 -2 -1.8013178
-2 2.4498971 0
1.9426156 1.0842022e-19 -1.8035438
-0 3.2863581 -0
2.7725158 -2 2.7681901
-1.0842022e-19 3.2355852 -0
2.7121124 0 2.6901617
-1.0842022e-19 3.2339411 -2
2.7105477 -2 2.6741467
0 3.232326 -1.0842022e-19
2.7090106 2 2.658298
2 3.2568586 -1.0842022e-19
2.7388844 2 2.6390176
-0 3.2545178 1.0842022e-19
2.7344294 -3.6893488e+19 2.6204047
-2 3.2203054 -2
2.7543728 -0 2.5878887
3.6893488e+19 3.2206841 3.6893488e+19
2.7545776 3.6893488e+19 2.5741711
1.0842022e-19 3.2570357 -3.6893488e+19
2.6901813 -1.0842022e-19 2.5919917
3.6893488e+19 3.2617364 1.0842022e-19
2.7831295 -1.0842022e-19 2.5950084
0 3.256566 0
2.6893771 2 2.5763655
1.0842022e-19 3.2428148 2
2.7665474 -1.0842022e-19 2.5602212
0 3.2514122 2
2.6805508 -2 2.5551383
-1.0842022e-19 3.1506383 -0
2.5930526 2 2.4629235
0 3.2250731 0
2.7569516 -3.6893488e+19 2.5210311
-0 3.1523557 0
2.5945232 -3.6893488e+19 2.4415276
-2 3.1531465 3.6893488e+19
2.5952003 -2 2.4190087
-0 3.1532207 -0
2.5952637 3.6893488e+19 2.3957407
-3.6893488e+19 3.6047015 -2
3.0086782 -3.6893488e+19 2.8358278
1.0842022e-19 3.1448383 -3.6893488e+19
2.625752 2 2.3665624
0 3.603071 -1.0842022e-19
3.007489 -1.0842022e-19 2.8140118
-2 3.1451998 1.0842022e-19
2.6260962 -2 2.3439741
1.0842022e-19 3.1485376 -2
2.6292725 0 2.3237915
-2 3.2902386 -3.6893488e+19
2.6733329 -2 2.4497588
-0 3.1491051 1.0842022e-19
2.6298127 0 2.3011682
-2 3.5525515 2
2.9412923 -1.0842022e-19 2.6842446
-3.6893488e+19 3.1489265 -2
2.6296427 3.6893488e+19 2.2779844
-3.6893488e+19 3.1457756 -1.0842022e-19
2.5386329 3.6893488e+19 2.2614286
-3.6893488e+19 3.1457274 3.6893488e+19
2.6265984 -2 2.2529223
-3.6893488e+19 3.1452849 -3.6893488e+19
2.538275 0 2.227118
-0 3.1486616 0
2.6293907 3.6893488e+19 2.2136321
2 3.138793 -1.0842022e-19
2.5335405 -3.6893488e+19 2.1749856
1.0842022e-19 3.1352563 -0
2.6166332 -2 2.1536679
-1.0842022e-19 3.149343 -2
2.6819832 2 2.1485314
3.6893488e+19 3.1394432 3.6893488e+19
2.5834665 1.0842022e-19 2.1113899
2 3.1389878 -0
2.6707816 -1.0842022e-19 2.0931115
-1.0842022e-19 3.1336973 -1.0842022e-19
2.5785465 0 2.0621634
-3.6893488e+19 3.1387308 0
2.6705039 -1.0842022e-19 2.0478537
-3.6893488e+19 3.132966 -1.0842022e-19
2.5779204 -1.0842022e-19 2.0177963
-1.0842022e-19 3.140806 1.0842022e-19
2.6727486 1.0842022e-19 2.0042014
2 3.1263525 2
2.5722575 2 1.9701728
1.0842022e-19 3.1405115 -1.0842022e-19
2.6724298 0 1.9588351
1.0842022e-19 3.1293085 1.0842022e-19
2.5747886 3.6893488e+19 1.9285954
-2 3.1408913 -0
2.6728408 -3.6893488e+19 1.913831
3.6893488e+19 3.1294975 2
2.5749505 0 1.8853652
-0 3.1321738 -2
2.6634107 -0 1.8570051
-2 3.1268265 -3.6893488e+19
2.5726633 -0 1.8078393
0 3.13342 -0
2.6647587 2 1.7691293
1.0842022e-19 3.1243203 3.6893488e+19
2.5705173 -3.6893488e+19 1.6924205
-3.6893488e+19 3.1283529 -0
2.5259268 1.0842022e-19 1.5900655
2 3.1299872 0
2.611619 2 1.3014277
-2 3.1277096 -2
2.5254576 -3.6893488e+19 -1.5029213
-2 3.1369116 -1.0842022e-19
2.6182086 3.6893488e+19 -1.654968
-1.0842022e-19 3.1312597 -2
2.5280466 -1.0842022e-19 -1.737455
-3.6893488e+19 3.1426616 -3.6893488e+19
2.6236806 -0 -1.7936908
3.6893488e+19 3.0892663 1.0842022e-19
2.4948432 3.6893488e+19 -1.8076007
-1.0842022e-19 3.1444097 1.0842022e-19
2.6253443 3.6893488e+19 -1.8799484
3.6893488e+19 3.0796604 3.6893488e+19
2.4808323 1.0842022e-19 -1.8761024
0 3.1460774 -0
2.6269312 2 -1.9259381
-1.0842022e-19 3.0729609 0
2.4710608 -1.0842022e-19 -1.9101862
2 3.0669646 -3.6893488e+19
2.5516427 -3.6893488e+19 -1.9271667
2 2.8768439 3.6893488e+19
2.3586276 1.0842022e-19 -1.8769534
-3.6893488e+19 2.8202736 -3.6893488e+19
2.2171412 0 -1.8565794
0 2.7720234 3.6893488e+19
2.2588739 -0 -1.839528
0 2.7313013 1.0842022e-19
2.2603202 -0 -1.8302064
2 2.6977894 1.0842022e-19
2.1334264 3.6893488e+19 -1.8262775
0 2.6551068 1.0842022e-19
2.1882181 1.0842022e-19 -1.8211926
0 2.6338027 -1.0842022e-19
2.0786366 1.0842022e-19 -1.8194821
-0 2.6065278 -2
2.1356685 -1.0842022e-19 -1.8183444
1.0842022e-19 2.5936308 0
2.044239 0 -1.8188062
-1.0842022e-19 2.5624287 -3.6893488e+19
2.087965 1.0842022e-19 -1.8125633
2 2.5497024 2
2.0066247 0 -1.8112149
2 2.5275006 3.6893488e+19
2.0501821 -0 -1.8077204
-1.0842022e-19 2.5207887 3.6893488e+19
1.981867 1.0842022e-19 -1.8087896
-1.0842022e-19 2.4991403 2
2.0199687 3.6893488e+19 -1.8038456
2 2.4935296 0
1.9612961 -0 -1.8066642
2 2.4550958 -2
1.9961464 -2 -1.8013178
-2 2.4498971 0
1.9426156 1.0842022e-19 -1.8035438
-3.6893488e+19 3.2873662 -1.0842022e-19
2.7702925 1.0842022e-19 2.7689676
2 3.2342527 -0
2.7054811 -3.6893488e+19 2.6886814
-2 3.2878492 1.0842022e-19
2.7707469 -1.0842022e-19 2.7521269
1.0842022e-19 3.2856481 0
2.7686765 -1.0842022e-19 2.7333131
-1.0842022e-19 3.2332165 1.0842022e-19
2.7045066 2 2.6443918
1.0842022e-19 3.2546458 -3.6893488e+19
2.7290323 1.0842022e-19 2.6203613
-0 3.2250693 -2
2.7542777 -3.6893488e+19 2.5910704
-1.0842022e-19 3.2442966 -1.0842022e-19
2.764569 -3.6893488e+19 2.5609345
-2 3.2477956 -3.6893488e+19
2.7664418 3.6893488e+19 2.5484517
-0 3.2604799 2
2.6903687 -3.6893488e+19 2.5508075
-1.0842022e-19 3.2439497 -3.6893488e+19
2.7643833 -3.6893488e+19 2.5316017
0 3.2591999 -0
2.6882043 3.6893488e+19 2.534276
-3.6893488e+19 3.2546434 -2
2.6805015 -1.0842022e-19 2.5145152
-2 3.2526379 1.0842022e-19
2.7704458 -1.0842022e-19 2.5083907
3.6893488e+19 3.2573521 0
2.6850808 1.0842022e-19 2.5024374
1.0842022e-19 3.6044576 3.6893488e+19
3.0046608 -2 2.8354375
3.6893488e+19 3.2531767 3.6893488e+19
2.7262688 -0 2.4698
-2 3.604599 -3.6893488e+19
3.0047624 -2 2.8152213
-0 3.2531731 -0
2.7262621 -0 2.4404407
-3.6893488e+19 3.2548976 -1.0842022e-19
2.7295063 -3.6893488e+19 2.4139259
-0 3.2902999 -1.0842022e-19
2.6671333 -0 2.4496403
1.0842022e-19 3.2542341 0
2.7282579 -0 2.3834565
-1.0842022e-19 3.5526109 -2
2.934823 -0 2.6841238
2 3.2534811 -0
2.7268414 -3.6893488e+19 2.3530478
1.0842022e-19 3.5528128 1.0842022e-19
2.9351132 3.6893488e+19 2.6498547
0 3.2543375 0
2.7284524 3.6893488e+19 2.3249092
1.0842022e-19 3.5507607 -2
2.9321644 0 2.6128528
-0 3.2459507 -1.0842022e-19
2.7164841 2 2.2882094
3.6893488e+19 3.549505 0
2.9303603 2 2.5772307
-1.0842022e-19 3.2469118 1.0842022e-19
2.7173882 -2 2.2601683
2 3.229116 3.6893488e+19
2.7564437 -0 2.2278049
1.0842022e-19 3.2600331 2
2.6896131 -1.0842022e-19 2.2323344
-2 3.2307522 0
2.7573197 1.0842022e-19 2.1737547
3.6893488e+19 3.2621756 -0
2.6932352 -2 2.1763566
0 3.2324269 1.0842022e-19
2.7582159 -3.6893488e+19 2.1193848
2 3.2611756 0
2.6915448 -1.0842022e-19 2.1150603
1.0842022e-19 3.2375779 1.0842022e-19
2.760973 2 2.0669234
0 3.2790456 -2
2.7217555 3.6893488e+19 2.0763109
1.0842022e-19 3.1368949 -3.6893488e+19
2.664166 0 1.9567552
3.6893488e+19 3.2789555 2
2.7216034 -1.0842022e-19 2.012543
3.6893488e+19 3.2368617 3.6893488e+19
2.7605896 -2 1.9539104
3.6893488e+19 3.2791116 -2
2.7218673 0 1.949005
0 3.1334698 1.0842022e-19
2.6604996 -3.6893488e+19 1.8576276
1.0842022e-19 3.1250803 2
2.5670562 3.6893488e+19 1.8068905
1.0842022e-19 3.1334491 1.0842022e-19
2.6604774 3.6893488e+19 1.7690386
-1.0842022e-19 3.1257825 2
2.5676498 2 1.6930646
-3.6893488e+19 3.2613156 1.0842022e-19
2.6254859 3.6893488e+19 1.648468
1.0842022e-19 3.1315615 2
2.6088912 1.0842022e-19 1.3020488
0 3.2330804 2
2.5970702 2 -1.5385303
-0 3.1356003 1.0842022e-19
2.6126902 2 -1.6543471
-0 3.1300566 -3.6893488e+19
2.5230525 1.0842022e-19 -1.7365935
-3.6893488e+19 3.1349661 -0
2.6120937 -0 -1.7902822
0 3.1282384 -1.0842022e-19
2.5217462 -1.0842022e-19 -1.8284798
0 3.1334925 -3.6893488e+19
2.6107073 3.6893488e+19 -1.876273
-0 3.1347966 -0
2.526458 1.0842022e-19 -1.8971235
-0 3.0789666 3.6893488e+19
2.5594213 3.6893488e+19 -1.8960369
-2 3.0700705 -3.6893488e+19
2.4599109 1.0842022e-19 -1.9086773
-0 3.0662491 -1.0842022e-19
2.5474594 0 -1.9266573
-0 3.0652306 -0
2.4529564 -0 -1.9420455
-3.6893488e+19 2.8816369 1.0842022e-19
2.3589623 -0 -1.8784883
-1.0842022e-19 2.8183362 -2
2.2074189 2 -1.8550693
-1.0842022e-19 2.7729213 0
2.256706 0 -1.8401028
-2 2.7333291 0
2.2586989 -0 -1.8309257
1.0842022e-19 2.698894 3.6893488e+19
2.129451 -1.0842022e-19 -1.8266615
-2 2.6543076 -0
2.1828063 -1.0842022e-19 -1.8206675
-3.6893488e+19 2.6347489 -1.0842022e-19
2.0752292 -0 -1.8198529
-3.6893488e+19 2.6071408 0
2.1323149 -3.6893488e+19 -1.8185402
3.6893488e+19 2.5928464 -0
2.0398088 -1.0842022e-19 -1.8182559
-1.0842022e-19 2.562047 0
2.0840425 -1.0842022e-19 -1.812202
0 2.5499916 -0
2.0035834 1.0842022e-19 -1.8112906
-0 2.5278168 -3.6893488e+19
2.0473993 -3.6893488e+19 -1.8077996
2 2.5209398 0
1.9790261 1.0842022e-19 -1.8087896
2 2.4997332 -0
2.0174789 -3.6893488e+19 -1.8039317
-0 2.4933176 3.6893488e+19
1.9585012 -3.6893488e+19 -1.8064849
-0 2.46768 0
2.0003228 -1.0842022e-19 -1.8060656
3.6893488e+19 2.4496613 -2
1.9400498 1.0842022e-19 -1.8033507
3.6893488e+19 2.4224296 -3.6893488e+19
1.9761027 -3.6893488e+19 -1.8008562
-2 2.3776925 0
1.8856771 3.6893488e+19 -1.8009664
-1.0842022e-19 2.3306832 -2
1.8625802 3.6893488e+19 -1.7980796
-3.6893488e+19 2.2937632 -1.0842022e-19
1.8360549 1.0842022e-19 -1.7957083
1.0842022e-19 2.2659247 2
1.8160542 0 -1.7949384
-2 2.2241428 0
1.876891 0 -1.7934178
0 2.1840241 2
1.8573086 2 -1.7920963
0 2.1544416 3.6893488e+19
1.8414748 -3.6893488e+19 -1.7928175
1.0842022e-19 2.1140783 2
1.8198706 -1.0842022e-19 -1.7870321
-3.6893488e+19 3.2873662 -1.0842022e-19
2.7702925 1.0842022e-19 2.7689676
2 3.2342527 -0
2.7054811 -3.6893488e+19 2.6886814
-0 3.2337356 -1.0842022e-19
2.7049947 -1.0842022e-19 2.6737037
1.0842022e-19 3.2295265 1.0842022e-19
2.7010357 -3.6893488e+19 2.6556764
-1.0842022e-19 3.2332165 1.0842022e-19
2.7045066 2 2.6443918
1.0842022e-19 3.2546458 -3.6893488e+19
2.7290323 1.0842022e-19 2.6203613
-0 3.2250693 -2
2.7542777 -3.6893488e+19 2.5910704
-1.0842022e-19 3.2442966 -1.0842022e-19
2.764569 -3.6893488e+19 2.5609345
-2 3.2477956 -3.6893488e+19
2.7664418 3.6893488e+19 2.5484517
-0 3.2604799 2
2.6903687 -3.6893488e+19 2.5508075
0 3.2253187 3.6893488e+19
2.7544112 3.6893488e+19 2.5209801
0 3.1525803 -3.6893488e+19
2.5903018 -3.6893488e+19 2.4415276
-3.6893488e+19 3.1519761 -1.0842022e-19
2.5897913 -2 2.4175594
-2 3.2526379 1.0842022e-19
2.7704458 -1.0842022e-19 2.5083907
-1.0842022e-19 3.1541438 -3.6893488e+19
2.5916235 -3.6893488e+19 2.3964255
1.0842022e-19 3.6044576 3.6893488e+19
3.0046608 -2 2.8354375
1.0842022e-19 3.1461413 0
2.6226048 -0 2.3675439
-2 3.604599 -3.6893488e+19
3.0047624 -2 2.8152213
1.0842022e-19 3.1470182 3.6893488e+19
2.6234295 0 2.3453426
2 3.1474831 -1.0842022e-19
2.6238668 -3.6893488e+19 2.3227344
-0 3.2902999 -1.0842022e-19
2.6671333 -0 2.4496403
-3.6893488e+19 3.148262 1.0842022e-19
2.6245997 -0 2.3003457
-0 3.1422675 2
2.5318255 1.0842022e-19 2.2813723
-0 3.1486285 -0
2.6249442 -1.0842022e-19 2.2776043
1.0842022e-19 3.5528128 1.0842022e-19
2.9351132 3.6893488e+19 2.6498547
-1.0842022e-19 3.1463976 -0
2.6228459 2 2.2531936
-1.0842022e-19 3.1436322 -1.0842022e-19
2.5328059 1.0842022e-19 2.2248976
-2 3.1495764 -0
2.6258359 -1.0842022e-19 2.2144079
-1.0842022e-19 3.1368906 -1.0842022e-19
2.5279624 -3.6893488e+19 2.1727057
-1.0842022e-19 3.2469118 1.0842022e-19
2.7173882 -2 2.2601683
-3.6893488e+19 3.1416395 3.6893488e+19
2.6692452 1.0842022e-19 2.140568
0 3.1373405 2
2.5774198 -0 2.1092381
3.6893488e+19 3.1398048 -0
2.6672812 -1.0842022e-19 2.0935898
2 3.1345832 -0
2.575089 1.0842022e-19 2.0627096
-1.0842022e-19 3.1386433 2
2.6660378 -0 2.0475767
-3.6893488e+19 3.1354096 -3.6893488e+19
2.5757875 2 2.0193548
-3.6893488e+19 3.1377938 3.6893488e+19
2.6651285 3.6893488e+19 2.0020642
0 3.1302598 -1.0842022e-19
2.5714343 0 1.9723345
1.0842022e-19 3.1368949 -3.6893488e+19
2.664166 0 1.9567552
3.6893488e+19 3.1332181 3.6893488e+19
2.573935 -0 1.9303356
3.6893488e+19 3.2368617 3.6893488e+19
2.7605896 -2 1.9539104
0 3.1279058 -3.6893488e+19
2.5694444 -2 1.8847222
0 3.1334698 1.0842022e-19
2.6604996 -3.6893488e+19 1.8576276
1.0842022e-19 3.1250803 2
2.5670562 3.6893488e+19 1.8068905
1.0842022e-19 3.1334491 1.0842022e-19
2.6604774 3.6893488e+19 1.7690386
-1.0842022e-19 3.1257825 2
2.5676498 2 1.6930646
3.6893488e+19 3.1297629 -1.0842022e-19
2.5228415 -2 1.5907644
1.0842022e-19 3.1315615 2
2.6088912 1.0842022e-19 1.3020488
-3.6893488e+19 3.1289346 2
2.5222466 -0 -1.5032754
-0 3.1356003 1.0842022e-19
2.6126902 2 -1.6543471
-0 3.1300566 -3.6893488e+19
2.5230525 1.0842022e-19 -1.7365935
-3.6893488e+19 3.1349661 -0
2.6120937 -0 -1.7902822
-0 3.0936406 0
2.4937789 -3.6893488e+19 -1.8098673
0 3.1334925 -3.6893488e+19
2.6107073 3.6893488e+19 -1.876273
0 3.0783718 1.0842022e-19
2.471839 -3.6893488e+19 -1.8755498
-0 3.0789666 3.6893488e+19
2.5594213 3.6893488e+19 -1.8960369
-2 3.0700705 -3.6893488e+19
2.4599109 1.0842022e-19 -1.9086773
-0 3.0662491 -1.0842022e-19
2.5474594 0 -1.9266573
-0 3.0652306 -0
2.4529564 -0 -1.9420455
-3.6893488e+19 2.8816369 1.0842022e-19
2.3589623 -0 -1.8784883
-1.0842022e-19 2.8183362 -2
2.2074189 2 -1.8550693
-1.0842022e-19 2.7729213 0
2.256706 0 -1.8401028
-2 2.7333291 0
2.2586989 -0 -1.8309257
1.0842022e-19 2.698894 3.6893488e+19
2.129451 -1.0842022e-19 -1.8266615
-2 2.6543076 -0
2.1828063 -1.0842022e-19 -1.8206675
-3.6893488e+19 2.6347489 -1.0842022e-19
2.0752292 -0 -1.8198529
-3.6893488e+19 2.6071408 0
2.1323149 -3.6893488e+19 -1.8185402
3.6893488e+19 2.5928464 -0
2.0398088 -1.0842022e-19 -1.8182559
-1.0842022e-19 2.562047 0
2.0840425 -1.0842022e-19 -1.812202
0 2.5499916 -0
2.0035834 1.0842022e-19 -1.8112906
-0 2.5278168 -3.6893488e+19
2.0473993 -3.6893488e+19 -1.8077996
2 2.5209398 0
1.9790261 1.0842022e-19 -1.8087896
2 2.4997332 -0
2.0174789 -3.6893488e+19 -1.8039317
-0 2.4933176 3.6893488e+19
1.9585012 -3.6893488e+19 -1.8064849
-0 2.46768 0
2.0003228 -1.0842022e-19 -1.8060656
3.6893488e+19 2.4496613 -2
1.9400498 1.0842022e-19 -1.8033507
3.6893488e+19 2.4224296 -3.6893488e+19
1.9761027 -3.6893488e+19 -1.8008562
-2 2.3776925 0
1.8856771 3.6893488e+19 -1.8009664
-1.0842022e-19 2.3306832 -2
1.8625802 3.6893488e+19 -1.7980796
-3.6893488e+19 2.2937632 -1.0842022e-19
1.8360549 1.0842022e-19 -1.7957083
1.0842022e-19 2.2659247 2
1.8160542 0 -1.7949384
-2 2.2241428 0
1.876891 0 -1.7934178
0 2.1840241 2
1.8573086 2 -1.7920963
0 2.1544416 3.6893488e+19
1.8414748 -3.6893488e+19 -1.7928175
1.0842022e-19 2.1140783 2
1.8198706 -1.0842022e-19 -1.7870321
-1.0842022e-19 3.2861178 0
2.7659535 -3.6893488e+19 2.7676349
-2 3.2870853 1.0842022e-19
2.7668529 -3.6893488e+19 2.7599094
-0 3.2880108 2
2.7677131 0 2.7521141
1.0842022e-19 3.2851524 -3.6893488e+19
2.7650559 0 2.7321789
1.0842022e-19 3.2281687 -3.6893488e+19
2.6944692 -1.0842022e-19 2.6400325
-1.0842022e-19 3.2547419 1.0842022e-19
2.7235777 -2 2.6202741
-2 3.2570474 -0
2.772279 1.0842022e-19 2.6188312
-2 3.2559066 0
2.7710707 -2 2.6020033
2 3.2197914 -1.0842022e-19
2.7476292 0 2.5591941
-1.0842022e-19 3.2484646 -2
2.7640007 1.0842022e-19 2.5633378
-2 3.2498772 -2
2.7647488 -3.6893488e+19 2.5494905
0 3.2604418 2
2.6845999 1.0842022e-19 2.5505979
-1.0842022e-19 3.2500501 2
2.7648671 -2 2.5349092
3.6893488e+19 3.2568259 3.6893488e+19
2.6785662 3.6893488e+19 2.5315175
-1.0842022e-19 3.2551024 -2
2.6756902 1.0842022e-19 2.5148461
-3.6893488e+19 3.2521996 -2
2.767144 -3.6893488e+19 2.5077624
3.6893488e+19 3.2574179 -3.6893488e+19
2.679554 -3.6893488e+19 2.5023627
2 3.6046386 1.0842022e-19
3.0009532 3.6893488e+19 2.8354521
2 3.2532563 -2
2.7208157 2 2.4696598
1.0842022e-19 3.6058891 -0
3.001838 2 2.8162203
-0 3.2533283 -2
2.7209496 -0 2.4404407
-0 3.2560384 -0
2.7259879 2 2.4155238
-0 3.2549355 3.6893488e+19
2.7239375 1.0842022e-19 2.384279
-0 3.5534267 2
2.9294283 -0 2.6850908
-1.0842022e-19 3.2554715 0
2.7249341 0 2.3556023
1.0842022e-19 3.5531998 2
2.929107 -2 2.6501784
0 3.2552066 3.6893488e+19
2.7244413 1.0842022e-19 2.3258197
3.6893488e+19 3.5510471 2
2.9260604 3.6893488e+19 2.6130285
1.0842022e-19 3.2509816 2
2.7165868 2 2.2915246
3.6893488e+19 3.5503051 -3.6893488e+19
2.9250102 -2 2.5779514
2 3.2504916 1.0842022e-19
2.7156761 -2 2.2621393
1.0842022e-19 3.2445879 -2
2.7619474 3.6893488e+19 2.2428904
1.0842022e-19 3.2605886 3.6893488e+19
2.684845 -2 2.2330987
-3.6893488e+19 3.2389009 -3.6893488e+19
2.7589355 -3.6893488e+19 2.1806364
-0 3.2616477 3.6893488e+19
2.6866124 3.6893488e+19 2.1752641
-1.0842022e-19 3.2327032 0
2.7556531 1.0842022e-19 2.1193388
2 3.2601733 -3.6893488e+19
2.6841519 1.0842022e-19 2.1134593
3.6893488e+19 3.2401218 -2
2.759582 -1.0842022e-19 2.0683546
3.6893488e+19 3.2789087 0
2.715416 -0 2.0759714
-3.6893488e+19 3.1334209 1.0842022e-19
2.656141 2 1.9547558
-0 3.2774272 -3.6893488e+19
2.7129436 1.0842022e-19 2.0109611
-0 3.1351287 1.0842022e-19
2.6579499 2 1.9111894
0 3.2792654 -3.6893488e+19
2.7160108 0 1.949005
-1.0842022e-19 3.1322575 -1.0842022e-19
2.6549084 -0 1.8567305
-3.6893488e+19 3.123482 -3.6893488e+19
2.5616152 -3.6893488e+19 1.8060157
1.0842022e-19 3.1340189 -3.6893488e+19
2.656774 -0 1.7691519
-1.0842022e-19 3.1259894 3.6893488e+19
2.5637074 2 1.6930646
-1.0842022e-19 3.2622533 1.0842022e-19
2.6211572 0 1.6489311
-3.6893488e+19 3.2357678 -1.0842022e-19
2.5937443 -1.0842022e-19 -1.5393633
3.6893488e+19 3.134254 0
2.6071734 -2 -1.6537138
2 3.1361458 -1.0842022e-19
2.6089318 -1.0842022e-19 -1.7906871
2 3.1275229 2
2.5171468 -2 -1.8279999
-1.0842022e-19 3.1346405 -3.6893488e+19
2.6075325 -2 -1.8765734
-0 3.1325769 -2
2.5207231 -0 -1.8962064
1.0842022e-19 3.0803246 1.0842022e-19
2.5570447 -1.0842022e-19 -1.8965498
3.6893488e+19 3.0700049 -2
2.4528906 2 -1.9085706
-2 3.0661387 0
2.5438588 2 -1.9264874
-1.0842022e-19 3.0640864 -2
2.4445145 2 -1.941259
-2 2.8797419 1.0842022e-19
2.3529794 -0 -1.877772
-0 2.8154724 -0
2.196476 -2 -1.8528929
-0 2.7705348 1.0842022e-19
2.2514687 1.0842022e-19 -1.8380911
2 2.7368042 0
2.2578251 3.6893488e+19 -1.8322616
-3.6893488e+19 2.7012181 2
2.1264746 -3.6893488e+19 -1.827594
-1.0842022e-19 2.6525393 3.6893488e+19
2.1763921 2 -1.8196758
0 2.6347167 3.6893488e+19
2.0709889 3.6893488e+19 -1.8197293
2 2.6063051 1.0842022e-19
2.1274183 1.0842022e-19 -1.8179526
-3.6893488e+19 2.5915701 -0
2.0349896 -0 -1.8174306
-1.0842022e-19 2.5622649 -3.6893488e+19
2.0807683 -1.0842022e-19 -1.812202
2 2.5505228 -3.6893488e+19
2.0007415 0 -1.8115178
-1.0842022e-19 2.5287335 1.0842022e-19
2.0452502 2 -1.8082749
1.0842022e-19 2.5198696 1.0842022e-19
1.9751661 -2 -1.8079628
-2 2.5012448 3.6893488e+19
2.0161326 -1.0842022e-19 -1.8047932
-3.6893488e+19 2.4928579 -2
1.9556084 3.6893488e+19 -1.8062161
0 2.467766 0
1.9977419 -2 -1.8059725
-2 2.449178 -1.0842022e-19
1.9373862 0 -1.803061
-1.0842022e-19 3.2861178 0
2.7659535 -3.6893488e+19 2.7676349
-2 3.2870853 1.0842022e-19
2.7668529 -3.6893488e+19 2.7599094
-0 3.2880108 2
2.7677131 0 2.7521141
-0 3.2261236 -1.0842022e-19
2.6925683 1.0842022e-19 2.6525509
1.0842022e-19 3.2281687 -3.6893488e+19
2.6944692 -1.0842022e-19 2.6400325
-1.0842022e-19 3.2547419 1.0842022e-19
2.7235777 -2 2.6202741
-2 3.2250438 2
2.7515965 0 2.5908144
-2 3.2559066 0
2.7710707 -2 2.6020033
2 3.2197914 -1.0842022e-19
2.7476292 0 2.5591941
-1.0842022e-19 3.2484646 -2
2.7640007 1.0842022e-19 2.5633378
-2 3.2498772 -2
2.7647488 -3.6893488e+19 2.5494905
0 3.2604418 2
2.6845999 1.0842022e-19 2.5505979
-1.0842022e-19 3.2500501 2
2.7648671 -2 2.5349092
3.6893488e+19 3.2568259 3.6893488e+19
2.6785662 3.6893488e+19 2.5315175
3.6893488e+19 3.15241 -2
2.5857513 -2 2.4177799
-3.6893488e+19 3.2521996 -2
2.767144 -3.6893488e+19 2.5077624
3.6893488e+19 3.152787 -3.6893488e+19
2.5860658 3.6893488e+19 2.3948772
2 3.6046386 1.0842022e-19
3.0009532 3.6893488e+19 2.8354521
-2 3.144418 -3.6893488e+19
2.616621 3.6893488e+19 2.365721
1.0842022e-19 3.6058891 -0
3.001838 2 2.8162203
1.0842022e-19 3.1487145 2
2.6206148 -1.0842022e-19 2.3466055
-0 3.1477873 -2
2.6197529 1.0842022e-19 2.3227837
3.6893488e+19 3.1488094 -0
2.620703 -1.0842022e-19 2.3005741
-1.0842022e-19 3.1411941 -2
2.5268209 -3.6893488e+19 2.2804711
-1.0842022e-19 3.2554715 0
2.7249341 0 2.3556023
3.6893488e+19 3.1410573 -0
2.5267241 -2 2.2580686
-2 3.1492808 3.6893488e+19
2.6211412 2 2.254879
-1.0842022e-19 3.1434786 3.6893488e+19
2.5284376 -2 2.2244904
2 3.1495483 -3.6893488e+19
2.6213896 3.6893488e+19 2.2140906
-1.0842022e-19 3.135782 -1.0842022e-19
2.5229912 3.6893488e+19 2.1712976
2 3.2504916 1.0842022e-19
2.7156761 -2 2.2621393
0 3.1418529 -2
2.6650722 1.0842022e-19 2.1405079
-3.6893488e+19 3.1355684 3.6893488e+19
2.5716996 1.0842022e-19 2.107398
-2 3.1413741 -1.0842022e-19
2.6645653 -3.6893488e+19 2.0947323
-3.6893488e+19 3.1352837 2
2.5714622 -0 2.0631068
-1.0842022e-19 3.2327032 0
2.7556531 1.0842022e-19 2.1193388
1.0842022e-19 3.137517 -3.6893488e+19
2.5733252 -3.6893488e+19 2.0206783
3.6893488e+19 3.2401218 -2
2.759582 -1.0842022e-19 2.0683546
-0 3.1366446 3.6893488e+19
2.5725975 -3.6893488e+19 1.9759432
-3.6893488e+19 3.1334209 1.0842022e-19
2.656141 2 1.9547558
2 3.1388721 -0
2.574456 2 1.9328957
-0 3.1351287 1.0842022e-19
2.6579499 2 1.9111894
0 3.1241992 -2
2.5622134 -3.6893488e+19 1.8833274
-1.0842022e-19 3.1322575 -1.0842022e-19
2.6549084 -0 1.8567305
-3.6893488e+19 3.123482 -3.6893488e+19
2.5616152 -3.6893488e+19 1.8060157
1.0842022e-19 3.1340189 -3.6893488e+19
2.656774 -0 1.7691519
-1.0842022e-19 3.1259894 3.6893488e+19
2.5637074 2 1.6930646
-2 3.1381257 -2
2.5246496 1.0842022e-19 1.5954129
-3.6893488e+19 3.1349893 -3.6893488e+19
2.5224302 -3.6893488e+19 -1.505264
3.6893488e+19 3.134254 0
2.6071734 -2 -1.6537138
2 3.1361458 -1.0842022e-19
2.6089318 -1.0842022e-19 -1.7906871
2 3.0938628 -1.0842022e-19
2.4866557 3.6893488e+19 -1.8099004
-1.0842022e-19 3.1346405 -3.6893488e+19
2.6075325 -2 -1.8765734
3.6893488e+19 3.0780637 0
2.4642961 -0 -1.8753735
1.0842022e-19 3.0803246 1.0842022e-19
2.5570447 -1.0842022e-19 -1.8965498
3.6893488e+19 3.0700049 -2
2.4528906 2 -1.9085706
-2 3.0661387 0
2.5438588 2 -1.9264874
-1.0842022e-19 3.0640864 -2
2.4445145 2 -1.941259
-2 2.8797419 1.0842022e-19
2.3529794 -0 -1.877772
-0 2.8154724 -0
2.196476 -2 -1.8528929
-0 2.7705348 1.0842022e-19
2.2514687 1.0842022e-19 -1.8380911
2 2.7368042 0
2.2578251 3.6893488e+19 -1.8322616
-3.6893488e+19 2.7012181 2
2.1264746 -3.6893488e+19 -1.827594
-1.0842022e-19 2.6525393 3.6893488e+19
2.1763921 2 -1.8196758
0 2.6347167 3.6893488e+19
2.0709889 3.6893488e+19 -1.8197293
2 2.6063051 1.0842022e-19
2.1274183 1.0842022e-19 -1.8179526
-3.6893488e+19 2.5915701 -0
2.0349896 -0 -1.8174306
-1.0842022e-19 2.5622649 -3.6893488e+19
2.0807683 -1.0842022e-19 -1.812202
2 2.5505228 -3.6893488e+19
2.0007415 0 -1.8115178
-1.0842022e-19 2.5287335 1.0842022e-19
2.0452502 2 -1.8082749
1.0842022e-19 2.5198696 1.0842022e-19
1.9751661 -2 -1.8079628
-2 2.5012448 3.6893488e+19
2.0161326 -1.0842022e-19 -1.8047932
-3.6893488e+19 2.4928579 -2
1.9556084 3.6893488e+19 -1.8062161
0 2.467766 0
1.9977419 -2 -1.8059725
-2 2.449178 -1.0842022e-19
1.9373862 0 -1.803061
-2 3.2856231 0
2.7623365 0 2.7670105
3.6893488e+19 3.2868876 2
2.7634978 0 2.7595732
-2 3.2887514 2
2.7652097 -2 2.752609
2 3.2853253 3.6893488e+19
2.7620628 0 2.7321789
-3.6893488e+19 3.2267556 -0
2.687886 -0 2.6386445
-1.0842022e-19 3.2545664 0
2.7176237 -2 2.6197948
-0 3.2568529 2
2.7691905 0 2.6182973
-2 3.2561431 -1.0842022e-19
2.7684467 -1.0842022e-19 2.6020854
0 3.2504854 -3.6893488e+19
2.762517 1.0842022e-19 2.5499384
2 3.286572 -1.0842022e-19
2.7219307 -2 2.5805771
0 3.2517204 -2
2.7638113 -2 2.5366142
-2 3.2879088 0
2.7241325 3.6893488e+19 2.5654173
0 3.2557271 0
2.6711349 -0 2.5153501
3.6893488e+19 3.251369 2
2.7634432 2 2.506736
-3.6893488e+19 3.2566917 2
2.6727238 3.6893488e+19 2.5015142
-2 3.2521386 -1.0842022e-19
2.7131639 0 2.467304
-1.0842022e-19 3.2530124 -2
2.7147689 1.0842022e-19 2.439625
0 3.1410387 2
2.522481 -2 2.3249054
2 3.2574213 -3.6893488e+19
2.7228675 -3.6893488e+19 2.4175146
-0 3.1403885 3.6893488e+19
2.522028 0 2.3020525
-3.6893488e+19 3.2551961 -2
2.7187803 -2 2.3844388
-0 3.1404543 -2
2.5220737 3.6893488e+19 2.2798119
0 3.2555506 -3.6893488e+19
2.7194312 3.6893488e+19 2.3554966
-0 3.141084 0
2.5225127 3.6893488e+19 2.2579675
-3.6893488e+19 3.255847 -2
2.7199759 3.6893488e+19 2.3264396
-1.0842022e-19 3.5517998 -1.0842022e-19
2.9205964 -1.0842022e-19 2.6137686
-0 3.2517564 -2
2.7124617 -1.0842022e-19 2.2922475
2 3.1351612 -0
2.5183854 -3.6893488e+19 2.1704257
-1.0842022e-19 3.2535918 -1.0842022e-19
2.7158332 3.6893488e+19 2.265223
-3.6893488e+19 3.2384722 -3.6893488e+19
2.7559676 -1.0842022e-19 2.2364595
1.0842022e-19 3.1373367 -2
2.5689356 1.0842022e-19 2.1088419
-2 3.2386653 2
2.7560689 -0 2.1801317
-2 3.1383975 -1.0842022e-19
2.5698092 2 2.0654657
-1.0842022e-19 3.2342448 3.6893488e+19
2.7537525 0 2.1202624
-0 3.1346695 -1.0842022e-19
2.5667396 -1.0842022e-19 2.0185435
-0 3.2391617 1.0842022e-19
2.7563291 2 2.0675116
-3.6893488e+19 3.278785 0
2.7091074 -2 2.0756497
2 3.1321754 -1.0842022e-19
2.6505327 3.6893488e+19 1.9539496
0 3.27793 2
2.7076991 -1.0842022e-19 2.0112917
-3.6893488e+19 3.1340954 0
2.6525452 2 1.910646
3.6893488e+19 3.1281664 3.6893488e+19
2.5613849 -1.0842022e-19 1.8846678
3.6893488e+19 3.1563387 -2
2.6758566 3.6893488e+19 1.8711587
1.0842022e-19 3.1231344 2
2.5572414 3.6893488e+19 1.8057489
0 3.1367328 3.6893488e+19
2.655309 0 1.7700704
-1.0842022e-19 3.1256735 0
2.5593324 2 1.6927975
2 3.2624819 -2
2.6158018 1.0842022e-19 1.6489923
-1.0842022e-19 3.1367781 -3.6893488e+19
2.6052442 -3.6893488e+19 1.3042507
-1.0842022e-19 3.2387316 -3.6893488e+19
2.5905547 1.0842022e-19 -1.54029
-0 3.137228 0
2.6056576 -1.0842022e-19 -1.6548097
0 3.1344309 0
2.6030884 2 -1.7898513
-2 3.0954063 -3.6893488e+19
2.4813676 -2 -1.8106449
-1.0842022e-19 3.1367311 0
2.6052012 1.0842022e-19 -1.8771844
2 3.0754757 -3.6893488e+19
2.4535916 3.6893488e+19 -1.8736544
0 3.1171823 3.6893488e+19
2.5872459 2 -1.9128032
-0 3.0691676 -2
2.4448006 0 -1.908083
-0 3.0664523 3.6893488e+19
2.540652 2 -1.9265554
-0 3.063339 -1.0842022e-19
2.4366777 -3.6893488e+19 -1.9407159
0 2.8872759 1.0842022e-19
2.3557014 -2 -1.8802279
2 2.81937 -0
2.1950827 2 -1.8556023
-2 2.7723415 -3.6893488e+19
2.2501376 2 -1.8393843
-0 2.734484 -3.6893488e+19
2.2538776 3.6893488e+19 -1.8311312
3.6893488e+19 2.6993854 -0
2.1200271 -1.0842022e-19 -1.8266615
3.6893488e+19 2.6549904 1.0842022e-19
2.1744437 1.0842022e-19 -1.8207259
0 2.6348038 -2
2.0668499 -2 -1.8196675
0 2.6047416 1.0842022e-19
2.1217811 -2 -1.8169731
-1.0842022e-19 2.5916338 -1.0842022e-19
2.0313036 -1.0842022e-19 -1.8173618
-2 2.5509303 -1.0842022e-19
1.9977882 -0 -1.8116692
-0 2.5301316 1.0842022e-19
2.0435874 2 -1.8090669
-1.0842022e-19 2.5200162 -0
1.9723333 -2 -1.8079628
3.6893488e+19 2.501539 -1.0842022e-19
2.0136213 2 -1.8048794
-2 2.4911749 0
1.9522185 0 -1.8054992
1.0842022e-19 2.4615881 -0
1.9918799 -3.6893488e+19 -1.8034589
2 2.4494224 0
1.9350288 0 -1.803061
-3.6893488e+19 2.4237385 -3.6893488e+19
1.9720461 2 -1.8011564
1.0842022e-19 2.3785326 -2
1.8818833 1.0842022e-19 -1.8011942
0 2.3312347 -2
1.8558087 0 -1.7982074
2 2.2950113 -0
1.8305678 -1.0842022e-19 -1.7962744
-1.0842022e-19 2.2666581 0
1.810811 0 -1.7952491
1.0842022e-19 2.2238486 -1.0842022e-19
1.8733046 0 -1.7930796
-0 2.1808231 -3.6893488e+19
1.8507586 -0 -1.7906337
3.6893488e+19 2.1521583 -0
1.8357377 3.6893488e+19 -1.7916385
1.0842022e-19 2.1188402 -2
1.8182784 1.0842022e-19 -1.7889236
-2 3.2856231 0
2.7623365 0 2.7670105
3.6893488e+19 3.2868876 2
2.7634978 0 2.7595732
-2 3.2887514 2
2.7652097 -2 2.752609
-0 3.2275159 1.0842022e-19
2.6885843 -3.6893488e+19 2.6534834
-3.6893488e+19 3.2267556 -0
2.687886 -0 2.6386445
-1.0842022e-19 3.2545664 0
2.7176237 -2 2.6197948
-3.6893488e+19 3.2254317 3.6893488e+19
2.7482686 1.0842022e-19 2.590857
-2 3.2561431 -1.0842022e-19
2.7684467 -1.0842022e-19 2.6020854
0 3.2504854 -3.6893488e+19
2.762517 1.0842022e-19 2.5499384
3.6893488e+19 3.2606742 -3.6893488e+19
2.6792819 1.0842022e-19 2.5507028
0 3.2517204 -2
2.7638113 -2 2.5366142
-0 3.2559948 1.0842022e-19
2.671576 -1.0842022e-19 2.5304539
-3.6893488e+19 3.1521733 2
2.5811524 -1.0842022e-19 2.4173074
3.6893488e+19 3.251369 2
2.7634432 2 2.506736
1.0842022e-19 3.1498759 2
2.5792606 2 2.3918102
1.0842022e-19 3.1458981 -3.6893488e+19
2.6136205 2 2.3668709
-1.0842022e-19 3.2530124 -2
2.7147689 1.0842022e-19 2.439625
0 3.1410387 2
2.522481 -2 2.3249054
-1.0842022e-19 3.1465433 -1.0842022e-19
2.6142132 2 2.3215792
-0 3.1403885 3.6893488e+19
2.522028 0 2.3020525
1.0842022e-19 3.1441681 3.6893488e+19
2.6120317 -1.0842022e-19 2.296896
-0 3.1404543 -2
2.5220737 3.6893488e+19 2.2798119
0 3.2555506 -3.6893488e+19
2.7194312 3.6893488e+19 2.3554966
-0 3.141084 0
2.5225127 3.6893488e+19 2.2579675
-0 3.144968 2
2.6127665 3.6893488e+19 2.2519732
1.0842022e-19 3.1382258 3.6893488e+19
2.5205209 -3.6893488e+19 2.2179403
2 3.1455371 2
2.6132891 0 2.2091532
2 3.1351612 -0
2.5183854 -3.6893488e+19 2.1704257
-1.0842022e-19 3.2535918 -1.0842022e-19
2.7158332 3.6893488e+19 2.265223
3.6893488e+19 3.1331918 -0
2.651598 -2 2.1316128
1.0842022e-19 3.1373367 -2
2.5689356 1.0842022e-19 2.1088419
1.0842022e-19 3.1440899 -2
2.6630194 0 2.0968847
-2 3.1383975 -1.0842022e-19
2.5698092 2 2.0654657
0 3.1336877 -3.6893488e+19
2.6521175 -3.6893488e+19 2.0433743
-0 3.1346695 -1.0842022e-19
2.5667396 -1.0842022e-19 2.0185435
3.6893488e+19 3.132926 -3.6893488e+19
2.6513193 1.0842022e-19 1.9985547
-3.6893488e+19 3.278785 0
2.7091074 -2 2.0756497
2 3.1321754 -1.0842022e-19
2.6505327 3.6893488e+19 1.9539496
-3.6893488e+19 3.1385939 2
2.5699711 -3.6893488e+19 1.9326655
-3.6893488e+19 3.1340954 0
2.6525452 2 1.910646
3.6893488e+19 3.1281664 3.6893488e+19
2.5613849 -1.0842022e-19 1.8846678
3.6893488e+19 3.1316755 -3.6893488e+19
2.6500087 -3.6893488e+19 1.8562177
1.0842022e-19 3.1231344 2
2.5572414 3.6893488e+19 1.8057489
0 3.1367328 3.6893488e+19
2.655309 0 1.7700704
-1.0842022e-19 3.1256735 0
2.5593324 2 1.6927975
0 3.1440001 3.6893488e+19
2.5245445 -0 1.5986457
-1.0842022e-19 3.1367781 -3.6893488e+19
2.6052442 -3.6893488e+19 1.3042507
-2 3.1421859 -3.6893488e+19
2.5232804 -2 -1.507638
-0 3.137228 0
2.6056576 -1.0842022e-19 -1.6548097
0 3.1344309 0
2.6030884 2 -1.7898513
-2 3.0954063 -3.6893488e+19
2.4813676 -2 -1.8106449
-1.0842022e-19 3.1367311 0
2.6052012 1.0842022e-19 -1.8771844
2 3.0754757 -3.6893488e+19
2.4535916 3.6893488e+19 -1.8736544
2 3.0797942 -2
2.552906 -2 -1.8962258
-0 3.0691676 -2
2.4448006 0 -1.908083
-0 3.0664523 3.6893488e+19
2.540652 2 -1.9265554
-0 3.063339 -1.0842022e-19
2.4366777 -3.6893488e+19 -1.9407159
0 2.8872759 1.0842022e-19
2.3557014 -2 -1.8802279
2 2.81937 -0
2.1950827 2 -1.8556023
-2 2.7723415 -3.6893488e+19
2.2501376 2 -1.8393843
-0 2.734484 -3.6893488e+19
2.2538776 3.6893488e+19 -1.8311312
3.6893488e+19 2.6993854 -0
2.1200271 -1.0842022e-19 -1.8266615
3.6893488e+19 2.6549904 1.0842022e-19
2.1744437 1.0842022e-19 -1.8207259
0 2.6348038 -2
2.0668499 -2 -1.8196675
0 2.6047416 1.0842022e-19
2.1217811 -2 -1.8169731
-1.0842022e-19 2.5916338 -1.0842022e-19
2.0313036 -1.0842022e-19 -1.8173618
-2 2.5509303 -1.0842022e-19
1.9977882 -0 -1.8116692
-0 2.5301316 1.0842022e-19
2.0435874 2 -1.8090669
-1.0842022e-19 2.5200162 -0
1.9723333 -2 -1.8079628
3.6893488e+19 2.501539 -1.0842022e-19
2.0136213 2 -1.8048794
-2 2.4911749 0
1.9522185 0 -1.8054992
1.0842022e-19 2.4615881 -0
1.9918799 -3.6893488e+19 -1.8034589
2 2.4494224 0
1.9350288 0 -1.803061
-3.6893488e+19 2.4237385 -3.6893488e+19
1.9720461 2 -1.8011564
1.0842022e-19 2.3785326 -2
1.8818833 1.0842022e-19 -1.8011942
0 2.3312347 -2
1.8558087 0 -1.7982074
2 2.2950113 -0
1.8305678 -1.0842022e-19 -1.7962744
-1.0842022e-19 2.2666581 0
1.810811 0 -1.7952491
1.0842022e-19 2.2238486 -1.0842022e-19
1.8733046 0 -1.7930796
-0 2.1808231 -3.6893488e+19
1.8507586 -0 -1.7906337
3.6893488e+19 2.1521583 -0
1.8357377 3.6893488e+19 -1.7916385
1.0842022e-19 2.1188402 -2
1.8182784 1.0842022e-19 -1.7889236
-0 3.2865832 -0
2.7600558 0 2.7591426
-1.0842022e-19 3.285496 -2
2.7590692 0 2.7321789
3.6893488e+19 3.2288346 1.0842022e-19
2.6845117 0 2.6401057
2 3.2532184 0
2.709559 0 2.6176167
0 3.2565963 3.6893488e+19
2.7660475 -0 2.6176779
3.6893488e+19 3.2863305 0
2.7152758 -3.6893488e+19 2.6468825
3.6893488e+19 3.2569897 -0
2.7664554 0 2.6030078
-2 3.2880075 -1.0842022e-19
2.7180009 0 2.6323631
3.6893488e+19 3.2886751 -3.6893488e+19
2.7190855 1.0842022e-19 2.6164074
-1.0842022e-19 3.2299497 -2
2.7476277 -1.0842022e-19 2.5512848
0 3.2957516 -2
2.7305844 1.0842022e-19 2.6081686
-3.6893488e+19 3.2506115 -1.0842022e-19
2.7598424 -1.0842022e-19 2.5498846
-3.6893488e+19 3.2867255 -0
2.7159178 -2 2.5805771
2 3.2522371 2
2.7615278 -0 2.5370064
1.0842022e-19 3.2871528 0
2.7166119 3.6893488e+19 2.5644202
0 3.2498469 -0
2.7591288 -2 2.5197175
-3.6893488e+19 3.2558944 -1.0842022e-19
2.6658185 -2 2.5153816
-1.0842022e-19 3.2490888 2
2.7587359 -0 2.5046983
-1.0842022e-19 3.2572551 0
2.6680295 0 2.5019312
-2 3.2522593 -0
2.7078183 -2 2.4672477
-2 3.2530274 1.0842022e-19
2.7092125 -2 2.439388
2 3.1409094 3.6893488e+19
2.5181684 3.6893488e+19 2.324651
2 3.2581971 1.0842022e-19
2.7185946 -3.6893488e+19 2.4185224
-2 3.1417305 2
2.5187318 3.6893488e+19 2.3029535
-3.6893488e+19 3.2556372 -3.6893488e+19
2.7139487 2 2.3848729
2 3.1409996 -1.0842022e-19
2.5182302 -0 2.2800756
2 3.2560527 2
2.7147028 -1.0842022e-19 2.3559821
1.0842022e-19 3.1412613 -2
2.5184097 3.6893488e+19 2.2579675
-2 3.2523389 -2
2.7079628 3.6893488e+19 2.3217709
1.0842022e-19 3.5516295 -3.6893488e+19
2.9138427 -0 2.6133986
2 3.252728 -2
2.7086687 -1.0842022e-19 2.2931998
-2 3.1391156 1.0842022e-19
2.516938 -2 2.1745498
0 3.2609062 1.0842022e-19
2.7235112 1.0842022e-19 2.2727096
3.6893488e+19 3.2443924 3.6893488e+19
2.7563012 2 2.2420189
1.0842022e-19 3.1366272 0
2.564127 -2 2.1079924
0 3.239785 -2
2.7539124 0 2.1808226
-1.0842022e-19 3.1379941 2
2.5652375 2 2.0649691
-2 3.1362162 0
2.6504419 1.0842022e-19 2.0451062
0 3.2811685 3.6893488e+19
2.7068875 -0 2.1423652
-3.6893488e+19 3.2425792 0
2.7553613 -0 2.0695114
-0 3.2794855 -1.0842022e-19
2.7041528 2 2.076293
1.0842022e-19 3.2411602 0
2.7546256 0 2.0119307
-2 3.1299555 -2
2.5587063 -1.0842022e-19 1.9285091
-0 3.1327856 -3.6893488e+19
2.6468847 -3.6893488e+19 1.9099886
-2 3.1260729 -0
2.5555518 -2 1.8838505
-1.0842022e-19 3.1754894 2
2.6911616 2 1.878792
3.6893488e+19 3.1238856 -0
2.5537746 -3.6893488e+19 1.8060157
2 3.1733859 -3.6893488e+19
2.6889803 0 1.7837112
-3.6893488e+19 3.1244969 1.0842022e-19
2.5542715 -3.6893488e+19 1.6920906
1.0842022e-19 3.2618926 1.0842022e-19
2.6093228 -0 1.6485903
-0 3.2293508 -3.6893488e+19
2.6849799 -0 1.3470203
1.0842022e-19 3.2268488 2
2.5771239 -1.0842022e-19 -1.536198
2 3.1389227 -2
2.6029222 -0 -1.6553942
-0 3.135479 1.0842022e-19
2.5144432 -0 -1.7396377
-3.6893488e+19 3.1356969 -1.0842022e-19
2.5999951 0 -1.7902954
3.6893488e+19 3.1272213 1.0842022e-19
2.5087783 3.6893488e+19 -1.8276526
1.0842022e-19 3.1358354 2
2.6001208 -3.6893488e+19 -1.8768138
-0 3.1082931 -1.0842022e-19
2.5751278 1.0842022e-19 -1.9087669
-3.6893488e+19 3.068481 -1.0842022e-19
2.4369636 -3.6893488e+19 -1.9076713
3.6893488e+19 3.0673118 2
2.53794 3.6893488e+19 -1.926929
1.0842022e-19 3.063081 -0
2.4295545 0 -1.9404726
0 2.885498 1.0842022e-19
2.3498147 1.0842022e-19 -1.8795526
2 2.8183455 3.6893488e+19
2.1867776 2 -1.8547584
-1.0842022e-19 2.7726872 3.6893488e+19
2.2448924 -0 -1.839528
-3.6893488e+19 2.740253 -3.6893488e+19
2.2541552 2 -1.8334433
2 2.6995041 3.6893488e+19
2.1152132 -0 -1.8266066
-1.0842022e-19 2.6562335 3.6893488e+19
2.1711965 1.0842022e-19 -1.8211926
-1.0842022e-19 2.6356213 3.6893488e+19
2.0633097 -1.0842022e-19 -1.8199766
3.6893488e+19 2.6089685 1.0842022e-19
2.1221905 -1.0842022e-19 -1.8191279
3.6893488e+19 2.5914505 3.6893488e+19
2.0274217 -3.6893488e+19 -1.8171555
-0 2.5158687 3.6893488e+19
2.0256615 -3.6893488e+19 -1.7841686
3.6893488e+19 2.5509696 2
1.9945319 2 -1.8115935
1.0842022e-19 2.5188642 -2
2.0287671 2 -1.8015426
0 2.5201612 2
1.9695005 -2 -1.8079628
2 2.5031576 3.6893488e+19
2.0124822 3.6893488e+19 -1.8059132
3.6893488e+19 2.4924145 -2
1.9500384 2 -1.8058577
-0 2.4619036 -1.0842022e-19
1.9894584 -3.6893488e+19 -1.8034589
-3.6893488e+19 2.4499071 0
1.9327704 0 -1.8031576
-0 3.2865832 -0
2.7600558 0 2.7591426
-2 3.2281301 1.0842022e-19
2.6838725 0 2.6537609
3.6893488e+19 3.2288346 1.0842022e-19
2.6845117 0 2.6401057
2 3.2532184 0
2.709559 0 2.6176167
-0 3.227098 0
2.7446711 -1.0842022e-19 2.5918179
3.6893488e+19 3.2863305 0
2.7152758 -3.6893488e+19 2.6468825
3.6893488e+19 3.2569897 -0
2.7664554 0 2.6030078
-2 3.2880075 -1.0842022e-19
2.7180009 0 2.6323631
-3.6893488e+19 3.2790973 -3.6893488e+19
2.7035222 -1.0842022e-19 2.6042507
-1.0842022e-19 3.2299497 -2
2.7476277 -1.0842022e-19 2.5512848
-0 3.279484 -3.6893488e+19
2.7041504 0 2.5884681
-0 3.2293985 3.6893488e+19
2.7470562 -2 2.5368266
-3.6893488e+19 3.2867255 -0
2.7159178 -2 2.5805771
2 3.2522371 2
2.7615278 -0 2.5370064
1.0842022e-19 3.2871528 0
2.7166119 3.6893488e+19 2.5644202
0 3.2498469 -0
2.7591288 -2 2.5197175
-2 3.1491079 1.0842022e-19
2.5742674 -1.0842022e-19 2.4139047
-1.0842022e-19 3.2490888 2
2.7587359 -0 2.5046983
0 3.1501207 -3.6893488e+19
2.5750899 0 2.39184
3.6893488e+19 3.1483154 2
2.6114457 0 2.3688903
-2 3.1463158 -3.6893488e+19
2.6096311 -1.0842022e-19 2.3441057
2 3.1409094 3.6893488e+19
2.5181684 3.6893488e+19 2.324651
-0 3.1460831 0
2.6094201 1.0842022e-19 2.3210139
-2 3.1417305 2
2.5187318 3.6893488e+19 2.3029535
-2 3.1433418 -0
2.6069324 0 2.2960966
2 3.1409996 -1.0842022e-19
2.5182302 -0 2.2800756
0 3.143827 -0
2.6073725 -3.6893488e+19 2.2737625
1.0842022e-19 3.1412613 -2
2.5184097 3.6893488e+19 2.2579675
-2 3.2523389 -2
2.7079628 3.6893488e+19 2.3217709
-3.6893488e+19 3.1401217 1.0842022e-19
2.5176282 -3.6893488e+19 2.2200127
-3.6893488e+19 3.1447401 -2
2.6082013 -0 2.2079539
-2 3.1391156 1.0842022e-19
2.516938 -2 2.1745498
0 3.1431005 -1.0842022e-19
2.6067133 1.0842022e-19 2.1608844
2 3.133182 -2
2.6472957 3.6893488e+19 2.1313424
1.0842022e-19 3.1366272 0
2.564127 -2 2.1079924
-1.0842022e-19 3.135448 2
2.6496453 1.0842022e-19 2.0890462
-1.0842022e-19 3.1379941 2
2.5652375 2 2.0649691
-2 3.1362162 0
2.6504419 1.0842022e-19 2.0451062
-1.0842022e-19 3.1325505 -1.0842022e-19
2.5608146 3.6893488e+19 2.016921
2 3.133611 1.0842022e-19
2.6477406 -2 1.9988291
1.0842022e-19 3.1318595 -2
2.5602531 -1.0842022e-19 1.9729061
-0 3.1312273 0
2.6452692 1.0842022e-19 1.9533046
-2 3.1299555 -2
2.5587063 -1.0842022e-19 1.9285091
-0 3.1327856 -3.6893488e+19
2.6468847 -3.6893488e+19 1.9099886
-2 3.1260729 -0
2.5555518 -2 1.8838505
2 3.1320271 2
2.6460984 -2 1.8562727
3.6893488e+19 3.1238856 -0
2.5537746 -3.6893488e+19 1.8060157
-0 3.1302819 0
2.644289 -3.6893488e+19 1.7675531
-3.6893488e+19 3.1244969 1.0842022e-19
2.5542715 -3.6893488e+19 1.6920906
1.0842022e-19 3.1370022 -3.6893488e+19
2.5154879 -2 1.594574
-3.6893488e+19 3.1307621 -1.0842022e-19
2.5955172 1.0842022e-19 1.3013572
2 3.136019 -3.6893488e+19
2.5148134 3.6893488e+19 -1.5054932
2 3.1389227 -2
2.6029222 -0 -1.6553942
-0 3.135479 1.0842022e-19
2.5144432 -0 -1.7396377
-2 3.1063514 -2
2.5733659 -0 -1.7777189
2 3.0971644 -1.0842022e-19
2.4763176 -0 -1.8115052
-0 3.1068892 -2
2.573854 -2 -1.8596001
1.0842022e-19 3.0721927 1.0842022e-19
2.5423691 -3.6893488e+19 -1.8927699
-3.6893488e+19 3.068481 -1.0842022e-19
2.4369636 -3.6893488e+19 -1.9076713
3.6893488e+19 3.0673118 2
2.53794 3.6893488e+19 -1.926929
1.0842022e-19 3.063081 -0
2.4295545 0 -1.9404726
0 2.885498 1.0842022e-19
2.3498147 1.0842022e-19 -1.8795526
2 2.8183455 3.6893488e+19
2.1867776 2 -1.8547584
-1.0842022e-19 2.7726872 3.6893488e+19
2.2448924 -0 -1.839528
-3.6893488e+19 2.740253 -3.6893488e+19
2.2541552 2 -1.8334433
2 2.6995041 3.6893488e+19
2.1152132 -0 -1.8266066
-1.0842022e-19 2.6562335 3.6893488e+19
2.1711965 1.0842022e-19 -1.8211926
-1.0842022e-19 2.6356213 3.6893488e+19
2.0633097 -1.0842022e-19 -1.8199766
3.6893488e+19 2.6089685 1.0842022e-19
2.1221905 -1.0842022e-19 -1.8191279
3.6893488e+19 2.5914505 3.6893488e+19
2.0274217 -3.6893488e+19 -1.8171555
-0 2.5158687 3.6893488e+19
2.0256615 -3.6893488e+19 -1.7841686
3.6893488e+19 2.5509696 2
1.9945319 2 -1.8115935
1.0842022e-19 2.5188642 -2
2.0287671 2 -1.8015426
0 2.5201612 2
1.9695005 -2 -1.8079628
2 2.5031576 3.6893488e+19
2.0124822 3.6893488e+19 -1.8059132
3.6893488e+19 2.4924145 -2
1.9500384 2 -1.8058577
-0 2.4619036 -1.0842022e-19
1.9894584 -3.6893488e+19 -1.8034589
-3.6893488e+19 2.4499071 0
1.9327704 0 -1.8031576
-1.0842022e-19 3.2869611 3.6893488e+19
2.757236 1.0842022e-19 2.759331
0 3.2868447 2
2.7571316 1.0842022e-19 2.7341702
1.0842022e-19 3.2846622 -2
2.7551751 1.0842022e-19 2.7135534
-1.0842022e-19 3.2838664 -3.6893488e+19
2.7544618 -1.0842022e-19 2.6954153
2 3.2555301 -1.0842022e-19
2.7081215 -1.0842022e-19 2.6207533
-1.0842022e-19 3.2560837 -1.0842022e-19
2.7626517 -0 2.6166956
-2 3.2861345 3.6893488e+19
2.7087109 1.0842022e-19 2.6464014
-2 3.2878726 2
2.7114973 -3.6893488e+19 2.6319816
2 3.2274222 -1.0842022e-19
2.7396669 2 2.5635726
-3.6893488e+19 3.2806377 -0
2.699899 2 2.6060176
3.6893488e+19 3.2253363 3.6893488e+19
2.7375276 -3.6893488e+19 2.548187
0 3.2800109 3.6893488e+19
2.6988938 3.6893488e+19 2.5889266
-1.0842022e-19 3.2507811 2
2.7572131 -1.0842022e-19 2.5498846
-0 3.288455 2
2.712431 0 2.5823953
0 3.2870314 2
2.7101486 -3.6893488e+19 2.564121
1.0842022e-19 3.2337141 3.6893488e+19
2.7461202 -0 2.4933708
-3.6893488e+19 3.2576041 0
2.6629732 2 2.5021396
-2 3.2529387 2
2.703476 1.0842022e-19 2.4682295
1.0842022e-19 3.142082 3.6893488e+19
2.5147414 -2 2.3479054
3.6893488e+19 3.2541931 -1.0842022e-19
2.7057245 -0 2.4411511
2 3.1407773 -2
2.5138605 0 2.3243966
3.6893488e+19 3.1493824 3.6893488e+19
2.608012 -2 2.3234963
1.0842022e-19 3.1413534 -3.6893488e+19
2.5142493 1.0842022e-19 2.3025267
0 3.2560771 0
2.7091022 0 2.3853071
0 3.1416652 0
2.5144601 3.6893488e+19 2.2804272
-1.0842022e-19 3.2581031 -1.0842022e-19
2.7127347 -2 2.3586206
0 3.1418352 -0
2.5145748 -3.6893488e+19 2.2582304
-1.0842022e-19 3.2523057 2
2.7023411 3.6893488e+19 2.3215384
-3.6893488e+19 3.5514951 -2
2.907151 3.6893488e+19 2.6130748
-0 3.253577 3.6893488e+19
2.7046201 -3.6893488e+19 2.2940109
1.0842022e-19 3.1404269 1.0842022e-19
2.513624 1.0842022e-19 2.1757905
-1.0842022e-19 3.2603452 3.6893488e+19
2.7167544 -1.0842022e-19 2.2719624
-3.6893488e+19 3.2453914 1.0842022e-19
2.7540486 1.0842022e-19 2.2426801
3.6893488e+19 3.2668664 2
2.6778216 0 2.243942
-1.0842022e-19 3.2412949 -1.0842022e-19
2.7519476 3.6893488e+19 2.1818588
1.0842022e-19 3.3002157 -3.6893488e+19
2.7312846 2 2.2371655
-1.0842022e-19 3.1339374 3.6893488e+19
2.6437845 2 2.0431666
2 3.1337938 -1.0842022e-19
2.5576355 -3.6893488e+19 2.0176468
-1.0842022e-19 3.2463303 -0
2.75453 2 2.071727
-1.0842022e-19 3.1323371 -0
2.556468 -1.0842022e-19 1.9730669
2 3.2265463 3.6893488e+19
2.7387686 -2 2.0039654
-1.0842022e-19 3.1313205 -0
2.5556531 1.0842022e-19 1.9290557
2 3.2267025 2
2.7389288 -2 1.9491074
1.0842022e-19 3.12569 3.6893488e+19
2.5511398 -3.6893488e+19 1.8836434
-3.6893488e+19 3.176564 2
2.6875045 0 1.8790301
-2 3.1254621 -1.0842022e-19
2.5509572 1.0842022e-19 1.8066829
-2 3.1564491 2
2.6668737 -2 1.7772592
-1.0842022e-19 3.1241436 -3.6893488e+19
2.5499003 -3.6893488e+19 1.6918079
-3.6893488e+19 3.2656453 0
2.6087382 2 1.6506524
3.6893488e+19 3.2318299 2
2.6819191 -3.6893488e+19 1.3480365
-0 3.2383087 1.0842022e-19
2.5797157 -0 -1.5399984
-3.6893488e+19 3.1362979 1.0842022e-19
2.5108361 3.6893488e+19 -1.7400398
-2 3.1356506 -1.0842022e-19
2.5957026 1.0842022e-19 -1.7901778
-3.6893488e+19 3.1293614 2
2.5061524 -1.0842022e-19 -1.8287114
-3.6893488e+19 3.1351488 -3.6893488e+19
2.5952528 -1.0842022e-19 -1.8765134
-2 3.0682518 -1.0842022e-19
2.42978 -0 -1.8679171
-1.0842022e-19 3.0694568 -3.6893488e+19
2.5363655 -2 -1.891474
-3.6893488e+19 3.0667136 -1.0842022e-19
2.4277027 0 -1.9067265
3.6893488e+19 3.0666766 -0
2.5338733 -3.6893488e+19 -1.9264704
-1.0842022e-19 3.0663307 3.6893488e+19
2.4271855 -3.6893488e+19 -1.9423637
2 2.8881025 0
2.3479006 -3.6893488e+19 -1.8803507
0 2.8195343 -0
2.1815116 0 -1.8555135
2 2.7765036 1.0842022e-19
2.2457235 -1.0842022e-19 -1.8424017
-1.0842022e-19 2.7008433 -3.6893488e+19
2.1113801 2 -1.8271004
2 2.5153244 2
2.0221293 0 -1.7530532
1.0842022e-19 2.6369264 3.6893488e+19
2.0601466 -3.6893488e+19 -1.8205329
-0 2.5158138 2
2.0226314 1.0842022e-19 -1.7686534
2 2.5916312 -0
2.0238395 -3.6893488e+19 -1.8171555
-0 2.5160484 -0
2.022872 -3.6893488e+19 -1.7841686
-0 2.5513732 -1.0842022e-19
1.9915702 -2 -1.8117449
-1.0842022e-19 2.5157869 -0
2.0226038 -0 -1.7994041
3.6893488e+19 2.5205483 3.6893488e+19
1.9668621 -3.6893488e+19 -1.8081281
-0 2.5020018 3.6893488e+19
2.0084651 -3.6893488e+19 -1.8049655
2 2.4936516 3.6893488e+19
1.9478469 3.6893488e+19 -1.8062161
0 2.4665561 -0
1.989261 3.6893488e+19 -1.8051347
1.0842022e-19 2.4499013 -0
1.9303125 0 -1.803061
3.6893488e+19 2.4288931 2
1.9699466 -2 -1.803057
2 2.3771589 1.0842022e-19
1.8773326 2 -1.8003969
3.6893488e+19 2.3290877 1.0842022e-19
1.8472066 -3.6893488e+19 -1.79693
2 2.2964969 2
1.8252006 -1.0842022e-19 -1.7969822
2 2.2664111 -1.0842022e-19
1.804886 0 -1.7949384
-1.0842022e-19 2.2197194 3.6893488e+19
1.8658834 3.6893488e+19 -1.7913886
-2 2.1842661 -1.0842022e-19
1.847702 1.0842022e-19 -1.7917306
0 2.1574543 -1.0842022e-19
1.8339522 -1.0842022e-19 -1.7936035
1.0842022e-19 2.1174479 0
1.813436 3.6893488e+19 -1.788083
-1.0842022e-19 3.2869611 3.6893488e+19
2.757236 1.0842022e-19 2.759331
-1.0842022e-19 3.2301452 3.6893488e+19
2.680409 -3.6893488e+19 2.6552227
1.0842022e-19 3.2344418 2
2.6842604 3.6893488e+19 2.6444404
-1.0842022e-19 3.2838664 -3.6893488e+19
2.7544618 -1.0842022e-19 2.6954153
2 3.2555301 -1.0842022e-19
2.7081215 -1.0842022e-19 2.6207533
3.6893488e+19 3.2282557 3.6893488e+19
2.7405219 3.6893488e+19 2.5924158
-2 3.2861345 3.6893488e+19
2.7087109 1.0842022e-19 2.6464014
-2 3.2878726 2
2.7114973 -3.6893488e+19 2.6319816
2 3.2274222 -1.0842022e-19
2.7396669 2 2.5635726
-3.6893488e+19 3.2806377 -0
2.699899 2 2.6060176
3.6893488e+19 3.2253363 3.6893488e+19
2.7375276 -3.6893488e+19 2.548187
0 3.2800109 3.6893488e+19
2.6988938 3.6893488e+19 2.5889266
0 3.230262 -2
2.7425795 0 2.5371492
-0 3.288455 2
2.712431 0 2.5823953
0 3.2870314 2
2.7101486 -3.6893488e+19 2.564121
1.0842022e-19 3.2337141 3.6893488e+19
2.7461202 -0 2.4933708
-3.6893488e+19 3.1499672 1.0842022e-19
2.5705998 2 2.3914826
2 3.1481268 -2
2.6068864 1.0842022e-19 2.3684976
1.0842022e-19 3.142082 3.6893488e+19
2.5147414 -2 2.3479054
1.0842022e-19 3.1478543 0
2.6066422 -0 2.3452373
2 3.1407773 -2
2.5138605 0 2.3243966
3.6893488e+19 3.1493824 3.6893488e+19
2.608012 -2 2.3234963
1.0842022e-19 3.1413534 -3.6893488e+19
