# .PCD v0.7 - Point Cloud Data file format
VERSION 0.7
FIELDS x y z
SIZE 4 4 4
TYPE F F F
COUNT 1 1 1
WIDTH 1689
HEIGHT 1
VIEWPOINT 0 0 0 1 0 0 0
POINTS 1689
DATA ascii
-1.7676485 -3.6893488e+19 -1.7796859
-2 2.2572803 -3.6893488e+19
-1.7461935 3.6893488e+19 -1.7732019
-2 2.2222886 -0
-1.7259682 1.0842022e-19 -1.7745893
-1.0842022e-19 2.1814241 -3.6893488e+19
-1.4935762 1.0842022e-19 -1.7731265
-2 2.1562781 1.0842022e-19
-1.4793792 -1.0842022e-19 -1.776191
-1.0842022e-19 2.1203992 2
-1.4591224 1.0842022e-19 -1.7735598
1.0842022e-19 2.0905051 3.6893488e+19
-1.4422445 2 -1.7714804
-1.0842022e-19 3.221976 -3.6893488e+19
-2.4516373 1.0842022e-19 2.6900702
3.6893488e+19 3.275198 -1.0842022e-19
-2.2902148 -1.0842022e-19 2.7512834
-0 3.2211819 3.6893488e+19
-2.4508774 -3.6893488e+19 2.6754119
1.0842022e-19 3.2787647 -2
-2.2939761 3.6893488e+19 2.7427194
3.6893488e+19 3.2712204 0
-2.5095329 2 2.7237737
1.0842022e-19 3.2743413 3.6893488e+19
-2.2893114 -0 2.7028382
-3.6893488e+19 3.2531881 3.6893488e+19
-2.4845555 -0 2.6625843
1.0842022e-19 3.2410398 -3.6893488e+19
-2.2589171 1.0842022e-19 2.6409824
2 3.2425511 -2
-2.4713256 1.0842022e-19 2.6369429
-1.0842022e-19 3.2435453 3.6893488e+19
-2.2602384 1.0842022e-19 2.6286595
3.6893488e+19 3.2139328 3.6893488e+19
-2.4439406 0 2.6009533
-0 3.2362797 -3.6893488e+19
-2.2564073 -3.6893488e+19 2.6090181
1.0842022e-19 3.2538526 -2
-2.4858267 0 2.6193259
3.6893488e+19 3.2588909 -0
-2.2730179 2 2.6173334
-3.6893488e+19 3.2500641 1.0842022e-19
-2.0323658 -3.6893488e+19 2.5970709
-3.6893488e+19 3.249088 3.6893488e+19
-2.0317783 1.0842022e-19 2.5820208
-2 3.2295098 2
-2.3403997 1.0842022e-19 2.563158
3.6893488e+19 3.2468784 -0
-2.0305307 0 2.5663216
-2 3.2300725 -1.0842022e-19
-2.3407991 1.0842022e-19 2.5497477
0 3.2444842 -2
-2.0291789 1.0842022e-19 2.5506654
-3.6893488e+19 3.2451501 1.0842022e-19
-2.0295551 -1.0842022e-19 2.536952
-2 3.2312207 -0
-2.3416142 -1.0842022e-19 2.5229259
-1.0842022e-19 3.2293689 -1.0842022e-19
-2.3402996 -2 2.508203
1.0842022e-19 3.2520766 -1.0842022e-19
-2.0346379 -3.6893488e+19 2.5135021
2 3.2310717 3.6893488e+19
-2.3415084 -0 2.4908442
-3.6893488e+19 3.2508895 3.6893488e+19
-2.0332978 -2 2.4960673
2 3.245641 3.6893488e+19
-2.351851 -0 2.4775391
2 3.2510185 -0
-2.4804029 3.6893488e+19 2.4709485
3.6893488e+19 3.2470384 -0
-2.2620802 3.6893488e+19 2.4498873
-1.0842022e-19 3.2559662 -0
-2.489872 1.0842022e-19 2.4511085
2 3.1951671 -3.6893488e+19
-2.2194586 -1.0842022e-19 2.3777611
-3.6893488e+19 3.1665897 -3.6893488e+19
-2.3986378 -0 2.3434308
-2 3.2472758 -2
-2.2622054 0 2.3938935
-0 3.1812711 0
-2.4126866 -3.6893488e+19 2.3310766
-1.0842022e-19 3.1935139 -3.6893488e+19
-2.2177153 -1.0842022e-19 2.3262978
-3.6893488e+19 3.1797543 -0
-2.4112351 -1.0842022e-19 2.3055689
-1.0842022e-19 3.1956511 0
-2.2199693 3.6893488e+19 2.3027663
-2 3.1663694 -0
-2.398427 2 2.2725003
-0 3.1965563 1.0842022e-19
-2.2209239 0 2.2782612
0 3.1638722 1.0842022e-19
-2.3960373 3.6893488e+19 2.2449548
3.6893488e+19 3.3143904 -3.6893488e+19
-2.3315458 0 2.3564706
-3.6893488e+19 3.1653144 3.6893488e+19
-2.3974175 2 2.1997976
3.6893488e+19 3.1920178 2
-2.2161376 -0 2.2015436
-2 3.1933892 -2
-2.0003314 0 2.1774101
-1.0842022e-19 3.1762934 2
-2.3026218 3.6893488e+19 2.1383419
3.6893488e+19 3.2976277 0
-2.0860732 1.0842022e-19 2.2535806
-3.6893488e+19 3.1744928 3.6893488e+19
-2.3013437 -0 2.0890293
-3.6893488e+19 3.2964361 0
-2.0847278 -0 2.1887918
-3.6893488e+19 3.1704001 3.6893488e+19
-2.2984383 -3.6893488e+19 2.0385897
1.0842022e-19 3.2630556 -3.6893488e+19
-2.047035 -2 2.08055
-2 3.1709197 1.0842022e-19
-2.2988071 1.0842022e-19 1.9917363
1.0842022e-19 3.1901219 -1.0842022e-19
-1.9984868 -3.6893488e+19 1.9773451
-2 3.1772995 1.0842022e-19
-2.3033361 3.6893488e+19 1.9475077
0 3.1941752 -3.6893488e+19
-2.0007751 2 1.9298198
2 3.1773438 -2
-2.3033674 3.6893488e+19 1.8996406
0 3.1952732 -2
-2.001395 3.6893488e+19 1.8805498
-3.6893488e+19 3.1766512 0
-2.302876 3.6893488e+19 1.8282239
2 3.1898854 -1.0842022e-19
-1.9983532 3.6893488e+19 1.7847203
-3.6893488e+19 3.1817586 3.6893488e+19
-2.3065016 -0 1.7178829
1.0842022e-19 3.1619036 1.0842022e-19
-2.3941536 -1.0842022e-19 1.6069813
2 3.1889536 -2
-2.2129061 2 1.3237017
-0 3.1610062 -2
-2.3932948 1.0842022e-19 -1.5129169
-3.6893488e+19 3.188509 -1.0842022e-19
-2.2124374 -2 -1.6712356
2 3.1625092 -2
-2.394733 3.6893488e+19 -1.7522764
-1.0842022e-19 3.1868584 -1.0842022e-19
-2.2106967 2 -1.807978
3.6893488e+19 3.1618822 2
-2.3941331 2 -1.8446437
1.0842022e-19 3.1870887 -3.6893488e+19
-2.2109394 -0 -1.8904035
-2 3.1330688 3.6893488e+19
-2.3665614 3.6893488e+19 -1.8951836
-0 3.1435335 -1.0842022e-19
-2.1650076 -2 -1.9204303
-2 2.8266022 1.0842022e-19
-1.9222121 1.0842022e-19 -1.802982
3.6893488e+19 2.9108434 0
-2.1431391 -2 -1.8731086
3.6893488e+19 2.8258939 -1.0842022e-19
-1.9218385 1.0842022e-19 -1.839079
1.0842022e-19 2.7796657 2
-2.0176141 -1.0842022e-19 -1.8253556
-3.6893488e+19 2.7577064 -3.6893488e+19
-1.8858844 3.6893488e+19 -1.8231474
-0 2.7157187 1.0842022e-19
-1.7564692 -1.0842022e-19 -1.8167965
-3.6893488e+19 2.6408393 -2
-1.7206626 2 -1.8078331
1.0842022e-19 2.5808361 -2
-1.6867855 0 -1.7982982
-2 2.5457902 0
-1.6669992 3.6893488e+19 -1.7965236
-0 2.507652 -3.6893488e+19
-1.6454668 2 -1.7888702
1.0842022e-19 2.4637299 1.0842022e-19
-1.6309078 1.0842022e-19 -1.7854959
2 2.3940172 -2
-1.5974567 3.6893488e+19 -1.7835507
-1.0842022e-19 2.3363831 -0
-1.7859437 -1.0842022e-19 -1.7803515
-3.6893488e+19 2.2981446 1.0842022e-19
-1.7676485 -3.6893488e+19 -1.7796859
-2 2.2572803 -3.6893488e+19
-1.7461935 3.6893488e+19 -1.7732019
-2 2.2222886 -0
-1.7259682 1.0842022e-19 -1.7745893
-1.0842022e-19 2.1814241 -3.6893488e+19
-1.4935762 1.0842022e-19 -1.7731265
-2 2.1562781 1.0842022e-19
-1.4793792 -1.0842022e-19 -1.776191
-1.0842022e-19 2.1203992 2
-1.4591224 1.0842022e-19 -1.7735598
1.0842022e-19 2.0905051 3.6893488e+19
-1.4422445 2 -1.7714804
1.0842022e-19 3.2186835 2
-2.4584723 1.0842022e-19 2.6871388
1.0842022e-19 3.2753015 1.0842022e-19
-2.3019381 -2 2.7514222
3.6893488e+19 3.2217286 2
-2.4614511 0 2.6760409
-0 3.2711949 3.6893488e+19
-2.5152864 -1.0842022e-19 2.7238796
1.0842022e-19 3.2568781 -1.0842022e-19
-2.2817321 -3.6893488e+19 2.6890788
0 3.2233086 -0
-2.4629965 2 2.6496248
-0 3.2530622 -2
-2.4950976 -1.0842022e-19 2.6625099
-1.0842022e-19 3.2417786 -3.6893488e+19
-2.26968 0 2.6416399
0 3.2513123 -1.0842022e-19
-2.4916737 -2 2.6449816
1.0842022e-19 3.256681 -1.0842022e-19
-2.2815158 -2 2.6439326
-0 3.2523031 -1.0842022e-19
-2.4936125 2 2.6318431
-2 3.2591326 2
-2.284205 3.6893488e+19 2.6327007
-3.6893488e+19 3.2544739 -0
-2.4978597 -1.0842022e-19 2.6203475
-2 3.2594898 1.0842022e-19
-2.2845967 -1.0842022e-19 2.6182482
0 3.249896 1.0842022e-19
-2.0532568 -1.0842022e-19 2.5969429
-0 3.2490094 2
-2.0527189 2 2.5820003
-0 3.2293658 -1.0842022e-19
-2.350445 0 2.563138
-1.0842022e-19 3.2479408 3.6893488e+19
-2.0520706 -2 2.5670283
2 3.2294364 -3.6893488e+19
-2.3504965 -2 2.5494211
0 3.245085 -1.0842022e-19
-2.050338 -2 2.5510595
3.6893488e+19 3.2425656 0
-2.360095 -3.6893488e+19 2.5435088
0 3.238441 3.6893488e+19
-2.3570795 -1.0842022e-19 2.5270863
2 3.251461 -3.6893488e+19
-2.0550923 3.6893488e+19 2.527169
0 3.2292249 1.0842022e-19
-2.350342 0 2.5081866
-0 3.2520523 1.0842022e-19
-2.05581 -3.6893488e+19 2.5135021
3.6893488e+19 3.2270372 2
-2.3487427 -1.0842022e-19 2.4868429
-2 3.2510824 -2
-2.0546331 0 2.4964964
-0 3.2457092 0
-2.3623931 -3.6893488e+19 2.4777176
-0 3.2504766 3.6893488e+19
-2.4900391 3.6893488e+19 2.4700811
0 3.2466409 1.0842022e-19
-2.2723465 0 2.4496069
3.6893488e+19 3.2526319 2
-2.4942558 0 2.4453735
-2 3.2487247 3.6893488e+19
-2.2734892 -0 2.4232841
-2 3.1660564 0
-2.406992 0 2.3431001
-0 3.2479017 2
-2.2730379 1.0842022e-19 2.3944588
-3.6893488e+19 3.2691576 0
-2.5132937 -1.0842022e-19 2.4133835
2 3.257328 3.6893488e+19
-2.2822256 1.0842022e-19 2.3787048
3.6893488e+19 3.2684803 2
-2.5126309 -1.0842022e-19 2.3819172
3.6893488e+19 3.1988654 -0
-2.242295 3.6893488e+19 2.3050039
-2 3.1684015 -2
-2.4092858 0 2.2739172
-2 3.197783 -2
-2.2411079 -2 2.2790747
3.6893488e+19 3.1641738 -2
-2.4051502 3.6893488e+19 2.2454729
-1.0842022e-19 3.3137596 -1.0842022e-19
-2.3441172 -0 2.355818
-3.6893488e+19 3.258549 3.6893488e+19
-2.5029161 -3.6893488e+19 2.2801049
2 3.3125222 0
-2.3427601 3.6893488e+19 2.3193135
0 3.2392306 -1.0842022e-19
-2.0467865 0 2.2216446
3.6893488e+19 3.1779947 0
-2.3128898 -1.0842022e-19 2.1399839
1.0842022e-19 3.2400477 -2
-2.0472822 0 2.1675637
2 3.2889221 -0
-2.4224386 3.6893488e+19 2.2116153
-0 3.294224 2
-2.106976 2 2.1855593
-0 3.1707051 0
-2.3075607 0 2.0388675
2 3.2943118 3.6893488e+19
-2.1070824 1.0842022e-19 2.1198616
-2 3.1708512 2
-2.3076675 -3.6893488e+19 1.9917541
-2 3.2939637 -0
-2.1066601 -3.6893488e+19 2.0537233
-0 3.1749277 -2
-2.3106475 3.6893488e+19 1.9464579
-1.0842022e-19 3.1758115 -3.6893488e+19
-2.3112936 -0 1.8991393
1.0842022e-19 3.2961125 1.0842022e-19
-2.1092672 -1.0842022e-19 1.9236513
-1.0842022e-19 3.2573678 3.6893488e+19
-2.3763027 0 1.8702387
2 3.2959402 0
-2.1090581 -3.6893488e+19 1.8399296
1.0842022e-19 3.2571704 1.0842022e-19
-2.376014 1.0842022e-19 1.7548093
3.6893488e+19 3.2665434 2
-2.5107362 -2 1.6501631
0 3.1931787 3.6893488e+19
-2.236058 -1.0842022e-19 1.3256496
0 3.1628611 2
-2.4038661 0 -1.5135833
3.6893488e+19 3.1901464 1.0842022e-19
-2.2327325 -1.0842022e-19 -1.6719053
-0 3.1622231 1.0842022e-19
-2.4032421 -3.6893488e+19 -1.7522285
1.0842022e-19 3.1868126 0
-2.2290761 -3.6893488e+19 -1.807991
1.0842022e-19 3.1581538 -1.0842022e-19
-2.3992612 1.0842022e-19 -1.8427246
0 3.1869805 0
-2.2292602 -1.0842022e-19 -1.8903935
1.0842022e-19 3.1336606 -3.6893488e+19
-2.3753016 -1.0842022e-19 -1.8954539
-1.0842022e-19 3.1420927 -0
-2.1800294 0 -1.9198364
1.0842022e-19 2.9163291 -0
-2.1572585 0 -1.8296604
-1.0842022e-19 2.9139366 -1.0842022e-19
-2.1549182 -0 -1.875028
0 2.8232198 0
-1.9272463 -1.0842022e-19 -1.8373598
0 2.779453 3.6893488e+19
-2.0233645 -0 -1.8252668
-0 2.7588444 0
-1.8919444 2 -1.8240575
0 2.7180443 3.6893488e+19
-1.7669671 -0 -1.8177727
-0 2.6409266 2
-1.7371516 -1.0842022e-19 -1.8078914
-2 2.5826738 1.0842022e-19
-1.7018132 3.6893488e+19 -1.7992777
-2 2.5416505 2
-1.6769269 -1.0842022e-19 -1.7941393
-2 2.5076272 -0
-1.656287 2 -1.7888702
1.0842022e-19 2.4639342 -1.0842022e-19
-1.6407204 -3.6893488e+19 -1.7855819
1.0842022e-19 3.2186835 2
-2.4584723 1.0842022e-19 2.6871388
1.0842022e-19 3.2753015 1.0842022e-19
-2.3019381 -2 2.7514222
3.6893488e+19 3.2217286 2
-2.4614511 0 2.6760409
2 3.2236061 -1.0842022e-19
-2.4632876 -3.6893488e+19 2.6637838
1.0842022e-19 3.2568781 -1.0842022e-19
-2.2817321 -3.6893488e+19 2.6890788
0 3.2233086 -0
-2.4629965 2 2.6496248
-0 3.2530622 -2
-2.4950976 -1.0842022e-19 2.6625099
-1.0842022e-19 3.2417786 -3.6893488e+19
-2.26968 0 2.6416399
0 3.2513123 -1.0842022e-19
-2.4916737 -2 2.6449816
1.0842022e-19 3.2365992 -1.0842022e-19
-2.2668397 -2 2.6233959
2 3.2152793 -1.0842022e-19
-2.4551423 3.6893488e+19 2.6020837
-2 3.2358873 -0
-2.2664495 3.6893488e+19 2.6087918
-3.6893488e+19 3.2544739 -0
-2.4978597 -1.0842022e-19 2.6203475
-2 3.2594898 1.0842022e-19
-2.2845967 -1.0842022e-19 2.6182482
0 3.249896 1.0842022e-19
-2.0532568 -1.0842022e-19 2.5969429
-0 3.2490094 2
-2.0527189 2 2.5820003
-0 3.2293658 -1.0842022e-19
-2.350445 0 2.563138
-1.0842022e-19 3.2479408 3.6893488e+19
-2.0520706 -2 2.5670283
2 3.2294364 -3.6893488e+19
-2.3504965 -2 2.5494211
0 3.245085 -1.0842022e-19
-2.050338 -2 2.5510595
3.6893488e+19 3.2425656 0
-2.360095 -3.6893488e+19 2.5435088
0 3.238441 3.6893488e+19
-2.3570795 -1.0842022e-19 2.5270863
2 3.251461 -3.6893488e+19
-2.0550923 3.6893488e+19 2.527169
0 3.2292249 1.0842022e-19
-2.350342 0 2.5081866
0 3.1962628 0
-2.0207207 1.0842022e-19 2.4665351
3.6893488e+19 3.2270372 2
-2.3487427 -1.0842022e-19 2.4868429
-2 3.2510824 -2
-2.0546331 0 2.4964964
-0 3.2457092 0
-2.3623931 -3.6893488e+19 2.4777176
-0 3.2504766 3.6893488e+19
-2.4900391 3.6893488e+19 2.4700811
0 3.2466409 1.0842022e-19
-2.2723465 0 2.4496069
3.6893488e+19 3.2526319 2
-2.4942558 0 2.4453735
-0 3.1949644 -1.0842022e-19
-2.2380166 0 2.377656
-2 3.1660564 0
-2.406992 0 2.3431001
-0 3.2479017 2
-2.2730379 1.0842022e-19 2.3944588
-3.6893488e+19 3.2691576 0
-2.5132937 -1.0842022e-19 2.4133835
-3.6893488e+19 3.2474873 2
-2.2728107 -2 2.3660712
3.6893488e+19 3.2684803 2
-2.5126309 -1.0842022e-19 2.3819172
3.6893488e+19 3.1988654 -0
-2.242295 3.6893488e+19 2.3050039
-2 3.1684015 -2
-2.4092858 0 2.2739172
-2 3.197783 -2
-2.2411079 -2 2.2790747
3.6893488e+19 3.1641738 -2
-2.4051502 3.6893488e+19 2.2454729
-3.6893488e+19 3.1982324 2
-2.241601 2 2.2541583
0 3.1671326 0
-2.4080446 1.0842022e-19 2.20191
2 3.1916287 -1.0842022e-19
-2.2343581 1.0842022e-19 2.2012258
1.0842022e-19 3.1936896 -1.0842022e-19
-2.0191596 3.6893488e+19 2.1777406
3.6893488e+19 3.1779947 0
-2.3128898 -1.0842022e-19 2.1399839
1.0842022e-19 3.2400477 -2
-2.0472822 0 2.1675637
3.6893488e+19 3.1763508 3.6893488e+19
-2.3116879 -2 2.0905936
-0 3.294224 2
-2.106976 2 2.1855593
-0 3.1707051 0
-2.3075607 0 2.0388675
2 3.2943118 3.6893488e+19
-2.1070824 1.0842022e-19 2.1198616
-2 3.1708512 2
-2.3076675 -3.6893488e+19 1.9917541
3.6893488e+19 3.1937001 -0
-2.019166 -1.0842022e-19 1.9792155
-0 3.1749277 -2
-2.3106475 3.6893488e+19 1.9464579
-1.0842022e-19 3.1758115 -3.6893488e+19
-2.3112936 -0 1.8991393
-1.0842022e-19 3.1903284 -1.0842022e-19
-2.0171206 2 1.8791125
-2 3.1747146 3.6893488e+19
-2.3104918 1.0842022e-19 1.8273493
1.0842022e-19 3.1897495 3.6893488e+19
-2.0167694 1.0842022e-19 1.7846863
0 3.1773934 0
-2.3124502 3.6893488e+19 1.7157309
1.0842022e-19 3.1600668 -2
-2.4011326 0 1.6060202
0 3.1931787 3.6893488e+19
-2.236058 -1.0842022e-19 1.3256496
0 3.1628611 2
-2.4038661 0 -1.5135833
3.6893488e+19 3.1901464 1.0842022e-19
-2.2327325 -1.0842022e-19 -1.6719053
-0 3.1622231 1.0842022e-19
-2.4032421 -3.6893488e+19 -1.7522285
1.0842022e-19 3.1868126 0
-2.2290761 -3.6893488e+19 -1.807991
1.0842022e-19 3.1581538 -1.0842022e-19
-2.3992612 1.0842022e-19 -1.8427246
0 3.1869805 0
-2.2292602 -1.0842022e-19 -1.8903935
1.0842022e-19 3.1336606 -3.6893488e+19
-2.3753016 -1.0842022e-19 -1.8954539
-1.0842022e-19 3.1420927 -0
-2.1800294 0 -1.9198364
1.0842022e-19 2.9163291 -0
-2.1572585 0 -1.8296604
-1.0842022e-19 2.9139366 -1.0842022e-19
-2.1549182 -0 -1.875028
0 2.8232198 0
-1.9272463 -1.0842022e-19 -1.8373598
0 2.779453 3.6893488e+19
-2.0233645 -0 -1.8252668
-0 2.7588444 0
-1.8919444 2 -1.8240575
0 2.7180443 3.6893488e+19
-1.7669671 -0 -1.8177727
-0 2.6409266 2
-1.7371516 -1.0842022e-19 -1.8078914
-2 2.5826738 1.0842022e-19
-1.7018132 3.6893488e+19 -1.7992777
-2 2.5416505 2
-1.6769269 -1.0842022e-19 -1.7941393
-2 2.5076272 -0
-1.656287 2 -1.7888702
1.0842022e-19 2.4639342 -1.0842022e-19
-1.6407204 -3.6893488e+19 -1.7855819
-2 3.2758739 -2
-2.3142023 -3.6893488e+19 2.7519913
3.6893488e+19 3.2265682 -0
-2.4763401 -1.0842022e-19 2.6805513
-0 3.2690463 2
-2.5189176 -1.0842022e-19 2.7202775
-1.0842022e-19 3.2568309 -1.0842022e-19
-2.2925136 -3.6893488e+19 2.6890788
-3.6893488e+19 3.2232156 -2
-2.4729891 2 2.6496761
-3.6893488e+19 3.252661 -1.0842022e-19
-2.5025401 1.0842022e-19 2.6619897
1.0842022e-19 3.2421472 -2
-2.2802615 1.0842022e-19 2.6420052
-2 3.2510936 -1.0842022e-19
-2.5009735 -0 2.6447663
3.6893488e+19 3.256588 -1.0842022e-19
-2.2922368 1.0842022e-19 2.6438622
-1.0842022e-19 3.2535927 -0
-2.5034714 -1.0842022e-19 2.6339192
0 3.2581503 -2
-2.2940161 -2 2.6313195
0 3.2543001 3.6893488e+19
-2.5041783 -2 2.6202142
3.6893488e+19 3.2592428 -2
-2.2952604 -2 2.617965
0 3.249783 0
-2.074199 -0 2.5969002
-1.0842022e-19 3.2488964 0
-2.0736239 2 2.5819592
-2 3.2281437 1.0842022e-19
-2.359673 2 2.5624156
0 3.2477973 2
-2.0729108 -3.6893488e+19 2.5669694
1.0842022e-19 3.2463923 -1.0842022e-19
-2.0719993 3.6893488e+19 2.5518856
0 3.2520685 2
-2.0770233 -0 2.5422182
1.0842022e-19 3.2363198 -3.6893488e+19
-2.365823 -3.6893488e+19 2.52595
0 3.2514198 1.0842022e-19
-2.0761817 -3.6893488e+19 2.5271518
2 3.2519026 -1.0842022e-19
-2.076808 -3.6893488e+19 2.5133727
3.6893488e+19 3.2508552 -0
-2.0754492 1.0842022e-19 2.496098
3.6893488e+19 3.2505341 3.6893488e+19
-2.5004141 -3.6893488e+19 2.4703412
-0 3.2733331 -2
-2.3113084 -1.0842022e-19 2.4949853
-0 3.2480719 -0
-2.4978335 -0 2.4391763
2 3.2481375 -2
-2.2836728 -2 2.422863
-3.6893488e+19 3.167433 -2
-2.4172332 -3.6893488e+19 2.3443468
-3.6893488e+19 3.2504716 0
-2.2852709 -2 2.3969412
-0 3.2526481 2
-2.5025272 1.0842022e-19 2.3881533
3.6893488e+19 3.2499416 0
-2.2847004 0 2.3679447
-2 3.1682968 0
-2.4180968 0 2.2976134
3.6893488e+19 3.2001498 2
-2.2563455 1.0842022e-19 2.3059328
1.0842022e-19 3.1652062 -0
-2.4150074 3.6893488e+19 2.2719133
-2 3.19854 -0
-2.2554288 -0 2.2795978
-1.0842022e-19 3.1607616 -3.6893488e+19
-2.4105649 -1.0842022e-19 2.2415502
-1.0842022e-19 3.200047 0
-2.2562871 0 2.255234
-1.0842022e-19 3.2608166 0
-2.5106919 0 2.2826533
-3.6893488e+19 3.3124647 -1.0842022e-19
-2.3558769 3.6893488e+19 2.3193135
-3.6893488e+19 3.2399905 3.6893488e+19
-2.0678468 1.0842022e-19 2.2224259
-1.0842022e-19 3.2920527 -2
-2.4393804 0 2.26618
0 3.2395296 0
-2.0675478 2 2.167165
-1.0842022e-19 3.2888517 -3.6893488e+19
-2.4345646 3.6893488e+19 2.2116153
3.6893488e+19 3.2969074 3.6893488e+19
-2.1351955 0 2.1895769
-0 3.170696 -0
-2.3164592 -0 2.0389314
-0 3.2958415 1.0842022e-19
-2.1338127 -3.6893488e+19 2.1218221
-2 3.1728632 3.6893488e+19
-2.3180895 -2 1.9929689
-3.6893488e+19 3.2939334 -2
-2.1313372 -3.6893488e+19 2.0537233
-1.0842022e-19 3.3164568 -2
-2.4760952 -0 2.0426877
-2 3.1911526 2
-2.0361667 -2 1.9286317
-3.6893488e+19 3.3109758 0
-2.4678495 -3.6893488e+19 1.9678898
-1.0842022e-19 3.301358 -1.0842022e-19
-2.1409695 2 1.9267458
-3.6893488e+19 3.1749535 2
-2.3196619 1.0842022e-19 1.8275124
-0 3.2990475 -1.0842022e-19
-2.1379719 3.6893488e+19 1.8422087
-2 3.1792805 3.6893488e+19
-2.3229167 -0 1.7167362
1.0842022e-19 3.2671082 -3.6893488e+19
-2.5169802 1.0842022e-19 1.6505301
-1.0842022e-19 3.2398851 0
-2.2789736 1.0842022e-19 1.3468368
-1.0842022e-19 3.162231 -3.6893488e+19
-2.4120336 -1.0842022e-19 -1.5134166
2 3.1899099 1.0842022e-19
-2.2505143 -3.6893488e+19 -1.6718444
3.6893488e+19 3.1623375 -0
-2.4121401 2 -1.7523052
-1.0842022e-19 3.1865766 2
-2.2472322 1.0842022e-19 -1.8079258
-3.6893488e+19 3.1593854 0
-2.4091897 -1.0842022e-19 -1.8434525
0 3.1869938 -2
-2.2477071 -0 -1.8904235
2 3.1345901 0
-2.3844061 -2 -1.8958536
3.6893488e+19 3.1417093 3.6893488e+19
-2.1961312 -2 -1.9197013
0 2.9160702 -1.0842022e-19
-2.1658709 -1.0842022e-19 -1.8295994
-2 2.9137404 0
-2.1635425 2 -1.8750093
-2 2.8212917 1.0842022e-19
-1.9329652 -1.0842022e-19 -1.8361318
3.6893488e+19 2.7801058 0
-2.0299718 -0 -1.8257998
3.6893488e+19 2.7584233 2
-1.8971636 -0 -1.82377
2 2.712882 -0
-1.775131 -2 -1.8156662
-2 2.6408863 -3.6893488e+19
-1.7517799 -1.0842022e-19 -1.8078914
-1.0842022e-19 2.5833874 1.0842022e-19
-1.7162616 -3.6893488e+19 -1.7996694
3.6893488e+19 2.5402503 -1.0842022e-19
-1.6882794 -2 -1.7933445
0 2.5078499 0
-1.667262 1.0842022e-19 -1.7890286
1.0842022e-19 2.4636376 1.0842022e-19
-1.6503761 1.0842022e-19 -1.7854959
1.0842022e-19 2.3926961 -1.0842022e-19
-1.6273669 -2 -1.7830505
-0 2.3388784 1.0842022e-19
-1.7943581 1.0842022e-19 -1.7816044
3.6893488e+19 2.2927866 -0
-1.7713232 1.0842022e-19 -1.7770035
-0 2.2576065 2
-1.7537416 1.0842022e-19 -1.7734851
-0 2.2224758 -3.6893488e+19
-1.7361248 1.0842022e-19 -1.7747446
-3.6893488e+19 2.1877394 -2
-1.5169762 2 -1.7753247
3.6893488e+19 2.1503034 1.0842022e-19
-1.5048343 -0 -1.7739972
0 2.1173866 -0
-1.4883161 -1.0842022e-19 -1.7723807
-2 2.0894604 -0
-1.470201 -0 -1.7710601
-2 3.2758739 -2
-2.3142023 -3.6893488e+19 2.7519913
3.6893488e+19 3.2265682 -0
-2.4763401 -1.0842022e-19 2.6805513
-2 3.2233009 -0
-2.4730744 3.6893488e+19 2.6636515
-1.0842022e-19 3.2568309 -1.0842022e-19
-2.2925136 -3.6893488e+19 2.6890788
-3.6893488e+19 3.2232156 -2
-2.4729891 2 2.6496761
-3.6893488e+19 3.252661 -1.0842022e-19
-2.5025401 1.0842022e-19 2.6619897
1.0842022e-19 3.2421472 -2
-2.2802615 1.0842022e-19 2.6420052
-2 3.2510936 -1.0842022e-19
-2.5009735 -0 2.6447663
3.6893488e+19 3.256588 -1.0842022e-19
-2.2922368 1.0842022e-19 2.6438622
-1.0842022e-19 3.2535927 -0
-2.5034714 -1.0842022e-19 2.6339192
-1.0842022e-19 3.2350318 -3.6893488e+19
-2.2762096 2 2.6082258
0 3.2543001 3.6893488e+19
-2.5041783 -2 2.6202142
3.6893488e+19 3.2592428 -2
-2.2952604 -2 2.617965
0 3.249783 0
-2.074199 -0 2.5969002
-1.0842022e-19 3.2488964 0
-2.0736239 2 2.5819592
-2 3.2281437 1.0842022e-19
-2.359673 2 2.5624156
0 3.2477973 2
-2.0729108 -3.6893488e+19 2.5669694
1.0842022e-19 3.2463923 -1.0842022e-19
-2.0719993 3.6893488e+19 2.5518856
0 3.2520685 2
-2.0770233 -0 2.5422182
1.0842022e-19 3.2363198 -3.6893488e+19
-2.365823 -3.6893488e+19 2.52595
0 3.2514198 1.0842022e-19
-2.0761817 -3.6893488e+19 2.5271518
3.6893488e+19 3.1937399 -0
-2.0378449 1.0842022e-19 2.4639454
3.6893488e+19 3.2508552 -0
-2.0754492 1.0842022e-19 2.496098
3.6893488e+19 3.2505341 3.6893488e+19
-2.5004141 -3.6893488e+19 2.4703412
-3.6893488e+19 3.2511399 -0
-2.286032 -0 2.4547954
-0 3.2480719 -0
-2.4978335 -0 2.4391763
2 3.208832 0
-2.2612898 -2 2.389497
-3.6893488e+19 3.167433 -2
-2.4172332 -3.6893488e+19 2.3443468
-3.6893488e+19 3.2504716 0
-2.2852709 -2 2.3969412
-2 3.1680911 3.6893488e+19
-2.417891 3.6893488e+19 2.3211648
3.6893488e+19 3.2499416 0
-2.2847004 0 2.3679447
-2 3.1682968 0
-2.4180968 0 2.2976134
3.6893488e+19 3.2001498 2
-2.2563455 1.0842022e-19 2.3059328
1.0842022e-19 3.1652062 -0
-2.4150074 3.6893488e+19 2.2719133
-2 3.19854 -0
-2.2554288 -0 2.2795978
-1.0842022e-19 3.1607616 -3.6893488e+19
-2.4105649 -1.0842022e-19 2.2415502
-1.0842022e-19 3.200047 0
-2.2562871 0 2.255234
2 3.1687918 -0
-2.4185913 -2 2.2038546
3.6893488e+19 3.1834908 -2
-2.2437174 0 2.1929922
-3.6893488e+19 3.2399905 3.6893488e+19
-2.0678468 1.0842022e-19 2.2224259
3.6893488e+19 3.1794438 3.6893488e+19
-2.3230395 -3.6893488e+19 2.1413994
0 3.2395296 0
-2.0675478 2 2.167165
2 3.1915979 3.6893488e+19
-2.3321822 2 2.1028597
3.6893488e+19 3.2969074 3.6893488e+19
-2.1351955 0 2.1895769
-0 3.170696 -0
-2.3164592 -0 2.0389314
-0 3.2958415 1.0842022e-19
-2.1338127 -3.6893488e+19 2.1218221
-2 3.1728632 3.6893488e+19
-2.3180895 -2 1.9929689
3.6893488e+19 3.1947155 -2
-2.0384777 3.6893488e+19 1.9797637
-1.0842022e-19 3.1733005 -3.6893488e+19
-2.3184183 -2 1.9457531
-2 3.1911526 2
-2.0361667 -2 1.9286317
2 3.1722865 3.6893488e+19
-2.3176556 0 1.8979406
1.0842022e-19 3.1905329 -3.6893488e+19
-2.0357645 -1.0842022e-19 1.8791857
-3.6893488e+19 3.1749535 2
-2.3196619 1.0842022e-19 1.8275124
-2 3.1922331 0
-2.0368676 -1.0842022e-19 1.7856047
-2 3.1792805 3.6893488e+19
-2.3229167 -0 1.7167362
1.0842022e-19 3.160213 -0
-2.4100165 -0 1.6061774
-1.0842022e-19 3.191601 -1.0842022e-19
-2.2514772 0 1.3249722
-1.0842022e-19 3.162231 -3.6893488e+19
-2.4120336 -1.0842022e-19 -1.5134166
2 3.1899099 1.0842022e-19
-2.2505143 -3.6893488e+19 -1.6718444
3.6893488e+19 3.1623375 -0
-2.4121401 2 -1.7523052
-1.0842022e-19 3.1865766 2
-2.2472322 1.0842022e-19 -1.8079258
-3.6893488e+19 3.1593854 0
-2.4091897 -1.0842022e-19 -1.8434525
0 3.1869938 -2
-2.2477071 -0 -1.8904235
2 3.1345901 0
-2.3844061 -2 -1.8958536
3.6893488e+19 3.1417093 3.6893488e+19
-2.1961312 -2 -1.9197013
0 2.9160702 -1.0842022e-19
-2.1658709 -1.0842022e-19 -1.8295994
-2 2.9137404 0
-2.1635425 2 -1.8750093
-2 2.8212917 1.0842022e-19
-1.9329652 -1.0842022e-19 -1.8361318
3.6893488e+19 2.7801058 0
-2.0299718 -0 -1.8257998
3.6893488e+19 2.7584233 2
-1.8971636 -0 -1.82377
2 2.712882 -0
-1.775131 -2 -1.8156662
-2 2.6408863 -3.6893488e+19
-1.7517799 -1.0842022e-19 -1.8078914
-1.0842022e-19 2.5833874 1.0842022e-19
-1.7162616 -3.6893488e+19 -1.7996694
3.6893488e+19 2.5402503 -1.0842022e-19
-1.6882794 -2 -1.7933445
0 2.5078499 0
-1.667262 1.0842022e-19 -1.7890286
1.0842022e-19 2.4636376 1.0842022e-19
-1.6503761 1.0842022e-19 -1.7854959
1.0842022e-19 2.3926961 -1.0842022e-19
-1.6273669 -2 -1.7830505
-0 2.3388784 1.0842022e-19
-1.7943581 1.0842022e-19 -1.7816044
3.6893488e+19 2.2927866 -0
-1.7713232 1.0842022e-19 -1.7770035
-0 2.2576065 2
-1.7537416 1.0842022e-19 -1.7734851
-0 2.2224758 -3.6893488e+19
-1.7361248 1.0842022e-19 -1.7747446
-3.6893488e+19 2.1877394 -2
-1.5169762 2 -1.7753247
3.6893488e+19 2.1503034 1.0842022e-19
-1.5048343 -0 -1.7739972
0 2.1173866 -0
-1.4883161 -1.0842022e-19 -1.7723807
-2 2.0894604 -0
-1.470201 -0 -1.7710601
-1.0842022e-19 3.2754879 1.0842022e-19
-2.3252301 0 2.7516861
2 3.2540262 1.0842022e-19
-2.5092478 -3.6893488e+19 2.7091453
3.6893488e+19 3.2264788 0
-2.4862731 1.0842022e-19 2.6665649
-2 3.2567523 3.6893488e+19
-2.3031116 1.0842022e-19 2.6890268
-1.0842022e-19 3.2228487 3.6893488e+19
-2.4825683 -1.0842022e-19 2.6494966
-3.6893488e+19 3.2570055 2
-2.3034105 -2 2.6744554
-2 3.2525177 -1.0842022e-19
-2.5077083 3.6893488e+19 2.6618905
2 3.2425134 -1.0842022e-19
-2.2907207 3.6893488e+19 2.6423705
0 3.2521832 0
-2.5073669 -1.0842022e-19 2.6466086
0 3.2563562 -1.0842022e-19
-2.3026438 3.6893488e+19 2.6435802
-3.6893488e+19 3.253845 1.0842022e-19
-2.509063 -0 2.6344268
-0 3.2366266 1.0842022e-19
-2.287246 2 2.6094711
-3.6893488e+19 3.2208207 -2
-2.4804986 -0 2.5928264
1.0842022e-19 3.2591789 2
-2.3059762 -0 2.6179433
2 3.2500644 1.0842022e-19
-2.0951688 -3.6893488e+19 2.5971777
-3.6893488e+19 3.2486267 3.6893488e+19
-2.0941322 -0 2.5818157
0 3.2269206 3.6893488e+19
-2.3687167 -0 2.5616932
1.0842022e-19 3.2479591 -0
-2.0936713 3.6893488e+19 2.567107
2 3.2487462 -2
-2.0942144 -0 2.55335
2 3.2520566 0
-2.0979187 -1.0842022e-19 2.5422361
3.6893488e+19 3.232935 3.6893488e+19
-2.3733666 0 2.5240972
-1.0842022e-19 3.2514079 -2
-2.0970232 3.6893488e+19 2.527169
-2 3.2514882 1.0842022e-19
-2.0971344 -2 2.5129681
-2 3.2522533 -1.0842022e-19
-2.0981903 3.6893488e+19 2.4989171
3.6893488e+19 3.2482257 -0
-2.5042334 -2 2.4678259
1.0842022e-19 3.2736845 -2
-2.3231008 1.0842022e-19 2.4957147
-1.0842022e-19 3.245105 -1.0842022e-19
-2.502641 3.6893488e+19 2.436703
2 3.2477961 3.6893488e+19
-2.293839 -1.0842022e-19 2.4226525
0 3.1861079 1.0842022e-19
-2.4450722 2 2.3598695
-1.0842022e-19 3.2503626 1.0842022e-19
-2.2955682 3.6893488e+19 2.396843
-3.6893488e+19 3.2484348 2
-2.5043402 -1.0842022e-19 2.3830075
-3.6893488e+19 3.2496614 1.0842022e-19
-2.2949402 0 2.3678076
-1.0842022e-19 3.17026 3.6893488e+19
-2.4288986 1.0842022e-19 2.2991078
-2 3.258105 -2
-2.3047085 1.0842022e-19 2.3508949
-1.0842022e-19 3.2564957 -3.6893488e+19
-2.3028085 1.0842022e-19 2.3198338
-3.6893488e+19 3.1596072 2
-2.4180269 -1.0842022e-19 2.240329
-1.0842022e-19 3.258074 1.0842022e-19
-2.304672 -0 2.2927766
2 3.2530766 2
-2.5082786 -0 2.2743547
-2 3.2399998 -0
-2.0881782 2 2.222486
-1.0842022e-19 3.2912664 2
-2.4503679 -3.6893488e+19 2.2655287
2 3.2415342 0
-2.0892372 -2 2.1689186
-3.6893488e+19 3.2864349 0
-2.4428973 3.6893488e+19 2.207866
0 3.2422037 -3.6893488e+19
-2.089699 -0 2.1143975
2 3.1704059 1.0842022e-19
-2.3250241 3.6893488e+19 2.0388033
-0 3.2863879 0
-2.1453071 -3.6893488e+19 2.1099796
3.6893488e+19 3.1703343 3.6893488e+19
-2.3249688 1.0842022e-19 1.9915755
1.0842022e-19 3.1942306 1.0842022e-19
-2.0565901 -2 1.979538
0 3.171797 1.0842022e-19
-2.3260996 -2 1.9451059
2 3.1904807 3.6893488e+19
-2.054002 3.6893488e+19 1.9283789
-0 3.1713426 0
-2.3257484 -3.6893488e+19 1.8976463
1.0842022e-19 3.3020122 -3.6893488e+19
-2.1668732 2 1.9271486
2 3.1725783 -3.6893488e+19
-2.3267035 -1.0842022e-19 1.8264301
-3.6893488e+19 3.300014 -0
-2.1641154 0 1.8429345
-2 3.1755354 2
-2.32899 -3.6893488e+19 1.7148983
2 3.2544665 1.0842022e-19
-2.5096972 -1.0842022e-19 1.6434526
-3.6893488e+19 3.2410398 3.6893488e+19
-2.289851 -0 1.3474014
2 3.2551811 -1.0842022e-19
-2.5104263 -0 -1.5464226
-0 3.1879263 1.0842022e-19
-2.2584991 2 -1.6711017
-3.6893488e+19 3.1635976 2
-2.4220994 0 -1.752736
-3.6893488e+19 3.1836588 -3.6893488e+19
-2.25598 -3.6893488e+19 -1.8067373
-3.6893488e+19 3.1586628 -3.6893488e+19
-2.417063 -2 -1.8431381
2 3.1746352 -1.0842022e-19
-2.2506535 -0 -1.8864778
-0 3.1339066 1.0842022e-19
-2.391798 -1.0842022e-19 -1.895642
-1.0842022e-19 3.1403584 2
-2.2108417 -2 -1.9191478
3.6893488e+19 3.0004241 -0
-2.0456407 2 -1.8865434
2 2.910012 -0
-2.1684399 -1.0842022e-19 -1.8728465
3.6893488e+19 2.8207955 2
-1.9393592 -3.6893488e+19 -1.8358452
1.0842022e-19 2.7801383 2
-2.0358965 -1.0842022e-19 -1.8258886
-0 2.7561958 -1.0842022e-19
-1.9012272 1.0842022e-19 -1.8220937
-3.6893488e+19 2.7138295 -0
-1.7850583 -1.0842022e-19 -1.8160772
0 2.6413429 0
-1.7600446 1.0842022e-19 -1.8081248
-3.6893488e+19 2.5834758 0
-1.7301518 -1.0842022e-19 -1.7997347
-3.6893488e+19 2.5405924 -0
-1.7005553 0 -1.7935613
1.0842022e-19 2.5079465 2
-1.6780243 3.6893488e+19 -1.7891078
2 2.4638362 -0
-1.6600605 -3.6893488e+19 -1.7855819
-1.0842022e-19 3.2754879 1.0842022e-19
-2.3252301 0 2.7516861
-0 3.2261403 0
-2.4859276 -2 2.6803052
3.6893488e+19 3.2264788 0
-2.4862731 1.0842022e-19 2.6665649
2 3.2229962 -1.0842022e-19
-2.2792001 -2 2.6543934
-1.0842022e-19 3.2228487 3.6893488e+19
-2.4825683 -1.0842022e-19 2.6494966
-3.6893488e+19 3.2570055 2
-2.3034105 -2 2.6744554
-2 3.2525177 -1.0842022e-19
-2.5077083 3.6893488e+19 2.6618905
2 3.2425134 -1.0842022e-19
-2.2907207 3.6893488e+19 2.6423705
0 3.2521832 0
-2.5073669 -1.0842022e-19 2.6466086
2 3.2470403 2
-2.2933929 2 2.6315496
1.0842022e-19 3.2220752 1.0842022e-19
-2.4817789 3.6893488e+19 2.6074588
-0 3.2366266 1.0842022e-19
-2.287246 2 2.6094711
-3.6893488e+19 3.2208207 -2
-2.4804986 -0 2.5928264
1.0842022e-19 3.2591789 2
-2.3059762 -0 2.6179433
2 3.2500644 1.0842022e-19
-2.0951688 -3.6893488e+19 2.5971777
-3.6893488e+19 3.2486267 3.6893488e+19
-2.0941322 -0 2.5818157
0 3.2269206 3.6893488e+19
-2.3687167 -0 2.5616932
1.0842022e-19 3.2479591 -0
-2.0936713 3.6893488e+19 2.567107
-3.6893488e+19 3.1931548 -1.0842022e-19
-2.0558476 -3.6893488e+19 2.5195379
-0 3.1911106 0
-2.0544369 -3.6893488e+19 2.5057132
3.6893488e+19 3.232935 3.6893488e+19
-2.3733666 0 2.5240972
-1.0842022e-19 3.1934009 -2
-2.0560174 -3.6893488e+19 2.4888349
2 3.19363 -2
-2.0561755 -0 2.4638805
-2 3.2522533 -1.0842022e-19
-2.0981903 3.6893488e+19 2.4989171
-2 3.1710947 3.6893488e+19
-2.4297504 3.6893488e+19 2.3954012
2 3.25196 -0
-2.2974539 -3.6893488e+19 2.4563658
-0 3.1839988 -2
-2.4429197 0 2.3828049
-0 3.2048719 2
-2.2685018 -2 2.3862078
0 3.1861079 1.0842022e-19
-2.4450722 2 2.3598695
2 3.1941864 0
-2.2621944 -3.6893488e+19 2.3520336
-3.6893488e+19 3.2484348 2
-2.5043402 -1.0842022e-19 2.3830075
-1.0842022e-19 3.1914711 -0
-2.2605915 1.0842022e-19 2.3249729
-1.0842022e-19 3.17026 3.6893488e+19
-2.4288986 1.0842022e-19 2.2991078
-1.0842022e-19 3.1973636 2
-2.2640698 3.6893488e+19 2.3040962
-3.6893488e+19 3.1996987 -1.0842022e-19
-2.2654481 -1.0842022e-19 2.2803726
-3.6893488e+19 3.1596072 2
-2.4180269 -1.0842022e-19 2.240329
-1.0842022e-19 3.258074 1.0842022e-19
-2.304672 -0 2.2927766
-3.6893488e+19 3.1659021 -3.6893488e+19
-2.4244511 -0 2.2008705
-0 3.1991119 -2
-2.0599589 -2 2.1830595
-3.6893488e+19 3.1753006 -2
-2.3288083 0 2.1377192
-3.6893488e+19 3.2008171 0
-2.061136 0 2.134217
1.0842022e-19 3.194751 1.0842022e-19
-2.3438458 -0 2.1054668
-3.6893488e+19 3.1957963 -3.6893488e+19
-2.0576706 3.6893488e+19 2.0800405
2 3.1704059 1.0842022e-19
-2.3250241 3.6893488e+19 2.0388033
-2 3.1966155 2
-2.0582361 -3.6893488e+19 2.03069
3.6893488e+19 3.1703343 3.6893488e+19
-2.3249688 1.0842022e-19 1.9915755
1.0842022e-19 3.1942306 1.0842022e-19
-2.0565901 -2 1.979538
0 3.171797 1.0842022e-19
-2.3260996 -2 1.9451059
2 3.1904807 3.6893488e+19
-2.054002 3.6893488e+19 1.9283789
-0 3.1713426 0
-2.3257484 -3.6893488e+19 1.8976463
1.0842022e-19 3.3020122 -3.6893488e+19
-2.1668732 2 1.9271486
2 3.1725783 -3.6893488e+19
-2.3267035 -1.0842022e-19 1.8264301
3.6893488e+19 3.1897814 2
-2.0535195 -1.0842022e-19 1.7847316
-2 3.1755354 2
-2.32899 -3.6893488e+19 1.7148983
-1.0842022e-19 3.157661 1.0842022e-19
-2.4160407 3.6893488e+19 1.6048144
-2 3.1905832 3.6893488e+19
-2.2600675 -2 1.3245486
-2 3.1605463 0
-2.4189854 -0 -1.5128961
-0 3.1879263 1.0842022e-19
-2.2584991 2 -1.6711017
-3.6893488e+19 3.1635976 2
-2.4220994 0 -1.752736
-3.6893488e+19 3.1836588 -3.6893488e+19
-2.25598 -3.6893488e+19 -1.8067373
-3.6893488e+19 3.1586628 -3.6893488e+19
-2.417063 -2 -1.8431381
2 3.1746352 -1.0842022e-19
-2.2506535 -0 -1.8864778
-0 3.1339066 1.0842022e-19
-2.391798 -1.0842022e-19 -1.895642
-1.0842022e-19 3.1403584 2
-2.2108417 -2 -1.9191478
3.6893488e+19 3.0004241 -0
-2.0456407 2 -1.8865434
2 2.910012 -0
-2.1684399 -1.0842022e-19 -1.8728465
3.6893488e+19 2.8207955 2
-1.9393592 -3.6893488e+19 -1.8358452
1.0842022e-19 2.7801383 2
-2.0358965 -1.0842022e-19 -1.8258886
-0 2.7561958 -1.0842022e-19
-1.9012272 1.0842022e-19 -1.8220937
-3.6893488e+19 2.7138295 -0
-1.7850583 -1.0842022e-19 -1.8160772
0 2.6413429 0
-1.7600446 1.0842022e-19 -1.8081248
-3.6893488e+19 2.5834758 0
-1.7301518 -1.0842022e-19 -1.7997347
-3.6893488e+19 2.5405924 -0
-1.7005553 0 -1.7935613
1.0842022e-19 2.5079465 2
-1.6780243 3.6893488e+19 -1.7891078
2 2.4638362 -0
-1.6600605 -3.6893488e+19 -1.7855819
1.0842022e-19 3.2526703 -2
-2.5132549 -0 2.7068491
0 3.2255304 -1.0842022e-19
-2.495451 -3.6893488e+19 2.6658762
0 3.2579665 1.0842022e-19
-2.3154342 2 2.6911898
-2 3.2255094 -2
-2.4954293 -0 2.6518805
-2 3.2578857 -0
-2.3153355 0 2.6759932
-2 3.2549837 0
-2.5156655 2 2.6660535
0 3.2428749 0
-2.3013368 -0 2.6427357
3.6893488e+19 3.2525084 -2
-2.5130863 -3.6893488e+19 2.6472545
1.0842022e-19 3.2569637 1.0842022e-19
-2.314208 2 2.6445906
-0 3.2215805 1.0842022e-19
-2.4913359 0 2.6072052
-1.0842022e-19 3.223711 -1.0842022e-19
-2.4935555 0 2.5950477
0 3.2599716 -0
-2.3178859 -1.0842022e-19 2.6191413
0 3.2502506 -0
-2.1164758 -2 2.5974767
3.6893488e+19 3.279021 3.6893488e+19
-2.4432578 3.6893488e+19 2.6308751
-2 3.248507 -3.6893488e+19
-2.1150157 -1.0842022e-19 2.5817747
1.0842022e-19 3.2779634 -2
-2.4415774 2 2.6134214
1.0842022e-19 3.248271 -0
-2.1148429 -0 2.5673425
0 3.2590668 1.0842022e-19
-2.4115582 -1.0842022e-19 2.5738304
-0 3.2506402 2
-2.1170466 -3.6893488e+19 2.5549269
1.0842022e-19 3.2603257 0
-2.413558 3.6893488e+19 2.5604763
2 3.2520735 1.0842022e-19
-2.1191456 0 2.54229
-3.6893488e+19 3.2329955 -0
-2.3836477 -3.6893488e+19 2.5242019
2 3.2517343 2
-2.1186488 1.0842022e-19 2.5275612
-0 3.2514899 -0
-2.1182909 3.6893488e+19 2.5130005
1.0842022e-19 3.2512016 -0
-2.1178687 -3.6893488e+19 2.4968946
1.0842022e-19 3.2472878 3.6893488e+19
-2.5090599 -3.6893488e+19 2.467103
-1.0842022e-19 3.2735066 0
-2.3344364 1.0842022e-19 2.4954903
1.0842022e-19 3.2459543 -1.0842022e-19
-2.5083652 3.6893488e+19 2.4375999
-1.0842022e-19 3.2436078 -3.6893488e+19
-2.3017848 0 2.4191792
-2 3.1703308 -0
-2.4379392 2 2.3469679
0 3.1923006 3.6893488e+19
-2.2704163 3.6893488e+19 2.3506081
-0 3.2488525 -0
-2.5098751 3.6893488e+19 2.3834581
3.6893488e+19 3.2448778 -0
-2.3025613 2 2.3643579
3.6893488e+19 3.1645308 0
-2.4318962 -3.6893488e+19 2.2951298
-0 3.1962509 -2
-2.2728314 -1.0842022e-19 2.3033996
-1.0842022e-19 3.2555132 -0
-2.3124344 0 2.3186715
2 3.1604269 -2
-2.4276202 2 2.2414763
1.0842022e-19 3.1732061 -2
-2.2587421 -2 2.2302079
-2 3.2530372 -3.6893488e+19
-2.5136373 2 2.274405
-1.0842022e-19 3.2395687 -3.6893488e+19
-2.1084709 -2 2.2221253
3.6893488e+19 3.2900274 3.6893488e+19
-2.4607427 -3.6893488e+19 2.264467
0 3.2405729 -0
-2.1092062 -2 2.168148
0 3.2855539 -0
-2.4536359 -3.6893488e+19 2.2065747
3.6893488e+19 3.2422709 -2
-2.1104496 0 2.11449
0 3.1731873 2
-2.3361413 -2 2.0407887
3.6893488e+19 3.1886404 3.6893488e+19
-2.0711803 -2 2.0257099
2 3.1741421 -1.0842022e-19
-2.3368998 2 1.9938265
2 3.3102324 -2
-2.2043154 -1.0842022e-19 2.0706372
3.6893488e+19 3.3069398 0
-2.1994939 3.6893488e+19 1.9986284
-2 3.174592 -3.6893488e+19
-2.3372571 -0 1.8988233
-2 3.302367 -2
-2.1927972 2 1.9273775
-2 3.1695468 -0
-2.3332498 -0 1.8250365
-3.6893488e+19 3.3009467 2
-2.1907175 3.6893488e+19 1.8436375
-1.0842022e-19 3.2773619 -0
-2.4406221 1.0842022e-19 1.7651057
-3.6893488e+19 3.2549691 -1.0842022e-19
-2.5156503 -3.6893488e+19 1.6437846
-3.6893488e+19 3.1882529 -0
-2.2679417 3.6893488e+19 1.3235323
-2 3.2546453 -0
-2.5153129 -1.0842022e-19 -1.5461206
2 3.183291 -3.6893488e+19
-2.2649078 3.6893488e+19 -1.6693239
-0 3.1555252 -2
-2.4225132 -1.0842022e-19 -1.7502851
-3.6893488e+19 3.1589274 0
-2.4260583 0 -1.8433533
-3.6893488e+19 3.183243 3.6893488e+19
-2.2648787 -1.0842022e-19 -1.8892719
-0 3.1321039 -0
-2.3981109 0 -1.8950073
-2 3.1404996 2
-2.2274921 -0 -1.9192424
3.6893488e+19 3.0615973 0
-2.3246508 -1.0842022e-19 -1.9033276
0 2.9998779 2
-2.0556183 -3.6893488e+19 -1.8863056
-2 2.9029987 1.0842022e-19
-2.1698811 2 -1.8686895
-0 2.8215418 -1.0842022e-19
-1.9465861 -2 -1.8363774
2 2.7795482 -1.0842022e-19
-2.0412588 0 -1.8255334
-3.6893488e+19 2.7562697 -1.0842022e-19
-1.9066797 -1.0842022e-19 -1.8221895
2 2.7167685 -3.6893488e+19
-1.7958881 -1.0842022e-19 -1.8173103
-2 2.6411724 -1.0842022e-19
-1.7682117 -2 -1.8080664
0 2.5846832 1.0842022e-19
-1.745061 1.0842022e-19 -1.8003877
-2 2.5405586 1.0842022e-19
-1.7127523 0 -1.7935613
1.0842022e-19 2.5082898 1.0842022e-19
-1.6891245 -1.0842022e-19 -1.7893454
2 2.4650261 -3.6893488e+19
-1.6702502 2 -1.7860128
-2 2.3926077 -1.0842022e-19
-1.6437372 -2 -1.7830505
-3.6893488e+19 2.3413622 3.6893488e+19
-1.8028313 -1.0842022e-19 -1.7828572
0 2.2977555 -0
-1.7801144 -3.6893488e+19 -1.7796859
-2 2.2562082 1.0842022e-19
-1.7584707 1.0842022e-19 -1.7727773
1.0842022e-19 2.2177536 3.6893488e+19
-1.7436743 -1.0842022e-19 -1.7733465
3.6893488e+19 2.1817336 -2
-1.5330615 -1.0842022e-19 -1.7732955
0 2.1526687 0
-1.5224206 -0 -1.7749113
-1.0842022e-19 2.1182833 -2
-1.5098318 3.6893488e+19 -1.7727737
-3.6893488e+19 2.0903606 0
-1.4992183 2 -1.7714804
-2 3.2230763 2
-2.4928944 -0 2.677681
0 3.2255304 -1.0842022e-19
-2.495451 -3.6893488e+19 2.6658762
-2 3.222842 3.6893488e+19
-2.289089 1.0842022e-19 2.6543415
-2 3.2255094 -2
-2.4954293 -0 2.6518805
-0 3.231163 2
-2.2941763 2 2.6474087
0 3.2004664 -2
-2.469337 1.0842022e-19 2.6175098
0 3.2428749 0
-2.3013368 -0 2.6427357
3.6893488e+19 3.2525084 -2
-2.5130863 -3.6893488e+19 2.6472545
0 3.2470648 -0
-2.3038983 -0 2.6316435
-0 3.2215805 1.0842022e-19
-2.4913359 0 2.6072052
-1.0842022e-19 3.223711 -1.0842022e-19
-2.4935555 0 2.5950477
3.6893488e+19 3.24417 3.6893488e+19
-2.3021286 0 2.6008434
0 3.2502506 -0
-2.1164758 -2 2.5974767
1.0842022e-19 3.2301395 -3.6893488e+19
-2.3813789 3.6893488e+19 2.5777049
-2 3.248507 -3.6893488e+19
-2.1150157 -1.0842022e-19 2.5817747
-0 3.224987 3.6893488e+19
-2.3772864 1.0842022e-19 2.5605094
-0 3.1912358 -0
-2.0730808 -1.0842022e-19 2.5310175
-1.0842022e-19 3.2213657 -1.0842022e-19
-2.3744099 -1.0842022e-19 2.5446007
-3.6893488e+19 3.1930106 3.6893488e+19
-2.0743804 -1.0842022e-19 2.5194817
1.0842022e-19 3.2345078 2
-2.3848488 -1.0842022e-19 2.538923
-2 3.1926038 1.0842022e-19
-2.0740826 2 2.506609
-3.6893488e+19 3.2329955 -0
-2.3836477 -3.6893488e+19 2.5242019
1.0842022e-19 3.1934111 -3.6893488e+19
-2.0746734 -3.6893488e+19 2.488903
2 3.1943212 -3.6893488e+19
-2.0753398 1.0842022e-19 2.4646575
1.0842022e-19 3.2512016 -0
-2.1178687 -3.6893488e+19 2.4968946
-2 3.1683052 -1.0842022e-19
-2.4358287 -0 2.3929148
-0 3.2529476 1.0842022e-19
-2.3092973 3.6893488e+19 2.458245
3.6893488e+19 3.1704521 3.6893488e+19
-2.4380655 2 2.3709815
0 3.1885147 1.0842022e-19
-2.2681017 3.6893488e+19 2.3723931
-2 3.1703308 -0
-2.4379392 2 2.3469679
0 3.1923006 3.6893488e+19
-2.2704163 3.6893488e+19 2.3506081
-1.0842022e-19 3.1686461 3.6893488e+19
-2.4361839 -2 2.321805
3.6893488e+19 3.2448778 -0
-2.3025613 2 2.3643579
3.6893488e+19 3.1645308 0
-2.4318962 -3.6893488e+19 2.2951298
-0 3.1962509 -2
-2.2728314 -1.0842022e-19 2.3033996
-1.0842022e-19 3.2555132 -0
-2.3124344 0 2.3186715
2 3.1604269 -2
-2.4276202 2 2.2414763
1.0842022e-19 3.1732061 -2
-2.2587421 -2 2.2302079
-1.0842022e-19 3.1658852 2
-2.4333074 0 2.2010047
-1.0842022e-19 3.1957877 0
-2.0764139 -0 2.1799042
-0 3.1728318 2
-2.3358591 3.6893488e+19 2.1355674
-3.6893488e+19 3.1925972 -1.0842022e-19
-2.0740776 0 2.1272554
0 3.1796975 -1.0842022e-19
-2.3413124 -3.6893488e+19 2.0935235
0 3.1876366 -0
-2.0704453 -3.6893488e+19 2.0740371
0 3.1731873 2
-2.3361413 -2 2.0407887
3.6893488e+19 3.1886404 3.6893488e+19
-2.0711803 -2 2.0257099
2 3.1741421 -1.0842022e-19
-2.3368998 2 1.9938265
0 3.1971741 3.6893488e+19
-2.0774288 3.6893488e+19 1.9810859
1.0842022e-19 3.1934876 0
-2.0747297 -3.6893488e+19 1.9296175
-2 3.174592 -3.6893488e+19
-2.3372571 -0 1.8988233
-1.0842022e-19 3.1990483 -3.6893488e+19
-2.0788012 -2 1.8817124
-2 3.1695468 -0
-2.3332498 -0 1.8250365
-0 3.1922274 -1.0842022e-19
-2.0738068 0 1.7856388
-1.0842022e-19 3.1794686 -1.0842022e-19
-2.3411307 -0 1.7169404
1.0842022e-19 3.1568725 1.0842022e-19
-2.4239171 -3.6893488e+19 1.6044474
-3.6893488e+19 3.1882529 -0
-2.2679417 3.6893488e+19 1.3235323
1.0842022e-19 3.1596639 -1.0842022e-19
-2.4268253 2 -1.5126462
2 3.183291 -3.6893488e+19
-2.2649078 3.6893488e+19 -1.6693239
-0 3.1555252 -2
-2.4225132 -1.0842022e-19 -1.7502851
-3.6893488e+19 3.1589274 0
-2.4260583 0 -1.8433533
-3.6893488e+19 3.183243 3.6893488e+19
-2.2648787 -1.0842022e-19 -1.8892719
-0 3.1321039 -0
-2.3981109 0 -1.8950073
-2 3.1404996 2
-2.2274921 -0 -1.9192424
3.6893488e+19 3.0615973 0
-2.3246508 -1.0842022e-19 -1.9033276
0 2.9998779 2
-2.0556183 -3.6893488e+19 -1.8863056
-2 2.9029987 1.0842022e-19
-2.1698811 2 -1.8686895
-0 2.8215418 -1.0842022e-19
-1.9465861 -2 -1.8363774
2 2.7795482 -1.0842022e-19
-2.0412588 0 -1.8255334
-3.6893488e+19 2.7562697 -1.0842022e-19
-1.9066797 -1.0842022e-19 -1.8221895
2 2.7167685 -3.6893488e+19
-1.7958881 -1.0842022e-19 -1.8173103
-2 2.6411724 -1.0842022e-19
-1.7682117 -2 -1.8080664
0 2.5846832 1.0842022e-19
-1.745061 1.0842022e-19 -1.8003877
-2 2.5405586 1.0842022e-19
-1.7127523 0 -1.7935613
1.0842022e-19 2.5082898 1.0842022e-19
-1.6891245 -1.0842022e-19 -1.7893454
2 2.4650261 -3.6893488e+19
-1.6702502 2 -1.7860128
-2 2.3926077 -1.0842022e-19
-1.6437372 -2 -1.7830505
-3.6893488e+19 2.3413622 3.6893488e+19
-1.8028313 -1.0842022e-19 -1.7828572
0 2.2977555 -0
-1.7801144 -3.6893488e+19 -1.7796859
-2 2.2562082 1.0842022e-19
-1.7584707 1.0842022e-19 -1.7727773
1.0842022e-19 2.2177536 3.6893488e+19
-1.7436743 -1.0842022e-19 -1.7733465
3.6893488e+19 2.1817336 -2
-1.5330615 -1.0842022e-19 -1.7732955
0 2.1526687 0
-1.5224206 -0 -1.7749113
-1.0842022e-19 2.1182833 -2
-1.5098318 3.6893488e+19 -1.7727737
-3.6893488e+19 2.0903606 0
-1.4992183 2 -1.7714804
3.6893488e+19 3.2525377 1.0842022e-19
-2.5185089 -2 2.7067671
-2 3.2225323 -3.6893488e+19
-2.2988768 0 2.6541591
-0 3.2585502 -1.0842022e-19
-2.3270662 0 2.6771779
-0 3.2551842 2
-2.5213227 -3.6893488e+19 2.6665242
-0 3.2428048 -0
-2.3116992 -0 2.64276
-2 3.2524972 -2
-2.5184658 -2 2.6473742
-2 3.2456782 -0
-2.3135166 2 2.6306567
-1.0842022e-19 3.2261672 0
-2.5031407 3.6893488e+19 2.6108038
0 3.2251024 3.6893488e+19
-2.5025744 -0 2.5961804
-2 3.2505732 -2
-2.1380308 -2 2.5979679
3.6893488e+19 3.2244956 1.0842022e-19
-2.3869555 -1.0842022e-19 2.5739384
-1.0842022e-19 3.248076 -3.6893488e+19
-2.1356533 0 2.5815289
1.0842022e-19 3.2249231 1.0842022e-19
-2.3873041 -0 2.5605495
3.6893488e+19 3.2486718 -2
-2.1361146 -3.6893488e+19 2.567637
3.6893488e+19 3.221272 -1.0842022e-19
-2.3843265 1.0842022e-19 2.54462
1.0842022e-19 3.2507482 -0
-2.1383016 -1.0842022e-19 2.5550959
-3.6893488e+19 3.2592573 -2
-2.4228535 -0 2.559284
-3.6893488e+19 3.2512391 2
-2.1390622 3.6893488e+19 2.5413585
-2 3.2370546 1.0842022e-19
-2.3971975 3.6893488e+19 2.5265794
-3.6893488e+19 3.2521205 2
-2.1404271 -3.6893488e+19 2.5280213
0 3.2178946 -2
-2.381572 0 2.5023372
1.0842022e-19 3.2514744 -0
-2.1394262 2 2.5130167
1.0842022e-19 3.1765003 2
-2.3478148 -1.0842022e-19 2.4357073
-2 3.2508142 -0
-2.1384041 -2 2.4961898
2 3.2763882 -1.0842022e-19
-2.450794 -2 2.5166261
-1.0842022e-19 3.246716 3.6893488e+19
-2.5140648 -1.0842022e-19 2.4667273
3.6893488e+19 3.2448027 -3.6893488e+19
-2.3129628 3.6893488e+19 2.4482887
-2 3.2459061 -0
-2.5136342 2 2.4377086
-1.0842022e-19 3.2433832 0
-2.3120651 -1.0842022e-19 2.4190738
-2 3.1686449 -2
-2.445121 -2 2.3456955
-2 3.2451303 1.0842022e-19
-2.3131702 -2 2.392566
2 3.1683784 -0
-2.4448376 -3.6893488e+19 2.3217101
-3.6893488e+19 3.2439702 -0
-2.3124363 -3.6893488e+19 2.3637638
0 3.1634929 3.6893488e+19
-2.4396431 -1.0842022e-19 2.2944925
-0 3.1667321 1.0842022e-19
-2.4430873 -2 2.2731884
-3.6893488e+19 3.2558804 -0
-2.323689 -3.6893488e+19 2.3191943
-2 3.160594 2
-2.4365611 2 2.2418463
1.0842022e-19 3.173213 3.6893488e+19
-2.2676823 -0 2.2303138
-1.0842022e-19 3.2569525 3.6893488e+19
-2.5232029 2 2.2787471
-0 3.1731315 2
-2.2676308 -1.0842022e-19 2.1826603
0 3.2415648 -2
-2.1306117 3.6893488e+19 2.2241087
2 3.2900906 -1.0842022e-19
-2.4731429 2 2.2645946
-2 3.1950984 -0
-2.0946336 -1.0842022e-19 2.1294341
0 3.1786215 -2
-2.3495445 3.6893488e+19 2.0927539
2 3.1878631 -3.6893488e+19
-2.0890312 -0 2.074245
2 3.1791012 -2
-2.3499358 0 2.0449305
3.6893488e+19 3.2864439 -1.0842022e-19
-2.1935792 -2 2.1101365
-1.0842022e-19 3.1741233 0
-2.3458765 0 1.9938802
1.0842022e-19 3.3104749 -1.0842022e-19
-2.2307928 0 2.0709276
3.6893488e+19 3.1751821 -0
-2.3467398 -1.0842022e-19 1.9467742
2 3.3060439 -1.0842022e-19
-2.2239311 -3.6893488e+19 1.9979331
1.0842022e-19 3.1781788 3.6893488e+19
-2.3491836 -1.0842022e-19 1.90012
1.0842022e-19 3.302954 -2
-2.219146 1.0842022e-19 1.9277437
-1.0842022e-19 3.168659 3.6893488e+19
-2.3414202 3.6893488e+19 1.8246659
3.6893488e+19 3.3000669 -0
-2.2146754 -3.6893488e+19 1.8430251
2 3.2752836 1.0842022e-19
-2.4489925 2 1.7640926
-3.6893488e+19 3.1555548 -1.0842022e-19
-2.4312031 3.6893488e+19 1.6037834
1.0842022e-19 3.1780391 -0
-2.2707348 -2 1.3189448
3.6893488e+19 3.1603589 3.6893488e+19
-2.436311 -0 -1.5129273
-3.6893488e+19 3.1832647 1.0842022e-19
-2.2740402 -1.0842022e-19 -1.6693482
1.0842022e-19 3.1538985 -0
-2.4294419 -3.6893488e+19 -1.7496513
2 3.1822703 -0
-2.273411 3.6893488e+19 -1.806228
-2 3.1602111 -1.0842022e-19
-2.4361539 0 -1.8441143
3.6893488e+19 3.1813483 -1.0842022e-19
-2.2728279 2 -1.8886911
2 3.1326225 -3.6893488e+19
-2.4068203 1.0842022e-19 -1.8952541
2 3.1388319 3.6893488e+19
-2.2418725 2 -1.9185539
0 3.0599418 -1.0842022e-19
-2.3295431 0 -1.9025656
-2 2.9985926 2
-2.0653601 0 -1.885983
-3.6893488e+19 2.9052742 2
-2.1809049 3.6893488e+19 -1.8701501
2 2.8224723 2
-1.9539639 -2 -1.8370323
3.6893488e+19 2.7793279 3.6893488e+19
-2.0469933 -2 -1.8254445
0 2.7570889 -2
-1.9126087 -1.0842022e-19 -1.82286
2 2.7165861 -0
-1.8056356 -0 -1.817259
3.6893488e+19 2.6408749 3.6893488e+19
-1.7763245 0 -1.8079498
0 2.5842681 3.6893488e+19
-1.7544096 -3.6893488e+19 -1.8001918
-1.0842022e-19 2.5411453 3.6893488e+19
-1.7254299 2 -1.7939225
3.6893488e+19 2.5081334 -0
-1.6998692 2 -1.7892662
2 2.4654663 -1.0842022e-19
-1.680202 -0 -1.786185
3.6893488e+19 3.2525377 1.0842022e-19
-2.5185089 -2 2.7067671
-2 3.2225323 -3.6893488e+19
-2.2988768 0 2.6541591
0 3.2306988 3.6893488e+19
-2.3040421 -1.0842022e-19 2.6471062
-0 3.2551842 2
-2.5213227 -3.6893488e+19 2.6665242
-0 3.2428048 -0
-2.3116992 -0 2.64276
-2 3.2524972 -2
-2.5184658 -2 2.6473742
-2 3.2456782 -0
-2.3135166 2 2.6306567
2 3.2106097 -2
-2.4897397 2 2.5990155
0 3.2251024 3.6893488e+19
-2.5025744 -0 2.5961804
-2 3.2505732 -2
-2.1380308 -2 2.5979679
3.6893488e+19 3.2244956 1.0842022e-19
-2.3869555 -1.0842022e-19 2.5739384
-1.0842022e-19 3.248076 -3.6893488e+19
-2.1356533 0 2.5815289
1.0842022e-19 3.2249231 1.0842022e-19
-2.3873041 -0 2.5605495
3.6893488e+19 3.1909039 1.0842022e-19
-2.0913858 3.6893488e+19 2.5308409
3.6893488e+19 3.221272 -1.0842022e-19
-2.3843265 1.0842022e-19 2.54462
-0 3.1905489 3.6893488e+19
-2.0911109 -1.0842022e-19 2.5180173
3.6893488e+19 3.2330267 -2
-2.3939126 -0 2.538116
-2 3.1923947 1.0842022e-19
-2.0925403 -2 2.5065193
-2 3.2370546 1.0842022e-19
-2.3971975 3.6893488e+19 2.5265794
-2 3.1935418 2
-2.0934284 1.0842022e-19 2.4891078
0 3.2178946 -2
-2.381572 0 2.5023372
2 3.1935544 -3.6893488e+19
-2.0934379 2 2.463913
1.0842022e-19 3.1765003 2
-2.3478148 -1.0842022e-19 2.4357073
