# .PCD v0.7 - Point Cloud Data file format
VERSION 0.7
FIELDS x y z
SIZE 4 4 4
TYPE F F F
COUNT 1 1 1
WIDTH 1709
HEIGHT 1
VIEWPOINT 0 0 0 1 0 0 0
POINTS 1709
DATA ascii
2.830013 1.0842022e-19 2.5742736
3.6893488e+19 3.1706812 1.0842022e-19
2.7527986 1.0842022e-19 2.535749
-2 3.2061386 1.0842022e-19
2.8279653 3.6893488e+19 2.5583889
2 3.1762936 -3.6893488e+19
2.756171 3.6893488e+19 2.5268364
-3.6893488e+19 3.1373715 -3.6893488e+19
2.7155638 3.6893488e+19 2.4800406
3.6893488e+19 3.1423788 2
2.7821217 0 2.4829824
1.0842022e-19 3.1428304 -0
2.7221243 -3.6893488e+19 2.4634478
-0 3.1465526 1.0842022e-19
2.7851226 0 2.4641478
2 3.1427922 -0
2.7220786 -2 2.4400985
1.0842022e-19 3.1485274 3.6893488e+19
2.7865424 -1.0842022e-19 2.4424183
0 3.1421406 -0
2.7212954 0 2.4161417
0 3.1463997 0
2.7850127 3.6893488e+19 2.416183
2 3.1385856 0
2.7170229 -1.0842022e-19 2.3893981
-0 3.1618624 0
2.6906192 0 2.3971071
-3.6893488e+19 3.1377444 1.0842022e-19
2.7523248 0 2.3682733
-3.6893488e+19 3.1630869 -3.6893488e+19
2.6919291 3.6893488e+19 2.3741343
2 3.1373901 -1.0842022e-19
2.752094 3.6893488e+19 2.3449478
2 3.1730022 0
2.7025368 -1.0842022e-19 2.3584189
-1.0842022e-19 3.1432853 3.6893488e+19
2.7559304 0 2.3268886
2 3.208756 -0
2.7407868 0 2.3619745
-2 3.1445823 -0
2.7567744 -2 2.3046176
-0 3.155633 -1.0842022e-19
2.7639656 2 2.2891722
3.6893488e+19 3.1369548 -1.0842022e-19
2.6639724 2 2.2602952
-0 3.1604846 -2
2.7671227 -0 2.2684007
-3.6893488e+19 3.20117 -1.0842022e-19
2.7326713 -2 2.2772856
0 3.1713388 -0
2.7741861 -2 2.250649
-3.6893488e+19 3.1103368 0
2.6354961 -0 2.1511128
0 3.1452904 -2
2.7572351 1.0842022e-19 2.1737275
0 3.1540318 0
2.7905002 0 2.1636169
1.0842022e-19 3.1337519 -0
2.7112134 2 2.1135981
2 3.1542208 2
2.7906361 3.6893488e+19 2.1157501
-3.6893488e+19 3.1346414 3.6893488e+19
2.7122827 -3.6893488e+19 2.0695128
2 3.164907 -2
2.7983193 -3.6893488e+19 2.0761151
-1.0842022e-19 3.1425695 3.6893488e+19
2.7218111 -3.6893488e+19 2.0302851
-1.0842022e-19 3.1575668 0
2.7930419 3.6893488e+19 2.0219455
3.6893488e+19 3.1454885 2
2.7253191 3.6893488e+19 1.9862337
3.6893488e+19 3.1605783 -1.0842022e-19
2.795207 3.6893488e+19 1.975233
-2 3.1608369 0
2.7953932 -1.0842022e-19 1.9266347
1.0842022e-19 3.1425953 -1.0842022e-19
2.7218418 3.6893488e+19 1.8929824
-1.0842022e-19 3.1598115 3.6893488e+19
2.7946558 -1.0842022e-19 1.8776019
3.6893488e+19 3.1509645 -0
2.7319005 2 1.823643
1.0842022e-19 3.1414495 -0
2.7204647 1.0842022e-19 1.705458
-2 3.1395538 0
2.6667531 1.0842022e-19 1.6004981
0 3.1900721 -3.6893488e+19
2.7863767 0 1.3340342
0 3.1393752 0
2.6665618 1.0842022e-19 -1.5092936
3.6893488e+19 3.1446877 -3.6893488e+19
2.7568429 -0 -1.6617259
2 3.1455169 -3.6893488e+19
2.6731322 2 -1.7504288
-3.6893488e+19 3.1467412 1.0842022e-19
2.7581794 -0 -1.7993717
-0 3.1433377 0
2.6708012 0 -1.8405904
-0 3.159471 3.6893488e+19
2.7664633 -1.0842022e-19 -1.88802
-3.6893488e+19 3.1413209 -2
2.6686435 3.6893488e+19 -1.9024374
0 3.1228957 -1.0842022e-19
2.7353237 2 -1.9194584
3.6893488e+19 3.1106501 2
2.6358311 3.6893488e+19 -1.9321642
3.6893488e+19 3.1105802 2
2.7192953 -1.0842022e-19 -1.9561907
-2 3.0775309 -2
2.6003995 -0 -1.9532993
-0 3.0869405 -3.6893488e+19
2.6885281 -0 -1.9822532
-2 2.8767292 3.6893488e+19
2.4903133 3.6893488e+19 -1.9019753
-2 2.827518 0
2.4709733 -2 -1.8932437
0 2.8015213 1.0842022e-19
2.3623843 1.0842022e-19 -1.8883817
-3.6893488e+19 2.7627478 -2
2.3778331 -1.0842022e-19 -1.8805325
0 2.7390482 -3.6893488e+19
2.2938819 -3.6893488e+19 -1.8765122
-1.0842022e-19 2.6852396 3.6893488e+19
2.3129387 -1.0842022e-19 -1.8671212
-2 2.6664507 -0
2.2502563 2 -1.8648162
2 2.6262522 -2
2.2705264 -2 -1.8567085
-2 2.6034522 3.6893488e+19
2.1747978 3.6893488e+19 -1.8492303
-3.6893488e+19 2.5718787 1.0842022e-19
2.2128639 -1.0842022e-19 -1.8424112
-3.6893488e+19 2.5623355 -2
2.1253815 3.6893488e+19 -1.8414468
0 2.5348945 -3.6893488e+19
2.1596799 -2 -1.8344285
-2 2.5262587 -2
2.0820224 1.0842022e-19 -1.8326547
-1.0842022e-19 2.4979889 -3.6893488e+19
2.1080556 1.0842022e-19 -1.8229154
1.0842022e-19 2.4818571 -2
2.0395606 2 -1.8202491
1.0842022e-19 2.4477935 0
2.071965 0 -1.8163613
2 2.4372253 0
2.0127404 -1.0842022e-19 -1.8150244
0 2.3932612 1.0842022e-19
1.9603596 1.0842022e-19 -1.8116724
2 2.3398972 -1.0842022e-19
1.9318146 1.0842022e-19 -1.8062546
-1.0842022e-19 2.2995665 1.0842022e-19
1.9102414 -3.6893488e+19 -1.802361
3.6893488e+19 2.263869 -3.6893488e+19
1.8911463 -1.0842022e-19 -1.7968024
3.6893488e+19 2.2128153 -2
1.9163828 -3.6893488e+19 -1.7937559
-3.6893488e+19 2.1728058 -2
1.9019994 2 -1.7920963
-2 2.1412199 3.6893488e+19
1.8906442 3.6893488e+19 -1.7916385
-3.6893488e+19 2.110188 2
1.8794882 0 -1.7895541
-3.6893488e+19 3.1030364 1.0842022e-19
2.6237273 2 2.577383
2 3.1802623 2
2.777504 -3.6893488e+19 2.6486642
0 3.1380198 -3.6893488e+19
2.6607606 -0 2.5863872
3.6893488e+19 3.1707938 2
2.7713971 1.0842022e-19 2.6141107
-1.0842022e-19 3.1663811 2
2.6907845 -1.0842022e-19 2.598454
3.6893488e+19 3.1776302 -3.6893488e+19
2.7758062 1.0842022e-19 2.606986
2 3.1670175 2
2.691458 -1.0842022e-19 2.5864844
-1.0842022e-19 3.1774817 2
2.7757106 1.0842022e-19 2.5938599
-0 3.1706917 -3.6893488e+19
2.6953475 0 2.576869
-1.0842022e-19 3.1375306 -3.6893488e+19
2.749887 -3.6893488e+19 2.5499704
-3.6893488e+19 3.1647809 2
2.6890905 0 2.5599077
2 3.1371109 1.0842022e-19
2.7493458 3.6893488e+19 2.5379329
0 3.1787987 -3.6893488e+19
2.8057745 -1.0842022e-19 2.5657229
2 3.1688991 -2
2.7486761 3.6893488e+19 2.5468407
-1.0842022e-19 3.203552 1.0842022e-19
2.8234262 -2 2.5701334
1.0842022e-19 3.1719568 -1.0842022e-19
2.751158 1.0842022e-19 2.536391
3.6893488e+19 3.207613 1.0842022e-19
2.8263221 1.0842022e-19 2.5590959
1.0842022e-19 3.1769531 0
2.754132 3.6893488e+19 2.5270476
1.0842022e-19 3.1378825 1.0842022e-19
2.7117527 -0 2.4802973
0 3.1640418 -3.6893488e+19
2.7952514 -2 2.5045848
0 3.1460445 -1.0842022e-19
2.7214689 -0 2.4668741
0 3.1482368 0
2.7839811 -3.6893488e+19 2.465682
-3.6893488e+19 3.1450887 2
2.7203314 -0 2.4423254
2 3.1483173 1.0842022e-19
2.7840385 1.0842022e-19 2.441771
-0 3.1426556 2
2.7174349 1.0842022e-19 2.4163623
0 3.1454861 0
2.7820196 -0 2.4148347
1.0842022e-19 3.1397524 -2
2.7139785 -1.0842022e-19 2.3902617
-1.0842022e-19 3.2164924 -1.0842022e-19
2.7438326 -1.0842022e-19 2.4494667
-0 3.1360934 1.0842022e-19
2.7480333 -0 2.366394
3.6893488e+19 3.1609724 -0
2.6850586 2 2.3719599
-3.6893488e+19 3.1383102 -1.0842022e-19
2.7504463 -2 2.345474
-2 3.2130871 -1.0842022e-19
2.7402277 -1.0842022e-19 2.3921106
-1.0842022e-19 3.1788106 2
2.7765677 -3.6893488e+19 2.3561139
2 3.2110906 2
2.7381141 -2 2.3635631
2 3.1803691 1.0842022e-19
2.7775729 0 2.3319635
2 3.2074735 2
2.7342851 2 2.3340952
0 3.1804266 -0
2.7776098 -2 2.306587
0 3.2052748 -0
2.7319574 3.6893488e+19 2.3060391
3.6893488e+19 3.1490905 1.0842022e-19
2.7573993 -0 2.2607293
2 3.2016351 1.0842022e-19
2.7281046 -3.6893488e+19 2.2773781
1.0842022e-19 3.1713402 3.6893488e+19
2.7717495 2 2.2504375
1.0842022e-19 3.1096838 3.6893488e+19
2.630764 -0 2.1501069
-3.6893488e+19 3.1583292 -2
2.7633579 1.0842022e-19 2.1873336
-2 3.2229288 0
2.8372438 -2 2.2336948
3.6893488e+19 3.1830046 1.0842022e-19
2.7577341 -2 2.1599431
1.0842022e-19 3.1679151 -3.6893488e+19
2.7980134 -3.6893488e+19 2.1277866
-1.0842022e-19 3.183943 1.0842022e-19
2.7582927 -3.6893488e+19 2.1101844
0 3.182703 -1.0842022e-19
2.8085587 -1.0842022e-19 2.0897841
-0 3.1849208 0
2.7588747 -3.6893488e+19 2.0602798
-2 3.1807141 -0
2.8071406 -1.0842022e-19 2.0371211
1.0842022e-19 3.1442418 -3.6893488e+19
2.7193229 3.6893488e+19 1.9853047
-0 3.1809392 3.6893488e+19
2.807301 2 1.986181
-0 3.1428933 1.0842022e-19
2.7177179 1.0842022e-19 1.9387348
-2 3.2360809 2
2.8466225 0 1.9587892
3.6893488e+19 3.1743445 -3.6893488e+19
2.7525792 -0 1.9044244
-1.0842022e-19 3.2242944 -0
2.8382175 -0 1.8975414
2 3.1717932 2
2.7510607 -3.6893488e+19 1.8337982
-2 3.2116578 0
2.8292065 0 1.8028513
-2 3.1422651 -1.0842022e-19
2.71697 2 1.7057251
2 3.181273 -1.0842022e-19
2.7065489 -1.0842022e-19 1.6244738
2 3.1850324 0
2.7805805 -2 1.3314651
3.6893488e+19 3.1822121 -1.0842022e-19
2.7075431 0 -1.523964
-1.0842022e-19 3.1819611 -3.6893488e+19
2.7785995 3.6893488e+19 -1.6768489
-0 3.1911657 -1.0842022e-19
2.7170215 3.6893488e+19 -1.7648078
1.0842022e-19 3.1660218 1.0842022e-19
2.7683194 1.0842022e-19 -1.8076907
-2 3.1881049 -1.0842022e-19
2.7137814 -2 -1.8649602
-2 3.1596994 2
2.7642417 -1.0842022e-19 -1.88798
1.0842022e-19 3.138483 -3.6893488e+19
2.6612511 2 -1.9012265
1.0842022e-19 3.1218147 0
2.7296147 0 -1.918824
-0 3.1075194 -2
2.6284728 -2 -1.9304571
2 3.1096377 3.6893488e+19
2.7139072 1.0842022e-19 -1.9554775
-2 3.1044459 -1.0842022e-19
2.6252193 -1.0842022e-19 -1.9698523
1.0842022e-19 3.0869293 -0
2.6846149 -1.0842022e-19 -1.9820485
0 2.8719988 -1.0842022e-19
2.479852 -0 -1.8999397
-2 2.8307648 -0
2.4717343 -2 -1.8945282
0 2.8029537 3.6893488e+19
2.3606496 0 -1.8889303
3.6893488e+19 2.7634645 2
2.375751 1.0842022e-19 -1.8807659
0 2.7384746 1.0842022e-19
2.290751 -0 -1.8762649
-2 2.6888199 2
2.3129208 -3.6893488e+19 -1.8688842
3.6893488e+19 2.6678526 1.0842022e-19
2.2474306 -0 -1.8654351
3.6893488e+19 2.6270747 -3.6893488e+19
2.2688904 0 -1.8569976
-3.6893488e+19 2.6038485 2
2.1712372 -1.0842022e-19 -1.849306
-0 2.5719459 -1.0842022e-19
2.2091568 -2 -1.8422527
-3.6893488e+19 2.5625801 -2
2.1221094 3.6893488e+19 -1.8414468
-0 2.5344577 -0
2.1556914 -1.0842022e-19 -1.8339117
-0 2.5270717 -2
2.0798385 1.0842022e-19 -1.8331028
-0 2.497987 -1.0842022e-19
2.1051126 2 -1.8227292
2 2.4839039 2
2.0380304 3.6893488e+19 -1.820925
-3.6893488e+19 2.4512591 3.6893488e+19
2.0717912 -1.0842022e-19 -1.8176616
2 2.4409044 1.0842022e-19
2.0124362 -1.0842022e-19 -1.8164734
-3.6893488e+19 3.1030364 1.0842022e-19
2.6237273 2 2.577383
2 3.1802623 2
2.777504 -3.6893488e+19 2.6486642
0 3.1380198 -3.6893488e+19
2.6607606 -0 2.5863872
3.6893488e+19 3.1707938 2
2.7713971 1.0842022e-19 2.6141107
-1.0842022e-19 3.1663811 2
2.6907845 -1.0842022e-19 2.598454
3.6893488e+19 3.1776302 -3.6893488e+19
2.7758062 1.0842022e-19 2.606986
0 3.1203165 0
2.64202 -2 2.5488021
-2 3.1393313 0
2.7511051 3.6893488e+19 2.5631723
-0 3.1706917 -3.6893488e+19
2.6953475 0 2.576869
-1.0842022e-19 3.1375306 -3.6893488e+19
2.749887 -3.6893488e+19 2.5499704
-3.6893488e+19 3.1647809 2
2.6890905 0 2.5599077
2 3.1371109 1.0842022e-19
2.7493458 3.6893488e+19 2.5379329
0 3.1787987 -3.6893488e+19
2.8057745 -1.0842022e-19 2.5657229
2 3.1688991 -2
2.7486761 3.6893488e+19 2.5468407
-3.6893488e+19 3.1807292 -0
2.8071513 0 2.5540245
1.0842022e-19 3.1719568 -1.0842022e-19
2.751158 1.0842022e-19 2.536391
3.6893488e+19 3.207613 1.0842022e-19
2.8263221 1.0842022e-19 2.5590959
1.0842022e-19 3.1769531 0
2.754132 3.6893488e+19 2.5270476
1.0842022e-19 3.1378825 1.0842022e-19
2.7117527 -0 2.4802973
0 3.1640418 -3.6893488e+19
2.7952514 -2 2.5045848
0 3.1460445 -1.0842022e-19
2.7214689 -0 2.4668741
0 3.1482368 0
2.7839811 -3.6893488e+19 2.465682
-3.6893488e+19 3.1450887 2
2.7203314 -0 2.4423254
2 3.1483173 1.0842022e-19
2.7840385 1.0842022e-19 2.441771
-0 3.1426556 2
2.7174349 1.0842022e-19 2.4163623
0 3.1454861 0
2.7820196 -0 2.4148347
1.0842022e-19 3.1397524 -2
2.7139785 -1.0842022e-19 2.3902617
1.0842022e-19 3.1659904 -2
2.6903706 1.0842022e-19 2.4008079
-0 3.1360934 1.0842022e-19
2.7480333 -0 2.366394
3.6893488e+19 3.1609724 -0
2.6850586 2 2.3719599
-3.6893488e+19 3.1383102 -1.0842022e-19
2.7504463 -2 2.345474
-2 3.1647618 3.6893488e+19
2.6890702 -2 2.351192
-0 3.1438854 2
2.7540421 -3.6893488e+19 2.3271096
2 3.2110906 2
2.7381141 -2 2.3635631
2 3.1445618 -3.6893488e+19
2.7544782 -3.6893488e+19 2.3043435
-3.6893488e+19 3.1748526 0
2.6997526 -3.6893488e+19 2.310272
0 3.1493685 -3.6893488e+19
2.7575784 3.6893488e+19 2.2844648
-1.0842022e-19 3.1374652 1.0842022e-19
2.6601739 -0 2.260457
3.6893488e+19 3.1490905 1.0842022e-19
2.7573993 -0 2.2607293
2 3.2016351 1.0842022e-19
2.7281046 -3.6893488e+19 2.2773781
1.0842022e-19 3.1713402 3.6893488e+19
2.7717495 2 2.2504375
1.0842022e-19 3.1096838 3.6893488e+19
2.630764 -0 2.1501069
-3.6893488e+19 3.1583292 -2
2.7633579 1.0842022e-19 2.1873336
2 3.1694541 0
2.7991111 2 2.1790028
-0 3.1353083 3.6893488e+19
2.7086883 -0 2.1147871
1.0842022e-19 3.1679151 -3.6893488e+19
2.7980134 -3.6893488e+19 2.1277866
-1.0842022e-19 3.183943 1.0842022e-19
2.7582927 -3.6893488e+19 2.1101844
-3.6893488e+19 3.1650901 -3.6893488e+19
2.7959991 0 2.0759537
1.0842022e-19 3.1439843 2
2.7190166 0 2.0310752
1.0842022e-19 3.1577432 3.6893488e+19
2.79076 -2 2.0218081
1.0842022e-19 3.1442418 -3.6893488e+19
2.7193229 3.6893488e+19 1.9853047
-2 3.1599629 -2
2.7923429 -1.0842022e-19 1.9746847
-0 3.1428933 1.0842022e-19
2.7177179 1.0842022e-19 1.9387348
-2 3.2360809 2
2.8466225 0 1.9587892
-0 3.1449389 1.0842022e-19
2.7201531 -0 1.8937234
-1.0842022e-19 3.1601369 1.0842022e-19
2.7924671 0 1.8775836
2 3.1717932 2
2.7510607 -3.6893488e+19 1.8337982
-2 3.2116578 0
2.8292065 0 1.8028513
-2 3.1422651 -1.0842022e-19
2.71697 2 1.7057251
2 3.181273 -1.0842022e-19
2.7065489 -1.0842022e-19 1.6244738
1.0842022e-19 3.1427693 0
2.7533224 -2 1.3114072
-2 3.1388307 0
2.6616194 -3.6893488e+19 -1.5090123
2 3.14416 1.0842022e-19
2.7542193 3.6893488e+19 -1.6613728
-0 3.1343434 -1.0842022e-19
2.6568689 3.6893488e+19 -1.7436011
-1.0842022e-19 3.1463046 -2
2.7556024 2 -1.7990322
-0 3.1450315 0
2.6681836 -3.6893488e+19 -1.8413678
-2 3.1596994 2
2.7642417 -1.0842022e-19 -1.88798
1.0842022e-19 3.138483 -3.6893488e+19
2.6612511 2 -1.9012265
1.0842022e-19 3.1218147 0
2.7296147 0 -1.918824
-0 3.1075194 -2
2.6284728 -2 -1.9304571
2 3.1096377 3.6893488e+19
2.7139072 1.0842022e-19 -1.9554775
1.0842022e-19 3.0775177 3.6893488e+19
2.5967128 -3.6893488e+19 -1.9531494
1.0842022e-19 3.0869293 -0
2.6846149 -1.0842022e-19 -1.9820485
0 2.8719988 -1.0842022e-19
2.479852 -0 -1.8999397
-2 2.8307648 -0
2.4717343 -2 -1.8945282
0 2.8029537 3.6893488e+19
2.3606496 0 -1.8889303
3.6893488e+19 2.7634645 2
2.375751 1.0842022e-19 -1.8807659
0 2.7384746 1.0842022e-19
2.290751 -0 -1.8762649
-2 2.6888199 2
2.3129208 -3.6893488e+19 -1.8688842
3.6893488e+19 2.6678526 1.0842022e-19
2.2474306 -0 -1.8654351
3.6893488e+19 2.6270747 -3.6893488e+19
2.2688904 0 -1.8569976
-3.6893488e+19 2.6038485 2
2.1712372 -1.0842022e-19 -1.849306
-0 2.5719459 -1.0842022e-19
2.2091568 -2 -1.8422527
-3.6893488e+19 2.5625801 -2
2.1221094 3.6893488e+19 -1.8414468
-0 2.5344577 -0
2.1556914 -1.0842022e-19 -1.8339117
-0 2.5270717 -2
2.0798385 1.0842022e-19 -1.8331028
-0 2.497987 -1.0842022e-19
2.1051126 2 -1.8227292
2 2.4839039 2
2.0380304 3.6893488e+19 -1.820925
-3.6893488e+19 2.4512591 3.6893488e+19
2.0717912 -1.0842022e-19 -1.8176616
2 2.4409044 1.0842022e-19
2.0124362 -1.0842022e-19 -1.8164734
-0 3.1024244 2
2.619133 1.0842022e-19 2.5765903
2 3.1804206 -1.0842022e-19
2.77512 -2 2.6484759
-3.6893488e+19 3.1737423 -1.0842022e-19
2.7708514 -1.0842022e-19 2.616354
3.6893488e+19 3.166846 -1.0842022e-19
2.6866088 3.6893488e+19 2.5986028
-1.0842022e-19 3.1909821 -1.0842022e-19
2.7818708 -1.0842022e-19 2.6178229
-1.0842022e-19 3.1675422 2
2.6873381 3.6893488e+19 2.5866759
-3.6893488e+19 3.1781042 -1.0842022e-19
2.7736394 1.0842022e-19 2.5940714
3.6893488e+19 3.1713383 -3.6893488e+19
2.691314 1.0842022e-19 2.5771458
2 3.176528 -1.0842022e-19
2.7726319 2 2.5798793
-3.6893488e+19 3.169559 -1.0842022e-19
2.6894505 0 2.5632617
-0 3.1369674 3.6893488e+19
2.7446907 -1.0842022e-19 2.5375843
1.0842022e-19 3.1792555 -2
2.8035693 -2 2.5657656
-2 3.1747501 2
2.7504017 -0 2.5507536
3.6893488e+19 3.1774387 1.0842022e-19
2.8022847 -2 2.5514214
0 3.1745031 0
2.7502561 1.0842022e-19 2.5378959
3.6893488e+19 3.2080677 -3.6893488e+19
2.8239453 -0 2.5591154
2 3.1768992 -3.6893488e+19
2.7516685 2 2.526798
-3.6893488e+19 3.1631436 1.0842022e-19
2.7921753 1.0842022e-19 2.5037968
3.6893488e+19 3.149379 0
2.7208896 -1.0842022e-19 2.4704401
3.6893488e+19 3.1883597 0
2.810008 -0 2.506062
-0 3.1485741 -1.0842022e-19
2.7199404 0 2.4458816
1.0842022e-19 3.1480451 0
2.7814975 1.0842022e-19 2.4410589
-2 3.1425736 -1.0842022e-19
2.7128656 2 2.4159527
0 3.1470528 -0
2.7807956 -3.6893488e+19 2.416091
3.6893488e+19 3.1342511 -3.6893488e+19
2.7030528 0 2.3844552
-2 3.2156129 3.6893488e+19
2.7376878 0 2.4483104
3.6893488e+19 3.1370096 -1.0842022e-19
2.7447445 1.0842022e-19 2.366955
-1.0842022e-19 3.2187443 0
2.7409678 -0 2.4239554
-0 3.138104 -1.0842022e-19
2.7461436 2 2.3450005
-3.6893488e+19 3.1663108 -1.0842022e-19
2.6860483 -0 2.3522608
1.0842022e-19 3.1443944 -3.6893488e+19
2.7520924 -0 2.3272572
1.0842022e-19 3.1668987 -2
2.6866639 0 2.3284922
-3.6893488e+19 3.1733203 3.6893488e+19
2.7705817 0 2.3262522
2 3.2135105 -3.6893488e+19
2.7354856 2 2.3382709
0 3.1807885 -2
2.7753551 -2 2.306587
2 3.2180028 1.0842022e-19
2.740191 2 2.3143783
-3.6893488e+19 3.1783316 -0
2.7737849 -0 2.2795978
-2 3.1703815 0
2.6903121 1.0842022e-19 2.2580056
3.6893488e+19 3.169616 -3.6893488e+19
2.7682137 -3.6893488e+19 2.2484062
-1.0842022e-19 3.1097808 1.0842022e-19
2.6268382 3.6893488e+19 2.1499393
-3.6893488e+19 3.171684 -1.0842022e-19
2.7695358 -0 2.2012575
2 3.2351618 -2
2.8431063 -0 2.2457452
-2 3.188009 0
2.7582183 0 2.1643598
3.6893488e+19 3.1649203 -3.6893488e+19
2.7934315 -0 2.1247311
-1.0842022e-19 3.1891296 -1.0842022e-19
2.7588787 3.6893488e+19 2.114207
0 3.187108 0
2.8091228 3.6893488e+19 2.0929244
-2 3.1902294 2
2.7595272 0 2.0638239
0 3.1808205 -2
2.8046761 1.0842022e-19 2.0369251
-3.6893488e+19 3.1446373 -0
2.7152989 0 1.9853584
3.6893488e+19 3.1826651 -1.0842022e-19
2.8059807 -2 1.9869065
3.6893488e+19 3.1447861 -2
2.7154741 2 1.939497
1.0842022e-19 3.2368865 -0
2.844326 1.0842022e-19 1.9589409
2 3.1765018 1.0842022e-19
2.7514343 -1.0842022e-19 1.9050891
2 3.2237635 0
2.8350456 1.0842022e-19 1.8972393
2 3.1741285 0
2.7500353 2 1.8347915
-0 3.2025125 2
2.8200169 -2 1.7991661
2 3.1425395 3.6893488e+19
2.7128253 3.6893488e+19 1.7057093
-3.6893488e+19 3.2023385 -3.6893488e+19
2.723784 3.6893488e+19 1.6307396
3.6893488e+19 3.1820047 -0
2.7761326 1.0842022e-19 1.329856
2 3.1988347 -0
2.720114 -1.0842022e-19 -1.5295864
1.0842022e-19 3.1832471 1.0842022e-19
2.7769268 -2 -1.6772263
0 3.1904724 3.6893488e+19
2.7113552 2 -1.7644919
0 3.1662526 -1.0842022e-19
2.7660639 -3.6893488e+19 -1.8076384
1.0842022e-19 3.185868 -3.6893488e+19
2.7065325 -3.6893488e+19 -1.8635705
1.0842022e-19 3.1596274 -3.6893488e+19
2.7618291 -1.0842022e-19 -1.8878398
3.6893488e+19 3.1396272 0
2.6580997 2 -1.9015675
3.6893488e+19 3.1228712 -0
2.7266703 0 -1.9191614
1.0842022e-19 3.1352632 -3.6893488e+19
2.6535285 -0 -1.9443268
-3.6893488e+19 3.1093748 -2
2.7094169 3.6893488e+19 -1.9551548
-2 3.1032403 -2
2.6199875 -3.6893488e+19 -1.9689535
-1.0842022e-19 3.0841193 1.0842022e-19
2.6771309 3.6893488e+19 -1.97992
-3.6893488e+19 2.872014 3.6893488e+19
2.4755747 1.0842022e-19 -1.89982
3.6893488e+19 2.8276005 3.6893488e+19
2.4633582 3.6893488e+19 -1.8930125
-2 2.8022907 3.6893488e+19
2.3564172 -1.0842022e-19 -1.8885188
3.6893488e+19 2.7614741 -3.6893488e+19
2.3698289 -3.6893488e+19 -1.8796574
2 2.7371781 -2
2.2872045 -0 -1.8758322
0 2.6900513 3.6893488e+19
2.3112042 1.0842022e-19 -1.8693414
1.0842022e-19 2.6653061 1.0842022e-19
2.2396684 3.6893488e+19 -1.8637846
2 2.6277781 -3.6893488e+19
2.2671645 3.6893488e+19 -1.8572143
-1.0842022e-19 2.6055577 2
2.1692219 -1.0842022e-19 -1.8502147
1.0842022e-19 2.574595 1.0842022e-19
2.2091072 -3.6893488e+19 -1.8438368
-3.6893488e+19 2.5628226 1.0842022e-19
2.118835 3.6893488e+19 -1.8414468
1.0842022e-19 2.5347223 -0
2.1527112 -1.0842022e-19 -1.8339117
-2 2.5275254 -0
2.0772176 -2 -1.833282
-3.6893488e+19 2.4982154 1.0842022e-19
2.1023381 3.6893488e+19 -1.8226361
-3.6893488e+19 2.4816537 2
2.0339479 1.0842022e-19 -1.8198628
3.6893488e+19 2.4507408 0
2.068764 0 -1.8172616
-3.6893488e+19 2.4412463 -1.0842022e-19
2.0101266 -1.0842022e-19 -1.8164734
0 2.3983717 -0
1.9586293 1.0842022e-19 -1.8138365
-1.0842022e-19 2.3386893 1.0842022e-19
1.9273734 -1.0842022e-19 -1.8053604
-2 2.2968695 2
1.9054722 -1.0842022e-19 -1.8005209
3.6893488e+19 2.2651906 3.6893488e+19
1.8888817 -2 -1.7974237
2 2.2113571 0
1.9131359 -0 -1.7929105
-1.0842022e-19 2.1735959 -1.0842022e-19
1.8997835 2 -1.7920963
3.6893488e+19 2.1414888 0
1.8884305 -3.6893488e+19 -1.7914419
-2 2.1085567 -2
1.8767856 2 -1.7885033
-0 3.1024244 2
2.619133 1.0842022e-19 2.5765903
2 3.1804206 -1.0842022e-19
2.77512 -2 2.6484759
-3.6893488e+19 3.1737423 -1.0842022e-19
2.7708514 -1.0842022e-19 2.616354
3.6893488e+19 3.166846 -1.0842022e-19
2.6866088 3.6893488e+19 2.5986028
-3.6893488e+19 3.17507 2
2.7717001 -3.6893488e+19 2.6045506
-2 3.1205716 1.0842022e-19
2.6381407 -2 2.5488021
1.0842022e-19 3.1371446 -2
2.7449169 -1.0842022e-19 2.5611515
2 3.1137278 -2
2.6309721 0 2.5324144
-3.6893488e+19 3.1366854 -1.0842022e-19
2.7443302 3.6893488e+19 2.5490649
-3.6893488e+19 3.169559 -1.0842022e-19
2.6894505 0 2.5632617
-0 3.1369674 3.6893488e+19
2.7446907 -1.0842022e-19 2.5375843
1.0842022e-19 3.1792555 -2
2.8035693 -2 2.5657656
-2 3.1747501 2
2.7504017 -0 2.5507536
3.6893488e+19 3.1774387 1.0842022e-19
2.8022847 -2 2.5514214
0 3.1745031 0
2.7502561 1.0842022e-19 2.5378959
3.6893488e+19 3.2080677 -3.6893488e+19
2.8239453 -0 2.5591154
2 3.1768992 -3.6893488e+19
2.7516685 2 2.526798
-3.6893488e+19 3.1631436 1.0842022e-19
2.7921753 1.0842022e-19 2.5037968
3.6893488e+19 3.149379 0
2.7208896 -1.0842022e-19 2.4704401
3.6893488e+19 3.1883597 0
2.810008 -0 2.506062
-0 3.1485741 -1.0842022e-19
2.7199404 0 2.4458816
1.0842022e-19 3.1480451 0
2.7814975 1.0842022e-19 2.4410589
-2 3.1425736 -1.0842022e-19
2.7128656 2 2.4159527
0 3.1470528 -0
2.7807956 -3.6893488e+19 2.416091
3.6893488e+19 3.1342511 -3.6893488e+19
2.7030528 0 2.3844552
0 3.1651962 1.0842022e-19
2.6848807 -0 2.3997669
3.6893488e+19 3.1370096 -1.0842022e-19
2.7447445 1.0842022e-19 2.366955
1.0842022e-19 3.165463 2
2.6851602 -0 2.3757651
-0 3.138104 -1.0842022e-19
2.7461436 2 2.3450005
-3.6893488e+19 3.1663108 -1.0842022e-19
2.6860483 -0 2.3522608
1.0842022e-19 3.1443944 -3.6893488e+19
2.7520924 -0 2.3272572
0 3.0987949 0
2.6153314 -2 2.2748301
-0 3.1464942 -0
2.7534347 1.0842022e-19 2.3055773
-2 3.1704779 1.0842022e-19
2.690413 1.0842022e-19 2.3068657
-3.6893488e+19 3.1486363 -3.6893488e+19
2.7548039 0 2.283705
-0 3.1442709 -1.0842022e-19
2.6629634 -3.6893488e+19 2.2648492
-1.0842022e-19 3.1527202 3.6893488e+19
2.7574143 -0 2.2628796
-0 3.1419823 -0
2.6605663 3.6893488e+19 2.2311516
3.6893488e+19 3.169616 -3.6893488e+19
2.7682137 -3.6893488e+19 2.2484062
-1.0842022e-19 3.1097808 1.0842022e-19
2.6268382 3.6893488e+19 2.1499393
-3.6893488e+19 3.171684 -1.0842022e-19
2.7695358 -0 2.2012575
2 3.2351618 -2
2.8431063 -0 2.2457452
-2 3.1375225 1.0842022e-19
2.7069101 2 2.1165991
3.6893488e+19 3.1649203 -3.6893488e+19
2.7934315 -0 2.1247311
1.0842022e-19 3.1353612 2
2.7043617 3.6893488e+19 2.0696123
2 3.1658294 3.6893488e+19
2.7940745 1.0842022e-19 2.0762308
-0 3.142493 -2
2.7127705 -0 2.0297942
0 3.1808205 -2
2.8046761 1.0842022e-19 2.0369251
-3.6893488e+19 3.1446373 -0
2.7152989 0 1.9853584
3.6893488e+19 3.1826651 -1.0842022e-19
2.8059807 -2 1.9869065
3.6893488e+19 3.1447861 -2
2.7154741 2 1.939497
-3.6893488e+19 3.1625471 -1.0842022e-19
2.7917533 -0 1.9270391
1.0842022e-19 3.1473432 -2
2.7184889 2 1.8944862
3.6893488e+19 3.1599882 0
2.7899437 -1.0842022e-19 1.8774188
-1.0842022e-19 3.1434674 -2
2.7139194 0 1.8196254
-2 3.1565247 -2
2.7874942 -1.0842022e-19 1.781466
2 3.1425395 3.6893488e+19
2.7128253 3.6893488e+19 1.7057093
1.0842022e-19 3.1820238 3.6893488e+19
2.7025061 3.6893488e+19 1.624736
-3.6893488e+19 3.1432185 -3.6893488e+19
2.7513409 -0 1.3114637
-0 3.1406708 -1.0842022e-19
2.6591926 -1.0842022e-19 -1.5095538
-3.6893488e+19 3.1458011 -0
2.7529917 -1.0842022e-19 -1.6619085
3.6893488e+19 3.1323411 2
2.6504681 3.6893488e+19 -1.7421651
-0 3.1425006 0
2.7508821 -0 -1.7972169
2 3.1426136 -2
2.6612275 0 -1.8398955
1.0842022e-19 3.1596274 -3.6893488e+19
2.7618291 -1.0842022e-19 -1.8878398
3.6893488e+19 3.1396272 0
2.6580997 2 -1.9015675
3.6893488e+19 3.1228712 -0
2.7266703 0 -1.9191614
3.6893488e+19 3.1091559 -1.0842022e-19
2.6261835 0 -1.9311583
-3.6893488e+19 3.1093748 -2
2.7094169 3.6893488e+19 -1.9551548
-1.0842022e-19 3.0755079 0
2.5909405 1.0842022e-19 -1.9517639
-1.0842022e-19 3.0841193 1.0842022e-19
2.6771309 3.6893488e+19 -1.97992
-3.6893488e+19 2.872014 3.6893488e+19
2.4755747 1.0842022e-19 -1.89982
3.6893488e+19 2.8276005 3.6893488e+19
2.4633582 3.6893488e+19 -1.8930125
-2 2.8022907 3.6893488e+19
2.3564172 -1.0842022e-19 -1.8885188
3.6893488e+19 2.7614741 -3.6893488e+19
2.3698289 -3.6893488e+19 -1.8796574
2 2.7371781 -2
2.2872045 -0 -1.8758322
0 2.6900513 3.6893488e+19
2.3112042 1.0842022e-19 -1.8693414
1.0842022e-19 2.6653061 1.0842022e-19
2.2396684 3.6893488e+19 -1.8637846
2 2.6277781 -3.6893488e+19
2.2671645 3.6893488e+19 -1.8572143
-1.0842022e-19 2.6055577 2
2.1692219 -1.0842022e-19 -1.8502147
1.0842022e-19 2.574595 1.0842022e-19
2.2091072 -3.6893488e+19 -1.8438368
-3.6893488e+19 2.5628226 1.0842022e-19
2.118835 3.6893488e+19 -1.8414468
1.0842022e-19 2.5347223 -0
2.1527112 -1.0842022e-19 -1.8339117
-2 2.5275254 -0
2.0772176 -2 -1.833282
-3.6893488e+19 2.4982154 1.0842022e-19
2.1023381 3.6893488e+19 -1.8226361
-3.6893488e+19 2.4816537 2
2.0339479 1.0842022e-19 -1.8198628
3.6893488e+19 2.4507408 0
2.068764 0 -1.8172616
-3.6893488e+19 2.4412463 -1.0842022e-19
2.0101266 -1.0842022e-19 -1.8164734
0 2.3983717 -0
1.9586293 1.0842022e-19 -1.8138365
-1.0842022e-19 2.3386893 1.0842022e-19
1.9273734 -1.0842022e-19 -1.8053604
-2 2.2968695 2
1.9054722 -1.0842022e-19 -1.8005209
3.6893488e+19 2.2651906 3.6893488e+19
1.8888817 -2 -1.7974237
2 2.2113571 0
1.9131359 -0 -1.7929105
-1.0842022e-19 2.1735959 -1.0842022e-19
1.8997835 2 -1.7920963
3.6893488e+19 2.1414888 0
1.8884305 -3.6893488e+19 -1.7914419
-2 2.1085567 -2
1.8767856 2 -1.7885033
-2 3.1678579 -0
2.682996 -1.0842022e-19 2.6496229
1.0842022e-19 3.1041999 0
2.6170318 3.6893488e+19 2.5780118
2 3.1057203 1.0842022e-19
2.6186073 0 2.5686743
-3.6893488e+19 3.1002386 -2
2.612927 -3.6893488e+19 2.5532174
0 3.1004157 -2
2.6131103 3.6893488e+19 2.5428481
-3.6893488e+19 3.1915541 -0
2.7796905 -1.0842022e-19 2.6179934
-3.6893488e+19 3.1206462 -2
2.634074 -2 2.5486586
-0 3.1372037 -3.6893488e+19
2.7405274 -1.0842022e-19 2.56094
-2 3.1693363 1.0842022e-19
2.6845281 -1.0842022e-19 2.5753694
-0 3.1382382 -2
2.741838 -2 2.5500157
-0 3.1697857 1.0842022e-19
2.6849937 -1.0842022e-19 2.5632172
2 3.1362925 -2
2.739373 1.0842022e-19 2.5368438
3.6893488e+19 3.1803777 0
2.8018303 -3.6893488e+19 2.5662994
-0 3.2314458 -3.6893488e+19
2.7810874 3.6893488e+19 2.5906365
3.6893488e+19 3.1333537 -2
2.7688515 -2 2.5200844
2 3.2095969 0
2.8223221 1.0842022e-19 2.5598617
0 3.1702614 0
2.7407312 -2 2.5222847
2 3.2101245 0
2.8226922 -2 2.5462909
-1.0842022e-19 3.1705 -2
2.7949028 -3.6893488e+19 2.5080776
2 3.1503394 -3.6893488e+19
2.7174685 -2 2.4712093
1.0842022e-19 3.1488507 -2
2.7157302 -1.0842022e-19 2.4458482
3.6893488e+19 3.1989706 3.6893488e+19
2.7621272 2 2.475343
1.0842022e-19 3.1493213 -1.0842022e-19
2.7800498 -3.6893488e+19 2.4180827
3.6893488e+19 3.1346357 -1.0842022e-19
2.6991317 -2 2.3845444
1.0842022e-19 3.1366513 1.0842022e-19
2.7398276 -1.0842022e-19 2.3663099
3.6893488e+19 3.1376867 3.6893488e+19
2.7411394 0 2.3443427
1.0842022e-19 3.2155282 2
2.7323933 -1.0842022e-19 2.3936374
-1.0842022e-19 3.1418471 1.0842022e-19
2.7464101 2 2.324873
-2 3.217746 0
2.7346916 -0 2.3683057
-2 3.170202 0
2.7661657 1.0842022e-19 2.3235793
2 3.2149718 -3.6893488e+19
2.7318165 -3.6893488e+19 2.3391058
2 3.1923981 -0
2.780225 -0 2.3145874
-1.0842022e-19 3.2148545 -0
2.7316952 3.6893488e+19 2.3120506
3.6893488e+19 3.1518381 0
2.7545335 1.0842022e-19 2.2620854
-3.6893488e+19 3.1732326 2
2.6885655 -2 2.2595782
-1.0842022e-19 3.177484 -0
2.7707782 2 2.2536645
2 3.1738942 1.0842022e-19
2.6892509 2 2.2208877
0 3.1425719 -0
2.747328 0 2.1697538
-3.6893488e+19 3.2258363 0
2.8337111 -1.0842022e-19 2.2357683
-0 3.1881659 -3.6893488e+19
2.7558188 -0 2.1641898
3.6893488e+19 3.1738429 -2
2.7972472 1.0842022e-19 2.1324368
-0 3.188688 -0
2.7561238 -1.0842022e-19 2.1135614
0 3.1867316 2
2.7549815 -0 2.0610912
-1.0842022e-19 3.1806283 3.6893488e+19
2.802006 3.6893488e+19 2.0365329
1.0842022e-19 3.1348078 -0
2.6993327 3.6893488e+19 1.9793198
-3.6893488e+19 3.2301638 -0
2.836746 -3.6893488e+19 2.0126722
1.0842022e-19 3.1810122 -1.0842022e-19
2.7516422 -2 1.9567266
1.0842022e-19 3.235213 -0
2.840287 3.6893488e+19 1.9580308
2 3.1440794 2
2.7101591 1.0842022e-19 1.8931894
-1.0842022e-19 3.2237875 -0
2.8322742 -3.6893488e+19 1.8971111
-1.0842022e-19 3.1754141 -0
2.746748 -3.6893488e+19 1.8352659
2 3.2104788 1.0842022e-19
2.8229406 0 1.8020689
-3.6893488e+19 3.1729579 -0
2.74388 0 1.72148
0 3.1792934 3.6893488e+19
2.6948457 3.6893488e+19 1.6229885
-2 3.1767638 0
2.7703221 -0 1.3272023
-1.0842022e-19 3.1786304 2
2.6941588 -2 -1.5225271
-2 3.1657929 1.0842022e-19
2.7633729 -1.0842022e-19 -1.6699449
-3.6893488e+19 3.1942816 -2
2.710377 -2 -1.7656024
-2 3.1644843 2
2.7625439 -2 -1.8067112
2 3.1807208 -0
2.6963248 -1.0842022e-19 -1.8605925
-1.0842022e-19 3.1591942 -2
2.7591929 3.6893488e+19 -1.8875794
-0 3.1406188 1.0842022e-19
2.6547701 2 -1.9018496
0 3.1227353 -2
2.722198 3.6893488e+19 -1.9189589
-0 3.1090984 -2
2.6221077 -0 -1.9310058
2 3.1092873 -1.0842022e-19
2.7051616 2 -1.954934
-3.6893488e+19 3.1028161 3.6893488e+19
2.615598 1.0842022e-19 -1.9685416
2 3.0836835 -3.6893488e+19
2.6727254 0 -1.9794289
-0 2.8697054 2
2.4683599 -3.6893488e+19 -1.8987662
2 2.8310244 1.0842022e-19
2.4643047 -2 -1.894374
-1.0842022e-19 2.8015645 -0
2.3521311 1.0842022e-19 -1.88808
0 2.7641883 1.0842022e-19
2.3705583 -2 -1.8808825
0 2.738271 2
2.2850723 2 -1.8760177
3.6893488e+19 2.6889269 -3.6893488e+19
2.3078258 2 -1.8684925
0 2.665266 -2
2.2348981 -1.0842022e-19 -1.8635782
1.0842022e-19 2.6282442 -1.0842022e-19
2.2652681 3.6893488e+19 -1.8572866
3.6893488e+19 2.6058309 1.0842022e-19
2.1654971 -1.0842022e-19 -1.8502147
-0 2.5747766 -0
2.2055414 3.6893488e+19 -1.8437576
-3.6893488e+19 2.5628238 -0
2.1152785 3.6893488e+19 -1.8412814
-0 2.5351024 -0
2.149893 2 -1.8339978
-2 2.5271411 -0
2.0736125 -1.0842022e-19 -1.8328339
2 2.4986751 -1.0842022e-19
2.0997281 3.6893488e+19 -1.8226361
-3.6893488e+19 2.4817848 3.6893488e+19
2.0312855 2 -1.8197663
0 2.4506872 -1.0842022e-19
2.0660734 -3.6893488e+19 -1.8170614
-3.6893488e+19 2.4406304 3.6893488e+19
2.0072579 -2 -1.8160594
-2 3.1678579 -0
2.682996 -1.0842022e-19 2.6496229
1.0842022e-19 3.1041999 0
2.6170318 3.6893488e+19 2.5780118
-0 3.0961118 2
2.6086507 2 2.5600665
-3.6893488e+19 3.1002386 -2
2.612927 -3.6893488e+19 2.5532174
0 3.1004157 -2
2.6131103 3.6893488e+19 2.5428481
-3.6893488e+19 3.1915541 -0
2.7796905 -1.0842022e-19 2.6179934
-3.6893488e+19 3.1206462 -2
2.634074 -2 2.5486586
-0 3.1372037 -3.6893488e+19
2.7405274 -1.0842022e-19 2.56094
-2 3.1693363 1.0842022e-19
2.6845281 -1.0842022e-19 2.5753694
-0 3.1382382 -2
2.741838 -2 2.5500157
-2 3.1230469 3.6893488e+19
2.6365616 -0 2.5283437
2 3.1362925 -2
2.739373 1.0842022e-19 2.5368438
1.0842022e-19 3.1366775 -0
2.7711825 0 2.5341828
-0 3.2314458 -3.6893488e+19
2.7810874 3.6893488e+19 2.5906365
3.6893488e+19 3.1333537 -2
2.7688515 -2 2.5200844
3.6893488e+19 3.1330605 0
2.768646 -0 2.5082605
0 3.1702614 0
2.7407312 -2 2.5222847
2 3.2101245 0
2.8226922 -2 2.5462909
-1.0842022e-19 3.1705 -2
2.7949028 -3.6893488e+19 2.5080776
2 3.1503394 -3.6893488e+19
2.7174685 -2 2.4712093
1.0842022e-19 3.1488507 -2
2.7157302 -1.0842022e-19 2.4458482
3.6893488e+19 3.1989706 3.6893488e+19
2.7621272 2 2.475343
1.0842022e-19 3.1493213 -1.0842022e-19
2.7800498 -3.6893488e+19 2.4180827
3.6893488e+19 3.1346357 -1.0842022e-19
2.6991317 -2 2.3845444
1.0842022e-19 3.1366513 1.0842022e-19
2.7398276 -1.0842022e-19 2.3663099
3.6893488e+19 3.1376867 3.6893488e+19
2.7411394 0 2.3443427
0 3.16819 1.0842022e-19
2.6833401 3.6893488e+19 2.3536096
-1.0842022e-19 3.1418471 1.0842022e-19
2.7464101 2 2.324873
1.0842022e-19 3.0992436 -3.6893488e+19
2.6118958 0 2.2749963
0 3.1517494 1.0842022e-19
2.7544773 2 2.3093696
-1.0842022e-19 3.0979302 -2
2.6105349 -2 2.253747
2 3.149503 1.0842022e-19
2.7530544 -1.0842022e-19 2.2840848
-0 3.1460173 -0
2.6603642 -2 2.265841
3.6893488e+19 3.1518381 0
2.7545335 1.0842022e-19 2.2620854
2 3.1428833 0
2.6571167 -3.6893488e+19 2.2319286
-1.0842022e-19 3.177484 -0
2.7707782 2 2.2536645
2 3.1738942 1.0842022e-19
2.6892509 2 2.2208877
0 3.1425719 -0
2.747328 0 2.1697538
-1.0842022e-19 3.1374688 -0
2.7717376 1.0842022e-19 2.1455564
2 3.1355441 3.6893488e+19
2.7001925 -1.0842022e-19 2.1144474
3.6893488e+19 3.1738429 -2
2.7972472 1.0842022e-19 2.1324368
-1.0842022e-19 3.1323614 -0
2.6964762 -0 2.0668809
-1.0842022e-19 3.1365306 -2
2.7013445 0 2.0253325
-1.0842022e-19 3.1806283 3.6893488e+19
2.802006 3.6893488e+19 2.0365329
1.0842022e-19 3.1348078 -0
2.6993327 3.6893488e+19 1.9793198
2 3.1828873 1.0842022e-19
2.8035903 1.0842022e-19 1.9868098
-1.0842022e-19 3.1440399 -3.6893488e+19
2.7101128 -1.0842022e-19 1.9389936
2 3.1788175 -1.0842022e-19
2.800736 -2 1.9338517
2 3.1440794 2
2.7101591 1.0842022e-19 1.8931894
-3.6893488e+19 3.160779 2
2.7880855 -3.6893488e+19 1.8775469
-3.6893488e+19 3.1444895 -0
2.710638 -2 1.8199811
-1.0842022e-19 3.1592882 -2
2.7870398 1.0842022e-19 1.7823845
1.0842022e-19 3.1446409 1.0842022e-19
2.7108147 -0 1.7066518
2 3.1373351 0
2.6513674 1.0842022e-19 1.5987506
0 3.1396437 1.0842022e-19
2.7436185 -3.6893488e+19 1.3096145
3.6893488e+19 3.1406651 0
2.6548181 -1.0842022e-19 -1.5094601
-3.6893488e+19 3.1469054 3.6893488e+19
2.7514091 3.6893488e+19 -1.6622251
-1.0842022e-19 3.1335397 -1.0842022e-19
2.6474345 3.6893488e+19 -1.7427586
3.6893488e+19 3.1444066 3.6893488e+19
2.7496524 -2 -1.797909
-0 3.1322949 3.6893488e+19
2.6461446 3.6893488e+19 -1.8341049
-1.0842022e-19 3.1591942 -2
2.7591929 3.6893488e+19 -1.8875794
-0 3.1406188 1.0842022e-19
2.6547701 2 -1.9018496
0 3.1227353 -2
2.722198 3.6893488e+19 -1.9189589
-0 3.1090984 -2
2.6221077 -0 -1.9310058
2 3.1092873 -1.0842022e-19
2.7051616 2 -1.954934
-3.6893488e+19 3.075609 2
2.5874052 -2 -1.9516889
2 3.0836835 -3.6893488e+19
2.6727254 0 -1.9794289
-0 2.8697054 2
2.4683599 -3.6893488e+19 -1.8987662
2 2.8310244 1.0842022e-19
2.4643047 -2 -1.894374
-1.0842022e-19 2.8015645 -0
2.3521311 1.0842022e-19 -1.88808
0 2.7641883 1.0842022e-19
2.3705583 -2 -1.8808825
0 2.738271 2
2.2850723 2 -1.8760177
3.6893488e+19 2.6889269 -3.6893488e+19
2.3078258 2 -1.8684925
0 2.665266 -2
2.2348981 -1.0842022e-19 -1.8635782
1.0842022e-19 2.6282442 -1.0842022e-19
2.2652681 3.6893488e+19 -1.8572866
3.6893488e+19 2.6058309 1.0842022e-19
2.1654971 -1.0842022e-19 -1.8502147
-0 2.5747766 -0
2.2055414 3.6893488e+19 -1.8437576
-3.6893488e+19 2.5628238 -0
2.1152785 3.6893488e+19 -1.8412814
-0 2.5351024 -0
2.149893 2 -1.8339978
-2 2.5271411 -0
2.0736125 -1.0842022e-19 -1.8328339
2 2.4986751 -1.0842022e-19
2.0997281 3.6893488e+19 -1.8226361
-3.6893488e+19 2.4817848 3.6893488e+19
2.0312855 2 -1.8197663
0 2.4506872 -1.0842022e-19
2.0660734 -3.6893488e+19 -1.8170614
-3.6893488e+19 2.4406304 3.6893488e+19
2.0072579 -2 -1.8160594
2 3.1716402 -2
2.6822066 3.6893488e+19 2.6402025
0 3.1076763 0
2.6166399 1.0842022e-19 2.5702105
2 3.101038 -1.0842022e-19
2.6098351 -1.0842022e-19 2.5537045
-2 3.0993464 2
2.6081014 2 2.5417578
3.6893488e+19 3.1955159 2
2.7796354 1.0842022e-19 2.6209888
-0 3.1651268 3.6893488e+19
2.6755302 -3.6893488e+19 2.5718858
3.6893488e+19 3.1699936 -2
2.7636158 -0 2.5616114
3.6893488e+19 3.1374092 -0
2.7694199 -0 2.5344603
-0 3.2313385 2
2.7782919 1.0842022e-19 2.5903018
3.6893488e+19 3.1330929 2
2.7664182 -0 2.519654
-0 3.2100463 -3.6893488e+19
2.8199346 3.6893488e+19 2.5598812
0 3.1691573 2
2.7346821 3.6893488e+19 2.521363
-2 3.2098448 3.6893488e+19
2.8197947 -3.6893488e+19 2.5458403
3.6893488e+19 3.171206 0
2.7929237 2 2.5082748
0 3.1655974 1.0842022e-19
2.7890232 -0 2.4846408
1.0842022e-19 3.1653702 2
2.730303 -1.0842022e-19 2.4639614
-3.6893488e+19 3.1658397 3.6893488e+19
2.7891917 0 2.4599314
-0 3.1493349 -1.0842022e-19
2.7777135 -1.0842022e-19 2.4177151
-2 3.2483582 1.0842022e-19
2.7554238 2 2.4791884
1.0842022e-19 3.1365261 2
2.735219 1.0842022e-19 2.3658893
3.6893488e+19 3.2500825 1.0842022e-19
2.7563498 2 2.4517608
-0 3.1403196 3.6893488e+19
2.7399812 -1.0842022e-19 2.346395
3.6893488e+19 3.1757598 -3.6893488e+19
2.6864295 3.6893488e+19 2.3597677
-1.0842022e-19 3.138432 1.0842022e-19
2.7376118 1.0842022e-19 2.3217759
3.6893488e+19 3.2125771 -3.6893488e+19
2.7241695 0 2.3639901
-0 3.1700146 0
2.7636292 3.6893488e+19 2.323168
1.0842022e-19 3.2140191 1.0842022e-19
2.7256477 -0 2.3381829
0 3.1935656 -1.0842022e-19
2.7784111 0 2.3151574
-1.0842022e-19 3.2165561 2
2.7282484 -0 2.3129816
-2 3.1327584 0
2.7304895 -0 2.2488708
2 3.1430578 3.6893488e+19
2.6529081 2 2.2318177
1.0842022e-19 3.1939275 -0
2.7786384 -3.6893488e+19 2.2632043
0 3.1752977 0
2.685956 -1.0842022e-19 2.2221282
-1.0842022e-19 3.1914277 -2
2.7770693 -3.6893488e+19 2.2216029
2 3.2310741 -0
2.8345582 3.6893488e+19 2.2406666
3.6893488e+19 3.1360772 -3.6893488e+19
2.6964307 -1.0842022e-19 2.1146739
-0 3.1728747 -0
2.7940841 -0 2.1312144
-3.6893488e+19 3.1864431 -0
2.7523351 1.0842022e-19 2.1114261
-0 3.1379931 -2
2.7698259 2 2.053834
-0 3.1860139 -1.0842022e-19
2.7520869 -1.0842022e-19 2.060344
-0 3.1376073 -0
2.7695577 0 2.0076718
1.0842022e-19 3.2325459 -3.6893488e+19
2.7789898 0 2.0373466
1.0842022e-19 3.2283316 -1.0842022e-19
2.8326509 -1.0842022e-19 2.0114307
0 3.2296536 0
2.7773178 0 1.9798816
1.0842022e-19 3.2265096 1.0842022e-19
2.8313839 1.0842022e-19 1.9541126
-0 3.143929 2
2.7055101 0 1.893026
1.0842022e-19 3.2234538 -2
2.8292587 2 1.8968731
2 3.1440394 2
2.7056377 -1.0842022e-19 1.8196105
-0 3.2114902 -0
2.8209388 2 1.8022957
-1.0842022e-19 3.1753812 -2
2.741879 -2 1.7225795
-3.6893488e+19 3.1786141 3.6893488e+19
2.6893556 3.6893488e+19 1.6224293
3.6893488e+19 3.1419928 1.0842022e-19
2.7420816 -1.0842022e-19 1.3105744
2 3.1784353 0
2.6891723 2 -1.5223606
0 3.17851 -2
2.7689612 -2 -1.674998
-2 3.1793857 3.6893488e+19
2.6901464 0 -1.7607967
-1.0842022e-19 3.1468489 0
2.7481778 0 -1.7988364
-2 3.1800427 -0
2.69082 -0 -1.8600631
3.6893488e+19 3.1591446 3.6893488e+19
2.7568064 2 -1.8874493
2 3.1412456 -3.6893488e+19
2.6510503 -2 -1.9019907
-1.0842022e-19 3.1199729 3.6893488e+19
2.7144394 -1.0842022e-19 -1.9175684
-1.0842022e-19 3.1081002 2
2.6170745 -0 -1.9303809
3.6893488e+19 3.1100607 -1.0842022e-19
2.7019961 -1.0842022e-19 -1.9552057
-3.6893488e+19 3.104234 1.0842022e-19
2.6131115 2 -1.9692719
2 3.0841973 2
2.669529 3.6893488e+19 -1.9795926
1.0842022e-19 2.8741207 -2
2.469646 3.6893488e+19 -1.9004186
2 2.8268466 1.0842022e-19
2.4546046 -3.6893488e+19 -1.8924216
0 2.8011346 -1.0842022e-19
2.3482094 0 -1.8877783
-2 2.7628975 1.0842022e-19
2.3656592 0 -1.8801242
0 2.742358 0
2.284663 2 -1.8769759
-3.6893488e+19 2.6897995 -1.0842022e-19
2.3058543 3.6893488e+19 -1.8687537
-1.0842022e-19 2.6661808 3.6893488e+19
2.2312405 3.6893488e+19 -1.8639221
-1.0842022e-19 2.6278834 1.0842022e-19
2.2627954 -3.6893488e+19 -1.856853
-0 2.6064608 2
2.1621847 3.6893488e+19 -1.8504419
-3.6893488e+19 2.575309 2
2.2024662 2 -1.8439161
0 2.5629423 -1.0842022e-19
2.1118629 -2 -1.8411987
0 2.5359514 3.6893488e+19
2.1477242 -2 -1.8344285
1.0842022e-19 2.5273521 1.0842022e-19
2.0707092 -1.0842022e-19 -1.8328339
1.0842022e-19 2.4993663 -1.0842022e-19
2.0972793 2 -1.8227292
-3.6893488e+19 2.4843028 -2
2.0300057 2 -1.8206353
-3.6893488e+19 2.4510992 3.6893488e+19
2.0637126 -3.6893488e+19 -1.8170614
2 2.4402492 0
2.0045357 1.0842022e-19 -1.8157489
-2 2.3933785 -1.0842022e-19
1.9516184 -1.0842022e-19 -1.8112168
-1.0842022e-19 2.3396294 -2
1.9240704 -1.0842022e-19 -1.8056159
-0 2.2979918 0
1.9027299 -3.6893488e+19 -1.8009455
-1.0842022e-19 2.2636366 0
1.8851218 2 -1.7961811
3.6893488e+19 2.2136014 -0
1.9112035 0 -1.7934178
-0 2.1729815 0
1.8970792 -1.0842022e-19 -1.7915478
2 2.1426713 -0
1.8865397 3.6893488e+19 -1.7916385
-0 2.1147563 -2
1.8768331 -0 -1.7910252
3.6893488e+19 3.1042025 3.6893488e+19
2.6130791 1.0842022e-19 2.5777931
0 3.1076763 0
2.6166399 1.0842022e-19 2.5702105
2 3.101038 -1.0842022e-19
2.6098351 -1.0842022e-19 2.5537045
-2 3.0993464 2
2.6081014 2 2.5417578
3.6893488e+19 3.1955159 2
2.7796354 1.0842022e-19 2.6209888
-0 3.1651268 3.6893488e+19
2.6755302 -3.6893488e+19 2.5718858
3.6893488e+19 3.1699936 -2
2.7636158 -0 2.5616114
3.6893488e+19 3.1374092 -0
2.7694199 -0 2.5344603
-0 3.2313385 2
2.7782919 1.0842022e-19 2.5903018
3.6893488e+19 3.1330929 2
2.7664182 -0 2.519654
2 3.1313703 -1.0842022e-19
2.7652202 -0 2.506886
0 3.1691573 2
2.7346821 3.6893488e+19 2.521363
-2 3.2098448 3.6893488e+19
2.8197947 -3.6893488e+19 2.5458403
3.6893488e+19 3.171206 0
2.7929237 2 2.5082748
0 3.1655974 1.0842022e-19
2.7890232 -0 2.4846408
-1.0842022e-19 3.1491838 -2
2.7115862 0 2.4458816
-3.6893488e+19 3.1658397 3.6893488e+19
2.7891917 0 2.4599314
-0 3.1493349 -1.0842022e-19
2.7777135 -1.0842022e-19 2.4177151
3.6893488e+19 3.1251369 -3.6893488e+19
2.6345379 2 2.3607068
1.0842022e-19 3.1365261 2
2.735219 1.0842022e-19 2.3658893
3.6893488e+19 3.1226637 -2
2.6320028 1.0842022e-19 2.3365986
-0 3.1403196 3.6893488e+19
2.7399812 -1.0842022e-19 2.346395
3.6893488e+19 3.1757598 -3.6893488e+19
2.6864295 3.6893488e+19 2.3597677
-1.0842022e-19 3.138432 1.0842022e-19
2.7376118 1.0842022e-19 2.3217759
2 3.0998409 -2
2.608608 -0 2.2752807
-3.6893488e+19 3.1516652 2
2.7521119 -2 2.3090496
2 3.1015122 3.6893488e+19
2.6103213 -0 2.2561865
-3.6893488e+19 3.1503675 -2
2.7512972 3.6893488e+19 2.2844648
-1.0842022e-19 3.2165561 2
2.7282484 -0 2.3129816
-2 3.1327584 0
2.7304895 -0 2.2488708
2 3.1430578 3.6893488e+19
2.6529081 2 2.2318177
3.6893488e+19 3.1419089 2
2.7419763 0 2.2147255
-3.6893488e+19 3.1438556 -3.6893488e+19
2.6537259 0 2.1872241
2 3.1432233 -2
2.7436261 -1.0842022e-19 2.1701033
-1.0842022e-19 3.1400034 -2
2.771224 1.0842022e-19 2.1477802
3.6893488e+19 3.1360772 -3.6893488e+19
2.6964307 -1.0842022e-19 2.1146739
1.0842022e-19 3.1377997 -0
2.7696915 -1.0842022e-19 2.0995948
-2 3.1296539 -2
2.6890035 0 2.0643981
-0 3.1379931 -2
2.7698259 2 2.053834
2 3.1371248 -0
2.6976421 -0 2.0255458
-0 3.1376073 -0
2.7695577 0 2.0076718
-0 3.1341405 1.0842022e-19
2.6941915 -2 1.9787481
1.0842022e-19 3.2283316 -1.0842022e-19
2.8326509 -1.0842022e-19 2.0114307
-1.0842022e-19 3.1457801 1.0842022e-19
2.7076507 -1.0842022e-19 1.9396839
-1.0842022e-19 3.1798882 3.6893488e+19
2.7989616 2 1.9341425
-0 3.143929 2
2.7055101 0 1.893026
-3.6893488e+19 3.1801896 -0
2.7991712 1.0842022e-19 1.8834519
2 3.1440394 2
2.7056377 -1.0842022e-19 1.8196105
-0 3.2114902 -0
2.8209388 2 1.8022957
1.0842022e-19 3.141609 -1.0842022e-19
2.7028272 3.6893488e+19 1.7049083
-3.6893488e+19 3.1353562 3.6893488e+19
2.6450136 2 1.5974574
3.6893488e+19 3.1419928 1.0842022e-19
2.7420816 -1.0842022e-19 1.3105744
-2 3.1363575 -1.0842022e-19
2.64604 0 -1.507888
-3.6893488e+19 3.1458616 0
2.7469385 -2 -1.661665
0 3.1321337 -3.6893488e+19
2.64171 -1.0842022e-19 -1.7417055
-1.0842022e-19 3.1468489 0
2.7481778 0 -1.7988364
2 3.132674 -3.6893488e+19
2.6422639 -0 -1.8341711
3.6893488e+19 3.1591446 3.6893488e+19
2.7568064 2 -1.8874493
2 3.1412456 -3.6893488e+19
2.6510503 -2 -1.9019907
-1.0842022e-19 3.1199729 3.6893488e+19
2.7144394 -1.0842022e-19 -1.9175684
-1.0842022e-19 3.1081002 2
2.6170745 -0 -1.9303809
3.6893488e+19 3.1100607 -1.0842022e-19
2.7019961 -1.0842022e-19 -1.9552057
-2 3.0752237 -1.0842022e-19
2.583374 1.0842022e-19 -1.9513144
2 3.0841973 2
2.669529 3.6893488e+19 -1.9795926
1.0842022e-19 2.8741207 -2
2.469646 3.6893488e+19 -1.9004186
2 2.8268466 1.0842022e-19
2.4546046 -3.6893488e+19 -1.8924216
0 2.8011346 -1.0842022e-19
2.3482094 0 -1.8877783
-2 2.7628975 1.0842022e-19
2.3656592 0 -1.8801242
0 2.742358 0
2.284663 2 -1.8769759
-3.6893488e+19 2.6897995 -1.0842022e-19
2.3058543 3.6893488e+19 -1.8687537
-1.0842022e-19 2.6661808 3.6893488e+19
2.2312405 3.6893488e+19 -1.8639221
-1.0842022e-19 2.6278834 1.0842022e-19
2.2627954 -3.6893488e+19 -1.856853
-0 2.6064608 2
2.1621847 3.6893488e+19 -1.8504419
-3.6893488e+19 2.575309 2
2.2024662 2 -1.8439161
0 2.5629423 -1.0842022e-19
2.1118629 -2 -1.8411987
0 2.5359514 3.6893488e+19
2.1477242 -2 -1.8344285
1.0842022e-19 2.5273521 1.0842022e-19
2.0707092 -1.0842022e-19 -1.8328339
1.0842022e-19 2.4993663 -1.0842022e-19
2.0972793 2 -1.8227292
-3.6893488e+19 2.4843028 -2
2.0300057 2 -1.8206353
-3.6893488e+19 2.4510992 3.6893488e+19
2.0637126 -3.6893488e+19 -1.8170614
2 2.4402492 0
2.0045357 1.0842022e-19 -1.8157489
-2 2.3933785 -1.0842022e-19
1.9516184 -1.0842022e-19 -1.8112168
-1.0842022e-19 2.3396294 -2
1.9240704 -1.0842022e-19 -1.8056159
-0 2.2979918 0
1.9027299 -3.6893488e+19 -1.8009455
-1.0842022e-19 2.2636366 0
1.8851218 2 -1.7961811
3.6893488e+19 2.2136014 -0
1.9112035 0 -1.7934178
-0 2.1729815 0
1.8970792 -1.0842022e-19 -1.7915478
2 2.1426713 -0
1.8865397 3.6893488e+19 -1.7916385
-0 2.1147563 -2
1.8768331 -0 -1.7910252
-3.6893488e+19 3.1046753 2
2.6096084 3.6893488e+19 2.5780118
-1.0842022e-19 3.1077964 1.0842022e-19
2.6127729 -2 2.5701044
2 3.1202977 -3.6893488e+19
2.7105906 -3.6893488e+19 2.5806446
-3.6893488e+19 3.1025174 3.6893488e+19
2.6074204 2 2.5547812
2 3.1173024 -0
2.7068651 3.6893488e+19 2.5667725
1.0842022e-19 3.1962609 -1.0842022e-19
2.7775383 0 2.6213055
1.0842022e-19 3.1660292 -1.0842022e-19
2.6718154 -3.6893488e+19 2.5723703
1.0842022e-19 3.1700141 2
2.761215 -0 2.5613718
1.0842022e-19 3.1349952 3.6893488e+19
2.7654836 -1.0842022e-19 2.5324316
2 3.1968095 2
2.7557955 -0 2.5656521
-0 3.1335568 3.6893488e+19
2.7644918 3.6893488e+19 2.5197361
2 3.1945105 -1.0842022e-19
2.7544792 -1.0842022e-19 2.5507777
-3.6893488e+19 3.1323287 -1.0842022e-19
2.7636449 1.0842022e-19 2.5072985
3.6893488e+19 3.1959238 -0
2.7552884 0 2.5384746
-2 3.2053549 -2
2.814002 0 2.5426865
1.0842022e-19 3.1936326 -1.0842022e-19
2.7539766 -1.0842022e-19 2.5238266
-3.6893488e+19 3.1715586 0
2.7906971 1.0842022e-19 2.5082569
1.0842022e-19 3.2089093 -0
2.816453 3.6893488e+19 2.5173316
-1.0842022e-19 3.1548443 1.0842022e-19
2.7135415 -1.0842022e-19 2.4518638
-0 3.1657774 -3.6893488e+19
2.7867103 3.6893488e+19 2.4594457
-0 3.2462237 -1.0842022e-19
2.7515626 2 2.4768176
0 3.1440775 1.0842022e-19
2.740169 -2 2.3727324
3.6893488e+19 3.2467349 -0
2.7518218 0 2.4483633
-1.0842022e-19 3.1443186 3.6893488e+19
2.740469 3.6893488e+19 2.349658
3.6893488e+19 3.1757426 -0
2.681664 1.0842022e-19 2.3595133
-3.6893488e+19 3.1454611 2
2.7418902 -2 2.3273308
2 3.2100513 -3.6893488e+19
2.7164497 0 2.3617611
1.0842022e-19 3.174994 2
2.764312 2 2.3267319
3.6893488e+19 3.1000268 -1.0842022e-19
2.6048951 3.6893488e+19 2.2549338
-0 3.1498923 -2
2.7474017 -3.6893488e+19 2.2838948
-0 3.2411726 -1.0842022e-19
2.748004 -0 2.3292754
-1.0842022e-19 3.1335773 0
2.7271087 1.0842022e-19 2.2495296
0 3.242043 -3.6893488e+19
2.7488863 2 2.3013766
1.0842022e-19 3.1410687 1.0842022e-19
2.7364266 -3.6893488e+19 2.2133498
0 3.1764884 -1.0842022e-19
2.68242 -1.0842022e-19 2.223134
-2 3.1349087 -2
2.7287645 1.0842022e-19 2.1608844
1.0842022e-19 3.2259958 -2
2.8282354 -1.0842022e-19 2.2350471
2 3.1404774 -2
2.6970913 -1.0842022e-19 2.1185524
0 3.1724617 -0
2.7913196 -0 2.130497
-2 3.1596162 0
2.7190053 2 2.0889549
2 3.1391714 1.0842022e-19
2.7683635 -3.6893488e+19 2.0544803
1.0842022e-19 3.1349552 -0
2.6907685 0 2.0237954
-0 3.2503636 -2
2.8452897 0 2.0825696
-1.0842022e-19 3.2351611 -1.0842022e-19
2.7777514 -3.6893488e+19 2.0386863
-2 3.2507064 3.6893488e+19
2.8457627 2 2.0237978
0 3.2320871 0
2.7759917 -0 1.9808739
-2 3.2402909 -2
2.838093 2 1.9598256
0 3.2086537 3.6893488e+19
2.7625761 -2 1.9164004
-1.0842022e-19 3.2236466 -1.0842022e-19
2.8266156 -2 1.8967998
2 3.2121968 3.6893488e+19
2.7646046 3.6893488e+19 1.8531007
2 3.2111702 -3.6893488e+19
2.818012 3.6893488e+19 1.8020122
1.0842022e-19 3.1774142 -1.0842022e-19
2.7393835 3.6893488e+19 1.7234749
-2 3.1345229 2
2.6398711 0 1.5968283
1.0842022e-19 3.1771972 -0
2.7656822 -3.6893488e+19 1.3270752
3.6893488e+19 3.1371911 -0
2.6425762 -0 -1.5080857
-2 3.177995 -3.6893488e+19
2.7661784 -1.0842022e-19 -1.6746449
