# .PCD v0.7 - Point Cloud Data file format
VERSION 0.7
FIELDS x y z
SIZE 4 4 4
TYPE F F F
COUNT 1 1 1
WIDTH 1726
HEIGHT 1
VIEWPOINT 0 0 0 1 0 0 0
POINTS 1726
DATA ascii
1.9074416 -1.0842022e-19 -1.7972388
-0 2.5738859 1.0842022e-19
1.7879678 2 -1.7985138
0 2.5494773 0
1.8896391 0 -1.7946513
-1.0842022e-19 2.5392642 2
1.7705474 2 -1.7962115
-3.6893488e+19 2.5184994 3.6893488e+19
1.8751949 -1.0842022e-19 -1.7922616
3.6893488e+19 2.5081458 1.0842022e-19
1.7548897 3.6893488e+19 -1.7923027
-2 2.4867136 2
1.851943 1.0842022e-19 -1.7903507
-2 2.4752259 1.0842022e-19
1.7391167 -2 -1.7923689
1.0842022e-19 2.4517953 0
1.8356614 -2 -1.7912704
1.0842022e-19 3.2509263 0
2.0092025 -0 2.7045505
-3.6893488e+19 3.2320106 -1.0842022e-19
2.3305089 3.6893488e+19 2.6808674
-0 3.2339039 2
2.3318071 1.0842022e-19 2.668366
0 3.2911115 1.0842022e-19
2.0507131 1.0842022e-19 2.7433002
-2 3.2457638 1.0842022e-19
2.0060577 0 2.6556146
-0 3.2837434 -2
2.3891189 3.6893488e+19 2.707489
-3.6893488e+19 3.2473469 -1.0842022e-19
2.0068753 -1.0842022e-19 2.6424761
-1.0842022e-19 3.2829721 -0
2.3880613 -0 2.6897891
0 3.2600253 -1.0842022e-19
2.0186014 1.0842022e-19 2.6303272
-1.0842022e-19 3.2542548 -1.0842022e-19
2.4742119 1.0842022e-19 2.5801146
-0 3.2561836 1.0842022e-19
2.2578049 -0 2.5736957
2 3.2508378 3.6893488e+19
2.4678388 -1.0842022e-19 2.5612428
3.6893488e+19 3.2562122 -2
2.2578335 1.0842022e-19 2.5590737
-2 3.2430985 -0
2.2462189 -1.0842022e-19 2.5333412
3.6893488e+19 3.2445581 -2
2.4612012 2 2.5284595
3.6893488e+19 3.2504671 2
2.2520521 -1.0842022e-19 2.5235755
-3.6893488e+19 3.2447202 3.6893488e+19
2.4613526 3.6893488e+19 2.514406
0 3.1591606 -3.6893488e+19
2.1617496 0 2.4236419
-2 3.2392528 -3.6893488e+19
2.4562538 3.6893488e+19 2.4950368
2 3.1591165 0
2.1617055 -2 2.4003766
-2 3.1551998 -2
1.9592822 0 2.3845007
3.6893488e+19 3.1676426 -3.6893488e+19
2.2863724 -1.0842022e-19 2.3857024
-3.6893488e+19 3.1548729 -1.0842022e-19
1.9591134 1.0842022e-19 2.3612983
-2 3.1680601 -2
2.2866588 0 2.3623993
-1.0842022e-19 3.1565447 -1.0842022e-19
1.9599768 -2 2.339839
2 3.1575532 -2
2.2794542 -2 2.3302279
1.0842022e-19 3.1574526 -2
1.9604456 1.0842022e-19 2.3176336
-1.0842022e-19 3.1570239 -2
2.2790914 3.6893488e+19 2.3068027
-3.6893488e+19 3.1573148 -0
1.9603746 1.0842022e-19 2.2945964
1.0842022e-19 3.1569393 1.0842022e-19
2.2790334 0 2.2837729
2 3.1586199 2
1.9610486 0 2.2725704
0 3.1575172 1.0842022e-19
2.2794297 -0 2.2612095
-2 3.1584735 -1.0842022e-19
1.960973 1.0842022e-19 2.2490666
-2 3.155498 -0
2.2780452 1.0842022e-19 2.2241678
3.6893488e+19 3.1578085 1.0842022e-19
1.9606296 -2 2.2025073
2 3.1543272 -2
2.2772422 -0 2.1773133
-1.0842022e-19 3.1587465 -2
2.3811774 3.6893488e+19 2.1602788
2 3.1510444 -1.0842022e-19
2.1535821 1.0842022e-19 2.1281404
0 3.1609287 -3.6893488e+19
2.3832123 -2 2.1161695
3.6893488e+19 3.149704 2
2.1522334 1.0842022e-19 2.0820653
-3.6893488e+19 3.1618521 3.6893488e+19
2.3840737 -0 2.0706155
-3.6893488e+19 3.1502748 -3.6893488e+19
2.1528077 3.6893488e+19 2.0377054
-1.0842022e-19 3.1603062 -0
2.382632 -0 2.0232403
-2 3.1654122 -0
2.168041 0 2.0020761
0 3.1555753 2
2.3782201 3.6893488e+19 1.9744856
-3.6893488e+19 3.1458724 0
2.1483777 -2 1.9459292
1.0842022e-19 3.189173 -2
2.4095516 -0 1.943714
2 3.1447632 0
2.1472614 -0 1.9012247
2 3.1588955 2
2.3813164 2 1.8844211
1.0842022e-19 3.1444764 2
2.1469727 0 1.8390297
3.6893488e+19 3.1578884 2
2.3803773 -3.6893488e+19 1.8015387
-0 3.1467276 3.6893488e+19
2.1492381 -1.0842022e-19 1.7515512
-3.6893488e+19 3.1383832 -0
1.9505966 -3.6893488e+19 1.6607379
-0 3.1542659 -2
2.2772002 -1.0842022e-19 1.5295926
0 3.1414211 -3.6893488e+19
1.9521655 -3.6893488e+19 -1.2039607
-2 3.1579072 3.6893488e+19
2.2796972 1.0842022e-19 -1.5842907
3.6893488e+19 3.1439712 -3.6893488e+19
1.9534826 -0 -1.6886786
1.0842022e-19 3.1609995 2
2.2818174 -3.6893488e+19 -1.7697536
-3.6893488e+19 3.1414425 -1.0842022e-19
1.9521767 -3.6893488e+19 -1.8061197
3.6893488e+19 3.1831543 3.6893488e+19
2.2970088 -1.0842022e-19 -1.8745478
0 3.0801897 1.0842022e-19
1.9205401 -2 -1.8514903
-0 3.0825832 -2
2.2060966 1.0842022e-19 -1.8830559
-1.0842022e-19 3.075012 -0
1.9178659 0 -1.8977655
1.0842022e-19 3.0706918 -0
2.1897891 -0 -1.9142244
3.6893488e+19 2.8961082 -1.0842022e-19
1.8295864 1.0842022e-19 -1.8493425
1.0842022e-19 2.8368845 2
1.9809977 1.0842022e-19 -1.8352807
-3.6893488e+19 2.7945197 3.6893488e+19
1.7771169 -2 -1.8247198
3.6893488e+19 2.7534907 0
1.9238156 -0 -1.8116525
-3.6893488e+19 2.6981661 2
1.9589692 0 -1.803123
1.0842022e-19 2.6728234 -1.0842022e-19
1.8377495 0 -1.8040932
-0 2.6370115 3.6893488e+19
1.9304543 2 -1.8006051
3.6893488e+19 2.6176147 -1.0842022e-19
1.8099705 -1.0842022e-19 -1.8013179
3.6893488e+19 2.5876575 3.6893488e+19
1.9074416 -1.0842022e-19 -1.7972388
-0 2.5738859 1.0842022e-19
1.7879678 2 -1.7985138
0 2.5494773 0
1.8896391 0 -1.7946513
-1.0842022e-19 2.5392642 2
1.7705474 2 -1.7962115
-3.6893488e+19 2.5184994 3.6893488e+19
1.8751949 -1.0842022e-19 -1.7922616
3.6893488e+19 2.5081458 1.0842022e-19
1.7548897 3.6893488e+19 -1.7923027
-2 2.4867136 2
1.851943 1.0842022e-19 -1.7903507
-2 2.4752259 1.0842022e-19
1.7391167 -2 -1.7923689
1.0842022e-19 2.4517953 0
1.8356614 -2 -1.7912704
-0 3.252485 -3.6893488e+19
1.9896182 1.0842022e-19 2.7073374
-0 3.2324517 2
2.3206244 -2 2.6811662
-3.6893488e+19 3.2328539 -2
2.3208916 -3.6893488e+19 2.6673658
1.0842022e-19 3.2458348 -1.0842022e-19
1.9852833 1.0842022e-19 2.6556396
1.0842022e-19 3.2834551 -2
2.3767531 3.6893488e+19 2.706923
0 3.2909088 -0
2.0260837 -2 2.7090979
0 3.2823775 -3.6893488e+19
2.3753207 3.6893488e+19 2.6887677
-1.0842022e-19 3.2922835 2
2.0273886 -3.6893488e+19 2.6943474
3.6893488e+19 3.2823994 -1.0842022e-19
2.37535 -3.6893488e+19 2.6724298
-0 3.2592781 -3.6893488e+19
1.996065 -3.6893488e+19 2.6292036
0 3.2541153 -3.6893488e+19
2.2400548 -3.6893488e+19 2.6001966
2 3.2576609 -0
2.2468925 -3.6893488e+19 2.5902777
1.0842022e-19 3.2570446 -1.0842022e-19
2.4684935 0 2.5836358
-3.6893488e+19 3.2589827 3.6893488e+19
2.2494419 2 2.5771797
-1.0842022e-19 3.2491267 0
2.4548583 -2 2.5595679
-3.6893488e+19 3.2572405 0
2.2460823 -0 2.5602641
-3.6893488e+19 3.2578747 -1.0842022e-19
2.2473052 -1.0842022e-19 2.546309
-2 3.2450457 2
2.4511392 -3.6893488e+19 2.5286498
1.0842022e-19 3.244993 3.6893488e+19
2.4510911 2 2.5144718
-0 3.1592884 -1.0842022e-19
2.1446512 -1.0842022e-19 2.4237058
-0 3.2398012 0
2.4463599 -1.0842022e-19 2.4954419
0 3.1592755 0
2.1446388 0 2.4004676
-2 3.257551 -2
1.994426 -0 2.488749
2 3.2526922 -1.0842022e-19
2.3358648 -3.6893488e+19 2.4666307
-2 3.2582698 2
1.9951082 -2 2.4609094
-2 3.2539103 -3.6893488e+19
2.3374839 1.0842022e-19 2.4401119
-3.6893488e+19 3.2613535 3.6893488e+19
1.9980348 1.0842022e-19 2.4369063
2 3.2610712 -1.0842022e-19
1.9977667 3.6893488e+19 2.4070082
-2 3.2546709 -3.6893488e+19
2.3384948 3.6893488e+19 2.3838422
3.6893488e+19 3.2617087 -0
1.9983718 3.6893488e+19 2.3785386
2 3.2539628 -1.0842022e-19
2.3375535 -3.6893488e+19 2.3541157
-1.0842022e-19 3.2621162 -2
1.9987586 1.0842022e-19 2.3496616
-2 3.2544827 1.0842022e-19
2.3382449 3.6893488e+19 2.3261638
-2 3.2574501 -2
1.9943303 -0 2.314523
3.6893488e+19 3.2519782 -3.6893488e+19
2.3349156 -1.0842022e-19 2.2945845
-0 3.2590766 -3.6893488e+19
1.9958738 0 2.2874501
0 3.2514319 3.6893488e+19
2.3341897 0 2.2656672
-3.6893488e+19 3.2459183 -2
2.4519343 -1.0842022e-19 2.247627
-0 3.251421 2
2.2348592 -0 2.2240479
3.6893488e+19 3.249625 -0
2.4553123 0 2.1950705
2 3.1432579 -3.6893488e+19
2.1291938 1.0842022e-19 2.0766573
-0 3.2516806 1.0842022e-19
2.2353599 3.6893488e+19 2.1117425
1.0842022e-19 3.2528131 -1.0842022e-19
2.2375436 -0 2.0567691
0 3.2441669 -0
2.4503381 1.0842022e-19 2.0234385
2 3.1937129 -1.0842022e-19
2.4043591 2 1.9456575
-1.0842022e-19 3.1422074 -3.6893488e+19
2.128181 1.0842022e-19 1.9002215
3.6893488e+19 3.161937 3.6893488e+19
2.3754015 -2 1.88538
-1.0842022e-19 3.146692 1.0842022e-19
2.1325054 2 1.8401971
-3.6893488e+19 3.1545343 -2
2.3686554 1.0842022e-19 1.8000343
0 3.1466045 -1.0842022e-19
2.1324208 -3.6893488e+19 1.7514914
-2 3.1455677 -3.6893488e+19
1.9377046 1.0842022e-19 1.6636981
-3.6893488e+19 3.1541684 0
2.2685995 3.6893488e+19 1.5295212
-1.0842022e-19 3.1486995 3.6893488e+19
1.9391907 0 -1.2077366
1.0842022e-19 3.1584959 1.0842022e-19
2.2714753 2 -1.5845463
1.0842022e-19 3.1430662 0
1.9365176 2 -1.6882299
-0 3.2007015 1.0842022e-19
2.2995241 -1.0842022e-19 -1.7837015
1.0842022e-19 3.1433797 -3.6893488e+19
1.9366663 2 -1.8070012
0 3.1798251 -0
2.28565 2 -1.872575
0 3.0873992 2
1.9101025 2 -1.8564168
-3.6893488e+19 3.0820029 -2
2.1912804 -0 -1.8827944
-0 3.0732586 3.6893488e+19
1.9033926 -3.6893488e+19 -1.8969563
-3.6893488e+19 3.0706069 2
2.1761336 0 -1.9141448
3.6893488e+19 2.9090016 0
1.8190793 -0 -1.856626
2 2.8352163 2
1.9727757 2 -1.8341931
-0 2.7929208 -3.6893488e+19
1.7639966 1.0842022e-19 -1.8236195
-0 2.7536089 -0
1.9185417 -1.0842022e-19 -1.8116983
1.0842022e-19 2.6984258 2
1.954327 -0 -1.8031722
3.6893488e+19 2.6728916 0
1.828884 0 -1.8040932
-1.0842022e-19 2.6370044 -1.0842022e-19
1.9263401 3.6893488e+19 -1.8005488
-3.6893488e+19 2.6181722 3.6893488e+19
1.8025028 -2 -1.8015568
1.0842022e-19 2.5857763 0
1.9029979 1.0842022e-19 -1.7962276
2 2.5743117 -2
1.7813567 2 -1.7987138
-1.0842022e-19 2.5494437 2
1.8864428 3.6893488e+19 -1.7945811
0 2.5385644 -1.0842022e-19
1.7641222 -2 -1.7957696
-2 2.5201902 -0
1.8712267 1.0842022e-19 -1.7932642
-3.6893488e+19 2.5079386 -0
1.7487142 2 -1.7921416
-2 2.4858706 3.6893488e+19
1.8463889 3.6893488e+19 -1.7900144
-0 2.4753027 -0
1.7291523 -2 -1.7923689
0 2.4516845 0
1.8308119 2 -1.7911794
-2 2.4140584 -1.0842022e-19
1.8136674 -0 -1.7890627
2 2.3675182 -3.6893488e+19
1.5493945 3.6893488e+19 -1.7904834
-3.6893488e+19 2.32253 3.6893488e+19
1.5280468 -2 -1.7884791
0 2.2865443 3.6893488e+19
1.5109708 -2 -1.7865126
-1.0842022e-19 2.2587905 -0
1.4956024 3.6893488e+19 -1.7856243
0 2.2158077 1.0842022e-19
1.7122471 3.6893488e+19 -1.7838451
-2 2.1775281 -3.6893488e+19
1.6948049 -0 -1.7831643
-0 2.1476402 0
1.6811864 -3.6893488e+19 -1.7836741
-0 2.1144326 1.0842022e-19
1.6660552 -1.0842022e-19 -1.7810827
-0 3.252485 -3.6893488e+19
1.9896182 1.0842022e-19 2.7073374
-0 3.2324517 2
2.3206244 -2 2.6811662
-3.6893488e+19 3.2328539 -2
2.3208916 -3.6893488e+19 2.6673658
1.0842022e-19 3.2458348 -1.0842022e-19
1.9852833 1.0842022e-19 2.6556396
1.0842022e-19 3.2834551 -2
2.3767531 3.6893488e+19 2.706923
0 3.2909088 -0
2.0260837 -2 2.7090979
0 3.2823775 -3.6893488e+19
2.3753207 3.6893488e+19 2.6887677
-1.0842022e-19 3.2922835 2
2.0273886 -3.6893488e+19 2.6943474
3.6893488e+19 3.2823994 -1.0842022e-19
2.37535 -3.6893488e+19 2.6724298
-0 3.2592781 -3.6893488e+19
1.996065 -3.6893488e+19 2.6292036
0 3.2541153 -3.6893488e+19
2.2400548 -3.6893488e+19 2.6001966
2 3.2576609 -0
2.2468925 -3.6893488e+19 2.5902777
0 3.2488852 2
2.454638 0 2.5737686
-3.6893488e+19 3.2589827 3.6893488e+19
2.2494419 2 2.5771797
-1.0842022e-19 3.2491267 0
2.4548583 -2 2.5595679
-3.6893488e+19 3.2419636 -2
2.2243698 -3.6893488e+19 2.5466845
2 3.2452779 0
2.2275655 2 2.5345476
-2 3.2450457 2
2.4511392 -3.6893488e+19 2.5286498
1.0842022e-19 3.244993 3.6893488e+19
2.4510911 2 2.5144718
-0 3.1592884 -1.0842022e-19
2.1446512 -1.0842022e-19 2.4237058
-0 3.2398012 0
2.4463599 -1.0842022e-19 2.4954419
0 3.1592755 0
2.1446388 0 2.4004676
-2 3.1528442 -0
1.9411575 -0 2.3822343
2 3.2526922 -1.0842022e-19
2.3358648 -3.6893488e+19 2.4666307
1.0842022e-19 3.1566133 3.6893488e+19
1.942946 3.6893488e+19 2.3628218
-2 3.2539103 -3.6893488e+19
2.3374839 1.0842022e-19 2.4401119
0 3.1581001 2
1.9436514 -1.0842022e-19 2.3411114
2 3.1531332 2
1.9412946 0 2.3142409
-2 3.1545093 2
2.268826 -2 2.3048398
1.0842022e-19 3.1473308 3.6893488e+19
1.9385412 2 2.2873518
-1.0842022e-19 3.1553848 -0
2.2694077 -1.0842022e-19 2.2826264
-1.0842022e-19 3.2621162 -2
1.9987586 1.0842022e-19 2.3496616
3.6893488e+19 3.1572037 3.6893488e+19
2.2706165 -2 2.2609508
1.0842022e-19 3.1572921 2
1.9432681 1.0842022e-19 2.2475827
1.0842022e-19 3.1577311 2
2.270967 2 2.2266734
3.6893488e+19 3.1592751 -1.0842022e-19
1.944209 -0 2.2040977
-3.6893488e+19 3.1573064 1.0842022e-19
2.270685 3.6893488e+19 2.180367
2 3.1606984 0
2.3742728 -0 2.1621134
3.6893488e+19 3.1545656 -3.6893488e+19
2.1400971 -1.0842022e-19 2.1313989
1.0842022e-19 3.1603708 -2
2.3739741 3.6893488e+19 2.115562
2 3.1432579 -3.6893488e+19
2.1291938 1.0842022e-19 2.0766573
-3.6893488e+19 3.1444497 -2
2.1303432 -1.0842022e-19 2.0334728
2 3.1436908 -3.6893488e+19
2.1296113 -3.6893488e+19 1.9888567
-3.6893488e+19 3.1516325 1.0842022e-19
2.3660111 -3.6893488e+19 1.9722363
1.0842022e-19 3.1502914 3.6893488e+19
2.3647888 -3.6893488e+19 1.9265105
-1.0842022e-19 3.1422074 -3.6893488e+19
2.128181 1.0842022e-19 1.9002215
3.6893488e+19 3.161937 3.6893488e+19
2.3754015 -2 1.88538
-1.0842022e-19 3.146692 1.0842022e-19
2.1325054 2 1.8401971
-3.6893488e+19 3.1545343 -2
2.3686554 1.0842022e-19 1.8000343
0 3.1466045 -1.0842022e-19
2.1324208 -3.6893488e+19 1.7514914
-2 3.1455677 -3.6893488e+19
1.9377046 1.0842022e-19 1.6636981
-3.6893488e+19 3.1541684 0
2.2685995 3.6893488e+19 1.5295212
-1.0842022e-19 3.1486995 3.6893488e+19
1.9391907 0 -1.2077366
1.0842022e-19 3.1584959 1.0842022e-19
2.2714753 2 -1.5845463
1.0842022e-19 3.1430662 0
1.9365176 2 -1.6882299
2 3.1774704 3.6893488e+19
2.2840853 -0 -1.7755214
1.0842022e-19 3.1433797 -3.6893488e+19
1.9366663 2 -1.8070012
0 3.1798251 -0
2.28565 2 -1.872575
0 3.0873992 2
1.9101025 2 -1.8564168
-3.6893488e+19 3.0820029 -2
2.1912804 -0 -1.8827944
-0 3.0732586 3.6893488e+19
1.9033926 -3.6893488e+19 -1.8969563
-3.6893488e+19 3.0706069 2
2.1761336 0 -1.9141448
3.6893488e+19 2.9090016 0
1.8190793 -0 -1.856626
2 2.8352163 2
1.9727757 2 -1.8341931
-0 2.7929208 -3.6893488e+19
1.7639966 1.0842022e-19 -1.8236195
-0 2.7536089 -0
1.9185417 -1.0842022e-19 -1.8116983
1.0842022e-19 2.6984258 2
1.954327 -0 -1.8031722
3.6893488e+19 2.6728916 0
1.828884 0 -1.8040932
-1.0842022e-19 2.6370044 -1.0842022e-19
1.9263401 3.6893488e+19 -1.8005488
-3.6893488e+19 2.6181722 3.6893488e+19
1.8025028 -2 -1.8015568
1.0842022e-19 2.5857763 0
1.9029979 1.0842022e-19 -1.7962276
2 2.5743117 -2
1.7813567 2 -1.7987138
-1.0842022e-19 2.5494437 2
1.8864428 3.6893488e+19 -1.7945811
0 2.5385644 -1.0842022e-19
1.7641222 -2 -1.7957696
-2 2.5201902 -0
1.8712267 1.0842022e-19 -1.7932642
-3.6893488e+19 2.5079386 -0
1.7487142 2 -1.7921416
-2 2.4858706 3.6893488e+19
1.8463889 3.6893488e+19 -1.7900144
-0 2.4753027 -0
1.7291523 -2 -1.7923689
0 2.4516845 0
1.8308119 2 -1.7911794
-2 2.4140584 -1.0842022e-19
1.8136674 -0 -1.7890627
2 2.3675182 -3.6893488e+19
1.5493945 3.6893488e+19 -1.7904834
-3.6893488e+19 2.32253 3.6893488e+19
1.5280468 -2 -1.7884791
0 2.2865443 3.6893488e+19
1.5109708 -2 -1.7865126
-1.0842022e-19 2.2587905 -0
1.4956024 3.6893488e+19 -1.7856243
0 2.2158077 1.0842022e-19
1.7122471 3.6893488e+19 -1.7838451
-2 2.1775281 -3.6893488e+19
1.6948049 -0 -1.7831643
-0 2.1476402 0
1.6811864 -3.6893488e+19 -1.7836741
-0 2.1144326 1.0842022e-19
1.6660552 -1.0842022e-19 -1.7810827
-1.0842022e-19 3.2408407 2
2.3158453 -2 2.7030025
-0 3.2525952 0
1.9685334 -1.0842022e-19 2.7075028
1.0842022e-19 3.2331936 0
2.3109245 -1.0842022e-19 2.6817367
-0 3.2904162 2
2.0012543 -0 2.7251406
-1.0842022e-19 3.2405906 2
2.3156843 2 2.6453257
-0 3.2904706 3.6893488e+19
2.0013013 0 2.7083726
1.0842022e-19 3.2947912 3.6893488e+19
2.0050392 -1.0842022e-19 2.6981263
-3.6893488e+19 3.2605264 -3.6893488e+19
1.9753951 -0 2.6310012
2 3.2519407 -1.0842022e-19
2.2146704 -2 2.5971463
0 3.2514808 -1.0842022e-19
2.4476798 1.0842022e-19 2.590811
1.0842022e-19 3.2588859 -1.0842022e-19
2.2274797 -2 2.5918427
1.0842022e-19 3.2499521 1.0842022e-19
2.4450011 0 2.5743654
-3.6893488e+19 3.2590072 -2
2.2277038 -0 2.5771601
2 3.2488749 -3.6893488e+19
2.4440422 -3.6893488e+19 2.5593204
1.0842022e-19 3.2571416 2
2.2242627 2 2.5600967
0 3.2486589 -1.0842022e-19
2.2098541 -2 2.5364456
3.6893488e+19 3.2452841 2
2.4408462 -1.0842022e-19 2.5287018
-0 3.2451081 -0
2.4406896 2 2.5144553
-1.0842022e-19 3.1587946 2
2.1269832 -2 2.4231293
-0 3.1592147 1.0842022e-19
2.1273706 -2 2.4003463
3.6893488e+19 3.2582061 -2
1.9733876 -3.6893488e+19 2.4899557
-0 3.2526999 -0
2.3252137 -0 2.4665451
2 3.2584443 1.0842022e-19
1.9735937 -1.0842022e-19 2.4611864
-3.6893488e+19 3.253655 3.6893488e+19
2.326443 1.0842022e-19 2.4395752
1.0842022e-19 3.2623363 2
1.9769608 0 2.4385164
-2 3.2608728 -2
1.9756948 3.6893488e+19 2.4066689
2 3.255718 -2
2.3290977 -3.6893488e+19 2.3853376
2 3.2613082 -0
1.9760714 3.6893488e+19 2.3779311
3.6893488e+19 3.254405 -1.0842022e-19
2.3274081 0 2.3546567
2 3.2577775 2
1.9730167 -0 2.343848
2 3.253994 -1.0842022e-19
2.326879 -3.6893488e+19 2.3254673
-1.0842022e-19 3.2580454 0
1.9732487 -3.6893488e+19 2.3152268
-2 3.2516282 -3.6893488e+19
2.3238344 -2 2.2941124
1.0842022e-19 3.2656715 -0
1.9798462 2 2.2947452
0 3.2513304 3.6893488e+19
2.323451 -0 2.2655029
-0 3.2499394 2
2.4449899 -0 2.250757
-1.0842022e-19 3.2518179 -0
2.2144442 -1.0842022e-19 2.2247231
0 3.2478497 2
2.4431298 3.6893488e+19 2.1933582
0 3.254252 2
2.2189331 -1.0842022e-19 2.1723204
-1.0842022e-19 3.1547148 -1.0842022e-19
2.3602316 3.6893488e+19 2.0648713
-1.0842022e-19 3.2524986 1.0842022e-19
2.2156997 0 2.1128623
-0 3.2422271 -2
2.4381251 3.6893488e+19 2.0775993
3.6893488e+19 3.2536159 3.6893488e+19
2.2177601 2 2.0576959
-0 3.2436917 -0
2.4394288 -2 2.0230949
-3.6893488e+19 3.1430662 1.0842022e-19
2.1124787 -2 1.9444789
-2 3.1513097 -0
2.3572009 3.6893488e+19 1.9269074
-2 3.1666892 -2
2.1342633 -1.0842022e-19 1.9095737
-3.6893488e+19 3.1670291 -3.6893488e+19
2.1345768 -0 1.8511946
-3.6893488e+19 3.1517966 0
2.3576343 1.0842022e-19 1.7987984
-0 3.1455114 -2
2.1147335 1.0842022e-19 1.7511234
3.6893488e+19 3.1404116 -0
1.9188827 1.0842022e-19 1.6615523
0 3.1521993 -2
2.2588062 3.6893488e+19 1.5287354
-1.0842022e-19 3.1434186 0
1.9201835 -0 -1.2049698
3.6893488e+19 3.1775532 -1.0842022e-19
2.275121 1.0842022e-19 -1.5942752
-2 3.1433764 -3.6893488e+19
1.9201652 -0 -1.6883645
0 3.1956277 -0
2.2867515 2 -1.7818813
-3.6893488e+19 3.1440334 3.6893488e+19
1.9204495 -1.0842022e-19 -1.8072902
2 3.1823463 1.0842022e-19
2.2782054 2 -1.873974
1.0842022e-19 3.0868933 -2
1.8957319 -1.0842022e-19 -1.8560526
3.6893488e+19 3.0818872 -1.0842022e-19
2.1771243 -2 -1.8827196
-0 3.0729079 1.0842022e-19
1.8896823 0 -1.8967861
-2 3.0699284 -2
2.1617339 -1.0842022e-19 -1.9137622
0 2.9024136 -3.6893488e+19
1.7990744 0 -1.8528782
-1.0842022e-19 2.8372178 -2
1.9669923 -1.0842022e-19 -1.8353971
2 2.7930675 3.6893488e+19
1.751774 1.0842022e-19 -1.8237041
2 2.7534144 1.0842022e-19
1.9130666 -1.0842022e-19 -1.8115151
3.6893488e+19 2.6984339 -0
1.9495727 0 -1.803123
1.0842022e-19 2.6734555 -1.0842022e-19
1.8202515 -1.0842022e-19 -1.8043042
0 2.6378629 -2
1.9226159 3.6893488e+19 -1.8008863
-2 2.6186028 -1.0842022e-19
1.7949594 -3.6893488e+19 -1.801736
3.6893488e+19 2.5855033 2
1.8993137 -0 -1.7960379
-1.0842022e-19 2.5779727 0
1.7762253 -2 -1.8006476
3.6893488e+19 2.5517628 -3.6893488e+19
1.8842976 -0 -1.795844
0 2.5378623 0
1.7577307 -0 -1.7953278
2 2.5184121 2
1.8639103 -2 -1.7921073
-0 2.5081029 -0
1.7380179 2 -1.7922221
0 2.4850237 0
1.8408568 -2 -1.7896781
1.0842022e-19 2.4756248 0
1.7193063 1.0842022e-19 -1.7924565
0 2.4515703 3.6893488e+19
1.8259685 -2 -1.7910883
-1.0842022e-19 3.2408407 2
2.3158453 -2 2.7030025
-0 3.2525952 0
1.9685334 -1.0842022e-19 2.7075028
1.0842022e-19 3.2331936 0
2.3109245 -1.0842022e-19 2.6817367
-0 3.2904162 2
2.0012543 -0 2.7251406
-1.0842022e-19 3.2405906 2
2.3156843 2 2.6453257
-0 3.2904706 3.6893488e+19
2.0013013 0 2.7083726
1.0842022e-19 3.2947912 3.6893488e+19
2.0050392 -1.0842022e-19 2.6981263
-3.6893488e+19 3.2605264 -3.6893488e+19
1.9753951 -0 2.6310012
2 3.2330966 3.6893488e+19
2.195503 -1.0842022e-19 2.5828266
0 3.2514808 -1.0842022e-19
2.4476798 1.0842022e-19 2.590811
2 3.2353263 -1.0842022e-19
2.1975591 2 2.5704217
1.0842022e-19 3.2499521 1.0842022e-19
2.4450011 0 2.5743654
-1.0842022e-19 3.2436996 0
2.205281 2 2.5618036
2 3.2488749 -3.6893488e+19
2.4440422 -3.6893488e+19 2.5593204
-0 3.2414844 -3.6893488e+19
2.203238 -0 2.5463498
0 3.2486589 -1.0842022e-19
2.2098541 -2 2.5364456
3.6893488e+19 3.2452841 2
2.4408462 -1.0842022e-19 2.5287018
-0 3.2451081 -0
2.4406896 2 2.5144553
-1.0842022e-19 3.1587946 2
2.1269832 -2 2.4231293
-0 3.1592147 1.0842022e-19
2.1273706 -2 2.4003463
0 3.1547666 1.0842022e-19
1.9250923 -2 2.3840296
-1.0842022e-19 3.1692479 2
2.2697768 1.0842022e-19 2.3870165
1.0842022e-19 3.1568298 1.0842022e-19
1.9259849 -0 2.362988
2 3.1696978 2
2.2700663 -3.6893488e+19 2.3636603
-2 3.1538737 -2
1.9247061 0 2.337554
0 3.1482196 -3.6893488e+19
1.9222602 -0 2.3103876
-1.0842022e-19 3.1567359 2
2.2617257 2 2.3064523
2 3.2613082 -0
1.9760714 3.6893488e+19 2.3779311
0 3.1560924 1.0842022e-19
2.2613115 1.0842022e-19 2.2830591
2 3.2577775 2
1.9730167 -0 2.343848
-3.6893488e+19 3.1551483 3.6893488e+19
2.260704 2 2.2595782
0 3.1537404 3.6893488e+19
1.9246484 -2 2.2432067
-3.6893488e+19 3.1590919 2
2.2632418 -1.0842022e-19 2.2281621
-1.0842022e-19 3.1489902 -2
1.9225936 -0 2.1926537
-3.6893488e+19 3.1589167 2
2.263129 -2 2.1819758
1.0842022e-19 3.1661823 -0
2.3704386 1.0842022e-19 2.1674931
2 3.1461568 -2
2.1153286 2 2.123414
0 3.1534214 2
2.3590803 -0 2.1092653
-1.0842022e-19 3.1480231 0
2.1170499 3.6893488e+19 2.0805645
-1.0842022e-19 3.1547148 -1.0842022e-19
2.3602316 3.6893488e+19 2.0648713
-0 3.1437004 -3.6893488e+19
2.1130633 3.6893488e+19 2.0328906
1.0842022e-19 3.154376 2
2.35993 0 2.0191305
0 3.1421928 3.6893488e+19
2.1116731 -1.0842022e-19 1.9879111
-1.0842022e-19 3.1492989 2
2.3554111 -3.6893488e+19 1.9708798
-3.6893488e+19 3.1430662 1.0842022e-19
2.1124787 -2 1.9444789
-2 3.1513097 -0
2.3572009 3.6893488e+19 1.9269074
-3.6893488e+19 3.1413634 0
2.1109085 -0 1.899875
-2 3.1472523 -2
2.116339 0 1.8404678
-3.6893488e+19 3.1517966 0
2.3576343 1.0842022e-19 1.7987984
-0 3.1455114 -2
2.1147335 1.0842022e-19 1.7511234
3.6893488e+19 3.1404116 -0
1.9188827 1.0842022e-19 1.6615523
0 3.1521993 -2
2.2588062 3.6893488e+19 1.5287354
-1.0842022e-19 3.1434186 0
1.9201835 -0 -1.2049698
0 3.1574309 -1.0842022e-19
2.2621727 0 -1.5839553
-2 3.1433764 -3.6893488e+19
1.9201652 -0 -1.6883645
-0 3.1781538 -2
2.2755075 1.0842022e-19 -1.7757298
-3.6893488e+19 3.1440334 3.6893488e+19
1.9204495 -1.0842022e-19 -1.8072902
2 3.1823463 1.0842022e-19
2.2782054 2 -1.873974
1.0842022e-19 3.0868933 -2
1.8957319 -1.0842022e-19 -1.8560526
3.6893488e+19 3.0818872 -1.0842022e-19
2.1771243 -2 -1.8827196
-0 3.0729079 1.0842022e-19
1.8896823 0 -1.8967861
-2 3.0699284 -2
2.1617339 -1.0842022e-19 -1.9137622
0 2.9024136 -3.6893488e+19
1.7990744 0 -1.8528782
-1.0842022e-19 2.8372178 -2
1.9669923 -1.0842022e-19 -1.8353971
2 2.7930675 3.6893488e+19
1.751774 1.0842022e-19 -1.8237041
2 2.7534144 1.0842022e-19
1.9130666 -1.0842022e-19 -1.8115151
3.6893488e+19 2.6984339 -0
1.9495727 0 -1.803123
1.0842022e-19 2.6734555 -1.0842022e-19
1.8202515 -1.0842022e-19 -1.8043042
0 2.6378629 -2
1.9226159 3.6893488e+19 -1.8008863
-2 2.6186028 -1.0842022e-19
1.7949594 -3.6893488e+19 -1.801736
3.6893488e+19 2.5855033 2
1.8993137 -0 -1.7960379
-1.0842022e-19 2.5779727 0
1.7762253 -2 -1.8006476
3.6893488e+19 2.5517628 -3.6893488e+19
1.8842976 -0 -1.795844
0 2.5378623 0
1.7577307 -0 -1.7953278
2 2.5184121 2
1.8639103 -2 -1.7921073
-0 2.5081029 -0
1.7380179 2 -1.7922221
0 2.4850237 0
1.8408568 -2 -1.7896781
1.0842022e-19 2.4756248 0
1.7193063 1.0842022e-19 -1.7924565
0 2.4515703 3.6893488e+19
1.8259685 -2 -1.7910883
-1.0842022e-19 3.2328384 -1.0842022e-19
2.3004193 -0 2.6813293
-0 3.2555206 -3.6893488e+19
2.3179669 3.6893488e+19 2.6766081
3.6893488e+19 3.2887373 -3.6893488e+19
1.9753569 2 2.7223616
-2 3.2550907 -0
2.3174322 2 2.6610265
-0 3.2902298 -3.6893488e+19
1.9765218 -2 2.7079613
-2 3.2541111 3.6893488e+19
2.3162131 2 2.6446795
1.0842022e-19 3.294934 0
1.9801935 -0 2.698313
-0 3.2625418 -3.6893488e+19
1.9549116 -0 2.6339223
-0 3.2316368 -2
2.2996716 2 2.5961561
2 3.2542231 3.6893488e+19
2.1973033 -0 2.600239
0 3.2515233 -2
2.4369867 0 2.5907695
3.6893488e+19 3.2604945 2
2.2083378 -0 2.5939157
-1.0842022e-19 3.2502019 2
2.4346914 -0 2.5745642
1.0842022e-19 3.2584295 -3.6893488e+19
2.2047043 2 2.5763817
-2 3.2485592 -3.6893488e+19
2.4330888 -0 2.5590351
0 3.2571645 -2
2.2024784 2 2.5600781
2 3.2494125 -1.0842022e-19
2.1893559 -1.0842022e-19 2.5368359
3.6893488e+19 3.2454984 3.6893488e+19
2.4304299 0 2.5145869
2 3.258534 3.6893488e+19
1.9517835 -3.6893488e+19 2.4905443
-3.6893488e+19 3.2481699 0
2.3099587 1.0842022e-19 2.459775
1.0842022e-19 3.2601385 -1.0842022e-19
1.9530358 -1.0842022e-19 2.4641781
-0 3.2540953 -3.6893488e+19
2.3161933 -3.6893488e+19 2.4402459
3.6893488e+19 3.1560452 2
1.9084574 2 2.3393457
-3.6893488e+19 3.2563417 0
2.318989 3.6893488e+19 2.4151444
-0 3.2612948 -3.6893488e+19
1.9539384 2 2.407299
-0 3.2560506 1.0842022e-19
2.3186266 0 2.3857584
1.0842022e-19 3.2637684 -0
1.955869 -2 2.3814633
3.6893488e+19 3.2554049 1.0842022e-19
2.3178232 3.6893488e+19 2.3559761
3.6893488e+19 3.2573435 -0
1.9508544 1.0842022e-19 2.343246
3.6893488e+19 3.2540781 2
2.3161721 -3.6893488e+19 2.3255072
3.6893488e+19 3.2669876 2
1.9583815 -1.0842022e-19 2.3261282
-2 3.2521625 -3.6893488e+19
2.3137882 -0 2.2946754
-3.6893488e+19 3.2660789 1.0842022e-19
1.9576725 -3.6893488e+19 2.2951772
2 3.2512119 0
2.3126054 0 2.2653224
1.0842022e-19 3.2507246 -2
2.4355991 -3.6893488e+19 2.251441
-2 3.2526186 0
2.1944804 0 2.2261617
-0 3.244365 -3.6893488e+19
2.4294453 -3.6893488e+19 2.1901269
2 3.1466179 -1.0842022e-19
2.0989227 3.6893488e+19 2.0793483
-1.0842022e-19 3.2376857 -2
2.4236431 -0 2.129313
-3.6893488e+19 3.2556221 2
2.1997652 2 2.1172965
-3.6893488e+19 3.2411594 -2
2.4266608 0 2.0767939
-0 3.2540433 2
2.1969872 2 2.0581686
-1.0842022e-19 3.2415686 1.0842022e-19
2.4270163 3.6893488e+19 2.0218415
-1.0842022e-19 3.1419084 3.6893488e+19
2.0947797 2 1.9438772
1.0842022e-19 3.1522961 3.6893488e+19
2.3494668 0 1.9272907
2 3.1422017 1.0842022e-19
2.0950377 3.6893488e+19 1.9001737
3.6893488e+19 3.2433715 -3.6893488e+19
2.4285822 -2 1.912048
2 3.1841569 -0
2.1319475 0 1.8604496
0 3.153125 -1.0842022e-19
2.3501868 -2 1.7993222
3.6893488e+19 3.1439478 -0
2.0965738 -1.0842022e-19 1.7506061
3.6893488e+19 3.1390011 -0
1.901806 2 1.6609577
1.0842022e-19 3.1500401 0
2.2478056 1.0842022e-19 1.5278782
-2 3.1809762 1.0842022e-19
2.268151 0 -1.5959846
3.6893488e+19 3.1438718 1.0842022e-19
1.9037068 -1.0842022e-19 -1.6885889
1.0842022e-19 3.1812654 -1.0842022e-19
2.2683308 -1.0842022e-19 -1.7767934
-2 3.1450598 -1.0842022e-19
1.9041704 -0 -1.8077526
-0 3.1820006 -1.0842022e-19
2.2687883 0 -1.8737229
0 3.1492271 2
1.9057966 3.6893488e+19 -1.8868923
0 3.0813961 -2
2.1623855 -0 -1.8824955
0 3.0736482 -2
1.8763022 -1.0842022e-19 -1.8971125
3.6893488e+19 3.0691235 2
2.1471138 -0 -1.913316
-3.6893488e+19 2.8985693 -0
1.78054 -3.6893488e+19 -1.850686
-1.0842022e-19 2.8349845 -3.6893488e+19
1.9584255 3.6893488e+19 -1.8339601
2 2.7933371 -2
1.728947 2 -1.8238734
3.6893488e+19 2.7540898 1.0842022e-19
1.9080933 1.0842022e-19 -1.8119732
-1.0842022e-19 2.6986883 3.6893488e+19
1.9448835 -0 -1.8031722
2 2.6736431 -0
1.811349 2 -1.8043571
-2 2.6410773 1.0842022e-19
1.9198607 3.6893488e+19 -1.8022925
-3.6893488e+19 2.6235166 0
1.7892998 3.6893488e+19 -1.8040655
-1.0842022e-19 2.5857248 -2
1.8958188 -1.0842022e-19 -1.7961011
2 2.5752819 3.6893488e+19
1.7680826 1.0842022e-19 -1.7991806
2 2.5517266 -0
1.881052 -3.6893488e+19 -1.7957737
-2 2.537905 0
1.7516416 -0 -1.7953278
-3.6893488e+19 2.5187378 -3.6893488e+19
1.8584474 -1.0842022e-19 -1.7922616
-1.0842022e-19 2.5081413 -1.0842022e-19
1.7270987 2 -1.7922221
1.0842022e-19 2.486403 -3.6893488e+19
1.8362644 -1.0842022e-19 -1.7900984
0 2.476193 1.0842022e-19
1.7094643 -2 -1.7926315
3.6893488e+19 2.4512064 0
1.8209772 0 -1.7909064
2 2.4150431 -0
1.80527 3.6893488e+19 -1.7893566
-0 2.3675704 -1.0842022e-19
1.5184427 3.6893488e+19 -1.7904834
3.6893488e+19 2.3215842 2
1.5004969 3.6893488e+19 -1.7879765
0 2.2878225 -3.6893488e+19
1.4746429 -2 -1.78721
-3.6893488e+19 2.2590742 -0
1.4522053 0 -1.7857776
-0 2.2146101 -1.0842022e-19
1.7017989 0 -1.783344
-0 2.1836452 -3.6893488e+19
1.6883496 2 -1.7853334
-3.6893488e+19 2.150311 3.6893488e+19
1.6738713 -3.6893488e+19 -1.7846464
0 2.119508 -2
1.6604922 1.0842022e-19 -1.7831639
-1.0842022e-19 3.2328384 -1.0842022e-19
2.3004193 -0 2.6813293
-0 3.2555206 -3.6893488e+19
2.3179669 3.6893488e+19 2.6766081
3.6893488e+19 3.2887373 -3.6893488e+19
1.9753569 2 2.7223616
2 3.2399907 -1.0842022e-19
2.3048694 1.0842022e-19 2.6447597
-0 3.2902298 -3.6893488e+19
1.9765218 -2 2.7079613
-2 3.2541111 3.6893488e+19
2.3162131 2 2.6446795
1.0842022e-19 3.294934 0
1.9801935 -0 2.698313
-0 3.2625418 -3.6893488e+19
1.9549116 -0 2.6339223
-0 3.2316368 -2
2.2996716 2 2.5961561
-1.0842022e-19 3.2335682 -1.0842022e-19
2.1754169 -1.0842022e-19 2.583102
0 3.2515233 -2
2.4369867 0 2.5907695
0 3.2395241 0
2.1806567 -3.6893488e+19 2.5731449
-1.0842022e-19 3.2502019 2
2.4346914 -0 2.5745642
1.0842022e-19 3.2392731 -2
2.1804357 -0 2.5589619
-2 3.2485592 -3.6893488e+19
2.4330888 -0 2.5590351
0 3.2412491 0
2.1821742 2 2.5461638
2 3.2494125 -1.0842022e-19
2.1893559 -1.0842022e-19 2.5368359
3.6893488e+19 3.2454984 3.6893488e+19
2.4304299 0 2.5145869
-2 3.1577101 -2
1.9091071 -2 2.3867962
2 3.1707594 -1.0842022e-19
2.2617941 -1.0842022e-19 2.3883305
1.0842022e-19 3.1546531 -2
1.907914 3.6893488e+19 2.3610213
1.0842022e-19 3.1699095 3.6893488e+19
2.2612653 1.0842022e-19 2.3637679
3.6893488e+19 3.1560452 2
1.9084574 2 2.3393457
-3.6893488e+19 3.2563417 0
2.318989 3.6893488e+19 2.4151444
0 3.1508896 -1.0842022e-19
1.9064454 2 2.3124475
-0 3.2560506 1.0842022e-19
2.3186266 0 2.3857584
0 3.1539524 -3.6893488e+19
1.9076406 -0 2.292099
3.6893488e+19 3.1573567 0
2.2534552 -1.0842022e-19 2.2838809
3.6893488e+19 3.2573435 -0
1.9508544 1.0842022e-19 2.343246
-1.0842022e-19 3.1583388 0
2.2540662 -0 2.2615676
-3.6893488e+19 3.2590909 -2
1.9522183 -0 2.3164825
2 3.1606381 2
2.2554967 0 2.2298689
-3.6893488e+19 3.2660789 1.0842022e-19
1.9576725 -3.6893488e+19 2.2951772
-3.6893488e+19 3.1613028 2
2.2559104 -3.6893488e+19 2.1844056
-3.6893488e+19 3.1654038 3.6893488e+19
2.3608534 -2 2.1665912
-3.6893488e+19 3.1453123 -1.0842022e-19
2.0977743 -0 2.1225626
-0 3.1647367 3.6893488e+19
2.3602738 1.0842022e-19 2.119235
2 3.1466179 -1.0842022e-19
2.0989227 3.6893488e+19 2.0793483
-0 3.153312 1.0842022e-19
2.3503494 1.0842022e-19 2.0636888
-1.0842022e-19 3.143229 2
2.0959415 -0 2.0325098
-0 3.1547418 -1.0842022e-19
2.3515913 0 2.0192957
-0 3.1391642 3.6893488e+19
2.0923655 -3.6893488e+19 1.9860388
2 3.1519921 0
2.3492029 -3.6893488e+19 1.9723049
-1.0842022e-19 3.1419084 3.6893488e+19
2.0947797 2 1.9438772
1.0842022e-19 3.1522961 3.6893488e+19
2.3494668 0 1.9272907
2 3.1422017 1.0842022e-19
2.0950377 3.6893488e+19 1.9001737
2 3.1548169 1.0842022e-19
2.3516567 2 1.8829622
-0 3.1417582 0
2.0946476 -0 1.8374561
0 3.153125 -1.0842022e-19
2.3501868 -2 1.7993222
3.6893488e+19 3.1439478 -0
2.0965738 -1.0842022e-19 1.7506061
3.6893488e+19 3.1390011 -0
1.901806 2 1.6609577
1.0842022e-19 3.1500401 0
2.2478056 1.0842022e-19 1.5278782
2 3.1546497 -1.0842022e-19
2.2517707 1.0842022e-19 -1.5824856
3.6893488e+19 3.1438718 1.0842022e-19
1.9037068 -1.0842022e-19 -1.6885889
1.0842022e-19 3.1812654 -1.0842022e-19
2.2683308 -1.0842022e-19 -1.7767934
3.6893488e+19 3.1137288 -0
1.8919436 2 -1.793259
-0 3.1820006 -1.0842022e-19
2.2687883 0 -1.8737229
0 3.0862291 -1.0842022e-19
1.8812119 -1.0842022e-19 -1.8555814
0 3.0813961 -2
2.1623855 -0 -1.8824955
0 3.0736482 -2
1.8763022 -1.0842022e-19 -1.8971125
3.6893488e+19 3.0691235 2
2.1471138 -0 -1.913316
-3.6893488e+19 2.8985693 -0
1.78054 -3.6893488e+19 -1.850686
-1.0842022e-19 2.8349845 -3.6893488e+19
1.9584255 3.6893488e+19 -1.8339601
2 2.7933371 -2
1.728947 2 -1.8238734
3.6893488e+19 2.7540898 1.0842022e-19
1.9080933 1.0842022e-19 -1.8119732
-1.0842022e-19 2.6986883 3.6893488e+19
1.9448835 -0 -1.8031722
2 2.6736431 -0
1.811349 2 -1.8043571
-2 2.6410773 1.0842022e-19
1.9198607 3.6893488e+19 -1.8022925
-3.6893488e+19 2.6235166 0
1.7892998 3.6893488e+19 -1.8040655
-1.0842022e-19 2.5857248 -2
1.8958188 -1.0842022e-19 -1.7961011
2 2.5752819 3.6893488e+19
1.7680826 1.0842022e-19 -1.7991806
2 2.5517266 -0
1.881052 -3.6893488e+19 -1.7957737
-2 2.537905 0
1.7516416 -0 -1.7953278
-3.6893488e+19 2.5187378 -3.6893488e+19
1.8584474 -1.0842022e-19 -1.7922616
-1.0842022e-19 2.5081413 -1.0842022e-19
1.7270987 2 -1.7922221
1.0842022e-19 2.486403 -3.6893488e+19
1.8362644 -1.0842022e-19 -1.7900984
0 2.476193 1.0842022e-19
1.7094643 -2 -1.7926315
3.6893488e+19 2.4512064 0
1.8209772 0 -1.7909064
2 2.4150431 -0
1.80527 3.6893488e+19 -1.7893566
-0 2.3675704 -1.0842022e-19
1.5184427 3.6893488e+19 -1.7904834
3.6893488e+19 2.3215842 2
1.5004969 3.6893488e+19 -1.7879765
0 2.2878225 -3.6893488e+19
1.4746429 -2 -1.78721
-3.6893488e+19 2.2590742 -0
1.4522053 0 -1.7857776
-0 2.2146101 -1.0842022e-19
1.7017989 0 -1.783344
-0 2.1836452 -3.6893488e+19
1.6883496 2 -1.7853334
-3.6893488e+19 2.150311 3.6893488e+19
1.6738713 -3.6893488e+19 -1.7846464
0 2.119508 -2
1.6604922 1.0842022e-19 -1.7831639
-3.6893488e+19 3.2327526 0
2.2901857 -2 2.6811662
-0 3.2381096 -3.6893488e+19
2.2934055 3.6893488e+19 2.6573834
1.0842022e-19 3.2884793 -2
1.9509499 1.0842022e-19 2.721911
1.0842022e-19 3.2420137 -3.6893488e+19
2.2957523 0 2.6463101
-0 3.2902167 2
1.9521602 -2 2.7079129
1.0842022e-19 3.2921433 1.0842022e-19
1.9535023 -3.6893488e+19 2.6940441
-1.0842022e-19 3.2461922 1.0842022e-19
2.2982643 2 2.6208856
1.0842022e-19 3.2633414 -3.6893488e+19
1.9334393 1.0842022e-19 2.6350684
-2 3.2316105 -1.0842022e-19
2.289499 -0 2.5960679
-3.6893488e+19 3.2340667 3.6893488e+19
2.1554995 -0 2.5833986
-3.6893488e+19 3.2586727 2
2.438437 1.0842022e-19 2.6003575
3.6893488e+19 3.2616858 -2
2.1884248 -3.6893488e+19 2.5954399
-2 3.2502723 1.0842022e-19
2.4241986 -0 2.5745642
-1.0842022e-19 3.2581575 1.0842022e-19
2.1825137 -0 2.5759923
3.6893488e+19 3.2507472 -2
2.4250033 0 2.5607672
-2 3.2568765 -0
2.1803675 -3.6893488e+19 2.5596874
-1.0842022e-19 3.2589984 3.6893488e+19
2.1839225 2 2.5327229
3.6893488e+19 3.2454529 -1.0842022e-19
2.4198833 1.0842022e-19 2.5144882
0 3.2563832 0
2.1795409 -3.6893488e+19 2.5007541
-0 3.2587357 1.0842022e-19
1.9302311 1.0842022e-19 2.4908977
-3.6893488e+19 3.1686146 0
2.251632 -3.6893488e+19 2.3862736
-2 3.2603714 0
1.9313706 1.0842022e-19 2.464566
-0 3.2545335 -1.0842022e-19
2.3060033 -2 2.4409168
1.0842022e-19 3.2631001 0
1.9332713 -3.6893488e+19 2.4397366
-0 3.2564552 -0
2.3083136 -0 2.4152448
1.0842022e-19 3.2618549 -0
1.9324038 -2 2.4081471
0 3.2559469 -2
2.3077023 -3.6893488e+19 2.3855245
3.6893488e+19 3.2635043 -2
1.9335527 2 2.3810585
3.6893488e+19 3.1559172 1.0842022e-19
2.2379987 1.0842022e-19 2.2828212
-3.6893488e+19 3.2577949 1.0842022e-19
1.9295758 -0 2.3438272
0 3.2530575 2
2.3042288 3.6893488e+19 2.3241346
-0 3.2666454 -3.6893488e+19
1.9357408 3.6893488e+19 2.3256907
-2 3.2523994 -3.6893488e+19
2.3034377 2 2.2948933
3.6893488e+19 3.2664847 -2
1.9356289 -0 2.2956095
0 3.2516043 -1.0842022e-19
2.3024817 -3.6893488e+19 2.2656834
0 3.2501748 -2
2.4240329 2 2.2508192
-0 3.2549284 -1.0842022e-19
2.1771035 -3.6893488e+19 2.2304475
-3.6893488e+19 3.1565065 -1.0842022e-19
2.3445036 1.0842022e-19 2.1118062
3.6893488e+19 3.2628648 -0
2.1904001 -3.6893488e+19 2.1865003
3.6893488e+19 3.2388783 -1.0842022e-19
2.4143114 -0 2.1301336
-1.0842022e-19 3.2548788 2
2.1770205 -1.0842022e-19 2.1161766
0 3.2399316 -0
2.415204 -0 2.0758851
-3.6893488e+19 3.1390941 3.6893488e+19
2.0759416 1.0842022e-19 1.9859632
0 3.1526332 -3.6893488e+19
2.3412209 -0 1.9725969
-1.0842022e-19 3.1390626 -0
2.0759151 -1.0842022e-19 1.9424423
-3.6893488e+19 3.2416573 2
2.4166667 1.0842022e-19 1.966611
0 3.1423817 -1.0842022e-19
2.0786953 1.0842022e-19 1.9002215
-0 3.2413664 0
2.4164202 -2 1.9113441
2 3.1436543 3.6893488e+19
2.0797615 3.6893488e+19 1.8384544
1.0842022e-19 3.1575265 -1.0842022e-19
2.3453679 -0 1.8011761
2 3.1403522 2
2.0769954 -1.0842022e-19 1.7488843
2 3.1376188 -1.0842022e-19
1.8850044 -2 1.660376
2 3.1487803 -3.6893488e+19
2.2294185 -0 1.5273662
3.6893488e+19 3.1364396 3.6893488e+19
1.8845937 0 -1.2013079
0 3.1779153 -1.0842022e-19
2.2572224 1.0842022e-19 -1.5943711
1.0842022e-19 3.1439269 -2
1.8872014 0 -1.6886039
-3.6893488e+19 3.1747768 1.0842022e-19
2.255336 0 -1.7744797
-0 3.1424284 0
1.8866796 0 -1.8065244
2 3.14644 -0
1.8880768 -2 -1.8859284
1.0842022e-19 3.1772876 -3.6893488e+19
2.256845 1.0842022e-19 -1.9207997
-1.0842022e-19 3.0774777 1.0842022e-19
1.8531157 -0 -1.8988442
0 3.0688138 -2
2.1332817 2 -1.9131248
-3.6893488e+19 2.9024026 -2
1.7651535 3.6893488e+19 -1.8528428
3.6893488e+19 2.8356745 -0
1.951776 -1.0842022e-19 -1.8343484
-2 2.7916067 -2
1.7031285 3.6893488e+19 -1.8226883
3.6893488e+19 2.7523975 -3.6893488e+19
1.9017177 -0 -1.8106906
2 2.6985662 -3.6893488e+19
1.940074 -1.0842022e-19 -1.8030736
0 2.6738274 3.6893488e+19
1.8025186 -3.6893488e+19 -1.8044097
3.6893488e+19 2.640815 -2
1.9156027 -3.6893488e+19 -1.8021237
3.6893488e+19 2.6231954 2
1.7813116 2 -1.8038863
2 2.5875561 -1.0842022e-19
1.8930349 -2 -1.796986
3.6893488e+19 2.5757012 -0
1.7614188 2 -1.7993807
0 2.5514395 -1.0842022e-19
1.877731 3.6893488e+19 -1.7955633
2 2.5384436 2
1.7416272 3.6893488e+19 -1.7956223
-3.6893488e+19 2.5188134 2
1.8528124 -1.0842022e-19 -1.7922616
-0 2.5086753 0
1.7166907 3.6893488e+19 -1.7925445
3.6893488e+19 2.4897602 -0
1.8325294 -2 -1.7911912
-3.6893488e+19 2.476011 3.6893488e+19
1.6993756 3.6893488e+19 -1.792544
-3.6893488e+19 2.4515808 -3.6893488e+19
1.8163514 3.6893488e+19 -1.7909974
-3.6893488e+19 3.2327526 0
2.2901857 -2 2.6811662
-0 3.2381096 -3.6893488e+19
2.2934055 3.6893488e+19 2.6573834
1.0842022e-19 3.2884793 -2
1.9509499 1.0842022e-19 2.721911
1.0842022e-19 3.2420137 -3.6893488e+19
2.2957523 0 2.6463101
2 3.2441471 -0
1.9221073 0 2.6398404
-0 3.2635367 3.6893488e+19
1.9335754 -1.0842022e-19 2.6505635
-1.0842022e-19 3.2461922 1.0842022e-19
2.2982643 2 2.6208856
1.0842022e-19 3.2633414 -3.6893488e+19
1.9334393 1.0842022e-19 2.6350684
-2 3.2316105 -1.0842022e-19
2.289499 -0 2.5960679
-3.6893488e+19 3.2340667 3.6893488e+19
2.1554995 -0 2.5833986
1.0842022e-19 3.2513335 -0
2.425997 1.0842022e-19 2.5904167
3.6893488e+19 3.2616858 -2
2.1884248 -3.6893488e+19 2.5954399
-2 3.2502723 1.0842022e-19
2.4241986 -0 2.5745642
0 3.2374616 -0
2.1583431 -2 2.5577745
3.6893488e+19 3.2507472 -2
2.4250033 0 2.5607672
1.0842022e-19 3.24246 -3.6893488e+19
2.1625302 1.0842022e-19 2.5468521
-1.0842022e-19 3.2589984 3.6893488e+19
2.1839225 2 2.5327229
3.6893488e+19 3.2454529 -1.0842022e-19
2.4198833 1.0842022e-19 2.5144882
0 3.2563832 0
2.1795409 -3.6893488e+19 2.5007541
-3.6893488e+19 3.1573935 3.6893488e+19
1.8918918 -3.6893488e+19 2.3864725
-3.6893488e+19 3.1686146 0
2.251632 -3.6893488e+19 2.3862736
-2 3.1589313 2
1.8924274 -2 2.3648162
-3.6893488e+19 3.1694667 3.6893488e+19
2.2521441 -1.0842022e-19 2.3633115
3.6893488e+19 3.1568155 -0
1.8916905 2 2.3399689
-0 3.2564552 -0
2.3083136 -0 2.4152448
1.0842022e-19 3.1535258 -3.6893488e+19
1.8905447 3.6893488e+19 2.3144832
0 3.2559469 -2
2.3077023 -3.6893488e+19 2.3855245
-0 3.1575239 1.0842022e-19
1.8919373 2 2.2946639
3.6893488e+19 3.1559172 1.0842022e-19
2.2379987 1.0842022e-19 2.2828212
-0 3.1561828 -3.6893488e+19
1.8914701 1.0842022e-19 2.2708678
0 3.2530575 2
2.3042288 3.6893488e+19 2.3241346
-3.6893488e+19 3.1530132 -2
1.8903662 -3.6893488e+19 2.2422554
2 3.1554058 2
2.2373838 -3.6893488e+19 2.2236593
3.6893488e+19 3.2664847 -2
1.9356289 -0 2.2956095
3.6893488e+19 3.1600482 -3.6893488e+19
2.242965 -3.6893488e+19 2.1829937
-1.0842022e-19 3.1586351 -2
2.3463075 2 2.159688
-2 3.1453991 0
2.0812232 -1.0842022e-19 2.122592
-3.6893488e+19 3.1565065 -1.0842022e-19
2.3445036 1.0842022e-19 2.1118062
-2 3.1435258 2
2.079654 -2 2.0767348
3.6893488e+19 3.1534564 -0
2.3419187 2 2.0637128
2 3.1392939 -3.6893488e+19
2.0761087 3.6893488e+19 2.0296433
1.0842022e-19 3.1569049 1.0842022e-19
2.3448412 2 2.0206587
-3.6893488e+19 3.1390941 3.6893488e+19
2.0759416 1.0842022e-19 1.9859632
0 3.1526332 -3.6893488e+19
2.3412209 -0 1.9725969
-1.0842022e-19 3.1390626 -0
2.0759151 -1.0842022e-19 1.9424423
-0 3.1551428 -2
2.3433478 1.0842022e-19 1.928495
0 3.1423817 -1.0842022e-19
2.0786953 1.0842022e-19 1.9002215
-3.6893488e+19 3.1545577 3.6893488e+19
2.3428521 3.6893488e+19 1.8828398
2 3.1436543 3.6893488e+19
2.0797615 3.6893488e+19 1.8384544
1.0842022e-19 3.1575265 -1.0842022e-19
2.3453679 -0 1.8011761
2 3.1403522 2
2.0769954 -1.0842022e-19 1.7488843
2 3.1376188 -1.0842022e-19
1.8850044 -2 1.660376
2 3.1487803 -3.6893488e+19
2.2294185 -0 1.5273662
3.6893488e+19 3.1364396 3.6893488e+19
1.8845937 0 -1.2013079
0 3.1491218 1.0842022e-19
2.2298291 3.6893488e+19 -1.57961
1.0842022e-19 3.1439269 -2
1.8872014 0 -1.6886039
-3.6893488e+19 3.1747768 1.0842022e-19
2.255336 0 -1.7744797
-1.0842022e-19 3.1183116 -0
1.8782799 0 -1.7953688
-3.6893488e+19 3.0766599 0
1.8525461 -2 -1.8490056
3.6893488e+19 3.0810263 1.0842022e-19
2.147964 0 -1.8823212
-1.0842022e-19 3.0774777 1.0842022e-19
1.8531157 -0 -1.8988442
0 3.0688138 -2
2.1332817 2 -1.9131248
-3.6893488e+19 2.9024026 -2
1.7651535 3.6893488e+19 -1.8528428
3.6893488e+19 2.8356745 -0
1.951776 -1.0842022e-19 -1.8343484
-2 2.7916067 -2
1.7031285 3.6893488e+19 -1.8226883
3.6893488e+19 2.7523975 -3.6893488e+19
1.9017177 -0 -1.8106906
2 2.6985662 -3.6893488e+19
1.940074 -1.0842022e-19 -1.8030736
0 2.6738274 3.6893488e+19
1.8025186 -3.6893488e+19 -1.8044097
3.6893488e+19 2.640815 -2
1.9156027 -3.6893488e+19 -1.8021237
3.6893488e+19 2.6231954 2
1.7813116 2 -1.8038863
2 2.5875561 -1.0842022e-19
1.8930349 -2 -1.796986
3.6893488e+19 2.5757012 -0
1.7614188 2 -1.7993807
0 2.5514395 -1.0842022e-19
1.877731 3.6893488e+19 -1.7955633
2 2.5384436 2
1.7416272 3.6893488e+19 -1.7956223
-3.6893488e+19 2.5188134 2
1.8528124 -1.0842022e-19 -1.7922616
-0 2.5086753 0
1.7166907 3.6893488e+19 -1.7925445
3.6893488e+19 2.4897602 -0
1.8325294 -2 -1.7911912
-3.6893488e+19 2.476011 3.6893488e+19
1.6993756 3.6893488e+19 -1.792544
-3.6893488e+19 2.4515808 -3.6893488e+19
1.8163514 3.6893488e+19 -1.7909974
-2 3.2327547 0
2.2800157 0 2.6810849
3.6893488e+19 3.2459345 0
1.9019368 -1.0842022e-19 2.6845202
3.6893488e+19 3.2359605 1.0842022e-19
2.2818751 2 2.669708
3.6893488e+19 3.2381124 -0
2.2831233 0 2.6573071
2 3.2523277 -0
1.9046085 -3.6893488e+19 2.6627498
3.6893488e+19 3.2423227 3.6893488e+19
2.2855654 -0 2.6464822
-2 3.2633512 3.6893488e+19
1.911363 -1.0842022e-19 2.6502602
-0 3.2642007 3.6893488e+19
1.9118835 -1.0842022e-19 2.6363041
3.6893488e+19 3.2325628 -3.6893488e+19
2.2799041 0 2.5966852
0 3.233578 -0
2.1347704 2 2.5830173
-0 3.2516935 -3.6893488e+19
2.4159434 1.0842022e-19 2.590811
3.6893488e+19 3.2615976 -3.6893488e+19
2.1662929 -2 2.5952773
2 3.2474904 -0
2.4110711 -2 2.5724952
0 3.2583463 0
2.161119 -3.6893488e+19 2.5761869
-1.0842022e-19 3.2499728 1.0842022e-19
2.4131224 1.0842022e-19 2.5597394
-2 3.2562318 -1.0842022e-19
2.1577542 -2 2.5588689
1.0842022e-19 3.2473915 -1.0842022e-19
2.4109893 2 2.5438824
-1.0842022e-19 3.2558477 -2
2.1571429 1.0842022e-19 2.5292463
-1.0842022e-19 3.2450647 1.0842022e-19
2.4090669 -0 2.5142086
-1.0842022e-19 3.2429466 0
2.142225 0 2.5050082
-3.6893488e+19 3.2580128 2
2.1605885 1.0842022e-19 2.5023146
-2 3.2585323 3.6893488e+19
1.9084103 -3.6893488e+19 2.4904854
3.6893488e+19 3.1594684 3.6893488e+19
2.2250137 -3.6893488e+19 2.3777609
0 3.2607272 1.0842022e-19
1.9097551 3.6893488e+19 2.4651754
3.6893488e+19 3.2504613 1.0842022e-19
2.2905538 -3.6893488e+19 2.4337788
3.6893488e+19 3.2607369 -2
1.9097611 -2 2.4357636
3.6893488e+19 3.2418914 0
2.2853153 0 2.3981512
1.0842022e-19 3.2525363 0
2.2929609 -0 2.3803139
1.0842022e-19 3.2626472 -3.6893488e+19
1.9109315 -2 2.3797984
-2 3.2519345 -1.0842022e-19
2.2922628 -0 2.351001
2 3.2625415 1.0842022e-19
1.9108669 0 2.3501391
-2 3.2519722 -3.6893488e+19
2.2923064 1.0842022e-19 2.3226824
-3.6893488e+19 3.2667687 2
1.913457 0 2.325824
-0 3.2514846 2
2.2917409 -2 2.2937675
-1.0842022e-19 3.2657509 -0
1.9128333 1.0842022e-19 2.2947798
1.0842022e-19 3.2513108 1.0842022e-19
2.2915392 0 2.2653224
0 3.2494938 -1.0842022e-19
2.4127264 -0 2.2503216
-2 3.2549312 -3.6893488e+19
2.1556845 -1.0842022e-19 2.2303889
1.0842022e-19 3.1573009 0
2.3365486 -0 2.1124136
3.6893488e+19 3.1440461 0
2.0635324 -1.0842022e-19 2.0771229
2 3.2432659 -0
2.4075804 2 2.1334403
-2 3.2548816 -3.6893488e+19
2.1556056 -2 2.1161318
2 3.2411218 -1.0842022e-19
2.4058087 -2 2.0765872
2 3.1388032 1.0842022e-19
2.0593607 1.0842022e-19 1.9857552
-3.6893488e+19 3.1542966 -0
2.3340662 3.6893488e+19 1.9734554
-0 3.139801 1.0842022e-19
2.0601547 0 1.9427818
-2 3.160418 -0
2.3391242 -1.0842022e-19 1.8847271
1.0842022e-19 3.1416786 -2
2.0616484 0 1.8373547
-0 3.1591611 0
2.3380857 0 1.8018343
-1.0842022e-19 3.17589 -3.6893488e+19
2.0888696 3.6893488e+19 1.7607533
-0 3.1349525 1.0842022e-19
1.8608717 -1.0842022e-19 1.6592643
3.6893488e+19 3.1500418 3.6893488e+19
2.2140782 -3.6893488e+19 1.5278186
3.6893488e+19 3.1359291 -0
1.86147 1.0842022e-19 -1.2010312
-2 3.1803355 -3.6893488e+19
2.2492211 -3.6893488e+19 -1.5955691
-0 3.1436355 1.0842022e-19
1.866192 3.6893488e+19 -1.6884543
2 3.1772277 -2
2.2456157 -2 -1.775313
-0 3.1403251 -1.0842022e-19
1.8641635 2 -1.8055418
-0 3.1749721 -1.0842022e-19
2.2429991 1.0842022e-19 -1.8695799
-0 3.1413696 3.6893488e+19
1.8648036 -2 -1.8841827
-3.6893488e+19 3.1780555 2
2.2465763 2 -1.9210737
-0 3.0766521 -3.6893488e+19
1.8251492 -0 -1.898461
-3.6893488e+19 3.0687506 1.0842022e-19
2.1197746 -0 -1.913061
-3.6893488e+19 2.8993018 -2
1.7446638 -1.0842022e-19 -1.8510749
3.6893488e+19 2.8325627 -3.6893488e+19
1.9428986 0 -1.8323677
-0 2.7938075 -2
1.6800244 -0 -1.8241696
-3.6893488e+19 2.7541275 1.0842022e-19
1.8974035 -3.6893488e+19 -1.8119273
0 2.6995585 2
1.9357327 -2 -1.8034186
0 2.6762528 3.6893488e+19
1.7945791 2 -1.8054124
-2 2.6404254 -3.6893488e+19
1.9113022 -0 -1.8018987
2 2.6233699 -0
1.7735404 2 -1.803946
3.6893488e+19 2.5892618 1.0842022e-19
1.8901643 -1.0842022e-19 -1.7978077
0 2.575994 -1.0842022e-19
1.7546924 1.0842022e-19 -1.7995141
-3.6893488e+19 2.5512738 -2
1.8739395 1.0842022e-19 -1.795423
2 2.5392292 0
1.7301322 -3.6893488e+19 -1.7960641
3.6893488e+19 2.5197549 0
1.8478957 -2 -1.7928014
-0 2.5088344 -0
1.7059479 -0 -1.7926251
0 2.4896467 2
1.8272949 -0 -1.7911072
0 2.4780648 3.6893488e+19
1.6901919 -2 -1.7932442
-0 2.4554193 -0
1.8131541 -2 -1.7923625
0 2.417501 2
1.7974883 2 -1.7902381
-2 2.3671155 0
1.4749424 -0 -1.7902597
2 2.3248446 3.6893488e+19
1.4490417 -0 -1.78961
-2 2.2881026 2
1.4265289 -2 -1.7873495
-2 2.2600918 1.0842022e-19
1.4093659 -3.6893488e+19 -1.7863905
-0 2.2168295 1.0842022e-19
1.6928682 -0 -1.7840121
1.0842022e-19 2.1814404 1.0842022e-19
1.6782473 -1.0842022e-19 -1.7844296
-2 2.1495576 2
1.6650752 -0 -1.7842575
-3.6893488e+19 2.1187401 -3.6893488e+19
1.652343 -0 -1.7827476
-2 3.2327547 0
2.2800157 0 2.6810849
3.6893488e+19 3.2459345 0
1.9019368 -1.0842022e-19 2.6845202
3.6893488e+19 3.2359605 1.0842022e-19
2.2818751 2 2.669708
3.6893488e+19 3.2381124 -0
2.2831233 0 2.6573071
2 3.2523277 -0
1.9046085 -3.6893488e+19 2.6627498
3.6893488e+19 3.2423227 3.6893488e+19
2.2855654 -0 2.6464822
-2 3.2633512 3.6893488e+19
1.911363 -1.0842022e-19 2.6502602
-0 3.2642007 3.6893488e+19
1.9118835 -1.0842022e-19 2.6363041
3.6893488e+19 3.2325628 -3.6893488e+19
2.2799041 0 2.5966852
0 3.233578 -0
2.1347704 2 2.5830173
-0 3.2516935 -3.6893488e+19
2.4159434 1.0842022e-19 2.590811
-3.6893488e+19 3.2346077 -2
2.1355898 0 2.5698121
2 3.2474904 -0
2.4110711 -2 2.5724952
-3.6893488e+19 3.2345359 1.0842022e-19
2.1355329 1.0842022e-19 2.5558867
-1.0842022e-19 3.2499728 1.0842022e-19
2.4131224 1.0842022e-19 2.5597394
2 3.2429271 -0
2.1422093 3.6893488e+19 2.5470939
1.0842022e-19 3.2473915 -1.0842022e-19
2.4109893 2 2.5438824
1.0842022e-19 3.2416558 -3.6893488e+19
2.1411977 0 2.5183101
-1.0842022e-19 3.2450647 1.0842022e-19
2.4090669 -0 2.5142086
-1.0842022e-19 3.2429466 0
