# .PCD v0.7 - Point Cloud Data file format
VERSION 0.7
FIELDS x y z
SIZE 4 4 4
TYPE F F F
COUNT 1 1 1
WIDTH 1712
HEIGHT 1
VIEWPOINT 0 0 0 1 0 0 0
POINTS 1712
DATA ascii
2.4934158 -2 2.4129384
-0 3.1717851 -0
2.538651 3.6893488e+19 2.3201652
-2 3.1635704 -1.0842022e-19
2.3862476 2 2.2998233
-0 3.1683674 2
2.5363121 -1.0842022e-19 2.2937057
-3.6893488e+19 3.160943 -3.6893488e+19
2.3837938 -0 2.2746747
-1.0842022e-19 3.1594899 3.6893488e+19
2.5302367 -1.0842022e-19 2.2641475
2 3.2542543 2
2.4749138 -2 2.3111527
1.0842022e-19 3.1737468 1.0842022e-19
2.5399935 1.0842022e-19 2.2484565
2 3.1632676 1.0842022e-19
2.3859649 0 2.2091038
3.6893488e+19 3.1741042 1.0842022e-19
2.5402381 -0 2.2006528
1.0842022e-19 3.1815968 0
2.5999408 2 2.186583
-3.6893488e+19 3.1596537 -1.0842022e-19
2.484446 -2 2.1373646
1.0842022e-19 3.1821091 -0
2.6003561 0 2.1377614
2 3.1564765 0
2.4806888 -3.6893488e+19 2.088387
-3.6893488e+19 3.1659279 -1.0842022e-19
2.5872364 3.6893488e+19 2.0757756
-2 3.1555932 1.0842022e-19
2.4796443 0 2.0418205
-1.0842022e-19 3.1627214 -3.6893488e+19
2.5846364 -0 2.0261962
2 3.1525273 -3.6893488e+19
2.4760184 0 1.994149
-2 3.1644516 0
2.5860395 -3.6893488e+19 1.9801252
2 3.1503053 2
2.4733908 3.6893488e+19 1.947619
-1.0842022e-19 3.1648459 0
2.5863593 3.6893488e+19 1.9330835
0 3.1492064 3.6893488e+19
2.4720912 1.0842022e-19 1.9020287
-2 3.1589429 3.6893488e+19
2.581573 2 1.8839169
-3.6893488e+19 3.1478093 -1.0842022e-19
2.4704392 2 1.8382601
0 3.158041 -0
2.5808415 1.0842022e-19 1.7993331
-1.0842022e-19 3.1498549 -3.6893488e+19
2.4728582 0 1.7483304
0 3.1483808 0
2.3720615 -0 1.6569481
-0 3.1615191 -2
2.5316253 -2 1.5154154
-1.0842022e-19 3.149195 0
2.372822 3.6893488e+19 -1.301487
-0 3.1692171 3.6893488e+19
2.5368936 -1.0842022e-19 -1.611425
1.0842022e-19 3.1498969 0
2.3734775 0 -1.7017118
-3.6893488e+19 3.1684241 3.6893488e+19
2.536351 -1.0842022e-19 -1.7787061
3.6893488e+19 3.1011701 -0
2.3279698 2 -1.7924541
-1.0842022e-19 3.1692433 -1.0842022e-19
2.5369115 1.0842022e-19 -1.8739005
-1.0842022e-19 3.1025217 1.0842022e-19
2.3292322 -2 -1.8722905
2 3.0848696 0
2.4583399 -0 -1.8873193
2 3.0839369 -1.0842022e-19
2.3118751 2 -1.9046539
1.0842022e-19 3.0771675 -1.0842022e-19
2.4477978 -1.0842022e-19 -1.9212097
3.6893488e+19 3.0793951 2
2.3076334 0 -1.9395821
-0 2.8480046 -1.0842022e-19
2.0750134 -2 -1.8644283
3.6893488e+19 2.7867727 -3.6893488e+19
2.142509 -0 -1.840073
0 2.7516894 0
2.1581421 3.6893488e+19 -1.8292007
3.6893488e+19 2.7162669 0
2.0256977 3.6893488e+19 -1.8255666
-3.6893488e+19 2.671243 -3.6893488e+19
2.0915458 0 -1.8199171
-1.0842022e-19 2.6562176 2
1.9901913 -2 -1.8227125
0 2.6172717 -1.0842022e-19
2.0477855 1.0842022e-19 -1.8159201
-3.6893488e+19 2.5984197 3.6893488e+19
1.9560162 0 -1.8143014
-1.0842022e-19 2.5724952 1.0842022e-19
2.0114808 1.0842022e-19 -1.8110759
-1.0842022e-19 2.5568135 1.0842022e-19
1.931415 0 -1.8090808
2 2.5354421 1.0842022e-19
1.9814379 -3.6893488e+19 -1.8060302
-2 2.5269439 0
1.9137535 -0 -1.8068652
0 2.5080588 1.0842022e-19
1.9592353 -1.0842022e-19 -1.8034431
1.0842022e-19 2.5041158 2
1.9002554 -0 -1.8063042
2 2.4723694 3.6893488e+19
1.9414997 3.6893488e+19 -1.8018632
0 2.4596519 -0
1.8858931 -0 -1.8020383
1.0842022e-19 2.4354813 -0
1.9265451 -3.6893488e+19 -1.8005553
-1.0842022e-19 2.3849249 2
1.8047473 1.0842022e-19 -1.7999696
-1.0842022e-19 2.3372319 -3.6893488e+19
1.7824762 1.0842022e-19 -1.7974979
2 2.3039007 -1.0842022e-19
1.7669116 0 -1.797819
3.6893488e+19 2.2730927 -1.0842022e-19
1.7525253 2 -1.7959706
2 2.2326384 -0
1.8206627 -1.0842022e-19 -1.7922063
-1.0842022e-19 2.1953042 1.0842022e-19
1.8055274 0 -1.7923387
-0 2.1585498 1.0842022e-19
1.7906271 0 -1.7905767
2 2.1238301 3.6893488e+19
1.7765516 1.0842022e-19 -1.7875924
-2 3.2954516 -1.0842022e-19
2.5200865 2 2.7774973
-3.6893488e+19 3.2967577 3.6893488e+19
2.5212805 -2 2.7699568
-0 3.2854776 0
2.6350017 -2 2.6974609
1.0842022e-19 3.2856886 -3.6893488e+19
2.6352859 3.6893488e+19 2.6810551
-2 3.2873867 -1.0842022e-19
2.6375761 1.0842022e-19 2.6668217
2 3.2849083 3.6893488e+19
2.7062213 1.0842022e-19 2.6572051
-1.0842022e-19 3.2770905 -1.0842022e-19
2.5721536 2 2.6343668
0 3.2727313 3.6893488e+19
2.5670853 -0 2.6125145
3.6893488e+19 3.2562609 -1.0842022e-19
2.6603484 -3.6893488e+19 2.5862877
-3.6893488e+19 3.2519081 -2
2.6533785 -0 2.5658927
0 3.2560816 2
2.5477278 3.6893488e+19 2.5608065
1.0842022e-19 3.2529755 3.6893488e+19
2.6550875 -1.0842022e-19 2.55252
1.0842022e-19 3.2572618 3.6893488e+19
2.5490999 2 2.5474281
1.0842022e-19 3.2542293 -2
2.6570952 3.6893488e+19 2.539263
-3.6893488e+19 3.2578795 -2
2.5498183 3.6893488e+19 2.5333285
3.6893488e+19 3.2540298 -2
2.6567757 -1.0842022e-19 2.5243225
1.0842022e-19 3.2550659 -1.0842022e-19
2.5465469 -3.6893488e+19 2.5156095
0 3.2623916 0
2.4797294 1.0842022e-19 2.499459
-2 3.1863804 1.0842022e-19
2.5442562 -3.6893488e+19 2.4059484
1.0842022e-19 3.2618454 -1.0842022e-19
2.4787307 -0 2.4686341
-2 3.1706641 3.6893488e+19
2.5336585 -0 2.3672457
3.6893488e+19 3.2609456 0
2.4770858 3.6893488e+19 2.437387
-1.0842022e-19 3.2395265 -0
2.5800931 -2 2.3993752
-3.6893488e+19 3.2644813 -2
2.4835503 1.0842022e-19 2.4133248
-0 3.1617432 3.6893488e+19
2.527643 -1.0842022e-19 2.312413
-3.6893488e+19 3.2634788 -2
2.4817173 2 2.3819172
0 3.2410557 1.0842022e-19
2.5811243 3.6893488e+19 2.3445921
-1.0842022e-19 3.2620597 2
2.4791229 -2 2.3502231
-1.0842022e-19 3.2493572 3.6893488e+19
2.5867221 -1.0842022e-19 2.3219843
2 3.2631493 -3.6893488e+19
2.4811146 0 2.3219476
-1.0842022e-19 3.1781638 3.6893488e+19
2.5387156 -2 2.2517216
-1.0842022e-19 3.2553372 -1.0842022e-19
2.4668322 3.6893488e+19 2.2835772
3.6893488e+19 3.2561116 -3.6893488e+19
2.5953977 2 2.2720313
-0 3.2489092 -1.0842022e-19
2.6494496 -0 2.2522125
2 3.2466445 -1.0842022e-19
2.5387065 3.6893488e+19 2.2194543
-0 3.2488372 -3.6893488e+19
2.6493919 2 2.1974211
-2 3.2490275 2
2.540092 3.6893488e+19 2.1652863
0 3.252676 1.0842022e-19
2.654608 0 2.1456225
1.0842022e-19 3.2506168 -3.6893488e+19
2.5413742 -1.0842022e-19 2.1105037
-2 3.2537951 -2
2.6564002 -0 2.0895164
0 3.2519555 -3.6893488e+19
2.5429306 -2 2.0555327
0 3.2509065 2
2.6517744 1.0842022e-19 2.0284958
1.0842022e-19 3.2520461 -3.6893488e+19
2.543036 1.0842022e-19 1.9987665
-1.0842022e-19 3.1502457 -2
2.4653373 3.6893488e+19 1.90237
-3.6893488e+19 3.158807 0
2.5773098 0 1.8838066
-1.0842022e-19 3.2343137 -3.6893488e+19
2.5315385 -3.6893488e+19 1.8797704
-1.0842022e-19 3.1998501 -0
2.6101706 1.0842022e-19 1.8171014
2 3.1497507 -1.0842022e-19
2.4647617 -2 1.7481767
3.6893488e+19 3.1443326 2
2.3604784 1.0842022e-19 1.6553096
-3.6893488e+19 3.1606727 0
2.5269213 2 1.5150687
0 3.1504564 -2
2.3660762 -0 -1.3019947
1.0842022e-19 3.162735 3.6893488e+19
2.5283117 -1.0842022e-19 -1.6076728
0 3.1521208 -0
2.3675978 -0 -1.7027763
-3.6893488e+19 3.1664715 -1.0842022e-19
2.5308313 -1.0842022e-19 -1.7779254
0 3.1022005 2
2.3219633 -1.0842022e-19 -1.7928981
2 3.168 2
2.531862 -1.0842022e-19 -1.8730594
-3.6893488e+19 3.1017208 -3.6893488e+19
2.3215249 1.0842022e-19 -1.8716593
0 3.1700006 1.0842022e-19
2.533211 -0 -1.9221574
-3.6893488e+19 3.1760812 3.6893488e+19
2.3895013 -1.0842022e-19 -1.9472724
-2 3.0772722 3.6893488e+19
2.4413667 3.6893488e+19 -1.9211936
0 3.0799224 3.6893488e+19
2.3015978 -2 -1.939832
2 2.8414025 -2
2.0620923 0 -1.8598199
-3.6893488e+19 2.7860296 -0
2.135746 3.6893488e+19 -1.8394269
-1.0842022e-19 2.7505889 3.6893488e+19
2.1512661 -3.6893488e+19 -1.828208
-2 2.7123573 -1.0842022e-19
2.018775 -0 -1.8238138
0 2.6702266 -3.6893488e+19
2.0864525 3.6893488e+19 -1.8193511
2 2.6564865 2
1.9862965 -1.0842022e-19 -1.8227726
3.6893488e+19 2.6172075 1.0842022e-19
2.0440032 -3.6893488e+19 -1.8157929
-1.0842022e-19 2.6020002 -2
1.9546229 -3.6893488e+19 -1.8161782
-1.0842022e-19 2.5721648 -3.6893488e+19
2.0079398 2 -1.8107939
-1.0842022e-19 2.5567999 -2
1.9283472 3.6893488e+19 -1.8090068
2 2.5360713 3.6893488e+19
1.9790418 1.0842022e-19 -1.8063401
-2 2.5274129 -0
1.9112642 1.0842022e-19 -1.807108
2 2.5086741 -2
1.9571064 -3.6893488e+19 -1.8037807
-3.6893488e+19 2.5045762 -0
1.8979889 0 -1.8065679
3.6893488e+19 2.4728458 -0
1.939291 -1.0842022e-19 -1.8019545
-3.6893488e+19 2.4627717 0
1.884508 -3.6893488e+19 -1.8031762
-2 3.2954516 -1.0842022e-19
2.5200865 2 2.7774973
-3.6893488e+19 3.2967577 3.6893488e+19
2.5212805 -2 2.7699568
-0 3.2854776 0
2.6350017 -2 2.6974609
1.0842022e-19 3.2856886 -3.6893488e+19
2.6352859 3.6893488e+19 2.6810551
-2 3.2873867 -1.0842022e-19
2.6375761 1.0842022e-19 2.6668217
2 3.2849083 3.6893488e+19
2.7062213 1.0842022e-19 2.6572051
-1.0842022e-19 3.2770905 -1.0842022e-19
2.5721536 2 2.6343668
0 3.2727313 3.6893488e+19
2.5670853 -0 2.6125145
3.6893488e+19 3.2562609 -1.0842022e-19
2.6603484 -3.6893488e+19 2.5862877
-3.6893488e+19 3.2519081 -2
2.6533785 -0 2.5658927
0 3.2560816 2
2.5477278 3.6893488e+19 2.5608065
1.0842022e-19 3.2529755 3.6893488e+19
2.6550875 -1.0842022e-19 2.55252
1.0842022e-19 3.2572618 3.6893488e+19
2.5490999 2 2.5474281
1.0842022e-19 3.2542293 -2
2.6570952 3.6893488e+19 2.539263
1.0842022e-19 3.2457492 -2
2.5381861 -2 2.522336
3.6893488e+19 3.2540298 -2
2.6567757 -1.0842022e-19 2.5243225
1.0842022e-19 3.2550659 -1.0842022e-19
2.5465469 -3.6893488e+19 2.5156095
1.0842022e-19 3.1608231 0
2.3755531 0 2.3909984
-2 3.1863804 1.0842022e-19
2.5442562 -3.6893488e+19 2.4059484
-0 3.1623242 -3.6893488e+19
2.3769252 3.6893488e+19 2.3689759
-2 3.1706641 3.6893488e+19
2.5336585 -0 2.3672457
-0 3.1633439 -1.0842022e-19
2.3778574 -3.6893488e+19 2.3464155
-0 3.1708162 3.6893488e+19
2.533761 1.0842022e-19 2.3433187
-0 3.1662605 3.6893488e+19
2.3805237 -3.6893488e+19 2.3252604
-0 3.1617432 3.6893488e+19
2.527643 -1.0842022e-19 2.312413
0 3.1656353 1.0842022e-19
2.3799522 3.6893488e+19 2.3012352
-2 3.1612954 2
2.5273411 -0 2.2886214
-1.0842022e-19 3.2620597 2
2.4791229 -2 2.3502231
-0 3.1595061 3.6893488e+19
2.5261345 2 2.2640486
1.0842022e-19 3.2545118 1.0842022e-19
2.465323 0 2.3113801
-0 3.1566188 -0
2.5241876 2 2.2281106
1.0842022e-19 3.1588929 0
2.3737886 -2 2.2041156
2 3.1761866 0
2.5373824 -3.6893488e+19 2.2026777
0 3.1813197 2
2.5953343 1.0842022e-19 2.1860883
-1.0842022e-19 3.1558177 -0
2.4718156 2 2.1336002
-3.6893488e+19 3.1831169 2
2.5967734 -1.0842022e-19 2.1384747
-0 3.1547379 -2
2.4705601 0 2.0868194
3.6893488e+19 3.1656122 -0
2.5827582 -3.6893488e+19 2.0753682
-0 3.1549969 -0
2.4708612 2 2.0412872
-1.0842022e-19 3.160322 1.0842022e-19
2.5785227 -0 2.0244555
-1.0842022e-19 3.1557307 1.0842022e-19
2.4717145 -3.6893488e+19 1.9960039
-3.6893488e+19 3.1588674 -0
2.577358 -2 1.976913
-1.0842022e-19 3.1524267 -0
2.4678731 0 1.9485953
-1.0842022e-19 3.1502457 -2
2.4653373 3.6893488e+19 1.90237
-3.6893488e+19 3.158807 0
2.5773098 0 1.8838066
0 3.1481373 -3.6893488e+19
2.4628859 2 1.8383595
-3.6893488e+19 3.156158 0
2.5751889 -1.0842022e-19 1.7984433
2 3.1497507 -1.0842022e-19
2.4647617 -2 1.7481767
3.6893488e+19 3.1443326 2
2.3604784 1.0842022e-19 1.6553096
-3.6893488e+19 3.1606727 0
2.5269213 2 1.5150687
0 3.1504564 -2
2.3660762 -0 -1.3019947
1.0842022e-19 3.162735 3.6893488e+19
2.5283117 -1.0842022e-19 -1.6076728
0 3.1521208 -0
2.3675978 -0 -1.7027763
-3.6893488e+19 3.1664715 -1.0842022e-19
2.5308313 -1.0842022e-19 -1.7779254
0 3.1022005 2
2.3219633 -1.0842022e-19 -1.7928981
2 3.168 2
2.531862 -1.0842022e-19 -1.8730594
-3.6893488e+19 3.1017208 -3.6893488e+19
2.3215249 1.0842022e-19 -1.8716593
1.0842022e-19 3.0891056 -1.0842022e-19
2.4573252 2 -1.8889987
0 3.0840001 0
2.3053255 -1.0842022e-19 -1.9046395
-2 3.0772722 3.6893488e+19
2.4413667 3.6893488e+19 -1.9211936
0 3.0799224 3.6893488e+19
2.3015978 -2 -1.939832
2 2.8414025 -2
2.0620923 0 -1.8598199
-3.6893488e+19 2.7860296 -0
2.135746 3.6893488e+19 -1.8394269
-1.0842022e-19 2.7505889 3.6893488e+19
2.1512661 -3.6893488e+19 -1.828208
-2 2.7123573 -1.0842022e-19
2.018775 -0 -1.8238138
0 2.6702266 -3.6893488e+19
2.0864525 3.6893488e+19 -1.8193511
2 2.6564865 2
1.9862965 -1.0842022e-19 -1.8227726
3.6893488e+19 2.6172075 1.0842022e-19
2.0440032 -3.6893488e+19 -1.8157929
-1.0842022e-19 2.6020002 -2
1.9546229 -3.6893488e+19 -1.8161782
-1.0842022e-19 2.5721648 -3.6893488e+19
2.0079398 2 -1.8107939
-1.0842022e-19 2.5567999 -2
1.9283472 3.6893488e+19 -1.8090068
2 2.5360713 3.6893488e+19
1.9790418 1.0842022e-19 -1.8063401
-2 2.5274129 -0
1.9112642 1.0842022e-19 -1.807108
2 2.5086741 -2
1.9571064 -3.6893488e+19 -1.8037807
-3.6893488e+19 2.5045762 -0
1.8979889 0 -1.8065679
3.6893488e+19 2.4728458 -0
1.939291 -1.0842022e-19 -1.8019545
-3.6893488e+19 2.4627717 0
1.884508 -3.6893488e+19 -1.8031762
-0 3.2971268 3.6893488e+19
2.5153253 -1.0842022e-19 2.7789881
1.0842022e-19 3.2967849 -1.0842022e-19
2.5150199 -1.0842022e-19 2.7699018
3.6893488e+19 3.251689 2
2.4495015 -2 2.6929586
2 3.2852545 3.6893488e+19
2.6285686 -0 2.6969156
-0 3.2854195 1.0842022e-19
2.6287878 0 2.6804609
3.6893488e+19 3.2860861 -1.0842022e-19
2.6296723 1.0842022e-19 2.6647539
-3.6893488e+19 3.2854035 -2
2.7008104 -2 2.657701
-2 3.256727 -2
2.6555142 -2 2.5867245
-1.0842022e-19 3.2548118 0
2.6524892 1.0842022e-19 2.5693679
-2 3.2563307 -2
2.5425463 -1.0842022e-19 2.560992
-2 3.2516053 -2
2.6474242 1.0842022e-19 2.5507255
-2 3.257726 -1.0842022e-19
2.5441387 -1.0842022e-19 2.5478528
3.6893488e+19 3.2542703 -1.0842022e-19
2.6516337 -3.6893488e+19 2.5391593
1.0842022e-19 3.2578695 -3.6893488e+19
2.5443022 1.0842022e-19 2.5332108
-3.6893488e+19 3.2542984 -2
2.6516783 -3.6893488e+19 2.5244701
-0 3.2558062 -1.0842022e-19
2.5419476 2 2.5162804
0 3.2616825 0
2.4673493 -2 2.4979622
-0 3.2547176 1.0842022e-19
2.5880425 -2 2.4737015
2 3.2613516 -0
2.4667583 1.0842022e-19 2.4676125
1.0842022e-19 3.2358298 -0
2.5723786 0 2.4239509
2 3.2624435 2
2.4687085 1.0842022e-19 2.4397681
0 3.2399554 -2
2.5751162 1.0842022e-19 2.3995504
-3.6893488e+19 3.1640649 2
2.3697476 -3.6893488e+19 2.3234494
-2 3.1625984 2
2.5237851 -2 2.3129251
-1.0842022e-19 3.2631545 -0
2.4699783 2 2.3813345
-1.0842022e-19 3.2396731 -0
2.574929 -1.0842022e-19 2.3434718
-2 3.2627251 1.0842022e-19
2.4692116 1.0842022e-19 2.3510089
-1.0842022e-19 3.2395263 -1.0842022e-19
2.5748315 -0 2.3155074
2 3.2632425 -2
2.4701352 -0 2.3219664
0 3.2426145 -0
2.5768807 -3.6893488e+19 2.2894862
3.6893488e+19 3.2563887 -1.0842022e-19
2.4578948 3.6893488e+19 2.2846608
3.6893488e+19 3.1576691 -2
2.520514 -1.0842022e-19 2.1828201
0 3.2488933 3.6893488e+19
2.6440144 -2 2.2520733
1.0842022e-19 3.2461829 -0
2.5331428 0 2.2188416
-0 3.2492802 -0
2.64432 0 2.1975858
2 3.2488756 3.6893488e+19
2.5346794 -1.0842022e-19 2.1650035
2 3.250679 -0
2.645961 3.6893488e+19 2.1422918
-3.6893488e+19 3.2510355 0
2.5365031 -2 2.1109703
1.0842022e-19 3.2529163 -3.6893488e+19
2.6494949 -0 2.0881648
-0 3.2525294 -2
2.5382078 -3.6893488e+19 2.0561135
1.0842022e-19 3.2475083 -2
2.6429205 3.6893488e+19 2.0259633
3.6893488e+19 3.251708 -3.6893488e+19
2.5372703 2 1.9983394
-1.0842022e-19 3.1597493 -1.0842022e-19
2.5736105 -0 1.9306514
2 3.1503596 2
2.4569242 3.6893488e+19 1.8394697
-1.0842022e-19 3.1551123 2
2.5699484 -0 1.7979069
-0 3.1492515 -2
2.4556594 -1.0842022e-19 1.7477735
3.6893488e+19 3.1479895 3.6893488e+19
2.3553927 -3.6893488e+19 1.6567035
-0 3.1937156 0
2.5444334 -1.0842022e-19 1.5262724
-1.0842022e-19 3.1478415 1.0842022e-19
2.3552606 -0 -1.3007871
3.6893488e+19 3.1628537 -1.0842022e-19
2.5239544 1.0842022e-19 -1.6076381
-3.6893488e+19 3.1528294 1.0842022e-19
2.3597147 -3.6893488e+19 -1.7030737
3.6893488e+19 3.1653898 0
2.5256374 1.0842022e-19 -1.7774615
2 3.1562448 3.6893488e+19
2.3627644 -0 -1.8186045
-3.6893488e+19 3.192225 -1.0842022e-19
2.5434442 1.0842022e-19 -1.8811605
-1.0842022e-19 3.1608193 1.0842022e-19
2.3668494 -0 -1.8940097
1.0842022e-19 3.1857169 -3.6893488e+19
2.5391254 -3.6893488e+19 -1.9285214
1.0842022e-19 3.1647518 3.6893488e+19
2.3703609 -2 -1.9419702
-0 3.0776002 0
2.434767 3.6893488e+19 -1.9212903
3.6893488e+19 3.0789645 -3.6893488e+19
2.2937553 -3.6893488e+19 -1.939225
3.6893488e+19 2.8441718 1.0842022e-19
2.0573351 0 -1.8616548
-3.6893488e+19 2.7915747 1.0842022e-19
2.1369567 2 -1.8434883
0 2.7507193 0
2.1460247 -3.6893488e+19 -1.828208
-3.6893488e+19 2.7158678 1.0842022e-19
2.0158439 0 -1.825248
-1.0842022e-19 2.6705673 0
2.0821545 1.0842022e-19 -1.8194077
3.6893488e+19 2.6570101 2
1.9822571 -1.0842022e-19 -1.8229529
-0 2.6160522 -3.6893488e+19
2.0390995 3.6893488e+19 -1.8150939
-3.6893488e+19 2.6016388 -0
1.95066 -0 -1.8159101
-2 2.5720875 -0
2.0043774 2 -1.8106529
0 2.5569155 -3.6893488e+19
1.9251388 3.6893488e+19 -1.8090068
3.6893488e+19 2.5373204 3.6893488e+19
1.9769191 3.6893488e+19 -1.8070372
-0 2.5273941 2
1.9082928 2 -1.8070271
3.6893488e+19 2.5095417 3.6893488e+19
1.9549801 -0 -1.8042872
-3.6893488e+19 2.5050418 1.0842022e-19
1.8955377 -2 -1.8068315
2 2.4735801 1.0842022e-19
1.9370114 3.6893488e+19 -1.8021373
-2 2.4624531 3.6893488e+19
1.8819476 0 -1.8029866
-1.0842022e-19 2.43641 -3.6893488e+19
1.9223332 -3.6893488e+19 -1.8007519
1.0842022e-19 2.3849003 1.0842022e-19
1.7968522 2 -1.7998574
2 2.3371801 -1.0842022e-19
1.7755458 1.0842022e-19 -1.7973719
-2 2.3045681 1.0842022e-19
1.7609851 -2 -1.7980986
1.0842022e-19 2.2737415 2
1.7444429 -0 -1.7962778
0 2.2350612 -1.0842022e-19
1.816545 -1.0842022e-19 -1.7928758
-1.0842022e-19 2.1947899 -3.6893488e+19
1.8006424 -1.0842022e-19 -1.7919765
-0 2.1637745 2
1.7883948 -1.0842022e-19 -1.7925246
1.0842022e-19 2.1290059 -2
1.774665 3.6893488e+19 -1.7896769
-0 3.2971268 3.6893488e+19
2.5153253 -1.0842022e-19 2.7789881
1.0842022e-19 3.2967849 -1.0842022e-19
2.5150199 -1.0842022e-19 2.7699018
3.6893488e+19 3.251689 2
2.4495015 -2 2.6929586
2 3.2852545 3.6893488e+19
2.6285686 -0 2.6969156
-0 3.2854195 1.0842022e-19
2.6287878 0 2.6804609
3.6893488e+19 3.2860861 -1.0842022e-19
2.6296723 1.0842022e-19 2.6647539
-3.6893488e+19 3.2854035 -2
2.7008104 -2 2.657701
-2 3.256727 -2
2.6555142 -2 2.5867245
-1.0842022e-19 3.2548118 0
2.6524892 1.0842022e-19 2.5693679
-2 3.2563307 -2
2.5425463 -1.0842022e-19 2.560992
-2 3.2516053 -2
2.6474242 1.0842022e-19 2.5507255
-2 3.257726 -1.0842022e-19
2.5441387 -1.0842022e-19 2.5478528
3.6893488e+19 3.2542703 -1.0842022e-19
2.6516337 -3.6893488e+19 2.5391593
3.6893488e+19 3.2459664 3.6893488e+19
2.5330193 3.6893488e+19 2.5223529
-3.6893488e+19 3.2542984 -2
2.6516783 -3.6893488e+19 2.5244701
-0 3.2558062 -1.0842022e-19
2.5419476 2 2.5162804
1.0842022e-19 3.1600192 -3.6893488e+19
2.3661346 -1.0842022e-19 2.3901179
3.6893488e+19 3.1729724 -3.6893488e+19
2.5306687 1.0842022e-19 2.3933036
-3.6893488e+19 3.1591122 -1.0842022e-19
2.365325 -2 2.3659935
-0 3.1709707 -2
2.5293405 2 2.3673527
2 3.1600063 -2
2.3661232 0 2.3435171
-2 3.1708775 3.6893488e+19
2.5292788 -0 2.3432186
-3.6893488e+19 3.1640649 2
2.3697476 -3.6893488e+19 2.3234494
-2 3.1625984 2
2.5237851 -2 2.3129251
-0 3.1655414 1.0842022e-19
2.3710661 3.6893488e+19 2.3010783
-1.0842022e-19 3.163656 -2
2.5244868 1.0842022e-19 2.2901511
0 3.1638732 -0
2.3695762 0 2.2764735
3.6893488e+19 3.1588554 -1.0842022e-19
2.5213013 2 2.2635138
2 3.1598909 -1.0842022e-19
2.3660202 -1.0842022e-19 2.2506645
-0 3.1574423 -2
2.5203636 3.6893488e+19 2.2288694
2 3.1591995 0
2.3654029 -0 2.2043221
3.6893488e+19 3.1576691 -2
2.520514 -1.0842022e-19 2.1828201
0 3.2488933 3.6893488e+19
2.6440144 -2 2.2520733
3.6893488e+19 3.1541793 -2
2.4612834 1.0842022e-19 2.1319077
-0 3.2492802 -0
2.64432 0 2.1975858
-0 3.1545196 -1.0842022e-19
2.4616718 3.6893488e+19 2.0865109
2 3.1651239 2
2.5778553 3.6893488e+19 2.0748172
-2 3.1548402 -3.6893488e+19
2.4620378 3.6893488e+19 2.041065
3.6893488e+19 3.1645482 1.0842022e-19
2.5774007 -1.0842022e-19 2.0271382
-3.6893488e+19 3.157491 -2
2.4650631 3.6893488e+19 1.9969783
0 3.1587124 3.6893488e+19
2.5727916 -3.6893488e+19 1.976709
3.6893488e+19 3.1558251 0
2.4631619 0 1.950197
-1.0842022e-19 3.1597493 -1.0842022e-19
2.5736105 -0 1.9306514
2 3.1503596 2
2.4569242 3.6893488e+19 1.8394697
-1.0842022e-19 3.1551123 2
2.5699484 -0 1.7979069
-0 3.1492515 -2
2.4556594 -1.0842022e-19 1.7477735
3.6893488e+19 3.1479895 3.6893488e+19
2.3553927 -3.6893488e+19 1.6567035
3.6893488e+19 3.1614997 2
2.523056 -2 1.5152893
-1.0842022e-19 3.1478415 1.0842022e-19
2.3552606 -0 -1.3007871
3.6893488e+19 3.1628537 -1.0842022e-19
2.5239544 1.0842022e-19 -1.6076381
-3.6893488e+19 3.1528294 1.0842022e-19
2.3597147 -3.6893488e+19 -1.7030737
3.6893488e+19 3.1653898 0
2.5256374 1.0842022e-19 -1.7774615
0 3.1016524 -0
2.3140149 -1.0842022e-19 -1.7925873
-1.0842022e-19 3.1677203 3.6893488e+19
2.5271838 1.0842022e-19 -1.8727852
0 3.1005518 -1.0842022e-19
2.3130322 2 -1.8707668
0 3.0891306 -2
2.450069 -1.0842022e-19 -1.8889482
0 3.0826707 -2
2.2970648 0 -1.9039786
-0 3.0776002 0
2.434767 3.6893488e+19 -1.9212903
3.6893488e+19 3.0789645 -3.6893488e+19
2.2937553 -3.6893488e+19 -1.939225
3.6893488e+19 2.8441718 1.0842022e-19
2.0573351 0 -1.8616548
-3.6893488e+19 2.7915747 1.0842022e-19
2.1369567 2 -1.8434883
0 2.7507193 0
2.1460247 -3.6893488e+19 -1.828208
-3.6893488e+19 2.7158678 1.0842022e-19
2.0158439 0 -1.825248
-1.0842022e-19 2.6705673 0
2.0821545 1.0842022e-19 -1.8194077
3.6893488e+19 2.6570101 2
1.9822571 -1.0842022e-19 -1.8229529
-0 2.6160522 -3.6893488e+19
2.0390995 3.6893488e+19 -1.8150939
-3.6893488e+19 2.6016388 -0
1.95066 -0 -1.8159101
-2 2.5720875 -0
2.0043774 2 -1.8106529
0 2.5569155 -3.6893488e+19
1.9251388 3.6893488e+19 -1.8090068
3.6893488e+19 2.5373204 3.6893488e+19
1.9769191 3.6893488e+19 -1.8070372
-0 2.5273941 2
1.9082928 2 -1.8070271
3.6893488e+19 2.5095417 3.6893488e+19
1.9549801 -0 -1.8042872
-3.6893488e+19 2.5050418 1.0842022e-19
1.8955377 -2 -1.8068315
2 2.4735801 1.0842022e-19
1.9370114 3.6893488e+19 -1.8021373
-2 2.4624531 3.6893488e+19
1.8819476 0 -1.8029866
-1.0842022e-19 2.43641 -3.6893488e+19
1.9223332 -3.6893488e+19 -1.8007519
1.0842022e-19 2.3849003 1.0842022e-19
1.7968522 2 -1.7998574
2 2.3371801 -1.0842022e-19
1.7755458 1.0842022e-19 -1.7973719
-2 2.3045681 1.0842022e-19
1.7609851 -2 -1.7980986
1.0842022e-19 2.2737415 2
1.7444429 -0 -1.7962778
0 2.2350612 -1.0842022e-19
1.816545 -1.0842022e-19 -1.7928758
-1.0842022e-19 2.1947899 -3.6893488e+19
1.8006424 -1.0842022e-19 -1.7919765
-0 2.1637745 2
1.7883948 -1.0842022e-19 -1.7925246
1.0842022e-19 2.1290059 -2
1.774665 3.6893488e+19 -1.7896769
3.6893488e+19 3.2959614 -2
2.5080171 0 2.7690754
0 3.2517617 -0
2.4389682 -2 2.6929586
-0 3.2420118 1.0842022e-19
2.4289327 2 2.6539972
1.0842022e-19 3.2436447 -2
2.430356 -3.6893488e+19 2.6409364
1.0842022e-19 3.285347 -3.6893488e+19
2.6225595 -0 2.6968682
0 3.285603 0
2.622894 -0 2.6805522
-3.6893488e+19 3.2863913 -1.0842022e-19
2.6239233 3.6893488e+19 2.6650178
3.6893488e+19 3.2855651 -2
2.6948612 3.6893488e+19 2.6577227
3.6893488e+19 3.2867086 0
2.6966426 0 2.6425843
0 3.259433 0
2.6541519 -2 2.5900991
0 3.2404428 -1.0842022e-19
2.5246341 0 2.5615404
1.0842022e-19 3.2568235 -1.0842022e-19
2.5376279 -1.0842022e-19 2.5614746
3.6893488e+19 3.2517192 -0
2.6421351 1.0842022e-19 2.5507073
-2 3.2579131 -0
2.5388484 -3.6893488e+19 2.5479589
-1.0842022e-19 3.2595286 0
2.5406578 -3.6893488e+19 2.5349276
0 3.2582183 2
2.5391901 -0 2.5186918
0 3.1640632 0
2.4637277 -1.0842022e-19 2.4071772
-0 3.2628531 -2
2.4583073 3.6893488e+19 2.5000229
3.6893488e+19 3.254245 -0
2.5819519 -1.0842022e-19 2.4726193
-1.0842022e-19 3.2619209 -1.0842022e-19
2.456682 -0 2.4684961
3.6893488e+19 3.1723785 -0
2.5257366 -3.6893488e+19 2.3684225
-2 3.2624574 -2
2.4576173 -3.6893488e+19 2.4396644
-1.0842022e-19 3.2417619 -1.0842022e-19
2.5710313 0 2.4008512
-0 3.2656562 1.0842022e-19
2.4631948 -1.0842022e-19 2.4149184
-1.0842022e-19 3.2404978 3.6893488e+19
2.5702062 -1.0842022e-19 2.371846
1.0842022e-19 3.2639267 3.6893488e+19
2.4601791 3.6893488e+19 2.3823431
3.6893488e+19 3.2407444 2
2.5703671 -2 2.344075
-2 3.1625373 -2
2.3596473 2 2.2755017
-3.6893488e+19 3.2400751 1.0842022e-19
2.5699303 2 2.3157253
-1.0842022e-19 3.2641547 2
2.4605768 -2 2.322989
-0 3.2413807 -2
2.5707824 0 2.2886372
-1.0842022e-19 3.256788 -3.6893488e+19
2.4477322 2 2.285022
3.6893488e+19 3.1585524 -3.6893488e+19
2.5167105 2 2.1835713
1.0842022e-19 3.2610552 -0
2.6566789 3.6893488e+19 2.263669
2 3.2468915 -3.6893488e+19
2.5282452 -2 2.2193375
-1.0842022e-19 3.2469635 -2
2.6370916 2 2.1952806
-2 3.2498326 0
2.5298924 -1.0842022e-19 2.1656461
0 3.2488885 1.0842022e-19
2.6385911 -2 2.1401591
-2 3.2511747 -0
2.5313017 3.6893488e+19 2.111037
2 3.167274 -2
2.5750203 -3.6893488e+19 2.0288174
2 3.2539062 1.0842022e-19
2.5343609 -3.6893488e+19 2.0576687
2 3.2457402 -2
2.6361387 -0 2.0248415
2 3.2534251 0
2.5338221 1.0842022e-19 1.9999411
-1.0842022e-19 3.1581197 -3.6893488e+19
2.5678899 -2 1.9298407
-2 3.1521223 -1.0842022e-19
2.4503546 -1.0842022e-19 1.9029702
2 3.1869531 2
2.5903487 3.6893488e+19 1.8928714
2 3.1494555 3.6893488e+19
2.4473679 2 1.8389063
-2 3.1886597 1.0842022e-19
2.5916781 2 1.8121294
-2 3.1518748 1.0842022e-19
2.4500775 -0 1.7493094
-3.6893488e+19 3.1809094 -0
2.375664 2 1.6696165
-1.0842022e-19 3.1578524 3.6893488e+19
2.5162537 2 1.5139861
-0 3.1828125 -3.6893488e+19
2.3773229 3.6893488e+19 -1.3161839
-1.0842022e-19 3.1597621 -0
2.5175004 -1.0842022e-19 -1.6057967
2 3.1516721 0
2.3501751 2 -1.7024319
1.0842022e-19 3.1633482 1.0842022e-19
2.5198414 -0 -1.7766469
-0 3.1480682 1.0842022e-19
2.3470333 -1.0842022e-19 -1.814653
-3.6893488e+19 3.1831026 -1.0842022e-19
2.5327375 1.0842022e-19 -1.8783996
1.0842022e-19 3.1629257 2
2.3599858 -3.6893488e+19 -1.8947062
0 3.1859353 1.0842022e-19
2.5345867 -3.6893488e+19 -1.928534
3.6893488e+19 3.1621387 -2
2.3592997 -0 -1.9407058
-0 3.0770631 -2
2.4270258 1.0842022e-19 -1.9209359
-3.6893488e+19 3.0786867 -0
2.2865469 -2 -1.9390107
-0 2.8462574 -2
2.0518649 3.6893488e+19 -1.8630202
-2 2.7905295 3.6893488e+19
2.1293263 2 -1.8426114
2 2.7512155 -2
2.1413503 1.0842022e-19 -1.8285059
2 2.7152984 3.6893488e+19
2.0105541 -0 -1.8249292
-0 2.6713955 0
2.0782309 -3.6893488e+19 -1.8196906
2 2.6553071 2
1.9769607 2 -1.8220518
-2 2.6189337 2
2.0373676 -0 -1.8164921
1.0842022e-19 2.601769 0
1.9469808 -0 -1.8159101
0 2.5723753 -0
2.0011024 -1.0842022e-19 -1.8107233
2 2.556782 0
1.9217894 0 -1.8088589
0 2.5366116 3.6893488e+19
1.9732456 -2 -1.806495
-0 2.5274966 3.6893488e+19
1.9053904 2 -1.8070271
-2 2.5102861 -3.6893488e+19
1.9527404 0 -1.8047093
-2 2.5052595 3.6893488e+19
1.8929383 1.0842022e-19 -1.8069195
1.0842022e-19 2.4733343 -2
1.9343432 -1.0842022e-19 -1.8019545
-3.6893488e+19 2.4626241 -0
1.8795283 0 -1.8029866
3.6893488e+19 3.2959614 -2
2.5080171 0 2.7690754
0 3.2517617 -0
2.4389682 -2 2.6929586
-0 3.2420118 1.0842022e-19
2.4289327 2 2.6539972
1.0842022e-19 3.2436447 -2
2.430356 -3.6893488e+19 2.6409364
1.0842022e-19 3.285347 -3.6893488e+19
2.6225595 -0 2.6968682
0 3.285603 0
2.622894 -0 2.6805522
-3.6893488e+19 3.2863913 -1.0842022e-19
2.6239233 3.6893488e+19 2.6650178
3.6893488e+19 3.2855651 -2
2.6948612 3.6893488e+19 2.6577227
3.6893488e+19 3.2867086 0
2.6966426 0 2.6425843
0 3.259433 0
2.6541519 -2 2.5900991
0 3.2404428 -1.0842022e-19
2.5246341 0 2.5615404
0 3.2409074 0
2.5248945 1.0842022e-19 2.5476854
3.6893488e+19 3.2517192 -0
2.6421351 1.0842022e-19 2.5507073
-2 3.2579131 -0
2.5388484 -3.6893488e+19 2.5479589
1.0842022e-19 3.2474685 0
2.5285685 3.6893488e+19 2.5230768
-0 3.1630571 -0
2.4626009 -3.6893488e+19 2.429811
0 3.1640632 0
2.4637277 -1.0842022e-19 2.4071772
0 3.161896 0
2.3590882 3.6893488e+19 2.3917906
1.0842022e-19 3.2424343 3.6893488e+19
2.5714703 -1.0842022e-19 2.457696
-2 3.1622252 -0
2.3593752 3.6893488e+19 2.3686721
3.6893488e+19 3.1723785 -0
2.5257366 -3.6893488e+19 2.3684225
-1.0842022e-19 3.1609588 -0
2.3582711 -3.6893488e+19 2.3442156
2 3.171519 0
2.5251756 3.6893488e+19 2.3435938
-2 3.1637206 3.6893488e+19
2.3606789 -2 2.3230872
-3.6893488e+19 3.1615477 -0
2.518666 0 2.3119941
1.0842022e-19 3.1638978 -2
2.3608332 2 2.2998009
-3.6893488e+19 3.1624513 -2
2.5192559 -3.6893488e+19 2.2891815
-2 3.1625373 -2
2.3596473 2 2.2755017
1.0842022e-19 3.1598616 3.6893488e+19
2.5175653 2 2.2640486
1.0842022e-19 3.1625803 1.0842022e-19
2.3596847 3.6893488e+19 2.2522364
-3.6893488e+19 3.1599863 2
2.5176468 -2 2.231652
-1.0842022e-19 3.1663837 2
2.3630006 3.6893488e+19 2.2121654
3.6893488e+19 3.1585524 -3.6893488e+19
2.5167105 2 2.1835713
-0 3.1658146 2
2.5738838 1.0842022e-19 2.1699781
2 3.1606314 -3.6893488e+19
2.4598842 -0 2.1378608
-0 3.1640546 2
2.5725129 -2 2.1209939
3.6893488e+19 3.1563072 -0
2.4550414 -3.6893488e+19 2.087873
-1.0842022e-19 3.1657658 -1.0842022e-19
2.5738456 3.6893488e+19 2.0751526
2 3.1549282 -1.0842022e-19
2.4534969 0 2.0410206
2 3.167274 -2
2.5750203 -3.6893488e+19 2.0288174
-3.6893488e+19 3.1513326 3.6893488e+19
2.4494703 2 1.9931558
-0 3.1648386 2
2.5731235 2 1.9799893
2 3.2534251 0
2.5338221 1.0842022e-19 1.9999411
-1.0842022e-19 3.1581197 -3.6893488e+19
2.5678899 -2 1.9298407
-2 3.1521223 -1.0842022e-19
2.4503546 -1.0842022e-19 1.9029702
0 3.1606402 0
2.5698533 2 1.8842678
2 3.1494555 3.6893488e+19
2.4473679 2 1.8389063
-1.0842022e-19 3.1538172 -1.0842022e-19
2.5645387 3.6893488e+19 1.7972658
-2 3.1518748 1.0842022e-19
2.4500775 -0 1.7493094
-1.0842022e-19 3.1472344 -1.0842022e-19
2.3463063 -2 1.6563611
-1.0842022e-19 3.1578524 3.6893488e+19
2.5162537 2 1.5139861
0 3.1478322 -1.0842022e-19
2.3468273 1.0842022e-19 -1.3007323
-1.0842022e-19 3.1597621 -0
2.5175004 -1.0842022e-19 -1.6057967
2 3.1516721 0
2.3501751 2 -1.7024319
1.0842022e-19 3.1633482 1.0842022e-19
2.5198414 -0 -1.7766469
-0 3.1480682 1.0842022e-19
2.3470333 -1.0842022e-19 -1.814653
-3.6893488e+19 3.1831026 -1.0842022e-19
2.5327375 1.0842022e-19 -1.8783996
-0 3.0849061 -2
2.2919688 2 -1.8597301
-2 3.0903864 -2
2.4444213 -3.6893488e+19 -1.8894027
3.6893488e+19 3.0851266 1.0842022e-19
2.2921612 -2 -1.9050705
-0 3.0770631 -2
2.4270258 1.0842022e-19 -1.9209359
-3.6893488e+19 3.0786867 -0
2.2865469 -2 -1.9390107
-0 2.8462574 -2
2.0518649 3.6893488e+19 -1.8630202
-2 2.7905295 3.6893488e+19
2.1293263 2 -1.8426114
2 2.7512155 -2
2.1413503 1.0842022e-19 -1.8285059
2 2.7152984 3.6893488e+19
2.0105541 -0 -1.8249292
-0 2.6713955 0
2.0782309 -3.6893488e+19 -1.8196906
2 2.6553071 2
1.9769607 2 -1.8220518
-2 2.6189337 2
2.0373676 -0 -1.8164921
1.0842022e-19 2.601769 0
1.9469808 -0 -1.8159101
0 2.5723753 -0
2.0011024 -1.0842022e-19 -1.8107233
2 2.556782 0
1.9217894 0 -1.8088589
0 2.5366116 3.6893488e+19
1.9732456 -2 -1.806495
-0 2.5274966 3.6893488e+19
1.9053904 2 -1.8070271
-2 2.5102861 -3.6893488e+19
1.9527404 0 -1.8047093
-2 2.5052595 3.6893488e+19
1.8929383 1.0842022e-19 -1.8069195
1.0842022e-19 2.4733343 -2
1.9343432 -1.0842022e-19 -1.8019545
-3.6893488e+19 2.4626241 -0
1.8795283 0 -1.8029866
1.0842022e-19 3.2523789 -0
2.4293671 1.0842022e-19 2.6939199
2 3.2422416 3.6893488e+19
2.4187202 -1.0842022e-19 2.654072
-2 3.243753 0
2.420006 -0 2.6409123
-3.6893488e+19 3.2853918 3.6893488e+19
2.6164942 2 2.6967497
1.0842022e-19 3.284374 1.0842022e-19
2.6151869 -1.0842022e-19 2.6785181
-0 3.2839916 -3.6893488e+19
2.6146958 0 2.6613662
0 3.2872059 0
2.6911869 -1.0842022e-19 2.659858
-2 3.2662909 2
2.5425556 3.6893488e+19 2.6189768
-3.6893488e+19 3.2875495 -3.6893488e+19
2.6917148 -2 2.6435368
2 3.2383573 -0
2.5182621 3.6893488e+19 2.5601032
-3.6893488e+19 3.2593811 -2
2.5349641 1.0842022e-19 2.5644627
-3.6893488e+19 3.2521501 -2
2.6373365 -3.6893488e+19 2.5510697
1.0842022e-19 3.2584052 2
2.5338919 -3.6893488e+19 2.548419
2 3.2595768 1.0842022e-19
2.5351791 0 2.5348773
1.0842022e-19 3.248467 0
2.6328561 -1.0842022e-19 2.5187294
0 3.1644659 -1.0842022e-19
2.4553449 -0 2.4311206
-1.0842022e-19 3.2479098 3.6893488e+19
2.6324282 -2 2.5040555
-0 3.1642439 3.6893488e+19
2.4551013 -0 2.4072075
0 3.2622638 1.0842022e-19
2.4461839 2 2.4987841
0 3.253571 1.0842022e-19
2.5756304 -0 2.4711668
1.0842022e-19 3.2610373 0
2.4440975 -1.0842022e-19 2.466784
-0 3.256191 -0
2.578995 2 2.4467399
-1.0842022e-19 3.2617431 -2
2.4452982 -1.0842022e-19 2.4383445
-2 3.2561467 0
2.5789382 -2 2.4174104
1.0842022e-19 3.2656074 2
2.4518723 3.6893488e+19 2.4147253
0 3.2575183 -3.6893488e+19
2.5806992 1.0842022e-19 2.3902836
-3.6893488e+19 3.263289 1.0842022e-19
2.4479284 1.0842022e-19 2.3813121
-2 3.2561581 -1.0842022e-19
2.5789528 -1.0842022e-19 2.3590479
1.0842022e-19 3.2642221 -2
2.4495156 -2 2.3528075
-3.6893488e+19 3.2560141 1.0842022e-19
2.578768 -3.6893488e+19 2.3297288
2 3.2645235 3.6893488e+19
2.4500284 1.0842022e-19 2.323349
2 3.2549343 2
2.5773811 -3.6893488e+19 2.2993701
0 3.2604876 -1.0842022e-19
2.443162 -0 2.2890468
-0 3.2553031 2
2.5778549 -1.0842022e-19 2.2708228
3.6893488e+19 3.248023 0
2.6325152 -1.0842022e-19 2.2513776
-0 3.2531872 1.0842022e-19
2.5281594 0 2.2281215
-2 3.2478583 -1.0842022e-19
2.6323886 -1.0842022e-19 2.1958568
0 3.2538254 -1.0842022e-19
2.5288603 2 2.1719944
-0 3.2503519 -1.0842022e-19
2.6345742 3.6893488e+19 2.1413813
-1.0842022e-19 3.2517142 -3.6893488e+19
2.526541 1.0842022e-19 2.1116815
-0 3.1644185 -0
2.5683012 -0 2.0267696
-0 3.2539828 1.0842022e-19
2.5290334 3.6893488e+19 2.0576501
-1.0842022e-19 3.1623185 3.6893488e+19
2.5666883 3.6893488e+19 1.9784766
3.6893488e+19 3.2550488 0
2.5302045 2 2.0014513
1.0842022e-19 3.1586022 1.0842022e-19
2.563834 -3.6893488e+19 1.9299623
0 3.1495755 -1.0842022e-19
2.4389858 0 1.9019463
1.0842022e-19 3.1928504 -2
2.5901387 -3.6893488e+19 1.8947264
2 3.1500337 -0
2.4394894 2 1.8391383
-2 3.1918581 -0
2.5893767 -2 1.8133985
-1.0842022e-19 3.1506274 -0
2.4401417 3.6893488e+19 1.7484455
3.6893488e+19 3.1765561 -3.6893488e+19
2.3628454 1.0842022e-19 1.6678556
3.6893488e+19 3.1580868 -3.6893488e+19
2.512028 -0 1.5140071
2 3.1770301 -3.6893488e+19
2.3632486 -2 -1.3135766
-3.6893488e+19 3.1960664 -1.0842022e-19
2.5364144 1.0842022e-19 -1.6255693
-2 3.1497653 -2
2.3400562 -1.0842022e-19 -1.7014142
2 3.1653125 -0
2.5166676 3.6893488e+19 -1.7773031
3.6893488e+19 3.1511631 -2
2.3412452 -1.0842022e-19 -1.8160738
-2 3.184088 3.6893488e+19
2.5287232 0 -1.8786373
2 3.147912 2
2.3384798 -3.6893488e+19 -1.8894056
0 3.1855645 3.6893488e+19
2.5296712 2 -1.9283068
3.6893488e+19 3.0865877 -3.6893488e+19
2.2863147 3.6893488e+19 -1.9057028
1.0842022e-19 3.0777566 3.6893488e+19
2.420898 -1.0842022e-19 -1.9212258
-0 3.0790899 0
2.279937 2 -1.9391893
1.0842022e-19 2.8431883 -0
2.0419295 -3.6893488e+19 -1.8608439
-1.0842022e-19 2.7924402 1.0842022e-19
2.1255455 0 -1.8439499
2 2.7534881 -2
2.1393917 1.0842022e-19 -1.8302431
0 2.718435 -0
2.0073185 1.0842022e-19 -1.8262041
-1.0842022e-19 2.6728342 -2
2.074765 -0 -1.8202566
2 2.6545887 -2
1.9722468 -0 -1.8216312
1.0842022e-19 2.6191204 -3.6893488e+19
2.033509 -0 -1.8164921
0 2.6023908 -3.6893488e+19
1.9435736 -3.6893488e+19 -1.8161782
-1.0842022e-19 2.5725381 -2
1.997731 -1.0842022e-19 -1.8107233
-1.0842022e-19 2.5566461 -1.0842022e-19
1.9184455 -1.0842022e-19 -1.8087108
-1.0842022e-19 2.5349205 -0
1.9688381 -1.0842022e-19 -1.805333
1.0842022e-19 2.5268567 -0
1.9020816 -0 -1.8065414
-1.0842022e-19 2.5104177 -3.6893488e+19
1.9500183 0 -1.8047093
0 2.5057223 2
1.8904722 -2 -1.807183
-2 2.4735734 -3.6893488e+19
1.9318681 -1.0842022e-19 -1.8019545
-2 2.4635315 1.0842022e-19
1.8773125 3.6893488e+19 -1.8032711
2 2.4336784 2
1.9165471 -1.0842022e-19 -1.7994741
3.6893488e+19 2.3851197 3.6893488e+19
1.788799 2 -1.7998574
-2 2.3381121 1.0842022e-19
1.7688059 1.0842022e-19 -1.7977499
-2 2.3008032 -2
1.7529376 2 -1.7958615
-0 2.2736518 -1.0842022e-19
1.7327791 0 -1.7961242
-0 2.2365234 0
1.8118414 -1.0842022e-19 -1.7932105
-0 2.1976576 -0
1.7969155 -1.0842022e-19 -1.792882
3.6893488e+19 2.1627512 1.0842022e-19
1.7835103 -0 -1.7919402
0 2.1250699 2
1.7690394 -2 -1.7878008
1.0842022e-19 3.2523789 -0
2.4293671 1.0842022e-19 2.6939199
2 3.2422416 3.6893488e+19
2.4187202 -1.0842022e-19 2.654072
-2 3.243753 0
2.420006 -0 2.6409123
-3.6893488e+19 3.2853918 3.6893488e+19
2.6164942 2 2.6967497
1.0842022e-19 3.284374 1.0842022e-19
2.6151869 -1.0842022e-19 2.6785181
-0 3.2839916 -3.6893488e+19
2.6146958 0 2.6613662
0 3.2872059 0
2.6911869 -1.0842022e-19 2.659858
-2 3.2662909 2
2.5425556 3.6893488e+19 2.6189768
-3.6893488e+19 3.2875495 -3.6893488e+19
2.6917148 -2 2.6435368
2 3.2383573 -0
2.5182621 3.6893488e+19 2.5601032
-3.6893488e+19 3.2593811 -2
2.5349641 1.0842022e-19 2.5644627
-3.6893488e+19 3.2521501 -2
2.6373365 -3.6893488e+19 2.5510697
1.0842022e-19 3.2584052 2
2.5338919 -3.6893488e+19 2.548419
3.6893488e+19 3.2476795 -2
2.5233829 1.0842022e-19 2.5230937
1.0842022e-19 3.248467 0
2.6328561 -1.0842022e-19 2.5187294
0 3.1644659 -1.0842022e-19
2.4553449 -0 2.4311206
-1.0842022e-19 3.2479098 3.6893488e+19
2.6324282 -2 2.5040555
-0 3.1642439 3.6893488e+19
2.4551013 -0 2.4072075
3.6893488e+19 3.1619501 1.0842022e-19
2.3504212 2 2.391732
0 3.253571 1.0842022e-19
2.5756304 -0 2.4711668
-3.6893488e+19 3.1612911 3.6893488e+19
2.3498607 3.6893488e+19 2.3677332
1.0842022e-19 3.1715143 -0
2.5206497 -0 2.3675132
1.0842022e-19 3.1618164 -1.0842022e-19
2.3503072 1.0842022e-19 2.344837
-3.6893488e+19 3.1725569 -3.6893488e+19
2.5213192 0 2.3442943
-3.6893488e+19 3.1651051 0
2.3531051 1.0842022e-19 2.3240774
2 3.1621521 0
2.5146384 0 2.31232
2 3.1637666 0
2.3519664 2 2.2996216
-3.6893488e+19 3.161304 -0
2.5140939 3.6893488e+19 2.2882552
1.0842022e-19 3.2642221 -2
2.4495156 -2 2.3528075
1.0842022e-19 3.1622188 -2
2.5146811 -2 2.2654548
-1.0842022e-19 3.1639357 3.6893488e+19
2.3521101 -1.0842022e-19 2.2529938
-0 3.1625602 -0
2.5149004 -1.0842022e-19 2.2344708
-3.6893488e+19 3.1639898 -1.0842022e-19
2.3521562 3.6893488e+19 2.209379
2 3.1595874 1.0842022e-19
2.5129917 0 2.1844859
-3.6893488e+19 3.1622572 2
2.5666413 -1.0842022e-19 2.1661747
0 3.1586478 -2
2.4489529 0 2.1358473
0 3.1631916 -0
2.5673587 1.0842022e-19 2.1200335
-2 3.1564853 0
2.4465775 -1.0842022e-19 2.0878987
2 3.1649644 1.0842022e-19
2.5687206 -3.6893488e+19 2.0743618
3.6893488e+19 3.1484871 -2
2.4377902 -0 2.0362875
-0 3.1644185 -0
2.5683012 -0 2.0267696
-1.0842022e-19 3.15154 0
2.4411445 -2 1.9931933
-1.0842022e-19 3.1623185 3.6893488e+19
2.5666883 3.6893488e+19 1.9784766
-2 3.1522231 -2
2.4418948 -2 1.9482749
1.0842022e-19 3.1586022 1.0842022e-19
2.563834 -3.6893488e+19 1.9299623
0 3.1495755 -1.0842022e-19
2.4389858 0 1.9019463
-2 3.1601419 -2
2.5650165 -1.0842022e-19 1.8840371
2 3.1500337 -0
2.4394894 2 1.8391383
1.0842022e-19 3.15485 2
2.5609519 -3.6893488e+19 1.797619
-1.0842022e-19 3.1506274 -0
2.4401417 3.6893488e+19 1.7484455
0 3.1565754 -2
2.345849 1.0842022e-19 1.6599929
3.6893488e+19 3.1580868 -3.6893488e+19
2.512028 -0 1.5140071
-0 3.1554952 0
2.3449304 -2 -1.3040668
-3.6893488e+19 3.1960664 -1.0842022e-19
2.5364144 1.0842022e-19 -1.6255693
-2 3.1497653 -2
2.3400562 -1.0842022e-19 -1.7014142
2 3.1653125 -0
2.5166676 3.6893488e+19 -1.7773031
3.6893488e+19 3.1511631 -2
2.3412452 -1.0842022e-19 -1.8160738
-2 3.184088 3.6893488e+19
2.5287232 0 -1.8786373
-3.6893488e+19 3.0837886 -2
2.2839339 3.6893488e+19 -1.8588811
-0 3.0882788 -0
2.4344103 -0 -1.888481
3.6893488e+19 3.0865877 -3.6893488e+19
2.2863147 3.6893488e+19 -1.9057028
1.0842022e-19 3.0777566 3.6893488e+19
2.420898 -1.0842022e-19 -1.9212258
-1.0842022e-19 3.0635934 0
2.2667551 -2 -1.9302806
1.0842022e-19 2.8431883 -0
2.0419295 -3.6893488e+19 -1.8608439
-1.0842022e-19 2.7924402 1.0842022e-19
2.1255455 0 -1.8439499
2 2.7534881 -2
2.1393917 1.0842022e-19 -1.8302431
0 2.718435 -0
2.0073185 1.0842022e-19 -1.8262041
-1.0842022e-19 2.6728342 -2
2.074765 -0 -1.8202566
2 2.6545887 -2
1.9722468 -0 -1.8216312
1.0842022e-19 2.6191204 -3.6893488e+19
2.033509 -0 -1.8164921
0 2.6023908 -3.6893488e+19
1.9435736 -3.6893488e+19 -1.8161782
-1.0842022e-19 2.5725381 -2
1.997731 -1.0842022e-19 -1.8107233
-1.0842022e-19 2.5566461 -1.0842022e-19
1.9184455 -1.0842022e-19 -1.8087108
-1.0842022e-19 2.5349205 -0
1.9688381 -1.0842022e-19 -1.805333
1.0842022e-19 2.5268567 -0
1.9020816 -0 -1.8065414
-1.0842022e-19 2.5104177 -3.6893488e+19
1.9500183 0 -1.8047093
0 2.5057223 2
1.8904722 -2 -1.807183
-2 2.4735734 -3.6893488e+19
1.9318681 -1.0842022e-19 -1.8019545
-2 2.4635315 1.0842022e-19
1.8773125 3.6893488e+19 -1.8032711
2 2.4336784 2
1.9165471 -1.0842022e-19 -1.7994741
3.6893488e+19 2.3851197 3.6893488e+19
1.788799 2 -1.7998574
-2 2.3381121 1.0842022e-19
1.7688059 1.0842022e-19 -1.7977499
-2 2.3008032 -2
1.7529376 2 -1.7958615
-0 2.2736518 -1.0842022e-19
1.7327791 0 -1.7961242
-0 2.2365234 0
1.8118414 -1.0842022e-19 -1.7932105
-0 2.1976576 -0
1.7969155 -1.0842022e-19 -1.792882
3.6893488e+19 2.1627512 1.0842022e-19
1.7835103 -0 -1.7919402
0 2.1250699 2
1.7690394 -2 -1.7878008
3.6893488e+19 3.235388 1.0842022e-19
2.5564561 -0 2.6725745
-3.6893488e+19 3.2360129 2
2.5568507 -1.0842022e-19 2.6587844
-2 3.2430468 -0
2.4089758 0 2.6546221
-1.0842022e-19 3.2431872 0
2.4090924 -3.6893488e+19 2.640357
2 3.2855108 -3.6893488e+19
2.6105218 2 2.6967497
2 3.2841282 2
2.6087761 -3.6893488e+19 2.6779695
-0 3.2837756 0
2.608331 2 2.6608822
2 3.2898443 -0
2.6889551 -3.6893488e+19 2.6634169
1.0842022e-19 3.2663095 3.6893488e+19
2.536901 1.0842022e-19 2.6188712
-1.0842022e-19 3.2893887 1.0842022e-19
2.6882653 -1.0842022e-19 2.6458564
1.0842022e-19 3.2604194 1.0842022e-19
2.5305555 3.6893488e+19 2.580611
-2 3.2508891 1.0842022e-19
2.6299596 0 2.5639749
1.0842022e-19 3.2610815 -3.6893488e+19
2.5312686 -1.0842022e-19 2.5664113
0 3.2512887 2
2.6305645 -1.0842022e-19 2.5498915
1.0842022e-19 3.2608118 -0
2.5309782 -2 2.5510912
-2 3.2614796 -1.0842022e-19
2.5316978 -0 2.5368636
-1.0842022e-19 3.2487459 1.0842022e-19
2.6276634 3.6893488e+19 2.5187459
3.6893488e+19 3.247884 -0
2.6270106 2 2.5039158
2 3.2623203 0
2.4351826 0 2.4987547
3.6893488e+19 3.2544892 -1.0842022e-19
2.5713501 3.6893488e+19 2.4726763
-0 3.2609081 3.6893488e+19
2.4328399 -3.6893488e+19 2.4664249
2 3.2547479 -0
2.5716767 2 2.4440384
-3.6893488e+19 3.2617531 3.6893488e+19
2.4342418 -0 2.438241
0 3.2563303 0
2.5736749 -0 2.4175355
0 3.2668715 -1.0842022e-19
2.4427326 -3.6893488e+19 2.4165845
-1.0842022e-19 3.2591159 3.6893488e+19
2.5771925 3.6893488e+19 2.3925416
-3.6893488e+19 3.2642591 -1.0842022e-19
2.4383991 2 2.382612
3.6893488e+19 3.2566493 -3.6893488e+19
2.5740776 -1.0842022e-19 2.3595865
-2 3.2663081 -2
2.4417982 1.0842022e-19 2.3554955
-0 3.2568593 -0
2.574343 -0 2.3306797
0 3.2600091 -0
2.4313481 0 2.3177433
-2 3.2545631 -1.0842022e-19
2.5714436 3.6893488e+19 2.29881
3.6893488e+19 3.2612102 0
2.433341 -0 2.2897692
1.0842022e-19 3.253854 3.6893488e+19
2.5705481 -2 2.2691734
-1.0842022e-19 3.2484553 -3.6893488e+19
2.6274431 -2 2.2514703
1.0842022e-19 3.2543595 -2
2.5240269 -3.6893488e+19 2.2301641
3.6893488e+19 3.2492104 -3.6893488e+19
2.6280148 1.0842022e-19 2.1968448
1.0842022e-19 3.2539775 0
2.5236156 -0 2.1720972
-1.0842022e-19 3.2563806 3.6893488e+19
2.6382761 -3.6893488e+19 2.1506062
-1.0842022e-19 3.2575431 -3.6893488e+19
2.5274568 0 2.1199253
-0 3.2548623 3.6893488e+19
2.5245688 -0 2.0586057
-3.6893488e+19 3.1646721 0
2.5640006 3.6893488e+19 1.9796664
0 3.149116 0
2.4299765 -2 1.9466732
-0 3.1721029 3.6893488e+19
2.4547408 -0 1.9104557
-0 3.1975532 -3.6893488e+19
2.5888987 -3.6893488e+19 1.8961904
2 3.1710782 -3.6893488e+19
2.4536366 -1.0842022e-19 1.8503232
-3.6893488e+19 3.1940126 3.6893488e+19
2.5862179 -0 1.8142228
0 3.146806 -2
2.4274876 3.6893488e+19 1.7459881
1.0842022e-19 3.1625307 -2
2.3421886 -1.0842022e-19 1.6622918
0 3.1612201 -1.0842022e-19
2.509629 3.6893488e+19 1.5150161
-2 3.1626935 -3.6893488e+19
2.3423238 -2 -1.3071955
-0 3.1826396 -1.0842022e-19
2.5231526 -2 -1.6184778
3.6893488e+19 3.1529212 -1.0842022e-19
2.3342178 1.0842022e-19 -1.7029486
-2 3.1827703 -2
2.5232351 2 -1.7836392
2 3.1496882 -1.0842022e-19
2.3315361 2 -1.8153191
0 3.1840837 -0
2.5240643 -3.6893488e+19 -1.8785824
-1.0842022e-19 3.1493886 2
2.3312876 2 -1.8898846
0 3.1847584 2
2.5244904 -2 -1.9279027
-1.0842022e-19 3.0872083 -1.0842022e-19
2.2797098 -0 -1.9059471
-1.0842022e-19 3.0773685 -0
2.4133768 1.0842022e-19 -1.920952
3.6893488e+19 3.0783105 -3.6893488e+19
2.2723291 -3.6893488e+19 -1.9386894
1.0842022e-19 2.8488724 1.0842022e-19
2.0393851 -0 -1.8646843
2 2.7934871 2
2.1205938 3.6893488e+19 -1.8446422
3.6893488e+19 2.7530625 2
2.133251 -3.6893488e+19 -1.8297963
1.0842022e-19 2.7158802 -1.0842022e-19
2.0009513 -1.0842022e-19 -1.8250355
-2 2.6732903 2
2.0705264 1.0842022e-19 -1.8203698
0 2.6560929 -1.0842022e-19
1.9687463 0 -1.8222921
-1.0842022e-19 2.6184464 0
2.0289972 3.6893488e+19 -1.8160472
1.0842022e-19 2.6037521 0
1.9405525 0 -1.8168486
-2 2.572454 3.6893488e+19
1.9941705 -2 -1.8105823
0 2.5565083 1.0842022e-19
1.915104 3.6893488e+19 -1.8085629
0 2.5349402 -0
1.965764 -3.6893488e+19 -1.8052555
1.0842022e-19 2.5272021 0
1.899318 -0 -1.8067033
-2 2.5103028 -2
1.947108 -2 -1.8045404
-0 2.5058131 -2
1.8877965 -2 -1.807183
-0 2.4747882 3.6893488e+19
1.9297609 1.0842022e-19 -1.80232
-3.6893488e+19 2.4649296 -0
1.8752197 -1.0842022e-19 -1.8037452
3.6893488e+19 3.235388 1.0842022e-19
2.5564561 -0 2.6725745
-3.6893488e+19 3.2360129 2
2.5568507 -1.0842022e-19 2.6587844
-2 3.2430468 -0
2.4089758 0 2.6546221
-1.0842022e-19 3.2431872 0
2.4090924 -3.6893488e+19 2.640357
2 3.2855108 -3.6893488e+19
2.6105218 2 2.6967497
2 3.2841282 2
2.6087761 -3.6893488e+19 2.6779695
-0 3.2837756 0
2.608331 2 2.6608822
2 3.2898443 -0
2.6889551 -3.6893488e+19 2.6634169
1.0842022e-19 3.2663095 3.6893488e+19
2.536901 1.0842022e-19 2.6188712
-1.0842022e-19 3.2893887 1.0842022e-19
2.6882653 -1.0842022e-19 2.6458564
2 3.238837 3.6893488e+19
2.5133173 -3.6893488e+19 2.5602973
-2 3.2508891 1.0842022e-19
2.6299596 0 2.5639749
1.0842022e-19 3.2610815 -3.6893488e+19
2.5312686 -1.0842022e-19 2.5664113
0 3.2512887 2
2.6305645 -1.0842022e-19 2.5498915
1.0842022e-19 3.2608118 -0
2.5309782 -2 2.5510912
-0 3.2509229 -1.0842022e-19
2.5203247 -2 2.5252819
-1.0842022e-19 3.2487459 1.0842022e-19
2.6276634 3.6893488e+19 2.5187459
3.6893488e+19 3.247884 -0
2.6270106 2 2.5039158
2 3.1584208 2
2.3387797 3.6893488e+19 2.3882692
3.6893488e+19 3.2544892 -1.0842022e-19
2.5713501 3.6893488e+19 2.4726763
2 3.1618059 2
2.3415875 1.0842022e-19 2.3680923
2 3.2547479 -0
2.5716767 2 2.4440384
-1.0842022e-19 3.1632278 -2
2.342767 3.6893488e+19 2.3459239
0 3.2563303 0
2.5736749 -0 2.4175355
-0 3.1619089 -2
2.3416729 2 2.3214936
-2 3.2460423 1.0842022e-19
2.5631828 -3.6893488e+19 2.3757336
2 3.1617441 -0
2.3415363 1.0842022e-19 2.2980752
1.0842022e-19 3.1589229 -0
2.5081787 3.6893488e+19 2.2864671
-2 3.2663081 -2
2.4417982 1.0842022e-19 2.3554955
-2 3.1606979 3.6893488e+19
2.5092995 -0 2.2643654
-1.0842022e-19 3.1624377 -1.0842022e-19
2.3421116 2 2.2520092
-1.0842022e-19 3.161716 2
2.5099423 -1.0842022e-19 2.2332783
-1.0842022e-19 3.1611576 2
2.3410499 2 2.206111
-3.6893488e+19 3.1621912 -2
2.5102422 1.0842022e-19 2.1870661
-0 3.1674275 -3.6893488e+19
2.5660868 1.0842022e-19 2.1711841
-1.0842022e-19 3.1586075 -3.6893488e+19
2.4402018 -1.0842022e-19 2.1356721
-2 3.1628456 -2
2.5626173 2 2.1195395
0 3.1603107 -0
2.4420366 -3.6893488e+19 2.0909572
-0 3.1627178 -1.0842022e-19
2.5625205 -3.6893488e+19 2.0724449
-1.0842022e-19 3.1473293 2
2.4280517 1.0842022e-19 2.0353544
3.6893488e+19 3.1491451 -3.6893488e+19
2.4300077 -3.6893488e+19 1.9916568
-3.6893488e+19 3.1646721 0
2.5640006 3.6893488e+19 1.9796664
0 3.149116 0
2.4299765 -2 1.9466732
-0 3.1721029 3.6893488e+19
2.4547408 -0 1.9104557
-1.0842022e-19 3.1561716 -1.0842022e-19
2.5575635 -2 1.8826734
3.6893488e+19 3.1501451 0
2.4310851 3.6893488e+19 1.8391217
-1.0842022e-19 3.1639247 -3.6893488e+19
2.5634344 -3.6893488e+19 1.8014003
0 3.146806 -2
2.4274876 3.6893488e+19 1.7459881
0 3.1496935 -1.0842022e-19
2.3315403 2 1.6572416
0 3.1612201 -1.0842022e-19
2.509629 3.6893488e+19 1.5150161
-2 3.1626935 -3.6893488e+19
2.3423238 -2 -1.3071955
-3.6893488e+19 3.1591184 -2
2.5083022 -0 -1.6052408
3.6893488e+19 3.1529212 -1.0842022e-19
2.3342178 1.0842022e-19 -1.7029486
-2 3.1827703 -2
2.5232351 2 -1.7836392
2 3.1496882 -1.0842022e-19
2.3315361 2 -1.8153191
0 3.1840837 -0
2.5240643 -3.6893488e+19 -1.8785824
-1.0842022e-19 3.1493886 2
2.3312876 2 -1.8898846
-3.6893488e+19 3.0877407 -0
2.4264741 1.0842022e-19 -1.8882033
-1.0842022e-19 3.0872083 -1.0842022e-19
2.2797098 -0 -1.9059471
-1.0842022e-19 3.0773685 -0
2.4133768 1.0842022e-19 -1.920952
2 3.0631826 1.0842022e-19
2.2597809 -0 -1.9299949
1.0842022e-19 2.8488724 1.0842022e-19
