# .PCD v0.7 - Point Cloud Data file format
VERSION 0.7
FIELDS x y z
SIZE 4 4 4
TYPE F F F
COUNT 1 1 1
WIDTH 1682
HEIGHT 1
VIEWPOINT 0 0 0 1 0 0 0
POINTS 1682
DATA ascii
-1.8840833 0 -1.8452625
0 2.5706143 3.6893488e+19
-1.9439766 3.6893488e+19 -1.8402066
0 2.5569034 1.0842022e-19
-1.863618 -3.6893488e+19 -1.8383052
0 2.535954 0
-1.9230067 0 -1.8331925
1.0842022e-19 2.515461 2
-1.8313965 -2 -1.8244979
-0 2.5077198 0
-1.9059246 -3.6893488e+19 -1.827298
-2 2.4956541 -0
-1.8176861 -0 -1.8252641
0 2.4722989 -2
-1.892874 -3.6893488e+19 -1.8238218
-3.6893488e+19 2.4482057 2
-1.9137303 0 -1.8210669
-3.6893488e+19 2.4178059 0
-1.9026252 -0 -1.8197589
1.0842022e-19 2.3588016 3.6893488e+19
-1.8810707 -2 -1.8128967
3.6893488e+19 2.3069968 0
-1.8492929 1.0842022e-19 -1.8034935
-3.6893488e+19 2.2723424 -3.6893488e+19
-1.8239743 -0 -1.7991325
-1.0842022e-19 2.2458842 -1.0842022e-19
-1.6927755 -3.6893488e+19 -1.7959541
0 2.2069764 -3.6893488e+19
-1.67765 1.0842022e-19 -1.7957526
2 2.1613436 -2
-1.6599102 2 -1.790656
2 2.1333945 3.6893488e+19
-1.649045 -1.0842022e-19 -1.7906048
-1.0842022e-19 3.1222506 -0
-2.3815448 -0 2.5919387
-2 3.1178865 -0
-2.518779 -3.6893488e+19 2.5852559
1.0842022e-19 3.1209257 2
-2.3801868 -1.0842022e-19 2.5797713
-1.0842022e-19 3.1211228 3.6893488e+19
-2.380389 1.0842022e-19 2.5690222
2 3.1290197 3.6893488e+19
-2.5269129 -2 2.5729039
-1.0842022e-19 3.1233351 1.0842022e-19
-2.3826566 -3.6893488e+19 2.5599666
-0 3.1278768 0
-2.526078 -2 2.5607638
-1.0842022e-19 3.1067755 -3.6893488e+19
-2.3656833 2 2.5357788
3.6893488e+19 3.125021 -2
-2.5239913 -3.6893488e+19 2.5473666
-2 3.108022 -1.0842022e-19
-2.366961 1.0842022e-19 2.5263286
0 3.1173642 1.0842022e-19
-2.5183973 0 2.5304997
0 3.1105335 -3.6893488e+19
-2.369535 1.0842022e-19 2.5177751
2 3.1181688 1.0842022e-19
-2.5189853 -3.6893488e+19 2.5203249
-3.6893488e+19 3.1108959 -1.0842022e-19
-2.3699067 -3.6893488e+19 2.5075667
-0 3.1018798 -3.6893488e+19
-2.2735872 -2 2.4903796
3.6893488e+19 3.0664754 -1.0842022e-19
-2.3829451 1.0842022e-19 2.4347777
1.0842022e-19 3.1039536 2
-2.2751997 -3.6893488e+19 2.472863
0 3.0665984 -1.0842022e-19
-2.3830938 3.6893488e+19 2.4165943
2 3.1081026 3.6893488e+19
-2.2784255 -2 2.4578121
1.0842022e-19 3.0674686 3.6893488e+19
-2.3841469 -0 2.3993819
1.0842022e-19 3.1141798 -3.6893488e+19
-2.2831504 -3.6893488e+19 2.4446805
-1.0842022e-19 3.0696387 -2
-2.3867729 2 2.3836656
2 3.1039674 -0
-2.2752104 0 2.411943
3.6893488e+19 3.0672693 1.0842022e-19
-2.3839059 -3.6893488e+19 2.3625493
3.6893488e+19 3.0678802 1.0842022e-19
-2.384645 -2 2.3449798
-2 3.0640929 3.6893488e+19
-2.3800623 -2 2.32285
2 3.1365099 0
-2.3005123 -1.0842022e-19 2.3836715
1.0842022e-19 3.0684438 3.6893488e+19
-2.3853269 2 2.3090887
-2 3.0427403 2
-2.4277542 -3.6893488e+19 2.2771797
-0 3.0579171 2
-2.3156052 -0 2.2803767
1.0842022e-19 3.0409541 -3.6893488e+19
-2.4251437 2 2.2587819
-2 3.0572271 2
-2.314898 -1.0842022e-19 2.2622697
2 3.0411077 1.0842022e-19
-2.4253683 -1.0842022e-19 2.2344573
-0 3.0599759 -3.6893488e+19
-2.3177152 -3.6893488e+19 2.2440073
-0 3.0416448 -0
-2.4261532 3.6893488e+19 2.2019641
2 3.0652132 0
-2.3230834 -0 2.2165902
-0 3.0426888 2
-2.4276788 -3.6893488e+19 2.1701133
-3.6893488e+19 3.0671675 2
-2.3250866 -1.0842022e-19 2.1835365
-0 3.203418 -0
-2.5812685 -3.6893488e+19 2.2995214
1.0842022e-19 3.06744 1.0842022e-19
-2.3253658 0 2.1479809
3.6893488e+19 3.0528002 -2
-2.4424534 -2 2.1155078
2 3.107614 3.6893488e+19
-2.3665428 -3.6893488e+19 2.1579087
-2 3.0571208 2
-2.4487669 -1.0842022e-19 2.0857303
2 3.0693927 -2
-2.3273671 2 2.0782306
-0 3.1409776 -3.6893488e+19
-2.3039858 3.6893488e+19 2.1284275
-2 3.0611427 3.6893488e+19
-2.3764925 -0 2.0355446
0 3.08097 0
-2.2573299 -2 2.0331407
-1.0842022e-19 3.059746 -3.6893488e+19
-2.3748024 0 1.9992192
-2 3.0806186 -0
-2.2570567 -0 1.9956948
3.6893488e+19 3.0611424 -2
-2.376492 2 1.9651722
-2 3.0718284 -2
-2.2502222 1.0842022e-19 1.9530278
1.0842022e-19 3.2373605 -0
-2.5448606 1.0842022e-19 2.0319691
-2 3.0659709 2
-2.2413363 2 1.913882
2 3.0711811 -3.6893488e+19
-2.388639 -0 1.8995582
1.0842022e-19 3.0727196 -0
-2.2509151 -0 1.8811836
0 3.071732 0
-2.3893058 3.6893488e+19 1.851989
3.6893488e+19 3.0736704 -0
-2.2516544 -0 1.8155698
3.6893488e+19 3.0709388 -2
-2.388346 -1.0842022e-19 1.7790042
1.0842022e-19 3.075259 -2
-2.2528894 0 1.7371653
-2 3.066175 -1.0842022e-19
-2.3825817 -1.0842022e-19 1.6607379
-3.6893488e+19 3.0596552 0
-2.4524703 0 1.5510262
-3.6893488e+19 3.060149 1.0842022e-19
-2.4531918 3.6893488e+19 -1.4600927
-2 3.0680814 -3.6893488e+19
-2.3260231 -2 -1.6249068
3.6893488e+19 3.0579226 -3.6893488e+19
-2.4499383 -0 -1.6917906
-0 3.0701368 -3.6893488e+19
-2.3281298 2 -1.7598926
3.6893488e+19 3.0502717 -1.0842022e-19
-2.4387589 3.6893488e+19 -1.7866224
3.6893488e+19 3.0726721 2
-2.3307285 2 -1.8335423
2 3.0433149 0
-2.4285936 -3.6893488e+19 -1.849412
2 3.0662673 3.6893488e+19
-2.3241637 -3.6893488e+19 -1.8877887
-1.0842022e-19 3.0501425 1.0842022e-19
-2.4385703 -0 -1.8988771
0 3.0337963 -1.0842022e-19
-2.2908819 2 -1.9055814
2 3.0058963 0
-2.3739173 -1.0842022e-19 -1.9059807
0 3.0185156 -0
-2.2752197 0 -1.9274441
1.0842022e-19 2.8753099 2
-2.1346805 1.0842022e-19 -1.8951501
-1.0842022e-19 2.8313732 2
-2.0076435 2 -1.8870269
-1.0842022e-19 2.7987092 1.0842022e-19
-2.1114476 -1.0842022e-19 -1.882786
-3.6893488e+19 2.7772806 -3.6893488e+19
-1.9655863 -1.0842022e-19 -1.8802408
3.6893488e+19 2.7512798 -1.0842022e-19
-2.0540564 -0 -1.8759249
0 2.7242465 0
-1.9343638 -1.0842022e-19 -1.8744345
-3.6893488e+19 2.6753902 1.0842022e-19
-2.0073678 1.0842022e-19 -1.8622715
1.0842022e-19 2.6530399 -2
-1.9066821 1.0842022e-19 -1.8596709
-3.6893488e+19 2.61676 -3.6893488e+19
-1.9718956 1.0842022e-19 -1.8503662
-1.0842022e-19 2.5949078 3.6893488e+19
-1.8840833 0 -1.8452625
0 2.5706143 3.6893488e+19
-1.9439766 3.6893488e+19 -1.8402066
0 2.5569034 1.0842022e-19
-1.863618 -3.6893488e+19 -1.8383052
0 2.535954 0
-1.9230067 0 -1.8331925
1.0842022e-19 2.515461 2
-1.8313965 -2 -1.8244979
-0 2.5077198 0
-1.9059246 -3.6893488e+19 -1.827298
-2 2.4956541 -0
-1.8176861 -0 -1.8252641
0 2.4722989 -2
-1.892874 -3.6893488e+19 -1.8238218
-3.6893488e+19 2.4482057 2
-1.9137303 0 -1.8210669
-3.6893488e+19 2.4178059 0
-1.9026252 -0 -1.8197589
1.0842022e-19 2.3588016 3.6893488e+19
-1.8810707 -2 -1.8128967
3.6893488e+19 2.3069968 0
-1.8492929 1.0842022e-19 -1.8034935
-3.6893488e+19 2.2723424 -3.6893488e+19
-1.8239743 -0 -1.7991325
-1.0842022e-19 2.2458842 -1.0842022e-19
-1.6927755 -3.6893488e+19 -1.7959541
0 2.2069764 -3.6893488e+19
-1.67765 1.0842022e-19 -1.7957526
2 2.1613436 -2
-1.6599102 2 -1.790656
2 2.1333945 3.6893488e+19
-1.649045 -1.0842022e-19 -1.7906048
3.6893488e+19 3.1359251 1.0842022e-19
-2.536145 1.0842022e-19 2.6133757
0 3.1213086 -2
-2.3885026 -1.0842022e-19 2.5911891
-1.0842022e-19 3.137018 2
-2.5369554 -1.0842022e-19 2.6028607
1.0842022e-19 3.1199524 -0
-2.3870838 1.0842022e-19 2.5790179
-3.6893488e+19 3.1209664 2
-2.388145 -2 2.568996
-2 3.1263406 1.0842022e-19
-2.5290387 2 2.5707765
1.0842022e-19 3.1248777 1.0842022e-19
-2.3922372 -1.0842022e-19 2.561353
-3.6893488e+19 3.1269715 0
-2.5295064 3.6893488e+19 2.5601692
0 3.1066241 -1.0842022e-19
-2.3731382 0 2.5357544
-0 3.1277351 -1.0842022e-19
-2.5300725 3.6893488e+19 2.5496635
-3.6893488e+19 3.1072004 -0
-2.3737414 -0 2.5257881
-1.0842022e-19 3.1183343 2
-2.5231023 -3.6893488e+19 2.5313761
2 3.1132755 -2
-2.3800976 -1.0842022e-19 2.5199032
-2 3.1162977 -3.6893488e+19
-2.5215921 -0 2.5190811
-2 3.1108344 2
-2.3775437 -1.0842022e-19 2.5076103
0 3.1077635 -1.0842022e-19
-2.2857432 -2 2.4987078
3.6893488e+19 3.1276453 0
-2.4650731 -2 2.5095105
3.6893488e+19 3.1041381 -3.6893488e+19
-2.2828476 2 2.473232
1.0842022e-19 3.1225653 0
-2.458817 0 2.4904344
1.0842022e-19 3.1051848 0
-2.2836838 2 2.4541993
-2 3.1235583 1.0842022e-19
-2.4600401 -2 2.4701321
-1.0842022e-19 3.1036677 -3.6893488e+19
-2.4355445 -3.6893488e+19 2.4246807
1.0842022e-19 3.1036606 0
-2.2824664 1.0842022e-19 2.4116921
2 3.10271 3.6893488e+19
-2.434365 -1.0842022e-19 2.4032094
2 3.0979712 -3.6893488e+19
-2.2779222 -1.0842022e-19 2.3851757
-0 3.1045179 2
-2.4365916 -2 2.3848951
1.0842022e-19 3.1036618 0
-2.2824674 -3.6893488e+19 2.3712986
-2 3.1055455 3.6893488e+19
-2.4378572 -3.6893488e+19 2.3656046
2 3.1366878 -3.6893488e+19
-2.3088448 2 2.3839474
-3.6893488e+19 3.1059437 0
-2.4383476 -1.0842022e-19 2.3456254
-1.0842022e-19 3.1232951 -1.0842022e-19
-2.5267804 1.0842022e-19 2.3536234
0 3.0575972 3.6893488e+19
-2.321841 1.0842022e-19 2.2801805
-2 3.1209621 -2
-2.5250506 -1.0842022e-19 2.3301024
3.6893488e+19 3.1006014 2
-2.3668368 1.0842022e-19 2.2993987
-3.6893488e+19 3.1171706 3.6893488e+19
-2.5222394 -0 2.3056676
-3.6893488e+19 3.0614123 2
-2.3258331 -0 2.2464654
2 3.0398829 -3.6893488e+19
-2.4298685 -2 2.1994505
0 3.0614343 -1.0842022e-19
-2.3258557 2 2.211153
-0 3.1042526 -2
-2.5126612 -2 2.2543623
-1.0842022e-19 3.110656 3.6893488e+19
-2.377357 -3.6893488e+19 2.2431483
-0 3.202311 -0
-2.585367 0 2.2989347
-3.6893488e+19 3.0677028 0
-2.3324149 1.0842022e-19 2.1484458
-3.6893488e+19 3.2040269 -3.6893488e+19
-2.5866392 1.0842022e-19 2.2741587
-1.0842022e-19 3.106318 -3.6893488e+19
-2.372818 -1.0842022e-19 2.1565685
1.0842022e-19 3.2033312 -3.6893488e+19
-2.5861232 3.6893488e+19 2.2458
1.0842022e-19 3.0697172 -0
-2.3345222 0 2.0786757
-1.0842022e-19 3.1418388 -3.6893488e+19
-2.312959 -1.0842022e-19 2.129359
-1.0842022e-19 3.0651503 -3.6893488e+19
-2.3881099 2 2.0393384
0 3.0647378 0
-2.251379 3.6893488e+19 2.0193238
2 3.1432204 -1.0842022e-19
-2.4842539 2 2.0665085
0 3.060586 1.0842022e-19
-2.382489 1.0842022e-19 1.9648733
-3.6893488e+19 3.2363627 3.6893488e+19
-2.5494797 -3.6893488e+19 2.0315044
-3.6893488e+19 3.0668216 2
-2.2530434 -3.6893488e+19 1.9143656
0 3.22508 -0
-2.5425322 -0 1.9713099
2 3.073693 -3.6893488e+19
-2.2585313 3.6893488e+19 1.8816134
-1.0842022e-19 3.2218287 -3.6893488e+19
-2.5405302 0 1.9165095
-1.0842022e-19 3.0743639 -2
-2.2590673 2 1.8160275
-0 3.2177198 -3.6893488e+19
-2.5380001 -3.6893488e+19 1.8495277
-2 3.0742109 0
-2.2589452 -1.0842022e-19 1.7364622
-0 3.213927 -0
-2.5356648 1.0842022e-19 1.7359469
-3.6893488e+19 3.0469387 -3.6893488e+19
-2.4403317 1.0842022e-19 1.5438789
-0 3.0665538 -0
-2.3312125 -0 1.2692024
0 3.1086395 1.0842022e-19
-2.515914 0 -1.493057
3.6893488e+19 3.0640693 -3.6893488e+19
-2.3286128 0 -1.6218385
-0 3.0496011 -3.6893488e+19
-2.4442797 -1.0842022e-19 -1.6866976
3.6893488e+19 3.0695014 -3.6893488e+19
-2.3342965 -3.6893488e+19 -1.7596705
-0 3.0475154 3.6893488e+19
-2.4411869 -1.0842022e-19 -1.7852161
-2 3.0710444 -3.6893488e+19
-2.335911 -0 -1.8325609
0 3.0465832 -0
-2.4398043 1.0842022e-19 -1.8520221
-1.0842022e-19 3.0654783 -1.0842022e-19
-2.3300872 -0 -1.8874917
-2 3.0498748 -1.0842022e-19
-2.4446857 1.0842022e-19 -1.8988162
-2 3.071481 -2
-2.3363678 2 -1.9263006
1.0842022e-19 3.0054965 -3.6893488e+19
-2.3788767 0 -1.9058123
2 3.0174026 -2
-2.2797852 3.6893488e+19 -1.9267687
1.0842022e-19 2.8764205 -2
-2.1438513 0 -1.895629
1.0842022e-19 2.8309772 -0
-2.0143492 -3.6893488e+19 -1.8868984
-3.6893488e+19 2.799268 3.6893488e+19
-2.118551 -2 -1.8830878
-2 2.7786369 0
-1.9725456 -0 -1.8809117
-0 2.7511792 0
-2.0593293 -0 -1.8759249
-0 2.7233791 0
-1.9390424 1.0842022e-19 -1.8740427
-2 2.67522 -1.0842022e-19
-2.0118308 1.0842022e-19 -1.8622715
2 2.6562853 -3.6893488e+19
-1.9122486 3.6893488e+19 -1.8616216
0 2.6155047 -3.6893488e+19
-1.9750608 -3.6893488e+19 -1.8496846
-2 2.5994062 -1.0842022e-19
-1.8895342 -2 -1.8481929
0 2.5708554 -3.6893488e+19
-1.9475678 0 -1.8404547
3.6893488e+19 2.5363317 3.6893488e+19
-1.9263098 2 -1.8335509
1.0842022e-19 2.5074937 0
-1.9085528 0 -1.8272016
-0 2.4716182 1.0842022e-19
-1.8952004 3.6893488e+19 -1.8236148
1.0842022e-19 2.4489672 2
-1.9164438 2 -1.8214947
3.6893488e+19 3.1359251 1.0842022e-19
-2.536145 1.0842022e-19 2.6133757
0 3.1213086 -2
-2.3885026 -1.0842022e-19 2.5911891
-2 3.1128218 2
-2.5190151 -0 2.5808001
1.0842022e-19 3.1199524 -0
-2.3870838 1.0842022e-19 2.5790179
-3.6893488e+19 3.1209664 2
-2.388145 -2 2.568996
-2 3.1263406 1.0842022e-19
-2.5290387 2 2.5707765
1.0842022e-19 3.1248777 1.0842022e-19
-2.3922372 -1.0842022e-19 2.561353
-3.6893488e+19 3.1269715 0
-2.5295064 3.6893488e+19 2.5601692
0 3.1066241 -1.0842022e-19
-2.3731382 0 2.5357544
-0 3.1277351 -1.0842022e-19
-2.5300725 3.6893488e+19 2.5496635
-3.6893488e+19 3.1072004 -0
-2.3737414 -0 2.5257881
-1.0842022e-19 3.1183343 2
-2.5231023 -3.6893488e+19 2.5313761
2 3.1132755 -2
-2.3800976 -1.0842022e-19 2.5199032
-2 3.1162977 -3.6893488e+19
-2.5215921 -0 2.5190811
-2 3.1108344 2
-2.3775437 -1.0842022e-19 2.5076103
0 3.1077635 -1.0842022e-19
-2.2857432 -2 2.4987078
1.0842022e-19 3.0650394 -1.0842022e-19
-2.3879733 2 2.4329782
3.6893488e+19 3.1041381 -3.6893488e+19
-2.2828476 2 2.473232
-3.6893488e+19 3.0665934 -1.0842022e-19
-2.3898873 -1.0842022e-19 2.4167547
1.0842022e-19 3.1051848 0
-2.2836838 2 2.4541993
-2 3.0661511 -3.6893488e+19
-2.3893425 3.6893488e+19 2.3978839
3.6893488e+19 3.066364 2
-2.3896048 2 2.3798869
1.0842022e-19 3.1036606 0
-2.2824664 1.0842022e-19 2.4116921
0 3.0643899 -3.6893488e+19
-2.3871734 3.6893488e+19 2.3594029
2 3.0979712 -3.6893488e+19
-2.2779222 -1.0842022e-19 2.3851757
0 3.0669265 -3.6893488e+19
-2.3902972 1.0842022e-19 2.3440826
1.0842022e-19 3.1036618 0
-2.2824674 -3.6893488e+19 2.3712986
-3.6893488e+19 3.0639365 -0
-2.3866153 -0 2.3228185
2 3.1366878 -3.6893488e+19
-2.3088448 2 2.3839474
-2 3.0669055 3.6893488e+19
-2.3902717 1.0842022e-19 2.307719
1.0842022e-19 3.0424466 3.6893488e+19
-2.4336703 -0 2.2770352
0 3.0575972 3.6893488e+19
-2.321841 1.0842022e-19 2.2801805
1.0842022e-19 3.0402639 2
-2.4304335 1.0842022e-19 2.2582927
-0 3.057924 3.6893488e+19
-2.3221831 1.0842022e-19 2.262954
2 3.0408449 2
-2.4312952 -2 2.2342536
-3.6893488e+19 3.0614123 2
-2.3258331 -0 2.2464654
2 3.0398829 -3.6893488e+19
-2.4298685 -2 2.1994505
0 3.0614343 -1.0842022e-19
-2.3258557 2 2.211153
0 3.0422111 0
-2.433321 0 2.1696301
1.0842022e-19 3.0644665 -1.0842022e-19
-2.3290284 3.6893488e+19 2.1799903
3.6893488e+19 3.0444968 2
-2.4367106 0 2.1392689
-3.6893488e+19 3.0677028 0
-2.3324149 1.0842022e-19 2.1484458
-3.6893488e+19 3.2040269 -3.6893488e+19
-2.5866392 1.0842022e-19 2.2741587
-1.0842022e-19 3.106318 -3.6893488e+19
-2.372818 -1.0842022e-19 2.1565685
-1.0842022e-19 3.0589347 -2
-2.4581206 1.0842022e-19 2.0878763
1.0842022e-19 3.0697172 -0
-2.3345222 0 2.0786757
0 3.0637443 -2
-2.2505853 3.6893488e+19 2.0537517
-1.0842022e-19 3.0651503 -3.6893488e+19
-2.3881099 2 2.0393384
0 3.0647378 0
-2.251379 3.6893488e+19 2.0193238
0 3.0630155 1.0842022e-19
-2.3854809 -3.6893488e+19 2.0019503
0 3.060586 1.0842022e-19
-2.382489 1.0842022e-19 1.9648733
-1.0842022e-19 3.0639427 2
-2.3866229 -2 1.9317086
-3.6893488e+19 3.0668216 2
-2.2530434 -3.6893488e+19 1.9143656
-2 3.0705893 3.6893488e+19
-2.3948083 -3.6893488e+19 1.8993424
2 3.073693 -3.6893488e+19
-2.2585313 3.6893488e+19 1.8816134
-2 3.0705223 2
-2.3947258 3.6893488e+19 1.8512262
-1.0842022e-19 3.0743639 -2
-2.2590673 2 1.8160275
-0 3.0711501 -0
-2.3954988 -1.0842022e-19 1.7791673
-2 3.0742109 0
-2.2589452 -1.0842022e-19 1.7364622
3.6893488e+19 3.0671604 -0
-2.3905854 1.0842022e-19 1.6613034
-3.6893488e+19 3.0469387 -3.6893488e+19
-2.4403317 1.0842022e-19 1.5438789
-0 3.0665538 -0
-2.3312125 -0 1.2692024
-1.0842022e-19 3.0481389 -0
-2.4421115 3.6893488e+19 -1.4520546
3.6893488e+19 3.0640693 -3.6893488e+19
-2.3286128 0 -1.6218385
-0 3.0496011 -3.6893488e+19
-2.4442797 -1.0842022e-19 -1.6866976
3.6893488e+19 3.0695014 -3.6893488e+19
-2.3342965 -3.6893488e+19 -1.7596705
-0 3.0475154 3.6893488e+19
-2.4411869 -1.0842022e-19 -1.7852161
-2 3.0710444 -3.6893488e+19
-2.335911 -0 -1.8325609
0 3.0465832 -0
-2.4398043 1.0842022e-19 -1.8520221
-1.0842022e-19 3.0654783 -1.0842022e-19
-2.3300872 -0 -1.8874917
-2 3.0498748 -1.0842022e-19
-2.4446857 1.0842022e-19 -1.8988162
-2 3.071481 -2
-2.3363678 2 -1.9263006
1.0842022e-19 3.0054965 -3.6893488e+19
-2.3788767 0 -1.9058123
2 3.0174026 -2
-2.2797852 3.6893488e+19 -1.9267687
1.0842022e-19 2.8764205 -2
-2.1438513 0 -1.895629
1.0842022e-19 2.8309772 -0
-2.0143492 -3.6893488e+19 -1.8868984
-3.6893488e+19 2.799268 3.6893488e+19
-2.118551 -2 -1.8830878
-2 2.7786369 0
-1.9725456 -0 -1.8809117
-0 2.7511792 0
-2.0593293 -0 -1.8759249
-0 2.7233791 0
-1.9390424 1.0842022e-19 -1.8740427
-2 2.67522 -1.0842022e-19
-2.0118308 1.0842022e-19 -1.8622715
2 2.6562853 -3.6893488e+19
-1.9122486 3.6893488e+19 -1.8616216
0 2.6155047 -3.6893488e+19
-1.9750608 -3.6893488e+19 -1.8496846
-2 2.5994062 -1.0842022e-19
-1.8895342 -2 -1.8481929
0 2.5708554 -3.6893488e+19
-1.9475678 0 -1.8404547
3.6893488e+19 2.5363317 3.6893488e+19
-1.9263098 2 -1.8335509
1.0842022e-19 2.5074937 0
-1.9085528 0 -1.8272016
-0 2.4716182 1.0842022e-19
-1.8952004 3.6893488e+19 -1.8236148
1.0842022e-19 2.4489672 2
-1.9164438 2 -1.8214947
2 3.135407 -1.0842022e-19
-2.5399461 -1.0842022e-19 2.6130655
-0 3.1209683 1.0842022e-19
-2.3960686 -1.0842022e-19 2.5909948
-2 3.1359293 3.6893488e+19
-2.5403392 -2 2.6020405
-1.0842022e-19 3.1197636 2
-2.3947823 3.6893488e+19 2.578964
-3.6893488e+19 3.1208985 -1.0842022e-19
-2.3959939 -0 2.5690482
-2 3.1254048 0
-2.5324216 2 2.5701356
2 3.1273289 -3.6893488e+19
-2.5338688 2 2.5606153
-1.0842022e-19 3.1065612 -0
-2.3806865 3.6893488e+19 2.5358031
-1.0842022e-19 3.1308961 2
-2.5365527 2 2.5523193
-3.6893488e+19 3.1071374 3.6893488e+19
-2.3813019 -0 2.525835
-0 3.1198442 -2
-2.5282381 3.6893488e+19 2.5326681
-3.6893488e+19 3.1130581 -0
-2.3876231 -2 2.5198352
-0 3.1155744 -1.0842022e-19
-2.5250258 -0 2.5186813
-3.6893488e+19 3.1113498 -2
-2.3857992 3.6893488e+19 2.5080678
0 3.1091082 -0
-2.2944312 0 2.5003576
-1.0842022e-19 3.1273696 0
-2.4728448 -2 2.5094268
-3.6893488e+19 3.1024494 2
-2.2889719 2 2.4711006
-1.0842022e-19 3.1221087 1.0842022e-19
-2.4662528 -2 2.4900329
-2 3.1044149 3.6893488e+19
-2.2905834 -1.0842022e-19 2.4533353
1.0842022e-19 3.1238334 -3.6893488e+19
-2.4684136 1.0842022e-19 2.47067
3.6893488e+19 3.077415 1.0842022e-19
-2.2684462 -1.0842022e-19 2.3999984
2 3.1080742 -2
-2.4486673 1.0842022e-19 2.4301472
-0 3.1035666 0
-2.2898879 1.0842022e-19 2.4116921
0 3.1092613 2
-2.4501548 3.6893488e+19 2.410866
0 3.0978789 1.0842022e-19
-2.2852244 -1.0842022e-19 2.3851757
1.0842022e-19 3.1055365 -2
-2.4454875 -3.6893488e+19 2.386158
-0 3.0981734 1.0842022e-19
-2.285466 1.0842022e-19 2.3656337
3.6893488e+19 3.1050026 -1.0842022e-19
-2.4448187 0 2.3651953
-3.6893488e+19 3.1425087 0
-2.3218164 -2 2.3898306
-0 3.1075461 -2
-2.4480057 -2 2.3473227
0 3.1176519 -3.6893488e+19
-2.5265887 -0 2.348448
2 3.0554898 -0
-2.3261595 -3.6893488e+19 2.2783573
0 3.1202312 2
-2.5285292 -1.0842022e-19 2.3296132
2 3.0999255 0
-2.3736019 -0 2.2989249
2 3.1181824 -3.6893488e+19
-2.5269878 0 2.3066602
2 3.0619519 3.6893488e+19
-2.3330588 -0 2.2474978
-1.0842022e-19 3.1068182 2
-2.5184386 -3.6893488e+19 2.2767508
-1.0842022e-19 3.1208277 2
-2.3959184 3.6893488e+19 2.2746449
3.6893488e+19 3.1096776 -1.0842022e-19
-2.5205896 3.6893488e+19 2.2583842
-0 3.1097286 2
-2.3840683 -3.6893488e+19 2.2420506
-1.0842022e-19 3.2103238 3.6893488e+19
-2.596307 -3.6893488e+19 2.3043792
3.6893488e+19 3.1150897 -1.0842022e-19
-2.389792 0 2.2080345
2 3.2114615 1.0842022e-19
-2.597163 -3.6893488e+19 2.2787843
-1.0842022e-19 3.2098198 0
-2.595928 -0 2.2515714
-0 3.1121731 0
-2.3866782 3.6893488e+19 2.1224504
0 3.1416419 1.0842022e-19
-2.3211055 -0 2.1292689
-3.6893488e+19 3.0632341 -3.6893488e+19
-2.3924828 1.0842022e-19 2.0376964
-0 3.1927385 -0
-2.3629994 -0 2.1289558
-0 3.1439853 -2
-2.493664 -1.0842022e-19 2.0672534
-1.0842022e-19 3.192302 3.6893488e+19
-2.3626416 3.6893488e+19 2.0788629
-3.6893488e+19 3.2552459 0
-2.5698237 3.6893488e+19 2.1033187
2 3.1939249 1.0842022e-19
-2.3639722 0 2.0302
1.0842022e-19 3.2356403 -1.0842022e-19
-2.5542538 0 2.0312009
-1.0842022e-19 3.0661783 -1.0842022e-19
-2.2592332 2 1.9140755
-1.0842022e-19 3.2247629 1.0842022e-19
-2.5474393 0 1.9712524
-1.0842022e-19 3.0706236 -1.0842022e-19
-2.2628779 -3.6893488e+19 1.8803999
-2 3.2199697 0
-2.5444365 -1.0842022e-19 1.915921
3.6893488e+19 3.1928556 0
-2.3630955 -3.6893488e+19 1.8804399
-2 3.2194123 2
-2.5440872 0 1.8504322
2 3.1888914 3.6893488e+19
-2.3598452 2 1.7850945
3.6893488e+19 3.2123797 1.0842022e-19
-2.5396812 2 1.7352557
-3.6893488e+19 3.0473154 3.6893488e+19
-2.4473479 2 1.544176
-1.0842022e-19 3.0678689 1.0842022e-19
-2.3393764 2 1.2698517
0 3.1091702 3.6893488e+19
-2.5202079 -1.0842022e-19 -1.4935359
3.6893488e+19 3.0641773 0
-2.3354349 0 -1.6220089
-1.0842022e-19 3.0498536 3.6893488e+19
-2.4511669 -1.0842022e-19 -1.6869465
-2 3.071187 -3.6893488e+19
-2.3429189 0 -1.7604281
-0 3.0452509 3.6893488e+19
-2.4442415 -1.0842022e-19 -1.7840745
2 3.0711501 -3.6893488e+19
-2.3428793 -1.0842022e-19 -1.8327011
-2 3.0466833 -1.0842022e-19
-2.4463968 0 -1.8522102
3.6893488e+19 3.0670102 0
-2.3384595 3.6893488e+19 -1.8882072
-3.6893488e+19 3.0499735 -0
-2.4513474 -3.6893488e+19 -1.8989381
-3.6893488e+19 3.0710909 -1.0842022e-19
-2.3428164 1.0842022e-19 -1.9261478
-0 3.0048189 2
-2.3834066 -1.0842022e-19 -1.9054751
1.0842022e-19 3.0175576 -1.0842022e-19
-2.2856607 -3.6893488e+19 -1.9269323
3.6893488e+19 2.8701639 -1.0842022e-19
-2.1452096 -1.0842022e-19 -1.8932581
-3.6893488e+19 2.8298957 -0
-2.0204802 -3.6893488e+19 -1.8864874
2 2.7956936 -3.6893488e+19
-2.1205044 3.6893488e+19 -1.8815517
2 2.7781286 1.0842022e-19
-1.9780365 -2 -1.8807075
3.6893488e+19 2.7519398 -3.6893488e+19
-2.0656807 -0 -1.8763577
-0 2.7221367 -2
-1.9435514 3.6893488e+19 -1.873455
-3.6893488e+19 2.6738148 1.0842022e-19
-2.0155203 -3.6893488e+19 -1.8615837
0 2.6152327 0
-1.9788185 -0 -1.8496089
1.0842022e-19 2.5708477 3.6893488e+19
-1.9510113 -0 -1.8405373
0 2.4105594 -1.0842022e-19
-1.7933079 -3.6893488e+19 -1.7677491
3.6893488e+19 2.537199 -2
-1.9299303 -1.0842022e-19 -1.8342679
-1.0842022e-19 2.50702 2
-1.9110233 -3.6893488e+19 -1.8269118
-0 2.4117565 -1.0842022e-19
-1.7937987 -1.0842022e-19 -1.7914532
-2 2.4706891 1.0842022e-19
-1.8974435 -2 -1.8233043
-0 2.4482586 -0
-1.9186151 -1.0842022e-19 -1.8212807
3.6893488e+19 2.4173999 0
-1.9070075 -0 -1.8197589
1.0842022e-19 2.3579655 0
-1.8846508 -2 -1.8126413
-3.6893488e+19 2.3071847 3.6893488e+19
-1.8560988 -3.6893488e+19 -1.8037765
3.6893488e+19 2.2754757 2
-1.8322437 3.6893488e+19 -1.8013072
0 2.2495465 -1.0842022e-19
-1.704788 -1.0842022e-19 -1.7973069
-0 2.2018468 0
-1.6852337 2 -1.7939245
-1.0842022e-19 2.164542 -1.0842022e-19
-1.6699406 1.0842022e-19 -1.7920315
-3.6893488e+19 2.1268718 2
-1.6544979 3.6893488e+19 -1.7878728
2 3.135407 -1.0842022e-19
-2.5399461 -1.0842022e-19 2.6130655
-0 3.1209683 1.0842022e-19
-2.3960686 -1.0842022e-19 2.5909948
-2 3.1359293 3.6893488e+19
-2.5403392 -2 2.6020405
-1.0842022e-19 3.1197636 2
-2.3947823 3.6893488e+19 2.578964
-3.6893488e+19 3.1208985 -1.0842022e-19
-2.3959939 -0 2.5690482
-2 3.1254048 0
-2.5324216 2 2.5701356
2 3.1273289 -3.6893488e+19
-2.5338688 2 2.5606153
-1.0842022e-19 3.1065612 -0
-2.3806865 3.6893488e+19 2.5358031
-1.0842022e-19 3.1308961 2
-2.5365527 2 2.5523193
-3.6893488e+19 3.1071374 3.6893488e+19
-2.3813019 -0 2.525835
-0 3.1198442 -2
-2.5282381 3.6893488e+19 2.5326681
-3.6893488e+19 3.1130581 -0
-2.3876231 -2 2.5198352
-0 3.1155744 -1.0842022e-19
-2.5250258 -0 2.5186813
-3.6893488e+19 3.1113498 -2
-2.3857992 3.6893488e+19 2.5080678
0 3.1091082 -0
-2.2944312 0 2.5003576
2 3.0645154 -2
-2.394088 2 2.4324341
-3.6893488e+19 3.1024494 2
-2.2889719 2 2.4711006
-1.0842022e-19 3.0649104 -0
-2.3945832 3.6893488e+19 2.4147081
-2 3.1044149 3.6893488e+19
-2.2905834 -1.0842022e-19 2.4533353
2 3.0649548 0
-2.3946388 -3.6893488e+19 2.3965394
3.6893488e+19 3.077415 1.0842022e-19
-2.2684462 -1.0842022e-19 2.3999984
-2 3.0668154 0
-2.3969703 -3.6893488e+19 2.3805838
-3.6893488e+19 3.0775998 0
-2.2685978 -1.0842022e-19 2.3814564
3.6893488e+19 3.0670743 3.6893488e+19
-2.3972945 1.0842022e-19 2.3626194
-1.0842022e-19 3.0777686 3.6893488e+19
-2.2687361 1.0842022e-19 2.3629096
-3.6893488e+19 3.0663688 3.6893488e+19
-2.3964107 -0 2.3436172
-1.0842022e-19 3.0770271 3.6893488e+19
-2.2681282 -0 2.3434269
2 3.0667796 -0
-2.3969252 0 2.3258748
0 3.0883315 3.6893488e+19
-2.2773964 3.6893488e+19 2.3360229
-0 3.0652745 -1.0842022e-19
-2.3950393 2 2.3062599
-3.6893488e+19 3.040839 -3.6893488e+19
-2.4376032 -2 2.2756474
2 3.0554898 -0
-2.3261595 -3.6893488e+19 2.2783573
3.6893488e+19 3.0404575 -2
-2.4370291 2 2.2585917
1.0842022e-19 3.0575402 2
-2.3283486 -3.6893488e+19 2.262717
-3.6893488e+19 3.0375555 2
-2.432663 1.0842022e-19 2.2290118
2 3.0619519 3.6893488e+19
-2.3330588 -0 2.2474978
0 3.0396187 -3.6893488e+19
-2.4357669 1.0842022e-19 2.199261
-1.0842022e-19 3.1208277 2
-2.3959184 3.6893488e+19 2.2746449
-1.0842022e-19 3.0421596 -1.0842022e-19
-2.4395902 0 2.1697619
-1.0842022e-19 3.0674438 3.6893488e+19
-2.3389225 0 2.1842122
-2 3.0441382 -1.0842022e-19
-2.4425673 3.6893488e+19 2.1389854
3.6893488e+19 3.0677781 0
-2.3392794 2 2.1486783
2 3.2114615 1.0842022e-19
-2.597163 -3.6893488e+19 2.2787843
-1.0842022e-19 3.2098198 0
-2.595928 -0 2.2515714
-0 3.1121731 0
-2.3866782 3.6893488e+19 2.1224504
2 3.0637541 -1.0842022e-19
-2.2572455 3.6893488e+19 2.0538418
-3.6893488e+19 3.0632341 -3.6893488e+19
-2.3924828 1.0842022e-19 2.0376964
1.0842022e-19 3.0656476 1.0842022e-19
-2.2587981 -1.0842022e-19 2.020174
0 3.0623946 0
-2.3914309 -1.0842022e-19 2.0015531
-1.0842022e-19 3.192302 3.6893488e+19
-2.3626416 3.6893488e+19 2.0788629
-0 3.0645618 3.6893488e+19
-2.3941464 -0 1.9677126
2 3.064826 0
-2.2581246 -3.6893488e+19 1.9487143
0 3.0632596 -3.6893488e+19
-2.3925145 1.0842022e-19 1.9313871
-1.0842022e-19 3.0661783 -1.0842022e-19
-2.2592332 2 1.9140755
0 3.0661693 -0
-2.3961604 2 1.8973434
-1.0842022e-19 3.0706236 -1.0842022e-19
-2.2628779 -3.6893488e+19 1.8803999
-2 3.2199697 0
-2.5444365 -1.0842022e-19 1.915921
-3.6893488e+19 3.0748062 2
-2.2663074 3.6893488e+19 1.8163388
3.6893488e+19 3.0702167 0
-2.401232 2 1.7787819
0 3.0730681 -0
-2.2648821 -2 1.7356912
-0 3.0692232 -2
-2.399987 -1.0842022e-19 1.6624186
-3.6893488e+19 3.0473154 3.6893488e+19
-2.4473479 2 1.544176
-1.0842022e-19 3.0678689 1.0842022e-19
-2.3393764 2 1.2698517
2 3.0468566 -2
-2.4466574 1.0842022e-19 -1.4512842
3.6893488e+19 3.0641773 0
-2.3354349 0 -1.6220089
-1.0842022e-19 3.0498536 3.6893488e+19
-2.4511669 -1.0842022e-19 -1.6869465
-2 3.071187 -3.6893488e+19
-2.3429189 0 -1.7604281
-0 3.0452509 3.6893488e+19
-2.4442415 -1.0842022e-19 -1.7840745
2 3.0711501 -3.6893488e+19
-2.3428793 -1.0842022e-19 -1.8327011
-2 3.0466833 -1.0842022e-19
-2.4463968 0 -1.8522102
3.6893488e+19 3.0670102 0
-2.3384595 3.6893488e+19 -1.8882072
-3.6893488e+19 3.0499735 -0
-2.4513474 -3.6893488e+19 -1.8989381
1.0842022e-19 3.0186491 3.6893488e+19
-2.2868261 2 -1.8973786
-0 3.0048189 2
-2.3834066 -1.0842022e-19 -1.9054751
1.0842022e-19 3.0175576 -1.0842022e-19
-2.2856607 -3.6893488e+19 -1.9269323
3.6893488e+19 2.8701639 -1.0842022e-19
-2.1452096 -1.0842022e-19 -1.8932581
-3.6893488e+19 2.8298957 -0
-2.0204802 -3.6893488e+19 -1.8864874
2 2.7956936 -3.6893488e+19
-2.1205044 3.6893488e+19 -1.8815517
2 2.7781286 1.0842022e-19
-1.9780365 -2 -1.8807075
3.6893488e+19 2.7519398 -3.6893488e+19
-2.0656807 -0 -1.8763577
-0 2.7221367 -2
-1.9435514 3.6893488e+19 -1.873455
-3.6893488e+19 2.6738148 1.0842022e-19
-2.0155203 -3.6893488e+19 -1.8615837
0 2.6152327 0
-1.9788185 -0 -1.8496089
1.0842022e-19 2.5708477 3.6893488e+19
-1.9510113 -0 -1.8405373
0 2.4105594 -1.0842022e-19
-1.7933079 -3.6893488e+19 -1.7677491
3.6893488e+19 2.537199 -2
-1.9299303 -1.0842022e-19 -1.8342679
-1.0842022e-19 2.50702 2
-1.9110233 -3.6893488e+19 -1.8269118
-0 2.4117565 -1.0842022e-19
-1.7937987 -1.0842022e-19 -1.7914532
-2 2.4706891 1.0842022e-19
-1.8974435 -2 -1.8233043
-0 2.4482586 -0
-1.9186151 -1.0842022e-19 -1.8212807
3.6893488e+19 2.4173999 0
-1.9070075 -0 -1.8197589
1.0842022e-19 2.3579655 0
-1.8846508 -2 -1.8126413
-3.6893488e+19 2.3071847 3.6893488e+19
-1.8560988 -3.6893488e+19 -1.8037765
3.6893488e+19 2.2754757 2
-1.8322437 3.6893488e+19 -1.8013072
0 2.2495465 -1.0842022e-19
-1.704788 -1.0842022e-19 -1.7973069
-0 2.2018468 0
-1.6852337 2 -1.7939245
-1.0842022e-19 2.164542 -1.0842022e-19
-1.6699406 1.0842022e-19 -1.7920315
-3.6893488e+19 2.1268718 2
-1.6544979 3.6893488e+19 -1.7878728
0 3.1365912 2
-2.5450394 -3.6893488e+19 2.614362
2 3.1218336 -2
-2.4049377 1.0842022e-19 2.5919111
3.6893488e+19 3.1354382 -2
-2.5441594 2 2.6017673
3.6893488e+19 3.1196027 0
-2.4025085 -0 2.5789371
0 3.1235814 -2
-2.5351105 2 2.5798247
-2 3.1207371 0
-2.403744 1.0842022e-19 2.5690222
-3.6893488e+19 3.1242268 3.6893488e+19
-2.5356033 2 2.5692897
-2 3.0646257 -3.6893488e+19
-2.3426368 -0 2.5114942
0 3.1279237 -1.0842022e-19
-2.5384245 -0 2.5612595
1.0842022e-19 3.10765 3.6893488e+19
-2.3894916 1.0842022e-19 2.5367773
3.6893488e+19 3.1313999 0
-2.5410776 2 2.5528696
1.0842022e-19 3.1071634 -1.0842022e-19
-2.3889616 3.6893488e+19 2.5259526
2 3.11957 3.6893488e+19
-2.5320492 1.0842022e-19 2.532599
-2 3.1185634 2
-2.4013767 0 2.524024
-0 3.1164198 -1.0842022e-19
-2.529645 1.0842022e-19 2.5194366
0 3.1112223 1.0842022e-19
-2.3933818 3.6893488e+19 2.5080678
-0 3.110327 0
-2.3030746 2 2.5012758
-1.0842022e-19 3.1248705 -2
-2.4777772 -3.6893488e+19 2.5078156
-1.0842022e-19 3.1021695 -0
-2.2962132 -1.0842022e-19 2.4708545
2 3.1215281 -3.6893488e+19
-2.4735172 2 2.4894712
-0 3.1008809 2
-2.2951293 -3.6893488e+19 2.4489369
-2 3.1241968 1.0842022e-19
-2.4769187 -3.6893488e+19 2.4713228
1.0842022e-19 3.0773566 3.6893488e+19
-2.2753427 0 2.4000361
1.0842022e-19 3.108048 -2
-2.4563365 -1.0842022e-19 2.4302938
2 3.1025784 -2
-2.2965569 -1.0842022e-19 2.4106531
-3.6893488e+19 3.1100595 -3.6893488e+19
-2.4589005 2 2.4119499
2 3.0977225 -3.6893488e+19
-2.2924726 -1.0842022e-19 2.3851075
0 3.0660238 -0
-2.4027762 -2 2.3433845
1.0842022e-19 3.0979862 0
-2.2926946 -3.6893488e+19 2.3655365
-1.0842022e-19 3.1041207 -1.0842022e-19
-2.4513314 -0 2.364439
-3.6893488e+19 3.0830264 -0
-2.2801118 1.0842022e-19 2.3308444
-2 3.1067851 -0
-2.4547272 -3.6893488e+19 2.3467271
-2 3.1179874 -2
-2.5308414 -3.6893488e+19 2.3489394
-0 3.0605817 -0
-2.3382328 0 2.2830973
-1.0842022e-19 3.1152258 -2
-2.5287337 3.6893488e+19 2.3253188
2 3.0606954 -2
-2.3383565 -3.6893488e+19 2.2655063
2 3.1150985 -3.6893488e+19
-2.5286365 3.6893488e+19 2.3042426
-2 3.1208818 0
-2.4039016 1.0842022e-19 2.2958441
-1.0842022e-19 3.1123552 0
-2.5265431 -1.0842022e-19 2.2811852
2 3.1189699 -0
-2.4018192 3.6893488e+19 2.2733655
3.6893488e+19 3.1121285 1.0842022e-19
-2.52637 -2 2.2602742
2 3.1098483 2
-2.3918855 3.6893488e+19 2.2423885
-0 3.2037618 1.0842022e-19
-2.596303 -0 2.3001895
3.6893488e+19 3.1162572 -1.0842022e-19
-2.398865 2 2.2096617
-2 3.2054465 -3.6893488e+19
-2.5975885 1.0842022e-19 2.2752874
2 3.2039866 -1.0842022e-19
-2.5964744 1.0842022e-19 2.2470071
0 3.1118288 -1.0842022e-19
-2.3940423 0 2.1222279
-1.0842022e-19 3.1404803 0
-2.3284369 1.0842022e-19 2.1282473
2 3.0646758 -1.0842022e-19
-2.4010582 1.0842022e-19 2.0391402
-0 3.1951318 1.0842022e-19
-2.3744047 -2 2.131108
3.6893488e+19 3.1450858 0
-2.501771 -1.0842022e-19 2.0682714
-1.0842022e-19 3.1919332 0
-2.3717144 -1.0842022e-19 2.0786781
3.6893488e+19 3.192096 2
-2.3718512 0 2.0291216
-2 3.0594287 -3.6893488e+19
-2.3943708 3.6893488e+19 1.9292432
3.6893488e+19 3.0657506 1.0842022e-19
-2.2655809 -0 1.9138981
-3.6893488e+19 3.2221909 3.6893488e+19
-2.5509067 3.6893488e+19 1.970145
-3.6893488e+19 3.0698838 1.0842022e-19
-2.2690575 3.6893488e+19 1.8801346
-3.6893488e+19 3.2193122 0
-2.5490723 -0 1.9157575
1.0842022e-19 3.1921446 -1.0842022e-19
-2.371892 -2 1.880266
-2 3.2192795 -2
-2.5490513 -3.6893488e+19 1.8504617
0 3.1897664 3.6893488e+19
-2.3698916 1.0842022e-19 1.7854574
-3.6893488e+19 3.2128978 3.6893488e+19
-2.5449846 0 1.735617
-2 3.0463696 -1.0842022e-19
-2.452368 -3.6893488e+19 1.5437216
-2 3.0685925 2
-2.346957 2 1.2702328
-2 3.1095748 -3.6893488e+19
-2.524421 -1.0842022e-19 -1.4939315
3.6893488e+19 3.0657692 -0
-2.3438821 -2 -1.6233482
-0 3.0548921 -0
-2.4653764 1.0842022e-19 -1.6901823
1.0842022e-19 3.0707021 2
-2.3492541 3.6893488e+19 -1.7602713
2 3.0541584 -0
-2.4642565 0 -1.7889552
1.0842022e-19 3.1606915 0
-2.4472554 -1.0842022e-19 -1.8828526
1.0842022e-19 3.0481932 -3.6893488e+19
-2.4551513 1.0842022e-19 -1.8534799
3.6893488e+19 3.1617694 -2
-2.4484291 3.6893488e+19 -1.929583
0 3.045928 -1.0842022e-19
-2.4516938 -0 -1.8970025
3.6893488e+19 3.0670164 2
-2.3452404 -1.0842022e-19 -1.9239739
3.6893488e+19 3.0039868 2
-2.3876765 -3.6893488e+19 -1.9050444
-3.6893488e+19 3.0171225 -0
-2.2909045 3.6893488e+19 -1.9267073
2 2.8696001 -2
-2.1525054 3.6893488e+19 -1.8930905
-3.6893488e+19 2.829123 -2
-2.0268285 3.6893488e+19 -1.8862048
0 2.79477 0
-2.1256881 1.0842022e-19 -1.8811952
3.6893488e+19 2.7784872 -1.0842022e-19
-1.9842383 -0 -1.8809117
-1.0842022e-19 2.7520201 0
-2.071203 2 -1.8764504
-3.6893488e+19 2.7201474 2
-1.9477228 1.0842022e-19 -1.8724756
-3.6893488e+19 2.6719151 -2
-2.018868 0 -1.860621
2 2.615943 1.0842022e-19
-1.9831995 2 -1.850139
-0 2.5714529 0
-1.9548479 -2 -1.8410333
-1.0842022e-19 2.5376947 3.6893488e+19
-1.9333353 -2 -1.834716
3.6893488e+19 2.5059307 2
-1.9130934 -2 -1.8261393
2 2.4670563 0
-1.8988173 -2 -1.8218553
-0 2.4482801 0
-1.9210597 -3.6893488e+19 -1.8213876
0 3.1365912 2
-2.5450394 -3.6893488e+19 2.614362
2 3.1218336 -2
-2.4049377 1.0842022e-19 2.5919111
3.6893488e+19 3.1354382 -2
-2.5441594 2 2.6017673
3.6893488e+19 3.1196027 0
-2.4025085 -0 2.5789371
0 3.1235814 -2
-2.5351105 2 2.5798247
-2 3.1207371 0
-2.403744 1.0842022e-19 2.5690222
-3.6893488e+19 3.1242268 3.6893488e+19
-2.5356033 2 2.5692897
-2 3.0646257 -3.6893488e+19
-2.3426368 -0 2.5114942
0 3.1279237 -1.0842022e-19
-2.5384245 -0 2.5612595
-0 3.0649178 -1.0842022e-19
-2.3429549 3.6893488e+19 2.5025129
3.6893488e+19 3.1313999 0
-2.5410776 2 2.5528696
1.0842022e-19 3.1071634 -1.0842022e-19
-2.3889616 3.6893488e+19 2.5259526
2 3.11957 3.6893488e+19
-2.5320492 1.0842022e-19 2.532599
-2 3.1185634 2
-2.4013767 0 2.524024
-0 3.1164198 -1.0842022e-19
-2.529645 1.0842022e-19 2.5194366
0 3.1112223 1.0842022e-19
-2.3933818 3.6893488e+19 2.5080678
-0 3.110327 0
-2.3030746 2 2.5012758
-1.0842022e-19 3.0636852 -0
-2.3997958 1.0842022e-19 2.4314716
-1.0842022e-19 3.1021695 -0
-2.2962132 -1.0842022e-19 2.4708545
0 3.064445 -1.0842022e-19
-2.400764 -3.6893488e+19 2.4142666
-0 3.1008809 2
-2.2951293 -3.6893488e+19 2.4489369
1.0842022e-19 3.0647938 3.6893488e+19
-2.4012086 -3.6893488e+19 2.3965011
1.0842022e-19 3.0773566 3.6893488e+19
-2.2753427 0 2.4000361
0 3.0675085 -3.6893488e+19
-2.4046683 3.6893488e+19 2.3815744
-1.0842022e-19 3.0774798 -1.0842022e-19
-2.2754464 2 2.3814206
-3.6893488e+19 3.0679512 -1.0842022e-19
-2.4052329 1.0842022e-19 2.3637731
2 3.0776794 3.6893488e+19
-2.2756143 1.0842022e-19 2.3629096
0 3.0660238 -0
-2.4027762 -2 2.3433845
-0 3.0784173 -2
-2.2762349 -2 2.3449807
-2 3.0673218 -3.6893488e+19
-2.4044306 2 2.3265679
-3.6893488e+19 3.0830264 -0
-2.2801118 1.0842022e-19 2.3308444
0 3.065052 -0
-2.4015377 -0 2.3061705
-1.0842022e-19 3.0409689 1.0842022e-19
-2.4441247 1.0842022e-19 2.2759078
-0 3.0605817 -0
-2.3382328 0 2.2830973
2 3.0400081 2
-2.4426579 2 2.2583199
2 3.0606954 -2
-2.3383565 -3.6893488e+19 2.2655063
-1.0842022e-19 3.0381455 0
-2.4398153 2 2.2302332
-3.6893488e+19 3.0868011 -2
-2.3667865 2 2.2686586
0 3.0406666 -2
-2.4436629 -2 2.2011104
3.6893488e+19 3.084959 3.6893488e+19
-2.3647804 -2 2.2463346
1.0842022e-19 3.0431459 -2
-2.4474473 2 2.1713881
-1.0842022e-19 3.0656655 1.0842022e-19
-2.3437693 -3.6893488e+19 2.1819322
3.6893488e+19 3.0444205 0
-2.449393 -0 2.1395521
-1.0842022e-19 3.0683448 -0
-2.3466871 2 2.1495306
-2 3.2054465 -3.6893488e+19
-2.5975885 1.0842022e-19 2.2752874
2 3.2039866 -1.0842022e-19
-2.5964744 1.0842022e-19 2.2470071
0 3.1118288 -1.0842022e-19
-2.3940423 0 2.1222279
-1.0842022e-19 3.0643821 3.6893488e+19
-2.2644298 3.6893488e+19 2.054533
2 3.0646758 -1.0842022e-19
-2.4010582 1.0842022e-19 2.0391402
-0 3.0664616 -0
-2.2661788 -1.0842022e-19 2.0209446
3.6893488e+19 3.0576725 3.6893488e+19
-2.3921325 0 1.9978535
3.6893488e+19 3.0922771 0
-2.2878926 -3.6893488e+19 2.0045609
3.6893488e+19 3.0667899 -1.0842022e-19
-2.2664549 1.0842022e-19 1.9500084
-2 3.0594287 -3.6893488e+19
-2.3943708 3.6893488e+19 1.9292432
3.6893488e+19 3.0657506 1.0842022e-19
-2.2655809 -0 1.9138981
-3.6893488e+19 3.0664699 2
-2.4033451 2 1.8975447
-3.6893488e+19 3.0698838 1.0842022e-19
-2.2690575 3.6893488e+19 1.8801346
1.0842022e-19 3.068809 3.6893488e+19
-2.4063261 -1.0842022e-19 1.8502018
-1.0842022e-19 3.0728223 -0
-2.271529 1.0842022e-19 1.8152219
-0 3.0694051 2
-2.4070859 2 1.7784557
2 3.0726383 -3.6893488e+19
-2.271374 2 1.7354418
1.0842022e-19 3.0686281 1.0842022e-19
-2.4060955 1.0842022e-19 1.662183
-2 3.0463696 -1.0842022e-19
-2.452368 -3.6893488e+19 1.5437216
-2 3.0685925 2
-2.346957 2 1.2702328
-1.0842022e-19 3.0472002 2
-2.4536359 0 -1.4516174
3.6893488e+19 3.0657692 -0
-2.3438821 -2 -1.6233482
-0 3.0548921 -0
-2.4653764 1.0842022e-19 -1.6901823
1.0842022e-19 3.0707021 2
-2.3492541 3.6893488e+19 -1.7602713
2 3.0541584 -0
-2.4642565 0 -1.7889552
2 3.0650616 1.0842022e-19
-2.3431115 -0 -1.8288355
1.0842022e-19 3.0481932 -3.6893488e+19
-2.4551513 1.0842022e-19 -1.8534799
-1.0842022e-19 3.0644836 -2
-2.3424821 -0 -1.8871542
0 3.045928 -1.0842022e-19
-2.4516938 -0 -1.8970025
0 3.0183685 -3.6893488e+19
-2.2922611 -1.0842022e-19 -1.8972766
3.6893488e+19 3.0039868 2
-2.3876765 -3.6893488e+19 -1.9050444
-3.6893488e+19 3.0171225 -0
-2.2909045 3.6893488e+19 -1.9267073
2 2.8696001 -2
-2.1525054 3.6893488e+19 -1.8930905
-3.6893488e+19 2.829123 -2
-2.0268285 3.6893488e+19 -1.8862048
0 2.79477 0
-2.1256881 1.0842022e-19 -1.8811952
3.6893488e+19 2.7784872 -1.0842022e-19
-1.9842383 -0 -1.8809117
-1.0842022e-19 2.7520201 0
-2.071203 2 -1.8764504
-3.6893488e+19 2.7201474 2
-1.9477228 1.0842022e-19 -1.8724756
-3.6893488e+19 2.6719151 -2
-2.018868 0 -1.860621
2 2.615943 1.0842022e-19
-1.9831995 2 -1.850139
-0 2.5714529 0
-1.9548479 -2 -1.8410333
-1.0842022e-19 2.5376947 3.6893488e+19
-1.9333353 -2 -1.834716
3.6893488e+19 2.5059307 2
-1.9130934 -2 -1.8261393
2 2.4670563 0
-1.8988173 -2 -1.8218553
-0 2.4482801 0
-1.9210597 -3.6893488e+19 -1.8213876
0 3.134872 2
-2.5479152 -0 2.6129246
-2 3.1266489 0
-2.4182365 2 2.5964639
0 3.1350045 -1.0842022e-19
-2.5480177 0 2.6015487
-0 3.1194694 -2
-2.410264 -0 2.5789371
3.6893488e+19 3.1233931 -0
-2.5390298 2 2.5798247
0 3.1205733 -0
-2.4114897 -2 2.568996
-3.6893488e+19 3.1240382 -1.0842022e-19
-2.5395293 2 2.5692897
0 3.0651188 0
-2.3499124 0 2.5119984
0 3.1274927 2
-2.5422032 0 2.5610614
1.0842022e-19 3.1090391 0
-2.3986821 1.0842022e-19 2.5379949
0 3.1266606 -2
-2.541559 3.6893488e+19 2.5492568
-3.6893488e+19 3.1105306 -0
-2.4003384 1.0842022e-19 2.5286548
0 3.1193235 -2
-2.5358796 -1.0842022e-19 2.5325527
1.0842022e-19 3.1178827 -0
-2.4085021 -1.0842022e-19 2.5236163
2 3.1177146 -1.0842022e-19
-2.5346344 3.6893488e+19 2.520525
-3.6893488e+19 3.1145055 3.6893488e+19
-2.4047523 3.6893488e+19 2.5105076
-3.6893488e+19 3.1113284 -2
-2.3115861 -2 2.5020444
-3.6893488e+19 3.1245909 -1.0842022e-19
-2.4854856 -2 2.5077319
-1.0842022e-19 3.1023777 -1.0842022e-19
-2.3038676 -3.6893488e+19 2.4712644
-3.6893488e+19 3.124264 -2
-2.4850619 -2 2.4932835
-3.6893488e+19 3.1012738 2
-2.3029158 3.6893488e+19 2.4495654
-1.0842022e-19 3.0642648 1.0842022e-19
-2.4073005 -0 2.3960018
2 3.077173 -2
-2.2821326 -1.0842022e-19 2.3999233
3.6893488e+19 3.068351 -2
-2.4125962 -0 2.3827484
-3.6893488e+19 3.0774498 -0
-2.2823715 -2 2.3814921
-0 3.1131761 -2
-2.4706914 -0 2.4156907
-0 3.0775878 3.6893488e+19
-2.2824905 1.0842022e-19 2.3629096
1.0842022e-19 3.1176524 3.6893488e+19
-2.4764929 -0 2.3996515
2 3.0964718 -0
-2.2987747 2 2.3640475
-3.6893488e+19 3.1055322 -2
-2.4607847 1.0842022e-19 2.366046
-1.0842022e-19 3.0826559 2
-2.2868609 2 2.3305686
0 3.1054404 -0
-2.4606655 -3.6893488e+19 2.3455658
1.0842022e-19 3.1157603 3.6893488e+19
-2.5331216 1.0842022e-19 2.3470025
-1.0842022e-19 3.0602236 -1.0842022e-19
-2.3444767 -3.6893488e+19 2.2828727
-3.6893488e+19 3.1145537 -0
-2.5321877 3.6893488e+19 2.3248839
2 3.0834231 1.0842022e-19
-2.3702378 1.0842022e-19 2.2850313
-2 3.1153417 -2
-2.5327976 -1.0842022e-19 2.3045988
-0 3.1211486 -0
-2.4121287 3.6893488e+19 2.2961636
-1.0842022e-19 3.1129973 2
-2.530983 0 2.2818255
-3.6893488e+19 3.1179121 -3.6893488e+19
-2.4085348 -3.6893488e+19 2.27268
-0 3.1100512 0
-2.5287025 -1.0842022e-19 2.2589116
-2 3.0671246 -1.0842022e-19
-2.3521397 -2 2.1840854
-1.0842022e-19 3.0438745 3.6893488e+19
-2.4549551 2 2.1390259
-0 3.1158473 3.6893488e+19
-2.4062421 -2 2.2093129
-1.0842022e-19 3.1146164 3.6893488e+19
-2.4048753 -0 2.1664789
-3.6893488e+19 3.0346584 0
-2.4406877 -3.6893488e+19 2.0617902
-2 3.1128411 3.6893488e+19
-2.402904 3.6893488e+19 2.123404
3.6893488e+19 3.0643563 3.6893488e+19
-2.2710805 -0 2.0545931
2 3.064574 -0
-2.407701 -3.6893488e+19 2.0391684
-2 3.0651631 -2
-2.2717762 2 2.0199084
2 3.1445496 -2
-2.5056763 -3.6893488e+19 2.0679734
-2 3.1645594 -0
-2.3574891 3.6893488e+19 2.0584056
3.6893488e+19 3.0590289 3.6893488e+19
-2.4005144 -3.6893488e+19 1.964062
-2 3.0673223 0
-2.2736382 -1.0842022e-19 1.9504005
1.0842022e-19 3.0593293 1.0842022e-19
-2.4009037 1.0842022e-19 1.9292611
1.0842022e-19 3.2287884 -1.0842022e-19
-2.4128759 3.6893488e+19 1.9985963
3.6893488e+19 3.2060194 -0
-2.5455101 2 1.9626951
-2 3.0714407 1.0842022e-19
-2.2771897 -2 1.8808044
-2 3.2060997 1.0842022e-19
-2.5455623 3.6893488e+19 1.9111589
-3.6893488e+19 3.0691907 2
-2.2752495 2 1.8131346
-1.0842022e-19 3.2068057 -3.6893488e+19
-2.5460196 3.6893488e+19 1.8445613
-2 3.0740082 -1.0842022e-19
-2.2794037 2 1.7365077
3.6893488e+19 3.1994078 2
-2.5412257 -0 1.7288469
-2 3.0671158 -0
-2.3521299 3.6893488e+19 1.2696117
-2 3.1062949 -3.6893488e+19
-2.5257947 -1.0842022e-19 -1.4918283
2 3.0657482 -1.0842022e-19
-2.3506112 3.6893488e+19 -1.6234213
-3.6893488e+19 3.0501671 -0
-2.4646969 -3.6893488e+19 -1.6873294
-3.6893488e+19 3.1602502 2
-2.4555478 1.0842022e-19 -1.798105
-1.0842022e-19 3.0525939 -0
-2.4684539 -3.6893488e+19 -1.7881941
3.6893488e+19 3.1607909 1.0842022e-19
-2.4561481 -1.0842022e-19 -1.8829327
2 3.0485337 -0
-2.462168 2 -1.8538561
-0 3.1602285 -2
-2.4555235 -0 -1.9289755
-0 3.0456254 -1.0842022e-19
-2.4576657 1.0842022e-19 -1.8969263
-1.0842022e-19 3.0656955 -1.0842022e-19
-2.3505528 -1.0842022e-19 -1.9233116
1.0842022e-19 3.0041041 2
-2.3933854 3.6893488e+19 -1.9051943
-1.0842022e-19 3.0159438 1.0842022e-19
-2.2953079 2 -1.9259909
0 2.8706417 2
-2.1615658 3.6893488e+19 -1.8935455
2 2.8302724 1.0842022e-19
-2.0348055 2 -1.8867186
0 2.7959394 -3.6893488e+19
-2.1335497 2 -1.8817712
1.0842022e-19 2.7761142 -2
-1.9881029 0 -1.8798325
-3.6893488e+19 2.7503128 0
-2.0744162 -2 -1.8756467
1.0842022e-19 2.7216284 -3.6893488e+19
-1.9533508 -3.6893488e+19 -1.8733244
-3.6893488e+19 2.6719835 3.6893488e+19
-2.0234542 0 -1.8607585
2 2.6175113 2
-1.988155 -3.6893488e+19 -1.8511992
-0 2.5711944 -0
-1.9581407 2 -1.8409507
0 2.4113235 2
-1.8023493 -0 -1.7680937
1.0842022e-19 2.5375736 2
-1.9363537 -2 -1.834716
2 2.507051 -3.6893488e+19
-1.9165744 0 -1.827105
2 2.4107876 -3.6893488e+19
-1.8021182 3.6893488e+19 -1.7911532
1.0842022e-19 2.4651413 -1.0842022e-19
-1.9007106 2 -1.8211309
0 2.4480543 -2
-1.9234111 -3.6893488e+19 -1.8213876
-1.0842022e-19 2.4160068 -3.6893488e+19
-1.9110078 -3.6893488e+19 -1.8193033
0 2.3588245 1.0842022e-19
-1.8888764 3.6893488e+19 -1.81328
1.0842022e-19 2.3073635 0
-1.8629189 -2 -1.8040596
2 2.2742302 -1.0842022e-19
-1.8372716 1.0842022e-19 -1.8006859
1.0842022e-19 2.2501254 1.0842022e-19
-1.7156919 -0 -1.7976451
3.6893488e+19 2.2089288 0
-1.6978753 2 -1.7966667
-2 2.1667504 3.6893488e+19
-1.6796893 2 -1.793014
1.0842022e-19 2.1334684 1.0842022e-19
-1.6653391 -0 -1.790815
0 3.134872 2
-2.5479152 -0 2.6129246
-2 3.1266489 0
-2.4182365 2 2.5964639
0 3.1350045 -1.0842022e-19
-2.5480177 0 2.6015487
-0 3.1194694 -2
-2.410264 -0 2.5789371
3.6893488e+19 3.1233931 -0
-2.5390298 2 2.5798247
0 3.1205733 -0
-2.4114897 -2 2.568996
-3.6893488e+19 3.1240382 -1.0842022e-19
-2.5395293 2 2.5692897
0 3.0651188 0
-2.3499124 0 2.5119984
0 3.1274927 2
-2.5422032 0 2.5610614
1.0842022e-19 3.0642579 3.6893488e+19
-2.3489563 -3.6893488e+19 2.5020745
0 3.1266606 -2
-2.541559 3.6893488e+19 2.5492568
-3.6893488e+19 3.1105306 -0
-2.4003384 1.0842022e-19 2.5286548
0 3.1193235 -2
-2.5358796 -1.0842022e-19 2.5325527
2 3.0669849 3.6893488e+19
-2.3519845 1.0842022e-19 2.4715214
2 3.1177146 -1.0842022e-19
-2.5346344 3.6893488e+19 2.520525
2 3.0673537 2
-2.3523941 -2 2.4536173
-3.6893488e+19 3.1113284 -2
-2.3115861 -2 2.5020444
-3.6893488e+19 3.1245909 -1.0842022e-19
-2.4854856 -2 2.5077319
-1.0842022e-19 3.1023777 -1.0842022e-19
-2.3038676 -3.6893488e+19 2.4712644
-1.0842022e-19 3.0643733 -3.6893488e+19
-2.4074409 -0 2.4143469
-3.6893488e+19 3.1012738 2
-2.3029158 3.6893488e+19 2.4495654
-1.0842022e-19 3.0642648 1.0842022e-19
-2.4073005 -0 2.3960018
2 3.077173 -2
-2.2821326 -1.0842022e-19 2.3999233
3.6893488e+19 3.068351 -2
-2.4125962 -0 2.3827484
-3.6893488e+19 3.0774498 -0
-2.2823715 -2 2.3814921
-3.6893488e+19 3.0675423 1.0842022e-19
-2.4115484 3.6893488e+19 2.3634584
-0 3.0775878 3.6893488e+19
-2.2824905 1.0842022e-19 2.3629096
-0 3.0643618 -0
-2.4074261 -3.6893488e+19 2.3417227
-0 3.0784488 3.6893488e+19
-2.2832329 -2 2.3451102
-1.0842022e-19 3.0648317 1.0842022e-19
-2.4080353 -2 2.3241417
-1.0842022e-19 3.0826559 2
-2.2868609 2 2.3305686
-0 3.0642147 -2
-2.4072354 0 2.3054857
1.0842022e-19 3.1157603 3.6893488e+19
-2.5331216 1.0842022e-19 2.3470025
-1.0842022e-19 3.0602236 -1.0842022e-19
-2.3444767 -3.6893488e+19 2.2828727
-3.6893488e+19 3.0384283 0
-2.4465239 1.0842022e-19 2.2570424
2 3.0834231 1.0842022e-19
-2.3702378 1.0842022e-19 2.2850313
0 3.0408084 -2
-2.4502082 -3.6893488e+19 2.2349153
-0 3.0849547 -2
-2.3719385 -3.6893488e+19 2.267282
-2 3.0408254 -1.0842022e-19
-2.4502347 0 2.2015848
-0 3.0838211 -1.0842022e-19
-2.3706796 -1.0842022e-19 2.2448268
0 3.042937 3.6893488e+19
-2.4535036 3.6893488e+19 2.1713002
-2 3.0671246 -1.0842022e-19
-2.3521397 -2 2.1840854
-1.0842022e-19 3.0438745 3.6893488e+19
-2.4549551 2 2.1390259
3.6893488e+19 3.0789695 -1.0842022e-19
-2.3652923 1.0842022e-19 2.1630137
-2 3.0710809 -3.6893488e+19
-2.3565328 -3.6893488e+19 2.116751
-3.6893488e+19 3.0346584 0
-2.4406877 -3.6893488e+19 2.0617902
-3.6893488e+19 3.0682659 3.6893488e+19
-2.3534071 -3.6893488e+19 2.0775311
3.6893488e+19 3.0643563 3.6893488e+19
-2.2710805 -0 2.0545931
2 3.064574 -0
-2.407701 -3.6893488e+19 2.0391684
-2 3.0651631 -2
-2.2717762 2 2.0199084
-2 3.0592065 3.6893488e+19
-2.4007447 -1.0842022e-19 1.9991943
2 3.0919952 2
-2.2949145 -2 2.0044224
3.6893488e+19 3.0590289 3.6893488e+19
-2.4005144 -3.6893488e+19 1.964062
-2 3.0673223 0
-2.2736382 -1.0842022e-19 1.9504005
1.0842022e-19 3.0593293 1.0842022e-19
-2.4009037 1.0842022e-19 1.9292611
2 3.0655072 -1.0842022e-19
-2.2720728 2 1.9138175
-3.6893488e+19 3.0656273 2
-2.4090664 3.6893488e+19 1.8972139
-2 3.0714407 1.0842022e-19
-2.2771897 -2 1.8808044
-1.0842022e-19 3.067626 -2
-2.4116566 -1.0842022e-19 1.8494608
-3.6893488e+19 3.0691907 2
-2.2752495 2 1.8131346
-2 3.0690854 0
-2.4135482 0 1.7783668
-2 3.0740082 -1.0842022e-19
-2.2794037 2 1.7365077
-3.6893488e+19 3.0677533 1.0842022e-19
-2.4118218 -2 1.661806
-2 3.0671158 -0
-2.3521299 3.6893488e+19 1.2696117
-2 3.0476027 -2
-2.4607267 3.6893488e+19 -1.4519922
2 3.0657482 -1.0842022e-19
-2.3506112 3.6893488e+19 -1.6234213
-3.6893488e+19 3.0501671 -0
-2.4646969 -3.6893488e+19 -1.6873294
3.6893488e+19 3.0703387 -2
-2.3557086 -3.6893488e+19 -1.7601668
-1.0842022e-19 3.0525939 -0
-2.4684539 -3.6893488e+19 -1.7881941
3.6893488e+19 3.0625341 2
-2.3470423 3.6893488e+19 -1.8272732
2 3.0485337 -0
-2.462168 2 -1.8538561
-0 3.0630398 -1.0842022e-19
-2.3476038 1.0842022e-19 -1.8865738
-0 3.0456254 -1.0842022e-19
-2.4576657 1.0842022e-19 -1.8969263
-3.6893488e+19 3.0187974 0
-2.2984767 3.6893488e+19 -1.8975654
1.0842022e-19 3.0041041 2
