# .PCD v0.7 - Point Cloud Data file format
VERSION 0.7
FIELDS x y z
SIZE 4 4 4
TYPE F F F
COUNT 1 1 1
WIDTH 1700
HEIGHT 1
VIEWPOINT 0 0 0 1 0 0 0
POINTS 1700
DATA ascii
-0 3.1493051 0
2.0686862 -0 2.367877
3.6893488e+19 3.2572639 -0
-1.5984284 -1.0842022e-19 2.458915
1.0842022e-19 3.151974 -1.0842022e-19
2.070816 -3.6893488e+19 2.3476133
-1.0842022e-19 3.2552197 3.6893488e+19
-1.5966531 -1.0842022e-19 2.4264672
3.6893488e+19 3.1520493 1.0842022e-19
2.0708764 0 2.3249819
0 3.1582534 -2
-1.5522797 3.6893488e+19 2.318094
3.6893488e+19 3.1532235 -2
2.0718133 2 2.3032043
-2 3.2518473 2
-1.5937243 -2 2.3641169
-1.0842022e-19 3.1530733 1.0842022e-19
2.0716937 -2 2.2803984
1.0842022e-19 3.1589861 -2
-1.5525979 3.6893488e+19 2.2726741
3.6893488e+19 3.1566055 -3.6893488e+19
2.0745125 -0 2.2599959
0 3.1476226 1.0842022e-19
-1.5476635 3.6893488e+19 2.2355587
-3.6893488e+19 3.1525571 -0
2.0712817 -0 2.2195923
-3.6893488e+19 3.1529369 3.6893488e+19
-1.5499712 2 2.1968718
-3.6893488e+19 3.14604 -3.6893488e+19
2.2552299 -2 2.1461301
1.0842022e-19 3.1547136 -3.6893488e+19
1.9258558 -2 2.1309879
-2 3.1521428 0
2.2591631 -2 2.1070836
0 3.1607971 1.0842022e-19
1.9284992 1.0842022e-19 2.0907338
2 3.166569 3.6893488e+19
2.26846 -3.6893488e+19 2.0731497
2 3.1610291 0
1.9286001 -3.6893488e+19 2.0449612
0 3.1662636 -1.0842022e-19
2.2682631 1.0842022e-19 2.0262351
2 3.166985 3.6893488e+19
1.931188 3.6893488e+19 2.0026245
2 3.2620895 -2
2.3378098 3.6893488e+19 2.039115
-0 3.1628385 2
1.9293863 3.6893488e+19 1.9539984
0 3.2613208 -3.6893488e+19
2.3368189 1.0842022e-19 1.9797224
-3.6893488e+19 3.2582059 2
1.974391 1.0842022e-19 1.9475083
2 3.1594007 1.0842022e-19
2.2638404 -3.6893488e+19 1.884115
-1.0842022e-19 3.1576662 -0
1.9271388 -3.6893488e+19 1.8458312
-1.0842022e-19 3.1568949 1.0842022e-19
2.2622256 -0 1.800491
2 3.1532688 -1.0842022e-19
1.925228 0 1.7534314
0 3.1476769 2
-1.5476871 0 1.6644995
3.6893488e+19 3.1425414 -1.0842022e-19
2.063288 2 1.5247468
1.0842022e-19 3.1453414 -2
-1.5466728 -0 -1.2058975
2 3.1405425 2
2.0616927 -0 -1.5748973
-3.6893488e+19 3.1448302 3.6893488e+19
-1.546451 3.6893488e+19 -1.6889927
-2 3.139617 3.6893488e+19
2.0609541 2 -1.7618915
0 3.1463001 -2
-1.5470891 3.6893488e+19 -1.8082728
0 3.1387665 -3.6893488e+19
2.0602751 -1.0842022e-19 -1.8484344
3.6893488e+19 3.1545923 -2
-1.5506899 -0 -1.8886915
2 3.1380532 2
2.059706 -3.6893488e+19 -1.9048728
1.0842022e-19 3.2233377 0
-1.580542 -3.6893488e+19 -1.9650903
0 3.1405656 -0
2.0617111 -2 -1.9495234
-2 3.1504033 0
-1.548871 -0 -1.9766583
-3.6893488e+19 3.1179829 -1.0842022e-19
2.0436878 3.6893488e+19 -1.9791375
0 3.1001215 -1.0842022e-19
-1.5270365 -1.0842022e-19 -1.9873022
1.0842022e-19 3.0639045 -2
2.0005276 2 -1.9805789
2 3.0026543 2
2.0756488 0 -1.9501296
1.0842022e-19 2.956008 2
1.8231442 -0 -1.9428391
-3.6893488e+19 2.8722641 -2
1.9899076 0 -1.918321
2 2.7716365 -1.0842022e-19
1.9250575 -2 -1.8880755
-3.6893488e+19 2.7434666 1.0842022e-19
1.7144208 -1.0842022e-19 -1.8819691
-1.0842022e-19 2.6960742 -0
1.8937374 -3.6893488e+19 -1.8759053
3.6893488e+19 2.6683314 0
1.6817731 3.6893488e+19 -1.8722073
3.6893488e+19 2.6313717 -0
1.870777 -0 -1.8617419
-1.0842022e-19 2.612184 -0
1.6573759 0 -1.8593528
3.6893488e+19 2.5760319 -3.6893488e+19
1.8351129 -2 -1.8457477
-3.6893488e+19 2.5619323 -1.0842022e-19
1.6355406 3.6893488e+19 -1.8443654
-1.0842022e-19 2.5405936 -3.6893488e+19
1.8122746 -0 -1.8381392
-3.6893488e+19 2.5292666 3.6893488e+19
1.6176935 3.6893488e+19 -1.8371021
0 2.5079143 0
1.7912142 -0 -1.8287317
1.0842022e-19 2.4987304 1.0842022e-19
1.5917079 -3.6893488e+19 -1.82844
-2 2.4713829 -3.6893488e+19
-1.2046931 -1.0842022e-19 -1.8238569
2 2.4502704 2
1.6796808 -0 -1.8215427
-2 3.1709962 2
-1.662057 -2 2.6434829
-2 3.2647758 -2
2.1503673 -3.6893488e+19 2.7221611
-3.6893488e+19 3.158071 0
-1.6570817 -1.0842022e-19 2.6074784
-2 3.257643 2
2.1395819 -0 2.6943657
1.0842022e-19 3.2697437 3.6893488e+19
2.1578791 3.6893488e+19 2.6994994
-1.0842022e-19 3.2523999 -3.6893488e+19
-1.6943161 0 2.6628001
1.0842022e-19 3.2540917 -1.0842022e-19
2.1342118 0 2.6586394
2 3.25631 1.0842022e-19
-1.6973264 0 2.6543255
1.0842022e-19 3.2481563 3.6893488e+19
2.1266308 2 2.6361279
-3.6893488e+19 3.3058689 -2
-1.7354805 2 2.7148049
-3.6893488e+19 3.2469749 -2
2.1257377 2 2.6208398
1.0842022e-19 3.2567284 2
-1.6976485 2 2.6253164
-2 3.2462258 1.0842022e-19
2.1251714 3.6893488e+19 2.6059644
-3.6893488e+19 3.244756 0
2.3084047 1.0842022e-19 2.5984533
0 3.2468858 -3.6893488e+19
2.309732 -2 2.5856433
1.0842022e-19 3.2528942 2
1.948541 3.6893488e+19 2.569005
-3.6893488e+19 3.2602556 -0
1.9543204 -0 2.5634265
2 3.244396 3.6893488e+19
2.3081801 -0 2.5414474
2 3.2615275 3.6893488e+19
1.9553189 -0 2.5500522
-2 3.244952 3.6893488e+19
2.3085268 1.0842022e-19 2.5276461
1.0842022e-19 3.2542915 0
1.9496381 -2 2.5272884
0 3.253551 -3.6893488e+19
1.9490566 3.6893488e+19 2.5120859
0 3.2575977 -3.6893488e+19
-1.6983176 -2 2.4886312
-1.0842022e-19 3.1488597 2
2.0515578 -0 2.36742
-3.6893488e+19 3.2565153 -2
-1.6974845 -2 2.4575853
-0 3.2499089 3.6893488e+19
2.1279559 -0 2.4322493
3.6893488e+19 3.2549524 1.0842022e-19
-1.6962813 1.0842022e-19 2.4260259
-0 3.2471983 -3.6893488e+19
2.1259065 3.6893488e+19 2.4018409
1.0842022e-19 3.252737 2
-1.6945757 -1.0842022e-19 2.3938491
-0 3.2311265 -0
2.1137555 3.6893488e+19 2.3617375
2 3.2517509 1.0842022e-19
-1.6938165 -1.0842022e-19 2.363982
3.6893488e+19 3.2329535 1.0842022e-19
2.1151369 -1.0842022e-19 2.3359244
-3.6893488e+19 3.249696 -3.6893488e+19
-1.6923515 1.0842022e-19 2.3331554
-1.0842022e-19 3.156595 -0
2.0574059 -1.0842022e-19 2.2599561
2 3.1491444 -1.0842022e-19
-1.6536454 3.6893488e+19 2.2374232
-1.0842022e-19 3.1561265 -3.6893488e+19
2.0570517 1.0842022e-19 2.2236958
-2 3.2516415 0
-1.6937324 -0 2.279083
-0 3.1587212 -3.6893488e+19
2.0590134 2 2.1808596
-2 3.1482368 -2
2.2464793 -2 2.1482446
-2 3.2333314 -1.0842022e-19
1.9397259 1.0842022e-19 2.2049663
0 3.1512933 -2
2.2501447 -2 2.1062551
3.6893488e+19 3.231178 -0
1.9388806 3.6893488e+19 2.1490839
1.0842022e-19 3.245574 2
2.3089144 0 2.1343575
-2 3.2204792 2
1.9346809 3.6893488e+19 2.0876009
0 3.2164989 0
2.2907906 -1.0842022e-19 2.0595071
2 3.257488 2
1.9521476 0 2.06197
-3.6893488e+19 3.1530085 -1.0842022e-19
2.251214 -3.6893488e+19 1.9722363
0 3.2586739 -2
1.9530785 -0 2.0056229
-3.6893488e+19 3.2159436 -3.6893488e+19
2.2904444 -0 1.9547588
3.6893488e+19 3.2575052 3.6893488e+19
1.9521611 2 1.9469589
-0 3.2451768 0
2.3086669 2 1.9121807
-0 3.2588537 -0
1.9532198 -1.0842022e-19 1.8902105
-3.6893488e+19 3.2457647 3.6893488e+19
2.3090334 -1.0842022e-19 1.8387755
0 3.1522653 -2
1.9079043 0 1.7531031
3.6893488e+19 3.1495469 2
-1.6538004 0 1.6652751
0 3.1429973 2
2.0471253 -1.0842022e-19 1.5249015
-1.0842022e-19 3.2996819 0
-1.7307174 -1.0842022e-19 -1.2810791
-0 3.1407483 -3.6893488e+19
2.0454249 -1.0842022e-19 -1.5749772
3.6893488e+19 3.3006892 0
-1.7314929 -1.0842022e-19 -1.7689321
0 3.1411338 0
2.0457165 -0 -1.7624068
3.6893488e+19 3.2965105 -3.6893488e+19
-1.7282757 -0 -1.8871258
0 3.140002 0
2.0448608 -1.0842022e-19 -1.849116
2 3.2962704 2
-1.7280909 -1.0842022e-19 -1.9531215
-0 3.1389139 -2
2.0440381 -3.6893488e+19 -1.9051965
-0 3.1914389 -0
-1.6699262 -1.0842022e-19 -1.9505976
-3.6893488e+19 3.1408024 -2
2.0454659 -3.6893488e+19 -1.9496191
1.0842022e-19 3.1502736 -2
-1.65408 1.0842022e-19 -1.9765877
-0 3.1508434 3.6893488e+19
2.0530574 0 -1.9995675
-2 3.1786702 2
-1.665011 -1.0842022e-19 -2.0405438
-1.0842022e-19 3.1064148 0
2.0194674 -3.6893488e+19 -2.0117714
2 3.0005908 -0
2.0624099 -2 -1.9484538
1.0842022e-19 2.9519832 2
1.8024205 -0 -1.9411242
1.0842022e-19 2.8766966 1.0842022e-19
1.9848126 3.6893488e+19 -1.9202896
1.0842022e-19 2.7771032 1.0842022e-19
1.9227314 2 -1.890825
-0 2.7454951 3.6893488e+19
1.6945006 -3.6893488e+19 -1.8825026
3.6893488e+19 2.696167 -0
1.8890584 -3.6893488e+19 -1.8759053
-3.6893488e+19 2.6698551 -3.6893488e+19
1.664809 1.0842022e-19 -1.873091
3.6893488e+19 2.6326935 -0
1.8635508 3.6893488e+19 -1.8625131
2 2.6109631 1.0842022e-19
1.6416917 -1.0842022e-19 -1.8585469
-2 2.5759754 2
1.8281958 -1.0842022e-19 -1.8456637
3.6893488e+19 2.5618291 1.0842022e-19
1.6198095 1.0842022e-19 -1.8442779
1.0842022e-19 2.5409024 1.0842022e-19
1.8063331 3.6893488e+19 -1.8383212
-0 2.5291612 -1.0842022e-19
1.5941627 -3.6893488e+19 -1.8370075
-2 2.5079677 2
1.7858034 -0 -1.8287317
-3.6893488e+19 2.498764 -3.6893488e+19
1.5707837 -3.6893488e+19 -1.82844
3.6893488e+19 2.4713771 3.6893488e+19
-1.3064505 -1.0842022e-19 -1.8238569
-2 2.4513206 1.0842022e-19
1.6706104 0 -1.8219762
3.6893488e+19 2.4330096 3.6893488e+19
-1.2916814 -3.6893488e+19 -1.8198901
-3.6893488e+19 2.3717728 -2
-1.2681091 2 -1.8133591
3.6893488e+19 2.3218174 3.6893488e+19
-1.2477589 -0 -1.8063182
-3.6893488e+19 2.2833567 2
-1.2181491 -2 -1.8007977
-0 2.2536068 -1.0842022e-19
1.658085 2 -1.7973745
-0 2.2113512 -2
1.6437908 3.6893488e+19 -1.7950944
0 2.1754072 -1.0842022e-19
1.632588 -0 -1.7941747
-2 2.1405473 3.6893488e+19
1.6184465 1.0842022e-19 -1.7916964
-2 3.1709962 2
-1.662057 -2 2.6434829
-1.0842022e-19 3.1913743 2
2.0837009 1.0842022e-19 2.6435401
-3.6893488e+19 3.158071 0
-1.6570817 -1.0842022e-19 2.6074784
1.0842022e-19 3.1930559 2
2.0849721 0 2.6320767
-3.6893488e+19 3.1879647 1.0842022e-19
2.0811231 2 2.6149111
-1.0842022e-19 3.2523999 -3.6893488e+19
-1.6943161 0 2.6628001
-3.6893488e+19 3.1910682 -1.0842022e-19
2.0834694 -3.6893488e+19 2.6046708
2 3.25631 1.0842022e-19
-1.6973264 0 2.6543255
1.0842022e-19 3.2481563 3.6893488e+19
2.1266308 2 2.6361279
-3.6893488e+19 3.2018497 0
-1.6739337 -0 2.5933201
-3.6893488e+19 3.2469749 -2
2.1257377 2 2.6208398
-2 3.1955512 3.6893488e+19
-1.6715091 -2 2.57568
2 3.1954358 2
2.0867715 0 2.5695305
-3.6893488e+19 3.244756 0
2.3084047 1.0842022e-19 2.5984533
-0 3.2128751 1.0842022e-19
2.2885318 1.0842022e-19 2.5626695
1.0842022e-19 3.2528942 2
1.948541 3.6893488e+19 2.569005
-3.6893488e+19 3.2602556 -0
1.9543204 -0 2.5634265
2 3.244396 3.6893488e+19
2.3081801 -0 2.5414474
2 3.2615275 3.6893488e+19
1.9553189 -0 2.5500522
-1.0842022e-19 3.1913869 1.0842022e-19
2.2751372 -2 2.4951968
1.0842022e-19 3.2542915 0
1.9496381 -2 2.5272884
0 3.253551 -3.6893488e+19
1.9490566 3.6893488e+19 2.5120859
1.0842022e-19 3.1592827 -3.6893488e+19
-1.657548 -3.6893488e+19 2.3881795
-1.0842022e-19 3.1488597 2
2.0515578 -0 2.36742
-1.0842022e-19 3.1590829 1.0842022e-19
-1.6574712 0 2.3648717
-2 3.1531112 1.0842022e-19
2.0547721 1.0842022e-19 2.3485527
2 3.1541073 3.6893488e+19
-1.6555558 -2 2.3376317
3.6893488e+19 3.1515415 1.0842022e-19
2.0535853 -3.6893488e+19 2.3245299
-1.0842022e-19 3.1467404 2
-1.6527201 0 2.3091276
3.6893488e+19 3.1552639 2
2.0563996 -2 2.3046997
-2 3.1540961 -0
-1.6555516 -3.6893488e+19 2.2921214
-3.6893488e+19 3.1500459 -2
2.0524545 0 2.2782571
1.0842022e-19 3.1595416 0
-1.6576477 0 2.2730479
-1.0842022e-19 3.156595 -0
2.0574059 -1.0842022e-19 2.2599561
2 3.1491444 -1.0842022e-19
-1.6536454 3.6893488e+19 2.2374232
-1.0842022e-19 3.1561265 -3.6893488e+19
2.0570517 1.0842022e-19 2.2236958
-1.0842022e-19 3.1526203 -3.6893488e+19
-1.6549834 2 2.1965261
-0 3.1587212 -3.6893488e+19
2.0590134 2 2.1808596
-2 3.1482368 -2
2.2464793 -2 2.1482446
-1.0842022e-19 3.161602 -1.0842022e-19
1.9115694 3.6893488e+19 2.1374464
0 3.1512933 -2
2.2501447 -2 2.1062551
-1.0842022e-19 3.1717756 -1.0842022e-19
1.9155629 -2 2.0998161
-2 3.1572886 -2
2.2538819 1.0842022e-19 2.0658851
-2 3.1652701 1.0842022e-19
1.9130093 -0 2.0479846
-0 3.1645756 -1.0842022e-19
2.2584243 -0 2.0250578
-2 3.1680434 1.0842022e-19
1.9140979 0 2.0032487
-3.6893488e+19 3.1530085 -1.0842022e-19
2.251214 -3.6893488e+19 1.9722363
-1.0842022e-19 3.1566525 3.6893488e+19
1.9096265 -1.0842022e-19 1.9509281
-3.6893488e+19 3.2159436 -3.6893488e+19
2.2904444 -0 1.9547588
1.0842022e-19 3.1576359 -0
1.9100125 -1.0842022e-19 1.9058949
-0 3.2451768 0
2.3086669 2 1.9121807
1.0842022e-19 3.1574128 -1.0842022e-19
1.9099249 3.6893488e+19 1.8456789
-0 3.1562006 3.6893488e+19
2.2532039 3.6893488e+19 1.8001552
0 3.1522653 -2
1.9079043 0 1.7531031
3.6893488e+19 3.1495469 2
-1.6538004 0 1.6652751
0 3.1429973 2
2.0471253 -1.0842022e-19 1.5249015
-1.0842022e-19 3.1453052 -2
-1.6521676 0 -1.2058812
-0 3.1407483 -3.6893488e+19
2.0454249 -1.0842022e-19 -1.5749772
-1.0842022e-19 3.1439505 2
-1.6516461 1.0842022e-19 -1.688574
0 3.1411338 0
2.0457165 -0 -1.7624068
-3.6893488e+19 3.1458576 -1.0842022e-19
-1.6523802 3.6893488e+19 -1.8080705
0 3.140002 0
2.0448608 -1.0842022e-19 -1.849116
-1.0842022e-19 3.1531188 -2
-1.6551753 0 -1.8881882
-0 3.1389139 -2
2.0440381 -3.6893488e+19 -1.9051965
-0 3.1914389 -0
-1.6699262 -1.0842022e-19 -1.9505976
-3.6893488e+19 3.1408024 -2
2.0454659 -3.6893488e+19 -1.9496191
1.0842022e-19 3.1502736 -2
-1.65408 1.0842022e-19 -1.9765877
3.6893488e+19 3.1183729 2
2.0285082 2 -1.9793512
0 3.0968702 -0
-1.6335231 2 -1.9851015
-1.0842022e-19 3.0752947 2
1.995939 -3.6893488e+19 -1.9889152
2 3.0005908 -0
2.0624099 -2 -1.9484538
1.0842022e-19 2.9519832 2
1.8024205 -0 -1.9411242
1.0842022e-19 2.8766966 1.0842022e-19
1.9848126 3.6893488e+19 -1.9202896
1.0842022e-19 2.7771032 1.0842022e-19
1.9227314 2 -1.890825
-0 2.7454951 3.6893488e+19
1.6945006 -3.6893488e+19 -1.8825026
3.6893488e+19 2.696167 -0
1.8890584 -3.6893488e+19 -1.8759053
-3.6893488e+19 2.6698551 -3.6893488e+19
1.664809 1.0842022e-19 -1.873091
3.6893488e+19 2.6326935 -0
1.8635508 3.6893488e+19 -1.8625131
2 2.6109631 1.0842022e-19
1.6416917 -1.0842022e-19 -1.8585469
-2 2.5759754 2
1.8281958 -1.0842022e-19 -1.8456637
3.6893488e+19 2.5618291 1.0842022e-19
1.6198095 1.0842022e-19 -1.8442779
1.0842022e-19 2.5409024 1.0842022e-19
1.8063331 3.6893488e+19 -1.8383212
-0 2.5291612 -1.0842022e-19
1.5941627 -3.6893488e+19 -1.8370075
-2 2.5079677 2
1.7858034 -0 -1.8287317
-3.6893488e+19 2.498764 -3.6893488e+19
1.5707837 -3.6893488e+19 -1.82844
3.6893488e+19 2.4713771 3.6893488e+19
-1.3064505 -1.0842022e-19 -1.8238569
-2 2.4513206 1.0842022e-19
1.6706104 0 -1.8219762
3.6893488e+19 2.4330096 3.6893488e+19
-1.2916814 -3.6893488e+19 -1.8198901
-3.6893488e+19 2.3717728 -2
-1.2681091 2 -1.8133591
3.6893488e+19 2.3218174 3.6893488e+19
-1.2477589 -0 -1.8063182
-3.6893488e+19 2.2833567 2
-1.2181491 -2 -1.8007977
-0 2.2536068 -1.0842022e-19
1.658085 2 -1.7973745
-0 2.2113512 -2
1.6437908 3.6893488e+19 -1.7950944
0 2.1754072 -1.0842022e-19
1.632588 -0 -1.7941747
-2 2.1405473 3.6893488e+19
1.6184465 1.0842022e-19 -1.7916964
-2 3.2832839 -2
2.1545339 3.6893488e+19 2.7608638
2 3.2502856 3.6893488e+19
-1.7633477 1.0842022e-19 2.703171
-3.6893488e+19 3.2649143 1.0842022e-19
2.1283019 -0 2.7223513
-3.6893488e+19 3.2516205 -3.6893488e+19
-1.7640857 -3.6893488e+19 2.6908579
-3.6893488e+19 3.2576587 -3.6893488e+19
2.1179407 0 2.6943395
-0 3.163904 -2
-1.7287893 -3.6893488e+19 2.6005189
2 3.1894541 -3.6893488e+19
2.0637734 -3.6893488e+19 2.6161077
3.6893488e+19 3.2528543 -0
-1.7647676 3.6893488e+19 2.6635511
1.0842022e-19 3.2540152 -2
2.1127374 -0 2.6584671
0 3.2563357 -3.6893488e+19
-1.7666919 -2 2.6543736
-0 3.2465918 1.0842022e-19
2.1045704 -2 2.6348689
-3.6893488e+19 3.2567387 0
-1.7669148 -0 2.6253388
-3.6893488e+19 3.2461627 1.0842022e-19
2.104264 3.6893488e+19 2.6058762
0 3.2447941 -0
2.2979882 -2 2.5984099
2 3.2127838 3.6893488e+19
2.2787101 -2 2.5625448
0 3.2762697 -2
1.9436991 3.6893488e+19 2.61428
3.6893488e+19 3.1900575 -2
2.2650232 -3.6893488e+19 2.5345581
0 3.25615 -3.6893488e+19
1.9295927 -2 2.5730922
-0 3.2598236 -0
1.9321685 -3.6893488e+19 2.562887
0 3.2445261 -1.0842022e-19
2.2978268 -1.0842022e-19 2.5414655
-1.0842022e-19 3.2620072 -2
1.9336995 -1.0842022e-19 2.5505843
-0 3.2437861 -0
2.2973812 -1.0842022e-19 2.5269363
-1.0842022e-19 3.1984131 1.0842022e-19
2.2700555 0 2.4774373
-3.6893488e+19 3.2534578 -3.6893488e+19
1.9277053 2 2.5119739
-3.6893488e+19 3.2025273 -2
2.2725332 -1.0842022e-19 2.4560845
3.6893488e+19 3.2572513 3.6893488e+19
-1.7671981 -2 2.4879837
1.0842022e-19 3.234849 -3.6893488e+19
2.0961857 1.0842022e-19 2.4465773
-3.6893488e+19 3.257442 3.6893488e+19
-1.7673036 -2 2.4592474
2 3.2502794 -0
2.1074028 -3.6893488e+19 2.432759
-0 3.2542171 -1.0842022e-19
-1.7655209 1.0842022e-19 2.4248054
-3.6893488e+19 3.249712 -0
2.1067982 -1.0842022e-19 2.4038239
-0 3.2531364 3.6893488e+19
-1.7649236 2 2.3944793
-3.6893488e+19 3.2467256 -3.6893488e+19
2.1046658 -1.0842022e-19 2.3734207
3.6893488e+19 3.2526486 3.6893488e+19
-1.7646539 -2 2.3652868
2 3.2334783 0
2.0952072 -0 2.3362489
-0 3.1557033 3.6893488e+19
-1.7242564 -1.0842022e-19 2.270494
-1.0842022e-19 3.1560216 -1.0842022e-19
2.0399024 -3.6893488e+19 2.2595582
1.0842022e-19 3.2614486 -2
-1.7695181 -3.6893488e+19 2.3192792
3.6893488e+19 3.1566737 2
2.0403681 0 2.2242768
-1.0842022e-19 3.1484976 3.6893488e+19
-1.7202734 2 2.1919622
-3.6893488e+19 3.1580539 0
2.0413537 -1.0842022e-19 2.1801043
3.6893488e+19 3.1461709 3.6893488e+19
2.2271855 3.6893488e+19 2.1460991
-1.0842022e-19 3.2341094 -0
1.9197103 2 2.2056708
-1.0842022e-19 3.1511559 3.6893488e+19
2.2331901 -3.6893488e+19 2.1060617
-1.0842022e-19 3.2197878 -2
1.9146897 0 2.1396134
-3.6893488e+19 3.2446151 -2
2.2978804 1.0842022e-19 2.1335368
0 3.2197902 3.6893488e+19
1.9146905 0 2.087086
2 3.2183983 -2
2.2820914 -3.6893488e+19 2.0607049
2 3.1651654 -3.6893488e+19
1.8955411 0 2.0014899
1.0842022e-19 3.2436547 3.6893488e+19
2.297302 -2 2.0221677
-2 3.1705735 -3.6893488e+19
1.897437 0 1.957794
1.0842022e-19 3.2438233 2
2.2974036 1.0842022e-19 1.9669669
0 3.1557243 0
1.8922315 -1.0842022e-19 1.9051543
-0 3.1577187 2
1.8929306 -3.6893488e+19 1.8458312
-3.6893488e+19 3.2462382 -3.6893488e+19
2.2988579 -3.6893488e+19 1.8389367
0 3.151665 -1.0842022e-19
1.8908083 0 1.7529042
2 3.1446645 -0
-1.7181545 -0 1.6632586
-3.6893488e+19 3.1440122 -0
2.0313277 -3.6893488e+19 1.5252706
-1.0842022e-19 3.2971606 -2
-1.7892584 2 -1.2797689
0 3.1408267 1.0842022e-19
2.0290532 -1.0842022e-19 -1.5749931
-1.0842022e-19 3.296293 -2
-1.7887788 3.6893488e+19 -1.7668306
2 3.1423047 3.6893488e+19
2.0301085 0 -1.7628016
3.6893488e+19 3.295583 2
-1.7883863 -1.0842022e-19 -1.8866996
2 3.1384571 -2
2.0273612 -2 -1.8482013
2 3.2965927 0
-1.7889445 2 -1.9533465
3.6893488e+19 3.1382742 2
2.0272307 -2 -1.9049226
-3.6893488e+19 3.1782174 0
-1.7367014 -3.6893488e+19 -1.9445933
3.6893488e+19 3.142597 -3.6893488e+19
2.0303171 1.0842022e-19 -1.9505116
-1.0842022e-19 3.1760612 3.6893488e+19
-1.7355094 -1.0842022e-19 -1.9911902
-0 3.1486144 -2
2.0346136 -2 -1.9981498
1.0842022e-19 3.1780064 -2
-1.7365845 -2 -2.0400994
-1.0842022e-19 3.1061459 -1.0842022e-19
2.0042908 3.6893488e+19 -2.0115426
-2 3.0030065 1.0842022e-19
2.054745 -3.6893488e+19 -1.9503267
-3.6893488e+19 2.8742208 2
1.9753735 -2 -1.9191365
-1.0842022e-19 2.771934 3.6893488e+19
1.9137715 0 -1.8881704
0 2.7454007 -1.0842022e-19
1.6736685 1.0842022e-19 -1.8824693
0 2.6971271 2
1.8846405 -3.6893488e+19 -1.8761508
-1.0842022e-19 2.6700053 0
1.6472379 -3.6893488e+19 -1.8731645
-0 2.6326461 1.0842022e-19
1.8554475 -0 -1.8624359
-3.6893488e+19 2.6097393 2
1.6261109 3.6893488e+19 -1.857741
-0 2.5751715 -1.0842022e-19
1.8208336 2 -1.8450752
1.0842022e-19 2.5619726 1.0842022e-19
1.5937314 3.6893488e+19 -1.8443654
0 2.5413332 -0
1.8004545 -2 -1.8385942
-1.0842022e-19 2.5293026 -1.0842022e-19
1.5708257 3.6893488e+19 -1.8371021
1.0842022e-19 2.5083919 -0
1.7806157 -0 -1.8290255
-1.0842022e-19 2.4982972 0
1.549684 -0 -1.8282372
0 2.4716167 -2
-1.3803452 3.6893488e+19 -1.8239619
2 2.4511268 0
1.661054 0 -1.8218678
-2 3.1977901 -2
2.0697255 -2 2.6623502
2 3.2502856 3.6893488e+19
-1.7633477 1.0842022e-19 2.703171
3.6893488e+19 3.1950233 -0
2.06775 -2 2.6467457
-3.6893488e+19 3.2516205 -3.6893488e+19
-1.7640857 -3.6893488e+19 2.6908579
3.6893488e+19 3.1946962 -3.6893488e+19
2.0675163 -0 2.633445
-0 3.163904 -2
-1.7287893 -3.6893488e+19 2.6005189
2 3.1894541 -3.6893488e+19
2.0637734 -3.6893488e+19 2.6161077
3.6893488e+19 3.2528543 -0
-1.7647676 3.6893488e+19 2.6635511
-2 3.191458 -0
2.0652044 2 2.6049416
0 3.2563357 -3.6893488e+19
-1.7666919 -2 2.6543736
-0 3.2465918 1.0842022e-19
2.1045704 -2 2.6348689
0 3.1954505 1.0842022e-19
-1.746227 1.0842022e-19 2.5756128
-3.6893488e+19 3.2461627 1.0842022e-19
2.104264 3.6893488e+19 2.6058762
0 3.2447941 -0
2.2979882 -2 2.5984099
2 3.2127838 3.6893488e+19
2.2787101 -2 2.5625448
0 3.2762697 -2
1.9436991 3.6893488e+19 2.61428
3.6893488e+19 3.1900575 -2
2.2650232 -3.6893488e+19 2.5345581
0 3.25615 -3.6893488e+19
1.9295927 -2 2.5730922
-0 3.2598236 -0
1.9321685 -3.6893488e+19 2.562887
0 3.2445261 -1.0842022e-19
2.2978268 -1.0842022e-19 2.5414655
-1.0842022e-19 3.2620072 -2
1.9336995 -1.0842022e-19 2.5505843
3.6893488e+19 3.188266 3.6893488e+19
2.2639444 -0 2.4915967
-1.0842022e-19 3.1984131 1.0842022e-19
2.2700555 0 2.4774373
-2 3.2403078 3.6893488e+19
1.9218832 -0 2.5033908
-3.6893488e+19 3.2025273 -2
2.2725332 -1.0842022e-19 2.4560845
2 3.158561 -3.6893488e+19
-1.7258359 -0 2.3875027
-0 3.1545525 -3.6893488e+19
2.0388534 0 2.3726192
0 3.1610317 1.0842022e-19
-1.7272017 -1.0842022e-19 2.3666167
2 3.1538117 2
2.0383246 -2 2.3491161
0 3.1553428 2
-1.7240571 -0 2.3386705
-3.6893488e+19 3.249712 -0
2.1067982 -1.0842022e-19 2.4038239
1.0842022e-19 3.1491277 -2
-1.7206216 -1.0842022e-19 2.3109934
1.0842022e-19 3.1570845 3.6893488e+19
2.0406613 1.0842022e-19 2.3060317
0 3.1602507 3.6893488e+19
-1.7267699 2 2.2965763
1.0842022e-19 3.1500943 3.6893488e+19
2.0356703 0 2.2782571
-0 3.1557033 3.6893488e+19
-1.7242564 -1.0842022e-19 2.270494
-1.0842022e-19 3.1560216 -1.0842022e-19
2.0399024 -3.6893488e+19 2.2595582
2 3.1493237 -1.0842022e-19
-1.7207299 0 2.2376516
3.6893488e+19 3.1566737 2
2.0403681 0 2.2242768
-1.0842022e-19 3.1484976 3.6893488e+19
-1.7202734 2 2.1919622
-3.6893488e+19 3.1580539 0
2.0413537 -1.0842022e-19 2.1801043
3.6893488e+19 3.1461709 3.6893488e+19
2.2271855 3.6893488e+19 2.1460991
-1.0842022e-19 3.1648395 -2
1.8954269 -2 2.14047
-1.0842022e-19 3.1511559 3.6893488e+19
2.2331901 -3.6893488e+19 2.1060617
2 3.1690245 2
1.896894 3.6893488e+19 2.0975132
-3.6893488e+19 3.2446151 -2
2.2978804 1.0842022e-19 2.1335368
3.6893488e+19 3.1667624 1.0842022e-19
1.896101 2 2.0490372
-0 3.1504612 2
2.2323532 2 2.01564
2 3.1651654 -3.6893488e+19
1.8955411 0 2.0014899
1.0842022e-19 3.1522799 -2
2.2345436 -3.6893488e+19 1.9717898
-2 3.1705735 -3.6893488e+19
1.897437 0 1.957794
1.0842022e-19 3.2438233 2
2.2974036 1.0842022e-19 1.9669669
0 3.1557243 0
1.8922315 -1.0842022e-19 1.9051543
-0 3.1577187 2
1.8929306 -3.6893488e+19 1.8458312
1.0842022e-19 3.1570613 -3.6893488e+19
2.2403028 -0 1.800491
0 3.151665 -1.0842022e-19
1.8908083 0 1.7529042
2 3.1446645 -0
-1.7181545 -0 1.6632586
-3.6893488e+19 3.1440122 -0
2.0313277 -3.6893488e+19 1.5252706
3.6893488e+19 3.1441414 1.0842022e-19
-1.7178655 -0 -1.205279
0 3.1408267 1.0842022e-19
2.0290532 -1.0842022e-19 -1.5749931
3.6893488e+19 3.1441929 0
-1.717894 0 -1.6886936
2 3.1423047 3.6893488e+19
2.0301085 0 -1.7628016
-3.6893488e+19 3.144069 -1.0842022e-19
-1.7178254 -3.6893488e+19 -1.8072468
2 3.1384571 -2
2.0273612 -2 -1.8482013
-1.0842022e-19 3.146894 -1.0842022e-19
-1.7193869 -2 -1.8860569
3.6893488e+19 3.1382742 2
2.0272307 -2 -1.9049226
-3.6893488e+19 3.1782174 0
-1.7367014 -3.6893488e+19 -1.9445933
3.6893488e+19 3.142597 -3.6893488e+19
2.0303171 1.0842022e-19 -1.9505116
-1.0842022e-19 3.1760612 3.6893488e+19
-1.7355094 -1.0842022e-19 -1.9911902
2 3.1167016 2
2.0118277 3.6893488e+19 -1.978283
3.6893488e+19 3.0991113 -2
-1.6929746 1.0842022e-19 -1.9866251
1.0842022e-19 3.0789828 -2
1.9848962 -1.0842022e-19 -1.9915948
-2 3.0030065 1.0842022e-19
2.054745 -3.6893488e+19 -1.9503267
-3.6893488e+19 2.8742208 2
1.9753735 -2 -1.9191365
-1.0842022e-19 2.771934 3.6893488e+19
1.9137715 0 -1.8881704
0 2.7454007 -1.0842022e-19
1.6736685 1.0842022e-19 -1.8824693
0 2.6971271 2
1.8846405 -3.6893488e+19 -1.8761508
-1.0842022e-19 2.6700053 0
1.6472379 -3.6893488e+19 -1.8731645
-0 2.6326461 1.0842022e-19
1.8554475 -0 -1.8624359
-3.6893488e+19 2.6097393 2
1.6261109 3.6893488e+19 -1.857741
-0 2.5751715 -1.0842022e-19
1.8208336 2 -1.8450752
1.0842022e-19 2.5619726 1.0842022e-19
1.5937314 3.6893488e+19 -1.8443654
0 2.5413332 -0
1.8004545 -2 -1.8385942
-1.0842022e-19 2.5293026 -1.0842022e-19
1.5708257 3.6893488e+19 -1.8371021
1.0842022e-19 2.5083919 -0
1.7806157 -0 -1.8290255
-1.0842022e-19 2.4982972 0
1.549684 -0 -1.8282372
0 2.4716167 -2
-1.3803452 3.6893488e+19 -1.8239619
2 2.4511268 0
1.661054 0 -1.8218678
-0 3.2501419 1.0842022e-19
-1.8052279 -0 2.7029226
-3.6893488e+19 3.2645938 1.0842022e-19
2.105613 -1.0842022e-19 2.7217264
-2 3.2508204 -0
-1.8057168 3.6893488e+19 2.6894674
-0 3.257688 -3.6893488e+19
2.0963314 0 2.6943395
2 3.1645658 -0
-1.7743478 -3.6893488e+19 2.6010885
-0 3.2525263 -1.0842022e-19
-1.8069458 1.0842022e-19 2.6630254
-0 3.2533858 -0
2.0905492 -3.6893488e+19 2.6574087
0 3.2565284 -0
-1.8098292 3.6893488e+19 2.6546881
1.0842022e-19 3.2474759 3.6893488e+19
2.0843024 -1.0842022e-19 2.6355102
-2 3.2413821 2
2.0802076 2 2.6165807
-3.6893488e+19 3.2554102 -0
-1.8090237 2 2.6234064
-3.6893488e+19 3.2459731 2
2.0832927 -3.6893488e+19 2.6056998
-1.0842022e-19 3.2156396 -0
2.2706141 -3.6893488e+19 2.5644126
1.0842022e-19 3.2743578 0
1.9193405 0 2.6117396
-3.6893488e+19 3.1904504 -2
2.255975 3.6893488e+19 2.5347571
3.6893488e+19 3.2690954 -0
1.9160924 3.6893488e+19 2.5894027
2 3.2574432 2
1.9089004 2 2.5600038
2 3.2612329 -2
1.9112394 -3.6893488e+19 2.5496795
2 3.1893079 -0
2.255311 -0 2.4926698
2 3.1988709 0
2.2608688 -0 2.4778318
2 3.2534871 0
1.9064586 3.6893488e+19 2.5119898
-1.0842022e-19 3.2456315 2
2.2880445 3.6893488e+19 2.4994307
2 3.2553995 -0
1.9076389 3.6893488e+19 2.4989939
-0 3.2558637 -2
-1.8093504 1.0842022e-19 2.4853644
3.6893488e+19 3.2369201 -0
2.077209 2 2.4484341
-2 3.2565968 2
-1.8098787 0 2.4577518
-3.6893488e+19 3.2394714 0
2.0789237 -2 2.4231255
-3.6893488e+19 3.2531693 -0
-1.8074092 -2 2.4230654
3.6893488e+19 3.2485573 -2
2.0850291 -2 2.4028449
1.0842022e-19 3.2525234 -2
-1.8069437 1.0842022e-19 2.3935342
-0 3.2479322 -3.6893488e+19
2.084609 -3.6893488e+19 2.3742852
3.6893488e+19 3.2526731 0
-1.8070517 -0 2.3653319
3.6893488e+19 3.2344041 0
2.0755184 -3.6893488e+19 2.3368545
1.0842022e-19 3.1599278 -0
-1.7726769 0 2.2733178
-1.0842022e-19 3.1585264 2
2.0245287 -2 2.2611299
-3.6893488e+19 3.2580922 3.6893488e+19
-1.8109561 3.6893488e+19 2.3151889
1.0842022e-19 3.1551006 0
2.0222266 1.0842022e-19 2.2223885
0 3.1561065 0
2.0229025 -1.0842022e-19 2.1780028
-3.6893488e+19 3.1487672 -0
2.2135005 -3.6893488e+19 2.1486177
1.0842022e-19 3.2439606 -2
1.9024423 1.0842022e-19 2.2149181
-0 3.1514516 -2
2.2166204 -2 2.1062551
2 3.2217166 0
1.8955777 3.6893488e+19 2.1411917
-1.0842022e-19 3.2512624 0
2.2920508 1.0842022e-19 2.1395948
-3.6893488e+19 3.1664102 -0
1.8785094 0 2.0487685
1.0842022e-19 3.220669 -3.6893488e+19
2.2735369 -1.0842022e-19 2.0621507
-3.6893488e+19 3.2585478 2
1.9095823 2 2.0632181
2 3.1527939 3.6893488e+19
2.2181807 3.6893488e+19 1.9720303
0 3.2587192 -2
1.9096879 1.0842022e-19 2.0056384
1.0842022e-19 3.2501686 -0
2.2907791 -0 1.9697862
3.6893488e+19 3.3520527 0
1.9672958 -3.6893488e+19 2.0192447
3.6893488e+19 3.2512074 1.0842022e-19
2.2919867 -0 1.9144863
2 3.334671 -0
1.9565673 1.0842022e-19 1.9312569
-3.6893488e+19 3.2507226 -1.0842022e-19
2.2914233 2 1.8411398
2 3.3354366 3.6893488e+19
1.9570398 -0 1.8386179
-3.6893488e+19 3.1440604 -0
-1.7669607 2 1.663013
1.0842022e-19 3.1456182 2
2.0158544 -2 1.5258659
-3.6893488e+19 3.3181202 -2
-1.8542064 3.6893488e+19 -1.2906896
-2 3.1424944 2
2.0137553 1.0842022e-19 -1.5758239
-1.0842022e-19 3.1396518 3.6893488e+19
-1.7653725 -3.6893488e+19 -1.6865246
-2 3.1418808 -0
2.0133429 2 -1.7626371
2 3.1449649 -1.0842022e-19
-1.7672865 2 -1.8076659
-3.6893488e+19 3.1386259 3.6893488e+19
2.0111556 -0 -1.848273
-3.6893488e+19 3.3007555 0
-1.8416952 -1.0842022e-19 -1.956206
-1.0842022e-19 3.1395979 0
2.0118089 -1.0842022e-19 -1.9054332
-3.6893488e+19 3.1421733 1.0842022e-19
2.0135396 -3.6893488e+19 -1.9502724
1.0842022e-19 3.1466942 0
2.0165775 -0 -1.9969263
1.0842022e-19 3.0979159 0
-1.7503371 -1.0842022e-19 -1.9858209
-3.6893488e+19 3.1052194 3.6893488e+19
1.9887066 -1.0842022e-19 -2.0108325
-2 3.0064175 1.0842022e-19
2.0480428 0 -1.9529883
0 2.8641741 2
1.7247773 2 -1.9039758
-2 2.8705592 1.0842022e-19
1.9653567 -0 -1.9174491
-1.0842022e-19 2.7737908 0
1.9091182 1.0842022e-19 -1.8890868
-0 2.7469237 -3.6893488e+19
1.6533568 -0 -1.8828694
2 2.6979599 3.6893488e+19
1.8801696 -0 -1.8763614
-1.0842022e-19 2.6701527 -3.6893488e+19
1.6296643 -0 -1.8732382
0 2.6328447 2
1.8474965 3.6893488e+19 -1.8625131
-2 2.6096342 -3.6893488e+19
1.5969752 2 -1.8576604
0 2.5753589 -1.0842022e-19
1.8140876 -0 -1.8451593
-2 2.5660977 0
1.5701035 -0 -1.847254
3.6893488e+19 2.5421345 3.6893488e+19
1.7947788 2 -1.8391403
-0 2.5295665 -1.0842022e-19
1.5475554 -0 -1.837291
3.6893488e+19 2.506953 2
1.7743325 -1.0842022e-19 -1.8278501
3.6893488e+19 2.4985728 1.0842022e-19
1.5288658 1.0842022e-19 -1.8283386
1.0842022e-19 2.4728475 -3.6893488e+19
-1.4203438 -0 -1.8244863
-0 2.4529161 2
1.6521792 3.6893488e+19 -1.8226262
-3.6893488e+19 2.4337351 -2
-1.4062536 -2 -1.8202256
-0 2.372004 -2
-1.3840148 3.6893488e+19 -1.8134848
-2 2.3213077 3.6893488e+19
-1.356503 -1.0842022e-19 -1.8060392
1.0842022e-19 2.283344 -2
-1.32915 -2 -1.8007977
2 2.255182 2
1.6483033 1.0842022e-19 -1.7983767
2 2.2139857 -2
1.6348264 0 -1.7959982
1.0842022e-19 2.1760643 3.6893488e+19
1.6226143 -2 -1.7943691
0 2.1387506 3.6893488e+19
1.6009288 1.0842022e-19 -1.790864
-0 3.2501419 1.0842022e-19
-1.8052279 -0 2.7029226
-3.6893488e+19 3.2645938 1.0842022e-19
2.105613 -1.0842022e-19 2.7217264
-2 3.2508204 -0
-1.8057168 3.6893488e+19 2.6894674
-0 3.257688 -3.6893488e+19
2.0963314 0 2.6943395
2 3.1645658 -0
-1.7743478 -3.6893488e+19 2.6010885
-0 3.2525263 -1.0842022e-19
-1.8069458 1.0842022e-19 2.6630254
-0 3.2533858 -0
2.0905492 -3.6893488e+19 2.6574087
0 3.2565284 -0
-1.8098292 3.6893488e+19 2.6546881
1.0842022e-19 3.2474759 3.6893488e+19
2.0843024 -1.0842022e-19 2.6355102
-2 3.2413821 2
2.0802076 2 2.6165807
3.6893488e+19 3.1953773 2
-1.7854477 -0 2.5755677
-3.6893488e+19 3.2459731 2
2.0832927 -3.6893488e+19 2.6056998
-1.0842022e-19 3.2156396 -0
2.2706141 -3.6893488e+19 2.5644126
1.0842022e-19 3.2743578 0
1.9193405 0 2.6117396
-3.6893488e+19 3.1904504 -2
2.255975 3.6893488e+19 2.5347571
-2 3.2573056 -0
1.9088155 -3.6893488e+19 2.5745325
2 3.2574432 2
1.9089004 2 2.5600038
2 3.2612329 -2
1.9112394 -3.6893488e+19 2.5496795
2 3.1893079 -0
2.255311 -0 2.4926698
2 3.1988709 0
2.2608688 -0 2.4778318
2 3.2534871 0
1.9064586 3.6893488e+19 2.5119898
-2 3.2019038 3.6893488e+19
2.2626314 -0 2.4553678
2 3.2553995 -0
1.9076389 3.6893488e+19 2.4989939
1.0842022e-19 3.1551681 3.6893488e+19
-1.7709622 -2 2.3842945
0 3.1567698 -0
2.0233481 0 2.3746188
3.6893488e+19 3.1580396 3.6893488e+19
-1.7719967 0 2.3639576
1.0842022e-19 3.157831 -1.0842022e-19
2.0240612 3.6893488e+19 2.352551
1.0842022e-19 3.1646559 -2
-1.7743802 3.6893488e+19 2.3464608
-0 3.1553321 -2
2.022382 3.6893488e+19 2.327517
0 3.147469 -3.6893488e+19
-1.7681886 -0 2.3097091
-1.0842022e-19 3.1550789 1.0842022e-19
2.022212 -2 2.3044894
-0 3.1588395 -1.0842022e-19
-1.7722849 -3.6893488e+19 2.2955637
-3.6893488e+19 3.1516325 -1.0842022e-19
2.019896 -3.6893488e+19 2.2792952
1.0842022e-19 3.1599278 -0
-1.7726769 0 2.2733178
-1.0842022e-19 3.1585264 2
2.0245287 -2 2.2611299
-0 3.1521797 -3.6893488e+19
-1.7698857 -2 2.241152
1.0842022e-19 3.1551006 0
2.0222266 1.0842022e-19 2.2223885
0 3.1561065 0
2.0229025 -1.0842022e-19 2.1780028
-3.6893488e+19 3.1487672 -0
2.2135005 -3.6893488e+19 2.1486177
-1.0842022e-19 3.1636455 0
1.8776562 -2 2.1393251
-0 3.1514516 -2
2.2166204 -2 2.1062551
-2 3.1655211 -2
1.878235 3.6893488e+19 2.0945892
1.0842022e-19 3.1548033 3.6893488e+19
2.2205162 3.6893488e+19 2.0638335
-3.6893488e+19 3.1664102 -0
1.8785094 0 2.0487685
-3.6893488e+19 3.1503208 2
2.2153063 -3.6893488e+19 2.0154953
0 3.1634083 3.6893488e+19
1.8775829 -1.0842022e-19 2.0004117
2 3.1527939 3.6893488e+19
2.2181807 3.6893488e+19 1.9720303
-2 3.1689723 1.0842022e-19
1.8793001 -3.6893488e+19 1.9569916
3.6893488e+19 3.1523509 0
2.2176659 -1.0842022e-19 1.9267431
0 3.1561522 -2
1.8753436 0 1.9053097
2 3.1503613 1.0842022e-19
2.2153533 -3.6893488e+19 1.8810748
2 3.334671 -0
1.9565673 1.0842022e-19 1.9312569
2 3.1541483 -1.0842022e-19
2.2197549 -1.0842022e-19 1.7992014
0 3.152374 2
1.8733553 -3.6893488e+19 1.7531229
-3.6893488e+19 3.1440604 -0
-1.7669607 2 1.663013
1.0842022e-19 3.1456182 2
2.0158544 -2 1.5258659
-1.0842022e-19 3.1423812 -2
-1.7663558 0 -1.2043676
-2 3.1424944 2
2.0137553 1.0842022e-19 -1.5758239
-1.0842022e-19 3.1396518 3.6893488e+19
-1.7653725 -3.6893488e+19 -1.6865246
-2 3.1418808 -0
2.0133429 2 -1.7626371
2 3.1449649 -1.0842022e-19
-1.7672865 2 -1.8076659
-3.6893488e+19 3.1386259 3.6893488e+19
2.0111556 -0 -1.848273
-0 3.1480396 3.6893488e+19
-1.7683942 -3.6893488e+19 -1.8864532
-1.0842022e-19 3.1395979 0
2.0118089 -1.0842022e-19 -1.9054332
-3.6893488e+19 3.1421733 1.0842022e-19
2.0135396 -3.6893488e+19 -1.9502724
-1.0842022e-19 3.1165247 -1.0842022e-19
1.9963037 0 -1.9781471
1.0842022e-19 3.0979159 0
-1.7503371 -1.0842022e-19 -1.9858209
-3.6893488e+19 3.1052194 3.6893488e+19
1.9887066 -1.0842022e-19 -2.0108325
-2 3.0064175 1.0842022e-19
2.0480428 0 -1.9529883
0 2.8641741 2
1.7247773 2 -1.9039758
-2 2.8705592 1.0842022e-19
1.9653567 -0 -1.9174491
-1.0842022e-19 2.7737908 0
1.9091182 1.0842022e-19 -1.8890868
-0 2.7469237 -3.6893488e+19
1.6533568 -0 -1.8828694
2 2.6979599 3.6893488e+19
1.8801696 -0 -1.8763614
-1.0842022e-19 2.6701527 -3.6893488e+19
1.6296643 -0 -1.8732382
0 2.6328447 2
1.8474965 3.6893488e+19 -1.8625131
-2 2.6096342 -3.6893488e+19
1.5969752 2 -1.8576604
0 2.5753589 -1.0842022e-19
1.8140876 -0 -1.8451593
-2 2.5660977 0
1.5701035 -0 -1.847254
3.6893488e+19 2.5421345 3.6893488e+19
1.7947788 2 -1.8391403
-0 2.5295665 -1.0842022e-19
1.5475554 -0 -1.837291
3.6893488e+19 2.506953 2
1.7743325 -1.0842022e-19 -1.8278501
3.6893488e+19 2.4985728 1.0842022e-19
1.5288658 1.0842022e-19 -1.8283386
1.0842022e-19 2.4728475 -3.6893488e+19
-1.4203438 -0 -1.8244863
-0 2.4529161 2
1.6521792 3.6893488e+19 -1.8226262
-3.6893488e+19 2.4337351 -2
-1.4062536 -2 -1.8202256
-0 2.372004 -2
-1.3840148 3.6893488e+19 -1.8134848
-2 2.3213077 3.6893488e+19
-1.356503 -1.0842022e-19 -1.8060392
1.0842022e-19 2.283344 -2
-1.32915 -2 -1.8007977
2 2.255182 2
1.6483033 1.0842022e-19 -1.7983767
2 2.2139857 -2
1.6348264 0 -1.7959982
1.0842022e-19 2.1760643 3.6893488e+19
1.6226143 -2 -1.7943691
0 2.1387506 3.6893488e+19
1.6009288 1.0842022e-19 -1.790864
-1.0842022e-19 3.2645764 0
2.083353 -2 2.7216449
0 3.2507207 -2
-1.8477257 -1.0842022e-19 2.689307
-0 3.2574561 3.6893488e+19
2.0743816 -0 2.693892
2 3.1641853 -0
-1.8089691 -2 2.6007779
-2 3.2590897 0
2.0764401 0 2.6815989
-3.6893488e+19 3.2517831 3.6893488e+19
-1.8486698 -1.0842022e-19 2.6618235
2 3.2538109 -3.6893488e+19
2.0697887 -2 2.6580486
1.0842022e-19 3.2561827 1.0842022e-19
-1.8525779 0 2.6541562
-3.6893488e+19 3.2512321 0
2.06654 -2 2.6393347
-3.6893488e+19 3.2405443 2
2.0590305 0 2.6159167
-3.6893488e+19 3.2546794 -0
-1.8512427 -3.6893488e+19 2.6223502
-1.0842022e-19 3.243475 -1.0842022e-19
2.0608766 -2 2.6038704
-0 3.1905746 -0
2.2435169 3.6893488e+19 2.5601132
-3.6893488e+19 3.2157574 -1.0842022e-19
2.2608628 0 2.5644336
0 3.2751415 -0
1.8967304 1.0842022e-19 2.6127558
-1.0842022e-19 3.1906252 1.0842022e-19
2.2435737 -1.0842022e-19 2.5348167
-3.6893488e+19 3.2051125 1.0842022e-19
2.2549009 0 2.5181339
3.6893488e+19 3.1973479 -0
2.2505519 -3.6893488e+19 2.4761214
-3.6893488e+19 3.2541187 -0
1.8855193 0 2.5126305
3.6893488e+19 3.2077415 -2
2.2563732 1.0842022e-19 2.461164
-0 3.2581873 3.6893488e+19
1.887689 3.6893488e+19 2.5022085
2 3.2563207 1.0842022e-19
-1.8527006 3.6893488e+19 2.4862473
-0 3.2386782 2
2.0578549 1.0842022e-19 2.4500053
1.0842022e-19 3.2547097 -2
-1.8512694 -1.0842022e-19 2.4543998
-2 3.2409208 -3.6893488e+19
2.0592675 -1.0842022e-19 2.4243331
-2 3.2524462 1.0842022e-19
-1.8492588 -0 2.4218709
-3.6893488e+19 3.2463424 -1.0842022e-19
2.0626831 1.0842022e-19 2.4010127
-3.6893488e+19 3.2508667 -2
-1.8478556 0 2.3909655
-3.6893488e+19 3.2472391 -3.6893488e+19
2.0632479 -1.0842022e-19 2.3737245
-2 3.2520423 3.6893488e+19
-1.8489 -3.6893488e+19 2.3644319
-3.6893488e+19 3.2409885 -3.6893488e+19
2.0593102 2 2.341397
-1.0842022e-19 3.1593537 -0
-1.8068231 -0 2.272944
-1.0842022e-19 3.1577919 -3.6893488e+19
2.0068984 -1.0842022e-19 2.2606325
-0 3.256448 2
-1.8528137 -1.0842022e-19 2.3131912
-2 3.1532128 -1.0842022e-19
2.0040138 1.0842022e-19 2.2201371
-3.6893488e+19 3.1551137 3.6893488e+19
-1.8049399 3.6893488e+19 2.1993265
-2 3.2381897 -0
2.0575471 1.0842022e-19 2.2572286
0 3.21222 1.0842022e-19
2.2588816 -2 2.2119601
0 3.2435784 -2
1.8816104 3.6893488e+19 2.2145364
-1.0842022e-19 3.2134676 -0
2.2595804 -3.6893488e+19 2.1612122
0 3.1647296 -1.0842022e-19
1.8461715 -0 2.0939164
1.0842022e-19 3.2133238 -0
2.2594998 0 2.1091359
0 3.250448 -0
1.8835616 -3.6893488e+19 2.1093686
-2 3.2130325 3.6893488e+19
2.2593367 -1.0842022e-19 2.0570288
-1.0842022e-19 3.2506762 -3.6893488e+19
1.8836833 -2 2.0536675
-3.6893488e+19 3.2136531 3.6893488e+19
2.2596843 -0 2.0055296
0 3.167743 2
1.8477786 -2 1.9563744
-3.6893488e+19 3.2133167 0
2.259496 3.6893488e+19 1.953486
0 3.155328 1.0842022e-19
1.8411578 -3.6893488e+19 1.9049871
1.0842022e-19 3.1527426 1.0842022e-19
2.2011387 -3.6893488e+19 1.8818297
1.0842022e-19 3.3330779 3.6893488e+19
1.9276274 -3.6893488e+19 1.9303855
-3.6893488e+19 3.2136667 2
2.259692 2 1.8248185
2 3.3325155 3.6893488e+19
1.9273275 -1.0842022e-19 1.8367476
-1.0842022e-19 3.253267 0
-1.849988 0 1.7095475
-0 3.1433809 1.0842022e-19
1.99782 -1.0842022e-19 1.5249968
-1.0842022e-19 3.318188 -2
-1.8913299 -2 -1.2907302
3.6893488e+19 3.1425989 3.6893488e+19
1.9973273 1.0842022e-19 -1.5758559
-0 3.1382954 -0
-1.7974696 -0 -1.6858815
-3.6893488e+19 3.142266 0
1.9971178 0 -1.7627578
-3.6893488e+19 3.1465452 3.6893488e+19
-1.801134 3.6893488e+19 -1.8084029
-3.6893488e+19 3.1386049 2
1.9948113 -1.0842022e-19 -1.8482372
3.6893488e+19 3.1468394 1.0842022e-19
-1.8012646 0 -1.8860463
3.6893488e+19 3.1390777 1.0842022e-19
1.9951091 3.6893488e+19 -1.9052091
-2 3.1538918 -1.0842022e-19
-1.8043971 2 -1.93355
-0 3.1418407 -3.6893488e+19
1.9968497 -1.0842022e-19 -1.9500812
-2 3.1109786 1.0842022e-19
1.9774075 -0 -1.9746709
-2 3.096 -2
-1.7786832 2 -1.9845301
-0 3.1060684 0
1.9743141 1.0842022e-19 -2.0114281
1.0842022e-19 3.0068393 -2
2.0377026 -2 -1.9532839
3.6893488e+19 2.8734298 3.6893488e+19
1.9591517 -3.6893488e+19 -1.9187146
-1.0842022e-19 2.8457708 -0
1.6843965 3.6893488e+19 -1.915537
-3.6893488e+19 2.7758331 -2
1.9044895 -1.0842022e-19 -1.8900981
-0 2.7464483 2
1.6323757 -2 -1.882736
3.6893488e+19 2.698168 2
1.8755057 -2 -1.8763964
-3.6893488e+19 2.6700478 -2
1.5990077 -3.6893488e+19 -1.8731645
-3.6893488e+19 2.6339107 -0
1.840022 3.6893488e+19 -1.86313
-3.6893488e+19 2.6086545 -2
1.5662673 0 -1.8570157
3.6893488e+19 2.5755439 1.0842022e-19
1.8073317 -1.0842022e-19 -1.8452433
-3.6893488e+19 2.5646186 1.0842022e-19
1.5427834 -3.6893488e+19 -1.8462036
-1.0842022e-19 2.5420649 -0
1.7885807 -2 -1.8390492
-0 2.5298285 0
1.5242301 3.6893488e+19 -1.8374799
0 2.5070012 2
1.768942 -1.0842022e-19 -1.8278501
-3.6893488e+19 2.4998395 0
1.50828 -2 -1.8288456
1.0842022e-19 2.4733291 -2
-1.4602391 1.0842022e-19 -1.8246961
2 2.4529645 -1.0842022e-19
1.642678 3.6893488e+19 -1.8226262
-1.0842022e-19 3.2645764 0
2.083353 -2 2.7216449
0 3.2507207 -2
-1.8477257 -1.0842022e-19 2.689307
-0 3.2574561 3.6893488e+19
2.0743816 -0 2.693892
2 3.1641853 -0
-1.8089691 -2 2.6007779
-2 3.2590897 0
2.0764401 0 2.6815989
-3.6893488e+19 3.2517831 3.6893488e+19
-1.8486698 -1.0842022e-19 2.6618235
2 3.2538109 -3.6893488e+19
2.0697887 -2 2.6580486
1.0842022e-19 3.2561827 1.0842022e-19
-1.8525779 0 2.6541562
-3.6893488e+19 3.2512321 0
2.06654 -2 2.6393347
-3.6893488e+19 3.2405443 2
2.0590305 0 2.6159167
-1.0842022e-19 3.1925654 -1.0842022e-19
-1.8215748 2 2.573523
-1.0842022e-19 3.243475 -1.0842022e-19
2.0608766 -2 2.6038704
-0 3.1905746 -0
2.2435169 3.6893488e+19 2.5601132
-2 3.1873527 -2
2.2399077 -1.0842022e-19 2.5452573
0 3.2751415 -0
1.8967304 1.0842022e-19 2.6127558
-1.0842022e-19 3.1906252 1.0842022e-19
2.2435737 -1.0842022e-19 2.5348167
-3.6893488e+19 3.2051125 1.0842022e-19
2.2549009 0 2.5181339
3.6893488e+19 3.1973479 -0
2.2505519 -3.6893488e+19 2.4761214
-3.6893488e+19 3.2541187 -0
1.8855193 0 2.5126305
3.6893488e+19 3.2077415 -2
2.2563732 1.0842022e-19 2.461164
-0 3.2581873 3.6893488e+19
1.887689 3.6893488e+19 2.5022085
2 3.1572647 -0
-1.8058952 2 2.386296
1.0842022e-19 3.1526873 -2
2.0036826 -1.0842022e-19 2.3708193
3.6893488e+19 3.1588025 3.6893488e+19
-1.8065783 -0 2.36465
-2 3.2409208 -3.6893488e+19
2.0592675 -1.0842022e-19 2.4243331
2 3.1501288 3.6893488e+19
-1.8027257 3.6893488e+19 2.3343339
-1.0842022e-19 3.1549404 3.6893488e+19
2.0051022 3.6893488e+19 2.3271656
0 3.1495707 -1.0842022e-19
-1.8024777 2 2.311357
1.0842022e-19 3.1555264 -0
2.0054712 -2 2.3047931
3.6893488e+19 3.1610978 -0
-1.8075978 -1.0842022e-19 2.2972062
-2 3.1538219 2
2.0043976 -3.6893488e+19 2.2807877
-1.0842022e-19 3.1593537 -0
-1.8068231 -0 2.272944
-1.0842022e-19 3.1577919 -3.6893488e+19
2.0068984 -1.0842022e-19 2.2606325
-2 3.1559675 -0
-1.8053191 1.0842022e-19 2.2457943
-2 3.1532128 -1.0842022e-19
2.0040138 1.0842022e-19 2.2201371
-3.6893488e+19 3.1551137 3.6893488e+19
-1.8049399 3.6893488e+19 2.1993265
-2 3.1556511 3.6893488e+19
2.0055499 1.0842022e-19 2.1774776
0 3.21222 1.0842022e-19
2.2588816 -2 2.2119601
-1.0842022e-19 3.1632595 -2
1.8453876 0 2.1389437
-1.0842022e-19 3.2134676 -0
2.2595804 -3.6893488e+19 2.1612122
0 3.1647296 -1.0842022e-19
1.8461715 -0 2.0939164
-3.6893488e+19 3.1603901 3.6893488e+19
2.2097054 3.6893488e+19 2.0681055
0 3.164963 -3.6893488e+19
1.846296 2 2.0477159
0 3.1498663 2
2.1979167 2 2.0151443
3.6893488e+19 3.1661441 1.0842022e-19
1.846926 -2 2.0020571
3.6893488e+19 3.1537104 2
2.2022228 2 1.9724939
0 3.167743 2
1.8477786 -2 1.9563744
0 3.1537974 -1.0842022e-19
2.2023201 1.0842022e-19 1.9273454
0 3.155328 1.0842022e-19
1.8411578 -3.6893488e+19 1.9049871
1.0842022e-19 3.1527426 1.0842022e-19
2.2011387 -3.6893488e+19 1.8818297
-3.6893488e+19 3.1581659 -1.0842022e-19
1.8426713 -3.6893488e+19 1.8460511
0 3.1553462 2
2.2040551 3.6893488e+19 1.799685
1.0842022e-19 3.1521118 0
1.8394426 -3.6893488e+19 1.7530334
1.0842022e-19 3.1384544 -2
-1.7975402 -1.0842022e-19 1.6606991
-0 3.1433809 1.0842022e-19
1.99782 -1.0842022e-19 1.5249968
3.6893488e+19 3.1418684 2
-1.7990566 -0 -1.2041072
3.6893488e+19 3.1425989 3.6893488e+19
1.9973273 1.0842022e-19 -1.5758559
-0 3.1382954 -0
-1.7974696 -0 -1.6858815
-3.6893488e+19 3.142266 0
1.9971178 0 -1.7627578
-3.6893488e+19 3.1465452 3.6893488e+19
-1.801134 3.6893488e+19 -1.8084029
-3.6893488e+19 3.1386049 2
1.9948113 -1.0842022e-19 -1.8482372
3.6893488e+19 3.1468394 1.0842022e-19
-1.8012646 0 -1.8860463
3.6893488e+19 3.1390777 1.0842022e-19
1.9951091 3.6893488e+19 -1.9052091
-2 3.1538918 -1.0842022e-19
-1.8043971 2 -1.93355
-0 3.1418407 -3.6893488e+19
1.9968497 -1.0842022e-19 -1.9500812
-2 3.1109786 1.0842022e-19
1.9774075 -0 -1.9746709
-2 3.096 -2
-1.7786832 2 -1.9845301
-0 3.1060684 0
1.9743141 1.0842022e-19 -2.0114281
1.0842022e-19 3.0068393 -2
2.0377026 -2 -1.9532839
3.6893488e+19 2.8734298 3.6893488e+19
1.9591517 -3.6893488e+19 -1.9187146
-1.0842022e-19 2.8457708 -0
1.6843965 3.6893488e+19 -1.915537
-3.6893488e+19 2.7758331 -2
1.9044895 -1.0842022e-19 -1.8900981
-0 2.7464483 2
1.6323757 -2 -1.882736
3.6893488e+19 2.698168 2
1.8755057 -2 -1.8763964
-3.6893488e+19 2.6700478 -2
1.5990077 -3.6893488e+19 -1.8731645
-3.6893488e+19 2.6339107 -0
1.840022 3.6893488e+19 -1.86313
-3.6893488e+19 2.6086545 -2
1.5662673 0 -1.8570157
3.6893488e+19 2.5755439 1.0842022e-19
1.8073317 -1.0842022e-19 -1.8452433
-3.6893488e+19 2.5646186 1.0842022e-19
1.5427834 -3.6893488e+19 -1.8462036
-1.0842022e-19 2.5420649 -0
1.7885807 -2 -1.8390492
-0 2.5298285 0
1.5242301 3.6893488e+19 -1.8374799
0 2.5070012 2
1.768942 -1.0842022e-19 -1.8278501
-3.6893488e+19 2.4998395 0
1.50828 -2 -1.8288456
1.0842022e-19 2.4733291 -2
-1.4602391 1.0842022e-19 -1.8246961
2 2.4529645 -1.0842022e-19
1.642678 3.6893488e+19 -1.8226262
-1.0842022e-19 3.2647705 -2
2.0613492 3.6893488e+19 2.7219439
1.0842022e-19 3.2508481 2
-1.8824722 -3.6893488e+19 2.6895475
2 3.2573903 -2
2.0526705 -0 2.6937342
-3.6893488e+19 3.1604087 1.0842022e-19
-1.8417358 3.6893488e+19 2.5975935
-0 3.2590239 3.6893488e+19
2.0545917 1.0842022e-19 2.6814461
2 3.2524161 0
-1.8833003 0 2.6628752
3.6893488e+19 3.2538974 -1.0842022e-19
2.0485632 -1.0842022e-19 2.6581471
3.6893488e+19 3.2556512 -1.0842022e-19
-1.8850087 -0 2.6533339
-0 3.2511806 2
2.0453687 -0 2.6392159
1.0842022e-19 3.1651444 -0
-1.8442366 1.0842022e-19 2.5654683
0 3.2402251 -1.0842022e-19
2.0382328 3.6893488e+19 2.6156418
-0 3.2574818 2
-1.8859755 -3.6893488e+19 2.6264622
1.0842022e-19 3.2426636 3.6893488e+19
2.0396667 2 2.6032534
-1.0842022e-19 3.2121508 0
2.2482057 0 2.5752418
1.0842022e-19 3.2431507 0
1.8466045 -1.0842022e-19 2.5892239
0 3.2157185 3.6893488e+19
2.2510257 -2 2.5643504
-0 3.190366 3.6893488e+19
2.2247212 -2 2.5345979
-3.6893488e+19 3.2016778 2
2.2369156 -0 2.5160623
-2 3.197583 1.0842022e-19
2.2325013 -2 2.4762859
2 3.2562518 0
1.855301 3.6893488e+19 2.5148242
-2 3.2058749 -0
2.2414401 -3.6893488e+19 2.4592006
0 3.2574534 -2
1.8563808 -1.0842022e-19 2.5014813
-0 3.1577759 1.0842022e-19
-1.8403454 -2 2.3867962
0 3.2394407 2
2.0377717 -3.6893488e+19 2.4506621
0 3.2523706 0
-1.8832762 0 2.4502449
1.0842022e-19 3.2402868 0
2.0382693 -0 2.4237428
-3.6893488e+19 3.2526381 0
-1.8834176 3.6893488e+19 2.4222085
-2 3.1569693 -1.0842022e-19
1.9892819 3.6893488e+19 2.3287721
1.0842022e-19 3.25123 3.6893488e+19
-1.8826739 3.6893488e+19 2.391547
2 3.2397335 3.6893488e+19
2.0379438 1.0842022e-19 2.3680465
-1.0842022e-19 3.250772 -3.6893488e+19
-1.882432 2 2.3626096
0 3.2411933 3.6893488e+19
2.0388021 -3.6893488e+19 2.3415051
-0 3.1681495 1.0842022e-19
-1.8458236 3.6893488e+19 2.2788198
3.6893488e+19 3.1576147 2
1.9896613 -1.0842022e-19 2.2604933
1.0842022e-19 3.1543002 -0
-1.8385098 -1.0842022e-19 2.2437775
2 3.2395911 3.6893488e+19
2.0378602 3.6893488e+19 2.2853975
-3.6893488e+19 3.2689896 0
-1.8920528 2 2.2983582
2 3.238332 3.6893488e+19
2.0371199 -1.0842022e-19 2.2572777
1.0842022e-19 3.2128322 3.6893488e+19
2.24894 0 2.2124889
-0 3.1585972 3.6893488e+19
1.8086091 -0 2.1345401
3.6893488e+19 3.2133021 3.6893488e+19
2.2494466 3.6893488e+19 2.1609914
2 3.1678979 -1.0842022e-19
1.8127885 2 2.09653
0 3.2135007 -3.6893488e+19
2.2496605 -1.0842022e-19 2.1092081
0 3.249012 2
1.8492383 1.0842022e-19 2.1080027
3.6893488e+19 3.2134898 -3.6893488e+19
2.2496488 0 2.0572767
-3.6893488e+19 3.1658797 3.6893488e+19
1.8118817 -2 2.0018868
-2 3.2135808 1.0842022e-19
2.2497473 3.6893488e+19 2.0054438
-1.0842022e-19 3.167541 3.6893488e+19
1.8126281 -3.6893488e+19 1.9562664
1.0842022e-19 3.213712 1.0842022e-19
2.2498884 3.6893488e+19 1.9536228
-3.6893488e+19 3.1576557 -1.0842022e-19
1.8081861 2 1.905871
0 3.154218 -1.0842022e-19
2.1857529 0 1.8822889
-1.0842022e-19 3.1564953 2
1.8076646 -1.0842022e-19 1.8451375
0 3.1579757 1.0842022e-19
2.1898038 -0 1.8007865
-1.0842022e-19 3.1555023 1.0842022e-19
1.8072184 -1.0842022e-19 1.7541078
3.6893488e+19 3.2405167 -3.6893488e+19
-1.8795202 1.0842022e-19 1.7029293
1.0842022e-19 3.1434202 -0
1.9813155 -1.0842022e-19 1.5249968
3.6893488e+19 3.3182065 -2
-1.918044 1.0842022e-19 -1.2907466
-1.0842022e-19 3.1442931 1.0842022e-19
1.9818288 -1.0842022e-19 -1.5767025
1.0842022e-19 3.1404672 1.0842022e-19
-1.8312047 -3.6893488e+19 -1.6869285
1.0842022e-19 3.141993 3.6893488e+19
1.9804764 1.0842022e-19 -1.7626481
-3.6893488e+19 3.1459358 -3.6893488e+19
-1.8340926 2 -1.8081284
2 3.1398616 -2
1.9792231 2 -1.8489367
-2 3.1451366 2
-1.8336706 -0 -1.8854679
0 3.1430814 2
1.9811163 -2 -1.9067905
1.0842022e-19 3.1476917 -3.6893488e+19
-1.8350198 -3.6893488e+19 -1.9307394
