# .PCD v0.7 - Point Cloud Data file format
VERSION 0.7
FIELDS x y z
SIZE 4 4 4
TYPE F F F
COUNT 1 1 1
WIDTH 1678
HEIGHT 1
VIEWPOINT 0 0 0 1 0 0 0
POINTS 1678
DATA ascii
-2.6986413 -0 2.5704944
0 3.1120205 -1.0842022e-19
-2.6111898 2 2.5572696
0 3.1065238 -0
-2.6057057 3.6893488e+19 2.54194
-0 3.1082594 3.6893488e+19
-2.6074376 0 2.5326729
0 3.1082518 0
-2.6896274 -3.6893488e+19 2.5314684
-1.0842022e-19 3.1124859 -3.6893488e+19
-2.6116543 0 2.525224
2 3.1098292 1.0842022e-19
-2.6915631 2 2.5218577
-1.0842022e-19 3.1104345 -0
-2.6096077 -2 2.512969
0 3.1089611 0
-2.5618918 -1.0842022e-19 2.5047565
-2 3.1028218 -1.0842022e-19
-2.6362252 -2 2.4968827
2 3.1104105 1.0842022e-19
-2.5631511 0 2.490407
-2 3.1026657 -0
-2.6360543 -2 2.4757063
1.0842022e-19 3.1122971 3.6893488e+19
-2.5647902 1.0842022e-19 2.4717531
-1.0842022e-19 3.1256926 2
-2.6612613 -0 2.4844973
-0 3.0562017 2
-2.5160506 3.6893488e+19 2.3808115
-1.0842022e-19 3.1022682 -1.0842022e-19
-2.6356192 -2 2.4334488
-3.6893488e+19 3.0933297 -2
-2.54831 1.0842022e-19 2.4069633
-1.0842022e-19 3.1034 0
-2.6368582 2 2.4139776
0 3.0919135 0
-2.5470796 -3.6893488e+19 2.3853803
-1.0842022e-19 3.1021261 1.0842022e-19
-2.6354637 -2 2.3917415
0 3.0948071 -0
-2.5495937 -0 2.3686118
-2 3.1017292 -2
-2.6350291 -1.0842022e-19 2.3706143
-2 3.0941427 -0
-2.5490165 -3.6893488e+19 2.3479426
-3.6893488e+19 3.1040072 3.6893488e+19
-2.6375229 3.6893488e+19 2.352236
-2 3.019629 1.0842022e-19
-2.5808744 -1.0842022e-19 2.2626948
-3.6893488e+19 3.1083617 -2
-2.6075397 0 2.3335803
1.0842022e-19 3.1156194 -0
-2.6986685 0 2.3346145
-0 3.1082733 2
-2.6074514 -2 2.3126607
2 3.1143141 0
-2.6970668 -0 2.3119276
-0 3.1075935 -2
-2.6067731 -0 2.2912967
-1.0842022e-19 3.104389 -2
-2.6035759 -2 2.2681339
2 3.0843241 -3.6893488e+19
-2.6602645 0 2.2437806
0 3.0962987 0
-2.5955043 3.6893488e+19 2.2339027
3.6893488e+19 3.0895243 3.6893488e+19
-2.666646 0 2.2115686
-3.6893488e+19 3.0474617 -1.0842022e-19
-2.5467794 -2 2.1312432
0 3.0302699 -3.6893488e+19
-2.5939319 0 2.0981152
2 3.2202573 -0
-2.7191784 3.6893488e+19 2.2741728
0 3.0299609 -1.0842022e-19
-2.5935528 -1.0842022e-19 2.0649085
3.6893488e+19 3.1805954 1.0842022e-19
-2.6796076 2 2.2023702
0 3.0479984 -0
-2.5089228 -0 2.0437748
1.0842022e-19 3.1001656 0
-2.6333175 1.0842022e-19 2.0794268
-3.6893488e+19 3.1279817 -2
-2.5784183 0 2.0793478
-0 3.1005664 -1.0842022e-19
-2.6337562 -2 2.0391457
-1.0842022e-19 3.1955295 2
-2.6371088 0 2.0872214
1.0842022e-19 3.1963336 -1.0842022e-19
-2.6378074 -0 2.0367877
-1.0842022e-19 3.0332108 2
-2.5600238 1.0842022e-19 1.9179702
1.0842022e-19 3.0547619 -3.6893488e+19
-2.5147994 3.6893488e+19 1.9109958
1.0842022e-19 3.2101932 2
-2.7518809 1.0842022e-19 1.9696704
0 3.1975725 1.0842022e-19
-2.6388838 -2 1.9353052
3.6893488e+19 3.1084197 -3.6893488e+19
-2.6423528 2 1.8796115
-3.6893488e+19 3.1980066 1.0842022e-19
-2.6392612 -2 1.8843307
0 3.0933661 0
-2.6258743 3.6893488e+19 1.7939036
0 3.1975341 2
-2.6388505 -2 1.7911835
-2 3.0330815 1.0842022e-19
-2.5598824 -3.6893488e+19 1.6475276
-2 3.0190578 -2
-2.5801733 0 1.5323803
0 3.1975081 0
-2.6964815 -1.0842022e-19 1.3333284
-3.6893488e+19 3.0176253 2
-2.5784156 -3.6893488e+19 -1.4365407
0 3.0482626 0
-2.5475783 -3.6893488e+19 -1.6145569
2 3.0390937 0
-2.6047604 2 -1.6852808
-0 3.1012392 -3.6893488e+19
-2.6004333 -0 -1.7762954
0 3.0381415 -0
-2.6035917 -3.6893488e+19 -1.7845874
-2 3.044934 -3.6893488e+19
-2.5442574 3.6893488e+19 -1.8198625
-0 3.0379219 -3.6893488e+19
-2.6033223 3.6893488e+19 -1.8516693
3.6893488e+19 3.0268786 -0
-2.5897706 1.0842022e-19 -1.8913175
0 3.0459747 1.0842022e-19
-2.5452957 3.6893488e+19 -1.9158731
-0 2.9721227 -3.6893488e+19
-2.5396817 -1.0842022e-19 -1.89806
-3.6893488e+19 2.9923644 2
-2.491235 3.6893488e+19 -1.9163103
-0 2.8440516 1.0842022e-19
-2.3432624 2 -1.8860258
3.6893488e+19 2.8091838 0
-2.2686417 3.6893488e+19 -1.8802192
0 2.7787516 -3.6893488e+19
-2.3051422 -1.0842022e-19 -1.8770258
-2 2.7621171 -1.0842022e-19
-2.2054935 1.0842022e-19 -1.8753988
2 2.7175055 1.0842022e-19
-2.2558832 3.6893488e+19 -1.8651662
0 2.6905131 -1.0842022e-19
-2.13275 -3.6893488e+19 -1.8609833
1.0842022e-19 2.6573923 3.6893488e+19
-2.195962 1.0842022e-19 -1.8579388
-3.6893488e+19 2.630969 -2
-2.0810139 -3.6893488e+19 -1.8509284
1.0842022e-19 2.5971966 1.0842022e-19
-2.1300673 0 -1.8437022
-2 2.5802338 2
-2.0369315 3.6893488e+19 -1.8397975
-1.0842022e-19 2.5530279 -0
-2.081717 -1.0842022e-19 -1.8335098
-2 2.5436554 -3.6893488e+19
-2.0051494 -0 -1.8328779
-3.6893488e+19 2.5285888 1.0842022e-19
-2.0549643 -1.0842022e-19 -1.8329235
-3.6893488e+19 2.4862528 -2
-2.0161443 2 -1.8206353
3.6893488e+19 2.4573715 -1.0842022e-19
-2.0003364 -2 -1.8223728
3.6893488e+19 2.4291675 1.0842022e-19
-2.0133257 3.6893488e+19 -1.8181788
-1.0842022e-19 2.3965418 -0
-1.9933075 0 -1.8152032
-0 2.343482 1.0842022e-19
-1.9607514 -1.0842022e-19 -1.8100866
-2 2.3030832 -1.0842022e-19
-1.9359637 0 -1.8063245
1.0842022e-19 2.2663257 2
-1.9134103 -3.6893488e+19 -1.8002198
1.0842022e-19 2.2407196 0
-1.8381866 -1.0842022e-19 -1.7973069
-3.6893488e+19 2.1967449 1.0842022e-19
-1.8190825 -3.6893488e+19 -1.7950213
-0 2.162966 -1.0842022e-19
-1.8044076 2 -1.7943896
2 2.1278558 3.6893488e+19
-1.7891544 3.6893488e+19 -1.7912353
1.0842022e-19 3.0985184 0
-2.6776831 1.0842022e-19 2.5875008
-0 3.1063027 1.0842022e-19
-2.6054854 -3.6893488e+19 2.5845819
-2 3.075371 -2
-2.6492779 0 2.5551038
1.0842022e-19 3.1068895 1.0842022e-19
-2.6060708 -3.6893488e+19 2.574362
-2 3.1169522 0
-2.7003043 -0 2.5828705
-0 3.107192 -0
-2.6063726 -1.0842022e-19 2.5638883
-0 3.1155972 -2
-2.6986413 -0 2.5704944
0 3.1120205 -1.0842022e-19
-2.6111898 2 2.5572696
0 3.1065238 -0
-2.6057057 3.6893488e+19 2.54194
-0 3.1082594 3.6893488e+19
-2.6074376 0 2.5326729
0 3.1082518 0
-2.6896274 -3.6893488e+19 2.5314684
-1.0842022e-19 3.1124859 -3.6893488e+19
-2.6116543 0 2.525224
-0 3.0304191 -2
-2.5941153 -1.0842022e-19 2.4237239
-1.0842022e-19 3.1104345 -0
-2.6096077 -2 2.512969
3.6893488e+19 3.0576594 3.6893488e+19
-2.5173171 0 2.4366951
-2 3.1028218 -1.0842022e-19
-2.6362252 -2 2.4968827
2 3.0578129 0
-2.5174506 2 2.418838
-2 3.1026657 -0
-2.6360543 -2 2.4757063
-1.0842022e-19 3.0581017 -0
-2.5177014 0 2.4011846
-1.0842022e-19 3.1256926 2
-2.6612613 -0 2.4844973
-0 3.0562017 2
-2.5160506 3.6893488e+19 2.3808115
-0 3.0486901 -3.6893488e+19
-2.5769684 -3.6893488e+19 2.3675234
3.6893488e+19 3.0579088 3.6893488e+19
-2.5175338 0 2.3649774
-2 3.0471711 0
-2.5753059 0 2.3481104
1.0842022e-19 3.0548239 -2
-2.5148532 2 2.3435757
3.6893488e+19 3.0481436 -2
-2.5763702 -1.0842022e-19 2.3316858
-2 3.0578341 -1.0842022e-19
-2.5174689 1.0842022e-19 2.3290865
-0 3.0505083 -2
-2.5789587 2 2.3166432
3.6893488e+19 3.0579858 0
-2.5176008 0 2.3113866
-3.6893488e+19 3.1040072 3.6893488e+19
-2.6375229 3.6893488e+19 2.352236
-2 3.019629 1.0842022e-19
-2.5808744 -1.0842022e-19 2.2626948
0 3.0324955 -2
-2.5318472 -3.6893488e+19 2.26296
1.0842022e-19 3.0184753 1.0842022e-19
-2.5794585 -1.0842022e-19 2.2414165
3.6893488e+19 3.0323792 3.6893488e+19
-2.5317314 0 2.2428579
0 3.0450356 -1.0842022e-19
-2.6120517 3.6893488e+19 2.2526109
-0 3.1075935 -2
-2.6067731 -0 2.2912967
1.0842022e-19 3.0506434 3.6893488e+19
-2.5499537 3.6893488e+19 2.2049391
1.0842022e-19 3.0318274 1.0842022e-19
-2.5958436 3.6893488e+19 2.1662455
0 3.0962987 0
-2.5955043 3.6893488e+19 2.2339027
0 3.029582 -1.0842022e-19
-2.5930879 -0 2.1300795
-3.6893488e+19 3.0474617 -1.0842022e-19
-2.5467794 -2 2.1312432
0 3.0302699 -3.6893488e+19
-2.5939319 0 2.0981152
1.0842022e-19 3.0464363 -2
-2.5457561 2 2.0956609
0 3.0299609 -1.0842022e-19
-2.5935528 -1.0842022e-19 2.0649085
-3.6893488e+19 3.0480578 0
-2.5473742 3.6893488e+19 2.0631304
0 3.0479984 -0
-2.5089228 -0 2.0437748
2 3.0260458 -0
-2.5521803 3.6893488e+19 2.0096967
0 3.0507083 1.0842022e-19
-2.5112774 3.6893488e+19 2.0120168
-1.0842022e-19 3.0279243 -3.6893488e+19
-2.5542367 -3.6893488e+19 1.9792309
-1.0842022e-19 3.0577371 -3.6893488e+19
-2.5173845 -2 1.9829262
3.6893488e+19 3.0529771 -2
-2.5132487 -0 1.9446753
-1.0842022e-19 3.0332108 2
-2.5600238 1.0842022e-19 1.9179702
1.0842022e-19 3.0547619 -3.6893488e+19
-2.5147994 3.6893488e+19 1.9109958
3.6893488e+19 3.0334854 0
-2.5603244 1.0842022e-19 1.8853201
1.0842022e-19 3.0599518 -0
-2.5193088 -1.0842022e-19 1.8783271
0 3.0333848 -1.0842022e-19
-2.560214 2 1.8299549
0 3.0482132 3.6893488e+19
-2.5091095 0 1.8038331
0 3.0933661 0
-2.6258743 3.6893488e+19 1.7939036
0 3.054107 0
-2.5142305 3.6893488e+19 1.725849
-2 3.0330815 1.0842022e-19
-2.5598824 -3.6893488e+19 1.6475276
-2 3.0190578 -2
-2.5801733 0 1.5323803
3.6893488e+19 3.0509968 1.0842022e-19
-2.5503063 -0 1.265123
-3.6893488e+19 3.0176253 2
-2.5784156 -3.6893488e+19 -1.4365407
0 3.0482626 0
-2.5475783 -3.6893488e+19 -1.6145569
2 3.0390937 0
-2.6047604 2 -1.6852808
-3.6893488e+19 3.0448468 -3.6893488e+19
-2.5441704 0 -1.7520046
0 3.0381415 -0
-2.6035917 -3.6893488e+19 -1.7845874
-2 3.044934 -3.6893488e+19
-2.5442574 3.6893488e+19 -1.8198625
-0 3.0379219 -3.6893488e+19
-2.6033223 3.6893488e+19 -1.8516693
3.6893488e+19 3.0268786 -0
-2.5897706 1.0842022e-19 -1.8913175
-0 3.0054891 1.0842022e-19
-2.5049031 -2 -1.8931837
-0 2.9721227 -3.6893488e+19
-2.5396817 -1.0842022e-19 -1.89806
-3.6893488e+19 2.9923644 2
-2.491235 3.6893488e+19 -1.9163103
-0 2.8440516 1.0842022e-19
-2.3432624 2 -1.8860258
3.6893488e+19 2.8091838 0
-2.2686417 3.6893488e+19 -1.8802192
0 2.7787516 -3.6893488e+19
-2.3051422 -1.0842022e-19 -1.8770258
-2 2.7621171 -1.0842022e-19
-2.2054935 1.0842022e-19 -1.8753988
2 2.7175055 1.0842022e-19
-2.2558832 3.6893488e+19 -1.8651662
0 2.6905131 -1.0842022e-19
-2.13275 -3.6893488e+19 -1.8609833
1.0842022e-19 2.6573923 3.6893488e+19
-2.195962 1.0842022e-19 -1.8579388
-3.6893488e+19 2.630969 -2
-2.0810139 -3.6893488e+19 -1.8509284
1.0842022e-19 2.5971966 1.0842022e-19
-2.1300673 0 -1.8437022
-2 2.5802338 2
-2.0369315 3.6893488e+19 -1.8397975
-1.0842022e-19 2.5530279 -0
-2.081717 -1.0842022e-19 -1.8335098
-2 2.5436554 -3.6893488e+19
-2.0051494 -0 -1.8328779
-3.6893488e+19 2.5285888 1.0842022e-19
-2.0549643 -1.0842022e-19 -1.8329235
-3.6893488e+19 2.4862528 -2
-2.0161443 2 -1.8206353
3.6893488e+19 2.4573715 -1.0842022e-19
-2.0003364 -2 -1.8223728
3.6893488e+19 2.4291675 1.0842022e-19
-2.0133257 3.6893488e+19 -1.8181788
-1.0842022e-19 2.3965418 -0
-1.9933075 0 -1.8152032
-0 2.343482 1.0842022e-19
-1.9607514 -1.0842022e-19 -1.8100866
-2 2.3030832 -1.0842022e-19
-1.9359637 0 -1.8063245
1.0842022e-19 2.2663257 2
-1.9134103 -3.6893488e+19 -1.8002198
1.0842022e-19 2.2407196 0
-1.8381866 -1.0842022e-19 -1.7973069
-3.6893488e+19 2.1967449 1.0842022e-19
-1.8190825 -3.6893488e+19 -1.7950213
-0 2.162966 -1.0842022e-19
-1.8044076 2 -1.7943896
2 2.1278558 3.6893488e+19
-1.7891544 3.6893488e+19 -1.7912353
-1.0842022e-19 3.1061568 -0
-2.6093144 1.0842022e-19 2.5846653
-0 3.0766809 2
-2.6546412 -0 2.5565798
-3.6893488e+19 3.1069207 2
-2.6100852 -2 2.5746043
3.6893488e+19 3.0728657 1.0842022e-19
-2.6499155 -0 2.5431156
2 3.1418016 -2
-2.7353022 0 2.593744
1.0842022e-19 3.1117525 1.0842022e-19
-2.6149597 -0 2.5572443
1.0842022e-19 3.0837877 1.0842022e-19
-2.6634438 3.6893488e+19 2.5326884
-0 3.0826972 1.0842022e-19
-2.6620932 2 2.5216711
0 3.1051965 2
-2.6083455 3.6893488e+19 2.5304406
-3.6893488e+19 3.1100743 3.6893488e+19
-2.6960037 -1.0842022e-19 2.5331295
3.6893488e+19 3.1079812 -2
-2.6934109 -0 2.5206804
2 3.0570619 2
-2.5201759 1.0842022e-19 2.4360971
2 3.102597 0
-2.6399612 3.6893488e+19 2.4969246
-3.6893488e+19 3.1113477 2
-2.5679407 2 2.4919646
-1.0842022e-19 3.1025598 -3.6893488e+19
-2.63992 3.6893488e+19 2.4759071
-1.0842022e-19 3.1110945 -1.0842022e-19
-2.5677178 -1.0842022e-19 2.4704571
-1.0842022e-19 3.0441704 -3.6893488e+19
-2.5753431 -0 2.3796394
-3.6893488e+19 3.0912392 -2
-2.5502477 -0 2.4246299
-3.6893488e+19 3.1031163 -0
-2.6405356 0 2.4348063
3.6893488e+19 3.0929818 3.6893488e+19
-2.5517809 -3.6893488e+19 2.4067841
-1.0842022e-19 3.1030853 -0
-2.6405013 0 2.4139078
1.0842022e-19 3.0924127 -3.6893488e+19
-2.55128 2 2.3861647
2 3.1062305 1.0842022e-19
-2.6439798 -3.6893488e+19 2.3965938
2 3.0965765 0
-2.5549438 -3.6893488e+19 2.3707159
3.6893488e+19 3.1014156 1.0842022e-19
-2.6386547 3.6893488e+19 2.3705513
-0 3.0937939 2
-2.5524955 2 2.3477895
2 3.1032734 -2
-2.6407092 1.0842022e-19 2.3517597
0 3.0150228 2
-2.5782685 2 2.2584159
-3.6893488e+19 3.1105647 -2
-2.6137614 2 2.3358519
-1.0842022e-19 3.1151752 0
-2.702322 0 2.3344786
2 3.1079471 -2
-2.6111205 -1.0842022e-19 2.3125818
-2 3.1146133 -0
-2.7016258 1.0842022e-19 2.3124366
3.6893488e+19 3.1067853 -1.0842022e-19
-2.6099484 -1.0842022e-19 2.2908297
2 3.1033411 -0
-2.6064737 -1.0842022e-19 2.2675171
-3.6893488e+19 3.0848267 1.0842022e-19
-2.664731 3.6893488e+19 2.2449234
1.0842022e-19 3.0983956 3.6893488e+19
-2.6014843 1.0842022e-19 2.2371535
2 3.0874348 -3.6893488e+19
-2.6679611 -2 2.2090991
-0 3.0414658 -3.6893488e+19
-2.5440497 -3.6893488e+19 2.1238043
-0 3.1145294 2
-2.7015219 2 2.2031381
-0 3.0461504 0
-2.5487761 3.6893488e+19 2.0955551
1.0842022e-19 3.1151559 0
-2.7022979 3.6893488e+19 2.1610711
-2 3.0453517 -1.0842022e-19
-2.5479703 -0 2.0604918
0 3.1398628 3.6893488e+19
-2.5930302 -3.6893488e+19 2.1345577
-1.0842022e-19 3.0261171 -3.6893488e+19
-2.5553768 0 2.0099516
-3.6893488e+19 3.1286182 -0
-2.5831366 -0 2.0800917
0 3.1011257 -3.6893488e+19
-2.6383338 -2 2.0398161
3.6893488e+19 3.248841 -2
-2.6889174 2 2.1277895
3.6893488e+19 3.1028638 -2
-2.6402562 0 2.0003333
1.0842022e-19 3.0536268 -3.6893488e+19
-2.5171533 2 1.9452047
0 3.029876 -3.6893488e+19
-2.5595338 0 1.9161122
2 3.0555022 1.0842022e-19
-2.5188036 0 1.9114796
-0 3.2097104 1.0842022e-19
-2.7542126 -3.6893488e+19 1.9695984
3.6893488e+19 3.2107708 1.0842022e-19
-2.6554205 -0 1.9408792
-2 3.1078296 2
-2.6457484 -1.0842022e-19 1.8794916
0 3.2072706 3.6893488e+19
-2.6523407 -0 1.8871871
-3.6893488e+19 3.0948648 1.0842022e-19
-2.6314099 3.6893488e+19 1.7947634
-2 3.2024043 -3.6893488e+19
-2.6480589 -0 1.7930884
-3.6893488e+19 3.0342627 -1.0842022e-19
-2.5643857 2 1.6482502
-3.6893488e+19 3.0166311 2
-2.580261 1.0842022e-19 1.5310872
-0 3.0524349 -2
-2.5551162 -1.0842022e-19 1.2658852
-0 3.0164537 2
-2.5800412 1.0842022e-19 -1.4358745
-2 3.0515203 0
-2.5541937 2 -1.6173332
-3.6893488e+19 3.0568893 -0
-2.6301265 2 -1.6968453
1.0842022e-19 3.0476828 -1.0842022e-19
-2.5503218 1.0842022e-19 -1.7533106
2 3.0572495 2
-2.6305726 3.6893488e+19 -1.7953082
-0 3.0441947 2
-2.546803 1.0842022e-19 -1.819502
0 3.0554161 -1.0842022e-19
-2.6283014 -2 -1.8656362
-2 3.0267441 -1.0842022e-19
-2.5927873 -2 -1.8913631
-3.6893488e+19 3.0458403 0
-2.5484633 2 -1.915907
1.0842022e-19 2.967505 -2
-2.5395358 1.0842022e-19 -1.8967305
0 2.9931304 3.6893488e+19
-2.4975023 -1.0842022e-19 -1.9166787
-1.0842022e-19 2.8444304 -0
-2.3474841 1.0842022e-19 -1.8862653
-1.0842022e-19 2.8095551 3.6893488e+19
-2.2723696 -3.6893488e+19 -1.8804504
-2 2.7754827 0
-2.3046753 -3.6893488e+19 -1.8756269
-1.0842022e-19 2.7612965 1.0842022e-19
-2.2098165 -0 -1.8750778
-2 2.7184906 1.0842022e-19
-2.259068 -1.0842022e-19 -1.8658462
0 2.6939151 3.6893488e+19
-2.1405895 -1.0842022e-19 -1.8629422
0 2.6573386 -0
-2.2005036 0 -1.8580763
-2 2.6301417 0
-2.0844772 -0 -1.8505672
2 2.5967057 -0
-2.1334455 -0 -1.8435507
0 2.5816267 2
-2.0417898 -1.0842022e-19 -1.8408271
-3.6893488e+19 2.5505278 -3.6893488e+19
-2.0823743 3.6893488e+19 -1.831939
-3.6893488e+19 2.5430005 -0
-2.0078037 -3.6893488e+19 -1.8325332
-0 2.5271878 -1.0842022e-19
-2.056561 -1.0842022e-19 -1.8320273
2 2.5193574 -2
-1.9870007 -3.6893488e+19 -1.8312937
-3.6893488e+19 2.4863815 1.0842022e-19
-2.0189614 3.6893488e+19 -1.8208284
-1.0842022e-19 2.4505703 1.0842022e-19
-1.9991584 1.0842022e-19 -1.8195784
-1.0842022e-19 2.4288204 0
-2.0155778 3.6893488e+19 -1.8181788
-1.0842022e-19 3.1061568 -0
-2.6093144 1.0842022e-19 2.5846653
-0 3.0766809 2
-2.6546412 -0 2.5565798
-3.6893488e+19 3.1069207 2
-2.6100852 -2 2.5746043
3.6893488e+19 3.0728657 1.0842022e-19
-2.6499155 -0 2.5431156
2 3.1418016 -2
-2.7353022 0 2.593744
1.0842022e-19 3.1117525 1.0842022e-19
-2.6149597 -0 2.5572443
1.0842022e-19 3.0837877 1.0842022e-19
-2.6634438 3.6893488e+19 2.5326884
-0 3.0826972 1.0842022e-19
-2.6620932 2 2.5216711
0 3.1051965 2
-2.6083455 3.6893488e+19 2.5304406
-3.6893488e+19 3.1100743 3.6893488e+19
-2.6960037 -1.0842022e-19 2.5331295
-2 3.0294285 -1.0842022e-19
-2.5961123 0 2.422569
2 3.0570619 2
-2.5201759 1.0842022e-19 2.4360971
2 3.102597 0
-2.6399612 3.6893488e+19 2.4969246
2 3.0594127 -2
-2.5222442 -2 2.4212563
-1.0842022e-19 3.1025598 -3.6893488e+19
-2.63992 3.6893488e+19 2.4759071
-2 3.0582263 -3.6893488e+19
-2.5212004 2 2.4015772
-1.0842022e-19 3.0441704 -3.6893488e+19
-2.5753431 -0 2.3796394
-3.6893488e+19 3.0573235 0
-2.5204062 3.6893488e+19 2.382426
0 3.0478191 0
-2.5793786 -1.0842022e-19 2.3667164
-3.6893488e+19 3.0570374 1.0842022e-19
-2.5201545 1.0842022e-19 2.3641534
-1.0842022e-19 3.1030853 -0
-2.6405013 0 2.4139078
0 3.0570679 0
-2.5201812 -2 2.3463035
-0 3.0474806 1.0842022e-19
-2.5790043 -1.0842022e-19 2.3311872
2 3.0576274 2
-2.5206735 -0 2.3290541
3.6893488e+19 3.0502615 0
-2.5820799 1.0842022e-19 2.3166118
-1.0842022e-19 3.0574152 -1.0842022e-19
-2.5204868 1.0842022e-19 2.3109882
2 3.1032734 -2
-2.6407092 1.0842022e-19 2.3517597
0 3.0150228 2
-2.5782685 2 2.2584159
0 3.0311654 3.6893488e+19
-2.533658 -2 2.2618942
-0 3.0171008 -3.6893488e+19
-2.5808425 -1.0842022e-19 2.2392964
-3.6893488e+19 3.0296922 3.6893488e+19
-2.532172 -3.6893488e+19 2.2384896
-0 3.0448563 -0
-2.6152217 0 2.2526619
3.6893488e+19 3.1067853 -1.0842022e-19
-2.6099484 -1.0842022e-19 2.2908297
1.0842022e-19 3.0419967 2
-2.5445855 2 2.1921458
-3.6893488e+19 3.0848267 1.0842022e-19
-2.664731 3.6893488e+19 2.2449234
1.0842022e-19 3.0983956 3.6893488e+19
-2.6014843 1.0842022e-19 2.2371535
3.6893488e+19 3.0359313 1.0842022e-19
-2.604167 2 2.1390259
-0 3.0414658 -3.6893488e+19
-2.5440497 -3.6893488e+19 2.1238043
2 3.0304897 1.0842022e-19
-2.5974267 2 2.0986702
-0 3.0461504 0
-2.5487761 3.6893488e+19 2.0955551
1.0842022e-19 3.1151559 0
-2.7022979 3.6893488e+19 2.1610711
-2 3.0453517 -1.0842022e-19
-2.5479703 -0 2.0604918
1.0842022e-19 3.047401 -2
-2.5116754 -3.6893488e+19 2.043354
-1.0842022e-19 3.0261171 -3.6893488e+19
-2.5553768 0 2.0099516
3.6893488e+19 3.0503833 3.6893488e+19
-2.5142996 2 2.011884
2 3.028897 0
-2.5584514 2 1.9801993
3.6893488e+19 3.248841 -2
-2.6889174 2 2.1277895
3.6893488e+19 3.1028638 -2
-2.6402562 0 2.0003333
1.0842022e-19 3.0536268 -3.6893488e+19
-2.5171533 2 1.9452047
0 3.029876 -3.6893488e+19
-2.5595338 0 1.9161122
2 3.0555022 1.0842022e-19
-2.5188036 0 1.9114796
-0 3.2097104 1.0842022e-19
-2.7542126 -3.6893488e+19 1.9695984
3.6893488e+19 3.0524514 3.6893488e+19
-2.5161192 1.0842022e-19 1.8752937
0 3.0307713 -2
-2.560524 2 1.8282113
-0 3.0484083 -0
-2.5125618 1.0842022e-19 1.8040528
-2 3.0353847 1.0842022e-19
-2.5656266 -2 1.7654836
3.6893488e+19 3.0539629 -2
-2.5174491 -0 1.7258717
-3.6893488e+19 3.0342627 -1.0842022e-19
-2.5643857 2 1.6482502
-3.6893488e+19 3.0166311 2
-2.580261 1.0842022e-19 1.5310872
-0 3.0524349 -2
-2.5551162 -1.0842022e-19 1.2658852
-0 3.0164537 2
-2.5800412 1.0842022e-19 -1.4358745
-2 3.0515203 0
-2.5541937 2 -1.6173332
1.0842022e-19 3.0386212 1.0842022e-19
-2.6074986 3.6893488e+19 -1.6851276
1.0842022e-19 3.0476828 -1.0842022e-19
-2.5503218 1.0842022e-19 -1.7533106
-3.6893488e+19 3.0365353 1.0842022e-19
-2.6049151 -2 -1.7838264
-0 3.0441947 2
-2.546803 1.0842022e-19 -1.819502
1.0842022e-19 3.0274827 2
-2.5937021 -1.0842022e-19 -1.8436277
-1.0842022e-19 2.9804459 -0
-2.5475504 2 -1.8704157
-1.0842022e-19 2.9984679 2
-2.5014436 -0 -1.8897702
1.0842022e-19 2.967505 -2
-2.5395358 1.0842022e-19 -1.8967305
0 2.9931304 3.6893488e+19
-2.4975023 -1.0842022e-19 -1.9166787
-1.0842022e-19 2.8444304 -0
-2.3474841 1.0842022e-19 -1.8862653
-1.0842022e-19 2.8095551 3.6893488e+19
-2.2723696 -3.6893488e+19 -1.8804504
-2 2.7754827 0
-2.3046753 -3.6893488e+19 -1.8756269
-1.0842022e-19 2.7612965 1.0842022e-19
-2.2098165 -0 -1.8750778
-2 2.7184906 1.0842022e-19
-2.259068 -1.0842022e-19 -1.8658462
0 2.6939151 3.6893488e+19
-2.1405895 -1.0842022e-19 -1.8629422
0 2.6573386 -0
-2.2005036 0 -1.8580763
-2 2.6301417 0
-2.0844772 -0 -1.8505672
2 2.5967057 -0
-2.1334455 -0 -1.8435507
0 2.5816267 2
-2.0417898 -1.0842022e-19 -1.8408271
-3.6893488e+19 2.5505278 -3.6893488e+19
-2.0823743 3.6893488e+19 -1.831939
-3.6893488e+19 2.5430005 -0
-2.0078037 -3.6893488e+19 -1.8325332
-0 2.5271878 -1.0842022e-19
-2.056561 -1.0842022e-19 -1.8320273
2 2.5193574 -2
-1.9870007 -3.6893488e+19 -1.8312937
-3.6893488e+19 2.4863815 1.0842022e-19
-2.0189614 3.6893488e+19 -1.8208284
-1.0842022e-19 2.4505703 1.0842022e-19
-1.9991584 1.0842022e-19 -1.8195784
-1.0842022e-19 2.4288204 0
-2.0155778 3.6893488e+19 -1.8181788
-1.0842022e-19 3.080215 -3.6893488e+19
-2.66257 -3.6893488e+19 2.5702789
3.6893488e+19 3.0771596 3.6893488e+19
-2.6587527 0 2.5572634
-0 3.0727654 0
-2.6532626 0 2.5432482
-2 3.1112607 -2
-2.6182339 0 2.5570176
1.0842022e-19 3.0833578 -3.6893488e+19
-2.6664965 -2 2.5325396
-3.6893488e+19 3.1063437 -2
-2.6132221 -3.6893488e+19 2.5315213
0 3.110357 2
-2.7002294 0 2.5335679
1.0842022e-19 3.1021647 -2
-2.6089623 2 2.5177298
1.0842022e-19 3.1070333 -0
-2.6960766 -1.0842022e-19 2.5201695
0 3.0569255 1.0842022e-19
-2.5232131 3.6893488e+19 2.4361398
-3.6893488e+19 3.1023865 2
-2.643451 -3.6893488e+19 2.4969664
-0 3.1115429 -0
-2.5718315 2 2.4924974
3.6893488e+19 3.1024981 2
-2.6435754 3.6893488e+19 2.4761479
-2 3.1105974 2
-2.5709898 -0 2.4700644
3.6893488e+19 3.0458736 -2
-2.5803523 0 2.3820977
-3.6893488e+19 3.091989 2
-2.5544255 -0 2.4257939
-2 3.1035607 0
-2.644762 2 2.4356501
-1.0842022e-19 3.0922825 -3.6893488e+19
-2.5546865 3.6893488e+19 2.4061751
1.0842022e-19 3.1019807 0
-2.6429977 3.6893488e+19 2.4128938
-0 3.0939796 -3.6893488e+19
-2.5561972 2 2.3881423
-3.6893488e+19 3.1064353 1.0842022e-19
-2.6479716 -3.6893488e+19 2.3970923
2 3.0967515 -1.0842022e-19
-2.5586646 2 2.3711045
3.6893488e+19 3.0502362 1.0842022e-19
-2.5852234 0 2.3168008
-1.0842022e-19 3.0933349 0
-2.5556235 -0 2.3475137
3.6893488e+19 3.1022558 -2
-2.6433048 -3.6893488e+19 2.3509853
3.6893488e+19 3.1087761 1.0842022e-19
-2.6157014 2 2.3343935
-3.6893488e+19 3.0172529 -1.0842022e-19
-2.5839055 -1.0842022e-19 2.2399487
2 3.0284646 0
-2.5338397 1.0842022e-19 2.2366478
-3.6893488e+19 3.0312548 -0
-2.5366838 -2 2.2088089
-1.0842022e-19 3.0353026 1.0842022e-19
-2.6064568 -3.6893488e+19 2.2056632
-0 3.0961857 1.0842022e-19
-2.6028681 0 2.2622628
-2 3.0733399 3.6893488e+19
-2.6539805 -0 2.2283087
-0 3.1014378 2
-2.6082215 2 2.241713
-3.6893488e+19 3.0860476 3.6893488e+19
-2.6698575 -2 2.2075608
-2 3.1110263 -2
-2.617995 -2 2.2133036
0 3.1146383 -2
-2.7055783 -3.6893488e+19 2.203619
1.0842022e-19 3.0455134 1.0842022e-19
-2.5512176 -0 2.095026
3.6893488e+19 3.1149371 -2
-2.7059517 -2 2.1611381
-0 3.0495842 -2
-2.5166781 1.0842022e-19 2.0456681
2 3.0254183 -2
-2.5575132 3.6893488e+19 2.0094702
-0 3.1321292 -0
-2.5901566 1.0842022e-19 2.0833335
-3.6893488e+19 3.0281358 -1.0842022e-19
-2.5605476 -2 1.9797275
-0 3.2477782 2
-2.6931028 1.0842022e-19 2.1271892
0 3.031714 -1.0842022e-19
-2.5645425 0 1.9499934
2 3.224792 -2
-2.6726413 3.6893488e+19 2.0554142
-2 3.0278504 -3.6893488e+19
-2.5602288 2 1.9150224
3.6893488e+19 3.2163737 1.0842022e-19
-2.6651478 3.6893488e+19 1.9966453
-0 3.2106009 3.6893488e+19
-2.7571378 -1.0842022e-19 1.9701737
-0 3.2098196 -2
-2.6593134 -3.6893488e+19 1.9405885
1.0842022e-19 3.0330777 2
-2.5660653 -2 1.8300202
-0 3.2079375 -2
-2.6576381 3.6893488e+19 1.8874618
1.0842022e-19 3.0954127 -2
-2.6356642 -3.6893488e+19 1.7951488
2 3.2042637 0
-2.6543679 -1.0842022e-19 1.7938708
-1.0842022e-19 3.0351226 2
-2.5683486 0 1.6488
3.6893488e+19 3.0560999 -3.6893488e+19
-2.6324406 -2 1.5543289
-2 3.0508842 -1.0842022e-19
-2.5566921 2 1.2652501
-2 3.015475 -1.0842022e-19
-2.5816841 2 -1.435333
0 3.0487895 2
-2.5545568 3.6893488e+19 -1.6152875
-1.0842022e-19 3.0543289 -1.0842022e-19
-2.630228 -0 -1.6953518
1.0842022e-19 3.045681 -2
-2.5513883 0 -1.752527
2 3.0545399 -3.6893488e+19
-2.6304915 1.0842022e-19 -1.7939351
3.6893488e+19 3.0531852 0
-2.6287992 -0 -1.8640609
-0 3.0449021 1.0842022e-19
-2.5505946 -0 -1.8815114
-1.0842022e-19 3.0562587 2
-2.6326392 -0 -1.9065588
2 3.0455356 1.0842022e-19
-2.5512402 -0 -1.9158391
-3.6893488e+19 2.9623792 3.6893488e+19
-2.5388479 -3.6893488e+19 -1.8952324
1.0842022e-19 2.9914322 -0
-2.500459 -3.6893488e+19 -1.9162079
1.0842022e-19 2.8667107 -1.0842022e-19
-2.4581676 -0 -1.8866425
-2 2.8445189 2
-2.3511691 -1.0842022e-19 -1.886385
-3.6893488e+19 2.8079858 -0
-2.274157 3.6893488e+19 -1.8798596
3.6893488e+19 2.7771585 3.6893488e+19
-2.3094563 -2 -1.8764772
0 2.7608504 -1.0842022e-19
-2.2143977 1.0842022e-19 -1.8748641
-2 2.7164893 -0
-2.2604251 -1.0842022e-19 -1.8649807
2 2.6955006 1.0842022e-19
-2.1465673 -2 -1.8639216
3.6893488e+19 2.6567008 0
-2.2040946 2 -1.85787
2 2.6288404 3.6893488e+19
-2.087229 -2 -1.8499169
-2 2.5973098 -2
-2.1377826 2 -1.8440808
-3.6893488e+19 2.5824196 -3.6893488e+19
-2.045907 -2 -1.8414607
-1.0842022e-19 2.5503232 -3.6893488e+19
-2.0853205 3.6893488e+19 -1.831939
3.6893488e+19 2.5428417 -3.6893488e+19
-2.0106761 -3.6893488e+19 -1.8325332
-2 2.5247207 2
-2.0567346 2 -1.8303245
2 2.5144734 -3.6893488e+19
-1.9854239 -3.6893488e+19 -1.8276631
2 2.4855711 1.0842022e-19
-2.0210779 2 -1.8206353
2 2.4809992 0
-1.9640834 -2 -1.8231634
0 2.4481082 1.0842022e-19
-2.0001636 1.0842022e-19 -1.8186469
-1.0842022e-19 2.4284935 -1.0842022e-19
-2.0176795 3.6893488e+19 -1.8181788
-1.0842022e-19 2.3963933 -3.6893488e+19
-1.9976265 -2 -1.8154309
-1.0842022e-19 2.343416 -2
-1.9645317 -0 -1.8103421
-1.0842022e-19 2.3037884 2
-1.9397764 0 -1.8070322
3.6893488e+19 2.2663789 -1.0842022e-19
-1.9164066 0 -1.8005306
-1.0842022e-19 2.2382479 -3.6893488e+19
-1.8423096 -3.6893488e+19 -1.7966305
2 2.1943274 -1.0842022e-19
-1.8227614 -0 -1.7942901
-1.0842022e-19 2.1605911 1.0842022e-19
-1.8077462 -1.0842022e-19 -1.7936035
-1.0842022e-19 2.1293428 2
-1.7938381 1.0842022e-19 -1.792076
-1.0842022e-19 3.080215 -3.6893488e+19
-2.66257 -3.6893488e+19 2.5702789
3.6893488e+19 3.0771596 3.6893488e+19
-2.6587527 0 2.5572634
-0 3.0727654 0
-2.6532626 0 2.5432482
-2 3.1112607 -2
-2.6182339 0 2.5570176
1.0842022e-19 3.0833578 -3.6893488e+19
-2.6664965 -2 2.5325396
-3.6893488e+19 3.1063437 -2
-2.6132221 -3.6893488e+19 2.5315213
3.6893488e+19 3.0692554 2
-2.6488771 0 2.5012248
1.0842022e-19 3.1021647 -2
-2.6089623 2 2.5177298
1.0842022e-19 3.1070333 -0
-2.6960766 -1.0842022e-19 2.5201695
0 3.0569255 1.0842022e-19
-2.5232131 3.6893488e+19 2.4361398
-3.6893488e+19 3.1023865 2
-2.643451 -3.6893488e+19 2.4969664
-3.6893488e+19 3.0577402 -1.0842022e-19
-2.5239384 -0 2.4192069
3.6893488e+19 3.1024981 2
-2.6435754 3.6893488e+19 2.4761479
2 3.0590534 0
-2.5251074 -1.0842022e-19 2.402873
3.6893488e+19 3.0458736 -2
-2.5803523 0 2.3820977
1.0842022e-19 3.0566745 -3.6893488e+19
-2.5229895 -1.0842022e-19 2.3818252
-2 3.0465443 0
-2.5811014 1.0842022e-19 2.3653958
-1.0842022e-19 3.0558143 -1.0842022e-19
-2.5222239 0 2.3628995
1.0842022e-19 3.0465162 -0
-2.5810697 -3.6893488e+19 2.3478305
-1.0842022e-19 3.0570221 2
-2.5232992 -3.6893488e+19 2.3464398
-1.0842022e-19 3.0467112 -0
-2.5812876 0 2.3305559
-3.6893488e+19 3.0557969 -3.6893488e+19
-2.5222085 -2 2.3272736
3.6893488e+19 3.0502362 1.0842022e-19
-2.5852234 0 2.3168008
-1.0842022e-19 3.0571578 -2
-2.5234199 -1.0842022e-19 2.3108962
3.6893488e+19 3.1022558 -2
-2.6433048 -3.6893488e+19 2.3509853
3.6893488e+19 3.1087761 1.0842022e-19
-2.6157014 2 2.3343935
-3.6893488e+19 3.0172529 -1.0842022e-19
-2.5839055 -1.0842022e-19 2.2399487
2 3.0284646 0
-2.5338397 1.0842022e-19 2.2366478
-3.6893488e+19 3.0312548 -0
-2.5366838 -2 2.2088089
-1.0842022e-19 3.0353026 1.0842022e-19
-2.6064568 -3.6893488e+19 2.2056632
0 3.0307181 2
-2.5361366 0 2.1753318
3.6893488e+19 3.0520356 -0
-2.6273627 -1.0842022e-19 2.1967936
-0 3.1014378 2
-2.6082215 2 2.241713
3.6893488e+19 3.0349107 -2
-2.6059668 -3.6893488e+19 2.1379328
2 3.0409224 -1.0842022e-19
-2.5465379 -2 2.1233394
2 3.0359278 -2
-2.6072376 -3.6893488e+19 2.1057012
1.0842022e-19 3.0455134 1.0842022e-19
-2.5512176 -0 2.095026
-2 3.0332413 1.0842022e-19
-2.6038814 -2 2.0690997
-0 3.0495842 -2
-2.5166781 1.0842022e-19 2.0456681
2 3.0254183 -2
-2.5575132 3.6893488e+19 2.0094702
1.0842022e-19 3.049459 1.0842022e-19
-2.5165668 0 2.0112197
-3.6893488e+19 3.0281358 -1.0842022e-19
-2.5605476 -2 1.9797275
-1.0842022e-19 3.0512996 -0
-2.5182052 1.0842022e-19 1.9783084
0 3.031714 -1.0842022e-19
-2.5645425 0 1.9499934
-3.6893488e+19 3.0598323 -2
-2.5258007 2 1.9493026
-2 3.0278504 -3.6893488e+19
-2.5602288 2 1.9150224
-0 3.0580194 -1.0842022e-19
-2.5241868 -1.0842022e-19 1.9128984
0 3.0329075 -3.6893488e+19
-2.5658751 3.6893488e+19 1.8852338
-3.6893488e+19 3.0604901 -1.0842022e-19
-2.5263863 2 1.8786937
1.0842022e-19 3.0330777 2
-2.5660653 -2 1.8300202
2 3.0603545 -1.0842022e-19
-2.5262654 3.6893488e+19 1.8113219
1.0842022e-19 3.0954127 -2
-2.6356642 -3.6893488e+19 1.7951488
-1.0842022e-19 3.0558417 0
-2.5222485 3.6893488e+19 1.7273911
-1.0842022e-19 3.0351226 2
-2.5683486 0 1.6488
3.6893488e+19 3.0153244 -0
-2.5814958 3.6893488e+19 1.5304406
-2 3.0508842 -1.0842022e-19
-2.5566921 2 1.2652501
-2 3.015475 -1.0842022e-19
-2.5816841 2 -1.435333
0 3.0487895 2
-2.5545568 3.6893488e+19 -1.6152875
-1.0842022e-19 3.0137935 -0
-2.5795832 0 -1.6693318
1.0842022e-19 3.045681 -2
-2.5513883 0 -1.752527
0 3.0357504 -3.6893488e+19
-2.6070158 -3.6893488e+19 -1.783512
-2 3.027957 3.6893488e+19
-2.5972791 2 -1.8441685
-0 3.0449021 1.0842022e-19
-2.5505946 -0 -1.8815114
-1.0842022e-19 3.0562587 2
-2.6326392 -0 -1.9065588
0 2.9954951 3.6893488e+19
-2.5025296 1.0842022e-19 -1.8890229
-3.6893488e+19 2.9623792 3.6893488e+19
-2.5388479 -3.6893488e+19 -1.8952324
1.0842022e-19 2.9914322 -0
-2.500459 -3.6893488e+19 -1.9162079
1.0842022e-19 2.8667107 -1.0842022e-19
-2.4581676 -0 -1.8866425
-2 2.8445189 2
-2.3511691 -1.0842022e-19 -1.886385
-3.6893488e+19 2.8079858 -0
-2.274157 3.6893488e+19 -1.8798596
3.6893488e+19 2.7771585 3.6893488e+19
-2.3094563 -2 -1.8764772
0 2.7608504 -1.0842022e-19
-2.2143977 1.0842022e-19 -1.8748641
-2 2.7164893 -0
-2.2604251 -1.0842022e-19 -1.8649807
2 2.6955006 1.0842022e-19
-2.1465673 -2 -1.8639216
3.6893488e+19 2.6567008 0
-2.2040946 2 -1.85787
2 2.6288404 3.6893488e+19
-2.087229 -2 -1.8499169
-2 2.5973098 -2
-2.1377826 2 -1.8440808
-3.6893488e+19 2.5824196 -3.6893488e+19
-2.045907 -2 -1.8414607
-1.0842022e-19 2.5503232 -3.6893488e+19
-2.0853205 3.6893488e+19 -1.831939
3.6893488e+19 2.5428417 -3.6893488e+19
-2.0106761 -3.6893488e+19 -1.8325332
-2 2.5247207 2
-2.0567346 2 -1.8303245
2 2.5144734 -3.6893488e+19
-1.9854239 -3.6893488e+19 -1.8276631
2 2.4855711 1.0842022e-19
-2.0210779 2 -1.8206353
2 2.4809992 0
-1.9640834 -2 -1.8231634
0 2.4481082 1.0842022e-19
-2.0001636 1.0842022e-19 -1.8186469
-1.0842022e-19 2.4284935 -1.0842022e-19
-2.0176795 3.6893488e+19 -1.8181788
-1.0842022e-19 2.3963933 -3.6893488e+19
-1.9976265 -2 -1.8154309
-1.0842022e-19 2.343416 -2
-1.9645317 -0 -1.8103421
-1.0842022e-19 2.3037884 2
-1.9397764 0 -1.8070322
3.6893488e+19 2.2663789 -1.0842022e-19
-1.9164066 0 -1.8005306
-1.0842022e-19 2.2382479 -3.6893488e+19
-1.8423096 -3.6893488e+19 -1.7966305
2 2.1943274 -1.0842022e-19
-1.8227614 -0 -1.7942901
-1.0842022e-19 2.1605911 1.0842022e-19
-1.8077462 -1.0842022e-19 -1.7936035
-1.0842022e-19 2.1293428 2
-1.7938381 1.0842022e-19 -1.792076
-2 3.1267636 -2
-2.6382515 -1.0842022e-19 2.6044869
3.6893488e+19 3.1164775 -3.6893488e+19
-2.6276517 1.0842022e-19 2.5837274
1.0842022e-19 3.0704608 -0
-2.654079 -3.6893488e+19 2.541394
0 3.1160553 3.6893488e+19
-2.6272166 2 2.5723057
-3.6893488e+19 3.1144264 0
-2.6255383 3.6893488e+19 2.5599163
-0 3.1175823 2
-2.6287904 -2 2.5515835
-1.0842022e-19 3.107204 1.0842022e-19
-2.6180956 3.6893488e+19 2.5323908
3.6893488e+19 3.1119936 3.6893488e+19
-2.706449 2 2.5350904
-2 3.1019874 0
-2.61272 1.0842022e-19 2.5177751
-1.0842022e-19 3.1019838 -0
-2.6127162 -0 2.5073054
-1.0842022e-19 3.1158292 -1.0842022e-19
-2.5796804 -1.0842022e-19 2.5100737
1.0842022e-19 3.1013563 3.6893488e+19
-2.6462798 1.0842022e-19 2.4958785
0 3.1120524 3.6893488e+19
-2.5762768 3.6893488e+19 2.4934812
2 3.1102953 -3.6893488e+19
-2.5746932 -0 2.4699466
-1.0842022e-19 3.0467851 -2
-2.5847313 -2 2.3835571
2 3.0964298 3.6893488e+19
-2.5621979 -1.0842022e-19 2.4315763
-2 3.1023781 0
-2.6474326 1.0842022e-19 2.4345129
-1.0842022e-19 3.0923831 0
-2.5585513 0 2.4065335
2 3.1017513 3.6893488e+19
-2.6467254 1.0842022e-19 2.4129288
-3.6893488e+19 3.093868 -2
-2.5598893 3.6893488e+19 2.3882446
3.6893488e+19 3.1051893 1.0842022e-19
-2.6506031 -2 2.3959956
-1.0842022e-19 3.0958524 0
-2.5616777 -0 2.3703599
0 3.049329 3.6893488e+19
-2.5876005 -1.0842022e-19 2.316076
-3.6893488e+19 3.0946157 -2
-2.5605631 1.0842022e-19 2.3490152
-0 3.1044154 2
-2.6497302 3.6893488e+19 2.3533974
-2 3.0152242 0
-2.5844297 -3.6893488e+19 2.259023
2 3.1091664 -2
-2.6201177 -1.0842022e-19 2.3349824
-0 3.0194032 2
-2.589699 -3.6893488e+19 2.2442975
-0 3.105829 1.0842022e-19
-2.6166787 2 2.3111346
-3.6893488e+19 3.0201356 3.6893488e+19
-2.5906227 3.6893488e+19 2.2136927
-1.0842022e-19 3.1044567 -2
-2.6152644 -1.0842022e-19 2.2893057
2 3.1813402 -3.6893488e+19
-2.771945 0 2.3447354
-2 3.0940845 3.6893488e+19
-2.6045761 2 2.2608464
-2 3.0756567 -2
-2.6606307 -1.0842022e-19 2.2321327
-1.0842022e-19 3.0331142 -2
-2.5417466 -1.0842022e-19 2.1463847
-1.0842022e-19 3.0846422 -1.0842022e-19
-2.6719608 -1.0842022e-19 2.2060225
-1.0842022e-19 3.1157014 -3.6893488e+19
-2.626852 0 2.219619
0 3.030818 2
-2.6040921 -3.6893488e+19 2.0996323
-0 3.0477598 -2
-2.5568388 3.6893488e+19 2.0978827
3.6893488e+19 3.0325027 3.6893488e+19
-2.6062164 0 2.0685298
1.0842022e-19 3.0310776 -3.6893488e+19
-2.5396478 -1.0842022e-19 2.0458684
0 3.0538511 0
-2.5238266 2 2.0500555
-0 3.1783934 -2
-2.7331667 3.6893488e+19 2.1538846
2 3.1319656 -0
-2.5942223 0 2.0833867
0 3.1827281 -2
-2.7380555 2 2.1076767
1.0842022e-19 3.2500372 0
-2.7006605 0 2.1291518
-2 3.0287118 -2
-2.5643473 1.0842022e-19 1.9480079
2 3.2245131 0
-2.6776249 3.6893488e+19 2.0554142
2 3.2171919 0
-2.763463 2 2.0276814
3.6893488e+19 3.2125652 -3.6893488e+19
-2.6668575 -1.0842022e-19 1.9947749
1.0842022e-19 3.2114043 -1.0842022e-19
-2.7601991 1.0842022e-19 1.9707203
3.6893488e+19 3.2100675 1.0842022e-19
-2.6646068 2 1.9408034
-1.0842022e-19 3.2081177 1.0842022e-19
-2.7583458 3.6893488e+19 1.9160191
-0 3.2073941 1.0842022e-19
-2.6621976 2 1.8873794
1.0842022e-19 3.0362737 2
-2.572876 2 1.7661211
0 3.2028689 1.0842022e-19
-2.6581194 2 1.7934513
-0 3.0343413 3.6893488e+19
-2.5706966 -0 1.6485015
0 3.0143311 -1.0842022e-19
-2.5833032 0 1.5299863
0 3.0971038 -2
-2.6076872 2 1.286903
1.0842022e-19 3.0154057 -2
-2.5846581 -2 -1.4354371
-0 3.0477715 2
-2.5568509 -1.0842022e-19 -1.61463
-3.6893488e+19 3.0138445 1.0842022e-19
-2.58269 -0 -1.669504
1.0842022e-19 3.039037 -2
-2.5478499 -3.6893488e+19 -1.7494905
2 3.0358429 0
-2.6104283 3.6893488e+19 -1.783694
-0 3.0260894 -2
-2.5981297 -3.6893488e+19 -1.8428752
-2 3.0394402 0
-2.5482657 -0 -1.8791625
3.6893488e+19 3.0261865 -3.6893488e+19
-2.5982521 3.6893488e+19 -1.8913022
-0 3.0439758 -2
-2.5529394 -1.0842022e-19 -1.9150748
-0 2.9607477 2
-2.5404856 1.0842022e-19 -1.8948393
-0 2.9878967 1.0842022e-19
-2.5013866 -2 -1.9151232
0 2.8687313 -1.0842022e-19
-2.4649446 -3.6893488e+19 -1.8875085
0 2.8426552 -3.6893488e+19
-2.3531029 -0 -1.8857384
2 2.8099971 0
-2.2793653 2 -1.8807844
-1.0842022e-19 2.7777953 1.0842022e-19
-2.3133137 1.0842022e-19 -1.8768613
-1.0842022e-19 2.7595406 -0
-2.2177892 1.0842022e-19 -1.8737557
1.0842022e-19 2.717587 3.6893488e+19
-2.2636857 -0 -1.8657225
3.6893488e+19 2.6987677 3.6893488e+19
-2.1544235 -1.0842022e-19 -1.8658153
-0 2.6558013 2
-2.2076862 -0 -1.8575261
-1.0842022e-19 2.6284962 -2
-2.0910957 -2 -1.8498447
1.0842022e-19 2.5975342 -1.0842022e-19
-2.141969 1.0842022e-19 -1.8443837
2 2.5817382 3.6893488e+19
-2.0489581 1.0842022e-19 -1.841144
2 2.5503421 -2
-2.088743 -0 -1.8321043
-0 2.5424266 -0
-2.013531 -0 -1.832361
-1.0842022e-19 2.5245185 -2
-2.0596178 2 -1.8303245
1.0842022e-19 2.5145609 1.0842022e-19
-1.9884188 -3.6893488e+19 -1.8278493
-1.0842022e-19 2.4854531 2
-2.023761 3.6893488e+19 -1.8207319
3.6893488e+19 2.4814446 2
-1.9669358 1.0842022e-19 -1.8234636
-0 2.4513681 2
-2.0045395 2 -1.8201994
0 2.4281409 -1.0842022e-19
-2.019928 3.6893488e+19 -1.8181788
-2 3.1267636 -2
-2.6382515 -1.0842022e-19 2.6044869
3.6893488e+19 3.1164775 -3.6893488e+19
-2.6276517 1.0842022e-19 2.5837274
1.0842022e-19 3.0704608 -0
-2.654079 -3.6893488e+19 2.541394
0 3.1160553 3.6893488e+19
-2.6272166 2 2.5723057
-3.6893488e+19 3.1144264 0
-2.6255383 3.6893488e+19 2.5599163
-0 3.1175823 2
-2.6287904 -2 2.5515835
-1.0842022e-19 3.107204 1.0842022e-19
-2.6180956 3.6893488e+19 2.5323908
-0 3.0682602 -1.0842022e-19
-2.6513042 0 2.500648
-2 3.1019874 0
-2.61272 1.0842022e-19 2.5177751
-1.0842022e-19 3.1019838 -0
-2.6127162 -0 2.5073054
1.0842022e-19 3.0555136 1.0842022e-19
-2.5253248 -2 2.4343886
1.0842022e-19 3.1013563 3.6893488e+19
-2.6462798 1.0842022e-19 2.4958785
0 3.0563567 -1.0842022e-19
-2.5260844 -0 2.4175673
0 3.0562224 2
-2.5259635 0 2.3994174
-1.0842022e-19 3.0467851 -2
-2.5847313 -2 2.3835571
2 3.0964298 3.6893488e+19
-2.5621979 -1.0842022e-19 2.4315763
-2 3.0470996 -0
-2.5850861 -3.6893488e+19 2.3663495
3.6893488e+19 3.055876 1.0842022e-19
-2.5256515 1.0842022e-19 2.3631861
3.6893488e+19 3.0463574 1.0842022e-19
-2.584249 1.0842022e-19 2.3479006
-0 3.0562377 3.6893488e+19
-2.5259774 -0 2.345758
-3.6893488e+19 3.0476553 -2
-2.5857129 -1.0842022e-19 2.331852
2 3.0553453 0
-2.5251732 -3.6893488e+19 2.3269823
0 3.049329 3.6893488e+19
-2.5876005 -1.0842022e-19 2.316076
1.0842022e-19 3.0586717 2
-2.5281708 -3.6893488e+19 2.3126121
-0 3.1044154 2
-2.6497302 3.6893488e+19 2.3533974
-2 3.0152242 0
-2.5844297 -3.6893488e+19 2.259023
1.0842022e-19 3.0303807 -2
-2.5389297 -3.6893488e+19 2.2615016
-0 3.0194032 2
-2.589699 -3.6893488e+19 2.2442975
1.0842022e-19 3.0319488 2
-2.5405457 -3.6893488e+19 2.2430682
-3.6893488e+19 3.0201356 3.6893488e+19
-2.5906227 3.6893488e+19 2.2136927
-1.0842022e-19 3.0316379 0
-2.5402255 3.6893488e+19 2.209743
-0 3.0387468 3.6893488e+19
-2.61409 -0 2.211544
-3.6893488e+19 3.0323071 -3.6893488e+19
-2.540915 -1.0842022e-19 2.1780274
0 3.0519354 -2
-2.6307197 2 2.1970134
-1.0842022e-19 3.0331142 -2
-2.5417466 -1.0842022e-19 2.1463847
-1.0842022e-19 3.0846422 -1.0842022e-19
-2.6719608 -1.0842022e-19 2.2060225
-1.0842022e-19 3.1157014 -3.6893488e+19
-2.626852 0 2.219619
0 3.030818 2
-2.6040921 -3.6893488e+19 2.0996323
-0 3.0477598 -2
-2.5568388 3.6893488e+19 2.0978827
3.6893488e+19 3.0325027 3.6893488e+19
-2.6062164 0 2.0685298
1.0842022e-19 3.0310776 -3.6893488e+19
-2.5396478 -1.0842022e-19 2.0458684
0 3.0538511 0
-2.5238266 2 2.0500555
1.0842022e-19 3.0300803 -3.6893488e+19
-2.5658906 1.0842022e-19 2.0140567
0 3.0535755 2
-2.5235782 0 2.0149662
2 3.0279012 3.6893488e+19
-2.5634329 3.6893488e+19 1.9797027
2 3.0507572 -0
-2.5210383 -3.6893488e+19 1.9780313
-2 3.0287118 -2
-2.5643473 1.0842022e-19 1.9480079
1.0842022e-19 3.0586147 -3.6893488e+19
-2.5281193 0 1.9486359
2 3.0278263 2
-2.5633485 3.6893488e+19 1.9151295
-3.6893488e+19 3.0597579 -2
-2.5291498 -2 1.9139142
3.6893488e+19 3.0305345 -1.0842022e-19
-2.5664029 -3.6893488e+19 1.8841982
-1.0842022e-19 3.0608563 2
-2.5301397 -3.6893488e+19 1.8789212
-0 3.0268552 -2
-2.5622532 -2 1.8256613
0 3.0610561 -3.6893488e+19
-2.5303195 -1.0842022e-19 1.8118528
1.0842022e-19 3.0362737 2
-2.572876 2 1.7661211
-1.0842022e-19 3.0591676 2
-2.5286179 -0 1.7299991
-0 3.0343413 3.6893488e+19
-2.5706966 -0 1.6485015
0 3.0143311 -1.0842022e-19
-2.5833032 0 1.5299863
3.6893488e+19 3.0493808 -3.6893488e+19
-2.5585091 -1.0842022e-19 1.2646431
1.0842022e-19 3.0154057 -2
-2.5846581 -2 -1.4354371
-0 3.0477715 2
-2.5568509 -1.0842022e-19 -1.61463
-3.6893488e+19 3.0138445 1.0842022e-19
-2.58269 -0 -1.669504
1.0842022e-19 3.039037 -2
-2.5478499 -3.6893488e+19 -1.7494905
2 3.0358429 0
-2.6104283 3.6893488e+19 -1.783694
-0 3.0260894 -2
-2.5981297 -3.6893488e+19 -1.8428752
-2 3.0394402 0
-2.5482657 -0 -1.8791625
3.6893488e+19 3.0261865 -3.6893488e+19
-2.5982521 3.6893488e+19 -1.8913022
-2 2.9951618 -2
-2.5051298 1.0842022e-19 -1.8890229
-0 2.9607477 2
-2.5404856 1.0842022e-19 -1.8948393
-0 2.9878967 1.0842022e-19
-2.5013866 -2 -1.9151232
0 2.8687313 -1.0842022e-19
-2.4649446 -3.6893488e+19 -1.8875085
0 2.8426552 -3.6893488e+19
-2.3531029 -0 -1.8857384
2 2.8099971 0
-2.2793653 2 -1.8807844
-1.0842022e-19 2.7777953 1.0842022e-19
-2.3133137 1.0842022e-19 -1.8768613
-1.0842022e-19 2.7595406 -0
-2.2177892 1.0842022e-19 -1.8737557
1.0842022e-19 2.717587 3.6893488e+19
-2.2636857 -0 -1.8657225
3.6893488e+19 2.6987677 3.6893488e+19
-2.1544235 -1.0842022e-19 -1.8658153
-0 2.6558013 2
-2.2076862 -0 -1.8575261
-1.0842022e-19 2.6284962 -2
-2.0910957 -2 -1.8498447
1.0842022e-19 2.5975342 -1.0842022e-19
-2.141969 1.0842022e-19 -1.8443837
2 2.5817382 3.6893488e+19
-2.0489581 1.0842022e-19 -1.841144
2 2.5503421 -2
-2.088743 -0 -1.8321043
-0 2.5424266 -0
-2.013531 -0 -1.832361
-1.0842022e-19 2.5245185 -2
-2.0596178 2 -1.8303245
1.0842022e-19 2.5145609 1.0842022e-19
-1.9884188 -3.6893488e+19 -1.8278493
-1.0842022e-19 2.4854531 2
-2.023761 3.6893488e+19 -1.8207319
3.6893488e+19 2.4814446 2
-1.9669358 1.0842022e-19 -1.8234636
-0 2.4513681 2
-2.0045395 2 -1.8201994
0 2.4281409 -1.0842022e-19
-2.019928 3.6893488e+19 -1.8181788
0 3.1235886 3.6893488e+19
-2.6391652 0 2.6017387
1.0842022e-19 3.1150472 -2
-2.6302676 2 2.5826509
3.6893488e+19 3.0701945 -3.6893488e+19
-2.6574421 -3.6893488e+19 2.541394
1.0842022e-19 3.11625 1.0842022e-19
-2.6315207 -1.0842022e-19 2.5726964
3.6893488e+19 3.114712 3.6893488e+19
-2.6299186 3.6893488e+19 2.56037
2 3.1471963 -2
-2.7527127 -1.0842022e-19 2.587204
-1.0842022e-19 3.1187859 1.0842022e-19
-2.6341624 -2 2.5527768
-1.0842022e-19 3.1101987 3.6893488e+19
-2.6252172 -3.6893488e+19 2.5349519
1.0842022e-19 3.1116636 -2
-2.7102108 3.6893488e+19 2.5350673
-2 3.1019266 -3.6893488e+19
-2.6166 -3.6893488e+19 2.5179107
3.6893488e+19 3.1013873 2
-2.6160383 1.0842022e-19 2.5070441
-3.6893488e+19 3.1149812 -3.6893488e+19
-2.5829451 -2 2.5096252
0 3.1011543 -0
-2.6500349 1.0842022e-19 2.4959621
-1.0842022e-19 3.1118069 2
-2.5800495 3.6893488e+19 2.4934402
-2 3.1107428 1.0842022e-19
-2.5790789 0 2.4708107
3.6893488e+19 3.0450499 -0
-2.5861208 -1.0842022e-19 2.3815982
-2 3.0972478 2
-2.5667684 2 2.432853
0 3.0984893 -0
-2.6469989 -0 2.430037
-1.0842022e-19 3.0951345 2
-2.5648406 2 2.4100442
-2 3.0991089 1.0842022e-19
-2.6477051 0 2.4101319
1.0842022e-19 3.0939655 1.0842022e-19
-2.5637741 -1.0842022e-19 2.3885856
-3.6893488e+19 3.1042995 -2
-2.6536181 3.6893488e+19 2.3952978
-2 3.0944684 -1.0842022e-19
-2.5642328 1.0842022e-19 2.3690975
-1.0842022e-19 3.0964065 0
-2.5660009 -1.0842022e-19 2.3510375
0 3.1039431 -1.0842022e-19
-2.6532118 1.0842022e-19 2.353189
3.6893488e+19 3.0189972 -1.0842022e-19
-2.5922945 -2 2.2629261
-3.6893488e+19 3.1099439 0
-2.6249518 1.0842022e-19 2.3359361
1.0842022e-19 3.0174625 2
-2.5903416 -3.6893488e+19 2.2411447
1.0842022e-19 3.1073616 -2
-2.6222615 0 2.3126872
2 3.0191708 -3.6893488e+19
-2.5925152 -3.6893488e+19 2.2124202
3.6893488e+19 3.0962708 3.6893488e+19
-2.6107085 3.6893488e+19 2.2828166
3.6893488e+19 3.1802406 -1.0842022e-19
-2.773737 3.6893488e+19 2.3441424
-1.0842022e-19 3.0955672 -1.0842022e-19
-2.6099756 0 2.2621486
3.6893488e+19 3.0764837 -2
-2.6654451 -2 2.2337589
2 3.1966062 -3.6893488e+19
-2.7152271 3.6893488e+19 2.3128564
2 3.1802955 0
-2.773772 3.6893488e+19 2.2934291
0 3.1988189 -1.0842022e-19
-2.7175322 -3.6893488e+19 2.2883732
2 3.2169085 0
-2.7970667 -1.0842022e-19 2.2909038
-3.6893488e+19 3.1932893 -0
-2.7117722 -1.0842022e-19 2.259131
-1.0842022e-19 3.2132165 1.0842022e-19
-2.7947178 2 2.2613621
-0 3.1937084 3.6893488e+19
-2.7122087 1.0842022e-19 2.217375
-0 3.0521801 0
-2.5256565 2 2.048583
0 3.1811056 -2
-2.7411153 -1.0842022e-19 2.156744
-2 3.1325598 1.0842022e-19
-2.5989809 0 2.0841041
0 3.1837571 -3.6893488e+19
-2.7441359 -3.6893488e+19 2.108794
3.6893488e+19 3.0545957 -0
-2.5278599 -2 1.9810791
-2 3.2482455 -1.0842022e-19
-2.7838006 -1.0842022e-19 2.1042366
-1.0842022e-19 3.0533469 -0
-2.5267208 0 1.9453616
-1.0842022e-19 3.2175653 1.0842022e-19
-2.7663252 -1.0842022e-19 2.02811
1.0842022e-19 3.0583558 0
-2.5312901 -0 1.9132693
-3.6893488e+19 3.2103701 3.6893488e+19
-2.7622268 2 1.9703895
-3.6893488e+19 3.2080576 -0
-2.6678519 -2 1.9400829
2 3.205163 0
-2.7592609 -0 1.915071
-3.6893488e+19 3.2077007 -3.6893488e+19
-2.6675262 3.6893488e+19 1.8875533
3.6893488e+19 3.2014647 3.6893488e+19
-2.7571542 -1.0842022e-19 1.8477191
0 3.2038791 0
-2.6640401 2 1.7939276
-0 3.1979539 1.0842022e-19
-2.7551546 1.0842022e-19 1.7341248
-1.0842022e-19 3.1132462 1.0842022e-19
-2.712225 -2 1.5881606
3.6893488e+19 3.0982287 -3.6893488e+19
-2.6127479 -1.0842022e-19 1.2875382
0 3.1147673 -2
-2.7141602 2 -1.5025362
-2 3.0394948 -2
-2.5515652 -2 -1.6081278
3.6893488e+19 3.1135011 1.0842022e-19
-2.7125492 2 -1.7337215
-1.0842022e-19 3.0375099 -0
-2.5494976 3.6893488e+19 -1.7483413
-1.0842022e-19 3.0910769 2
-2.6840148 3.6893488e+19 -1.8145163
2 3.0372047 -2
-2.5491796 -3.6893488e+19 -1.8152558
-2 3.0411177 -1.0842022e-19
-2.5532558 3.6893488e+19 -1.8799995
-2 3.024796 -0
-2.5996735 0 -1.8907079
-3.6893488e+19 3.0413883 0
-2.5535378 0 -1.9137332
1.0842022e-19 2.9609601 3.6893488e+19
-2.543282 0 -1.8950266
1.0842022e-19 2.9873838 0
-2.5038526 -1.0842022e-19 -1.9150618
3.6893488e+19 2.8703883 3.6893488e+19
-2.471313 3.6893488e+19 -1.8882414
-1.0842022e-19 2.8432679 -0
-2.3575804 0 -1.8860737
-2 2.8080478 0
-2.2810092 -3.6893488e+19 -1.8800393
-1.0842022e-19 2.7740476 -1.0842022e-19
-2.3121951 -0 -1.8752429
-1.0842022e-19 2.7558579 2
-2.2168005 1.0842022e-19 -1.8703721
-0 2.7131596 -0
-2.2638156 0 -1.8636208
-2 2.6985006 -3.6893488e+19
-2.1591337 -1.0842022e-19 -1.8658153
-2 2.65466 3.6893488e+19
-2.2109888 1.0842022e-19 -1.8570447
-3.6893488e+19 2.6292434 1.0842022e-19
-2.0959556 3.6893488e+19 -1.8504227
3.6893488e+19 2.5943987 -1.0842022e-19
-2.142339 2 -1.8425663
0 2.5800831 0
-2.0511103 -0 -1.8401935
0 2.5504782 3.6893488e+19
-2.0923047 1.0842022e-19 -1.8323524
3.6893488e+19 2.5428598 1.0842022e-19
-2.0171542 0 -1.8327918
0 2.524554 -0
-2.0627718 -3.6893488e+19 -1.8305037
-3.6893488e+19 2.5147674 -2
-1.9915277 -1.0842022e-19 -1.8281286
-3.6893488e+19 2.4829383 -1.0842022e-19
-2.0250816 1.0842022e-19 -1.8198628
-3.6893488e+19 2.4806731 -1.0842022e-19
-1.9692411 -3.6893488e+19 -1.8232634
1.0842022e-19 2.4522283 -1.0842022e-19
-2.0075891 3.6893488e+19 -1.8207169
0 2.4277852 -2
-2.0221746 3.6893488e+19 -1.8181788
3.6893488e+19 2.3943179 -0
-2.0008814 3.6893488e+19 -1.8147476
1.0842022e-19 2.3437934 2
-1.9687357 -0 -1.810853
0 2.3023429 3.6893488e+19
-1.9423631 -0 -1.806466
3.6893488e+19 2.2666445 -2
-1.9196503 1.0842022e-19 -1.8009965
1.0842022e-19 2.2400732 1.0842022e-19
-1.8485286 1.0842022e-19 -1.7974761
3.6893488e+19 2.1961985 0
-1.8285168 -0 -1.7952042
3.6893488e+19 2.1615398 -2
-1.8127085 -3.6893488e+19 -1.794193
0 2.1288946 -2
-1.7978185 1.0842022e-19 -1.792076
0 3.1235886 3.6893488e+19
-2.6391652 0 2.6017387
1.0842022e-19 3.1150472 -2
-2.6302676 2 2.5826509
3.6893488e+19 3.0701945 -3.6893488e+19
-2.6574421 -3.6893488e+19 2.541394
1.0842022e-19 3.11625 1.0842022e-19
-2.6315207 -1.0842022e-19 2.5726964
3.6893488e+19 3.114712 3.6893488e+19
-2.6299186 3.6893488e+19 2.56037
2 3.1471963 -2
-2.7527127 -1.0842022e-19 2.587204
-1.0842022e-19 3.1187859 1.0842022e-19
-2.6341624 -2 2.5527768
-1.0842022e-19 3.1101987 3.6893488e+19
-2.6252172 -3.6893488e+19 2.5349519
3.6893488e+19 3.0672641 -3.6893488e+19
-2.6537132 0 2.5000713
-2 3.1019266 -3.6893488e+19
-2.6166 -3.6893488e+19 2.5179107
3.6893488e+19 3.1013873 2
-2.6160383 1.0842022e-19 2.5070441
3.6893488e+19 3.0548215 3.6893488e+19
-2.5280659 -0 2.4336627
0 3.1011543 -0
