# .PCD v0.7 - Point Cloud Data file format
VERSION 0.7
FIELDS x y z
SIZE 4 4 4
TYPE F F F
COUNT 1 1 1
WIDTH 1692
HEIGHT 1
VIEWPOINT 0 0 0 1 0 0 0
POINTS 1692
DATA ascii
-3.6893488e+19 3.082705 2
2.6221802 -1.0842022e-19 2.5045073
2 3.0853579 -0
2.5492136 2 2.4963586
-1.0842022e-19 3.0875249 -3.6893488e+19
2.6724305 3.6893488e+19 2.4905505
0 3.0858262 -0
2.5930107 1.0842022e-19 2.4708104
-1.0842022e-19 3.0899212 -0
2.5971935 -0 2.4564438
1.0842022e-19 3.0876057 2
2.5948284 0 2.4334128
1.0842022e-19 3.0872302 2
2.6720617 -3.6893488e+19 2.429436
1.0842022e-19 3.0862563 1.0842022e-19
2.5934501 0 2.4118774
-0 3.0995922 -2
2.6875334 -3.6893488e+19 2.4243021
-1.0842022e-19 3.0867157 0
2.5939195 -2 2.3926511
-3.6893488e+19 3.0972478 -2
2.6845994 3.6893488e+19 2.4007587
-3.6893488e+19 3.0259762 3.6893488e+19
2.5953991 -3.6893488e+19 2.3020887
-0 3.080828 -0
2.5879056 1.0842022e-19 2.3470159
1.0842022e-19 3.0837324 -2
2.6676838 0 2.3454914
1.0842022e-19 3.0835781 -3.6893488e+19
2.5907145 2 2.3304093
0 3.0811331 1.0842022e-19
2.5454443 0 2.3160088
-1.0842022e-19 3.0391541 -3.6893488e+19
2.5734618 -1.0842022e-19 2.2711775
3.6893488e+19 3.0822427 -3.6893488e+19
2.5464342 -1.0842022e-19 2.2978396
-3.6893488e+19 3.0283909 -3.6893488e+19
2.5614216 -0 2.2395422
1.0842022e-19 3.027272 2
2.5601699 3.6893488e+19 2.205122
-1.0842022e-19 3.0537508 -3.6893488e+19
2.521013 -3.6893488e+19 2.2244437
2 3.0273063 3.6893488e+19
2.5602083 1.0842022e-19 2.1727731
0 3.0571051 0
2.5240059 2 2.1942883
0 2.9645109 -1.0842022e-19
2.5098121 0 2.0769784
-3.6893488e+19 3.0475886 -2
2.5155151 -3.6893488e+19 2.1462719
-0 2.965374 -1.0842022e-19
2.5102949 -1.0842022e-19 2.0504615
-1.0842022e-19 3.0433395 3.6893488e+19
2.511724 -1.0842022e-19 2.1068854
1.0842022e-19 2.9640539 -0
2.5095565 -3.6893488e+19 2.0225856
1.0842022e-19 3.0413845 -2
2.5099795 -0 2.0710444
-3.6893488e+19 2.9613879 -1.0842022e-19
2.5080655 1.0842022e-19 1.9941782
-0 3.0310612 1.0842022e-19
2.6017632 -1.0842022e-19 2.0337079
-1.0842022e-19 2.9541132 2
2.4638286 -0 1.9626439
1.0842022e-19 3.0323637 0
2.6033933 -1.0842022e-19 2.0019197
0 2.9593019 3.6893488e+19
2.4691281 -1.0842022e-19 1.9385593
0 2.9738181 3.6893488e+19
2.5465043 -0 1.9336072
-2 2.9602363 0
2.4700828 -2 1.9123985
0 2.9753301 1.0842022e-19
2.5474505 -1.0842022e-19 1.9063637
-0 2.9688349 1.0842022e-19
2.4788651 -0 1.8884029
2 2.9803371 2
2.5505838 -2 1.8799092
0 2.9677298 -0
2.4777362 1.0842022e-19 1.8472592
0 2.977154 3.6893488e+19
2.5485919 3.6893488e+19 1.8272799
0 2.9659355 -0
2.4759035 1.0842022e-19 1.79273
3.6893488e+19 2.9819975 1.0842022e-19
2.5516229 -2 1.7729808
-2 2.9617562 2
2.4716351 -2 1.726114
-0 2.9789457 3.6893488e+19
2.5497131 3.6893488e+19 1.6821034
-3.6893488e+19 2.9716632 3.6893488e+19
2.4817541 1.0842022e-19 1.6196961
3.6893488e+19 2.9779375 1.0842022e-19
2.4264264 -0 1.511917
0 2.9746623 -1.0842022e-19
2.5154901 0 1.2226273
-1.0842022e-19 2.9703763 3.6893488e+19
2.4196801 2 -1.4105734
-2 2.974473 -3.6893488e+19
2.5153842 2 -1.5669719
0 2.9707224 2
2.4199889 -1.0842022e-19 -1.6477536
-0 2.9756451 3.6893488e+19
2.5160398 -3.6893488e+19 -1.7064199
0 3.0667953 -1.0842022e-19
2.5326517 1.0842022e-19 -1.7968634
2 2.973484 -1.0842022e-19
2.5148311 1.0842022e-19 -1.7825885
-3.6893488e+19 3.0233912 -1.0842022e-19
2.4878516 3.6893488e+19 -1.8358213
0 2.9736471 0
2.5149224 -3.6893488e+19 -1.837535
1.0842022e-19 2.9839392 -2
2.4317811 -0 -1.8669406
2 2.9740276 -3.6893488e+19
2.515135 1.0842022e-19 -1.8838261
-3.6893488e+19 2.9848607 -3.6893488e+19
2.4326034 3.6893488e+19 -1.8989401
0 2.8787622 -1.0842022e-19
2.4237018 2 -1.8788977
-1.0842022e-19 2.8685083 1.0842022e-19
2.3287914 -3.6893488e+19 -1.8842884
1.0842022e-19 2.8784044 -1.0842022e-19
2.4233015 0 -1.90073
2 2.6184976 3.6893488e+19
2.2111945 -0 -1.7839142
0 2.6184757 -3.6893488e+19
2.2111669 0 -1.8054996
-1.0842022e-19 2.7153964 -2
2.225353 2 -1.8630025
-3.6893488e+19 2.617245 -1.0842022e-19
2.2096269 -1.0842022e-19 -1.8264412
-2 2.6406338 2
2.1489911 2 -1.8473475
2 2.6013627 -0
2.1897492 2 -1.8383569
3.6893488e+19 2.5870581 -0
2.094269 -0 -1.8363565
-3.6893488e+19 2.562408 3.6893488e+19
2.1409955 3.6893488e+19 -1.8330653
-3.6893488e+19 2.5525928 3.6893488e+19
2.0590665 -1.0842022e-19 -1.8322697
0 2.5276413 2
2.0974829 -3.6893488e+19 -1.8262444
-2 2.520565 2
2.0263536 -0 -1.8260226
-0 2.5010982 -0
2.0642629 0 -1.8217983
-1.0842022e-19 2.4860489 0
1.9982238 0 -1.8196697
-1.0842022e-19 2.455327 -0
2.0349331 -1.0842022e-19 -1.8168614
-3.6893488e+19 2.4447508 -0
1.9771329 -2 -1.8160594
3.6893488e+19 3.1017911 0
2.5600109 -1.0842022e-19 2.5834982
2 3.1010296 -3.6893488e+19
2.6387181 -1.0842022e-19 2.5818613
-2 3.0959177 0
2.5548351 3.6893488e+19 2.5675418
-3.6893488e+19 3.1024606 0
2.6403031 -0 2.5725052
2 3.0954359 -1.0842022e-19
2.5544102 1.0842022e-19 2.5567558
2 3.082777 3.6893488e+19
2.5432549 0 2.5355818
0 3.1087017 -1.0842022e-19
2.6472139 -1.0842022e-19 2.5565133
3.6893488e+19 3.0853488 -0
2.5455213 2 2.5278068
-3.6893488e+19 3.095176 -1.0842022e-19
2.6322362 1.0842022e-19 2.5345612
-1.0842022e-19 3.0857835 1.0842022e-19
2.5459044 -0 2.5182018
1.0842022e-19 3.086328 2
2.6224382 -2 2.5171645
-0 3.0886014 3.6893488e+19
2.5483875 1.0842022e-19 2.5104294
1.0842022e-19 3.0828588 0
2.6185966 -3.6893488e+19 2.5044394
-0 3.085072 -0
2.5452774 0 2.4956479
1.0842022e-19 3.0879474 -1.0842022e-19
2.6690769 -3.6893488e+19 2.4907639
3.6893488e+19 3.0925314 3.6893488e+19
2.5960412 3.6893488e+19 2.4798918
1.0842022e-19 3.0940011 0
2.676584 0 2.4788888
2 3.0908651 -0
2.5943577 1.0842022e-19 2.457407
-1.0842022e-19 3.0936542 3.6893488e+19
2.6761539 -2 2.4578121
-0 3.0878601 -1.0842022e-19
2.5913219 1.0842022e-19 2.4334512
2 3.1512468 -1.0842022e-19
2.7475724 -1.0842022e-19 2.5052698
-1.0842022e-19 3.0857306 2
2.5891707 2 2.4109602
-3.6893488e+19 3.0998182 3.6893488e+19
2.6837978 3.6893488e+19 2.4242306
3.6893488e+19 3.0861297 2
2.5895739 3.6893488e+19 2.3917072
1.0842022e-19 3.0975904 2
2.681035 3.6893488e+19 2.4008269
2 3.0260534 2
2.5923245 0 2.3019271
1.0842022e-19 3.0808978 0
2.5842884 2 2.3468583
2 3.0826123 -3.6893488e+19
2.662461 -0 2.3440511
0 3.0859058 2
2.5893476 -3.6893488e+19 2.3324935
-1.0842022e-19 3.0803249 2
2.5410941 2 2.3150547
-1.0842022e-19 3.0884452 2
2.6247828 1.0842022e-19 2.3171732
-3.6893488e+19 3.0829816 1.0842022e-19
2.5434353 -2 2.2983289
0 3.087775 -2
2.6240404 3.6893488e+19 2.2967672
-2 3.0870831 -3.6893488e+19
2.5470495 1.0842022e-19 2.2825365
0 3.088016 3.6893488e+19
2.6243074 -1.0842022e-19 2.2772124
-2 3.0871027 1.0842022e-19
2.5470669 3.6893488e+19 2.2631161
-2 3.0275083 0
2.5573034 1.0842022e-19 2.1727731
0 3.0854945 -1.0842022e-19
2.5456495 3.6893488e+19 2.2350776
0 3.0907595 -2
2.6273453 2 2.2293854
-2 3.0535712 3.6893488e+19
2.5175178 0 2.1540041
-3.6893488e+19 3.081584 -2
2.6171849 -0 2.1778526
2 3.0979571 -2
2.556632 1.0842022e-19 2.1730893
2 3.0842493 3.6893488e+19
2.6201363 0 2.142391
0 3.099499 3.6893488e+19
2.5579908 -1.0842022e-19 2.134851
-1.0842022e-19 3.0863595 0
2.6224732 -2 2.1057606
-3.6893488e+19 3.0315585 0
2.5991514 0 2.0339785
3.6893488e+19 2.9618568 -1.0842022e-19
2.4665892 -2 1.9661261
0 3.0905077 -0
2.6722519 1.0842022e-19 2.0535474
0 2.9629967 1.0842022e-19
2.4677408 -3.6893488e+19 1.9399498
-2 3.0883894 -0
2.6696253 3.6893488e+19 2.012042
2 2.9627826 1.0842022e-19
2.4675245 -3.6893488e+19 1.9131883
-1.0842022e-19 3.0838971 0
2.6640546 -1.0842022e-19 1.9694974
-0 2.9709635 0
2.4757893 -0 1.8889389
-1.0842022e-19 3.083503 1.0842022e-19
2.6635659 1.0842022e-19 1.9302477
-2 2.9659207 -1.0842022e-19
2.4706948 0 1.8462524
3.6893488e+19 3.103771 -3.6893488e+19
2.6886992 -1.0842022e-19 1.8998519
-2 2.9633372 -1.0842022e-19
2.4680848 -0 1.7916838
1.0842022e-19 3.0327077 2
2.6005762 1.0842022e-19 1.79845
0 2.964366 1.0842022e-19
2.4691241 3.6893488e+19 1.7272408
1.0842022e-19 3.033304 -2
2.6013155 1.0842022e-19 1.7152585
1.0842022e-19 2.9788244 -0
2.4837306 3.6893488e+19 1.6232461
3.6893488e+19 2.9791305 -2
2.4222267 3.6893488e+19 1.5121791
1.0842022e-19 2.9746468 3.6893488e+19
2.5128038 2 1.2224579
-2 3.0643663 -3.6893488e+19
2.5270307 3.6893488e+19 -1.4645073
-1.0842022e-19 3.0366199 0
2.5673933 -1.0842022e-19 -1.6067641
-1.0842022e-19 3.0666723 0
2.529063 1.0842022e-19 -1.6986834
-1.0842022e-19 3.0329268 -3.6893488e+19
2.5633035 -1.0842022e-19 -1.7453898
-2 3.0686269 -0
2.5307853 3.6893488e+19 -1.7977568
-1.0842022e-19 2.9762981 -0
2.5137181 -2 -1.7834096
-3.6893488e+19 3.0687654 -1.0842022e-19
2.5309074 2 -1.8706682
2 2.9757986 2
2.5134416 3.6893488e+19 -1.8383451
2 3.0263965 1.0842022e-19
2.4871409 1.0842022e-19 -1.8881016
0 2.9758179 0
2.5134523 2 -1.8842337
-2 3.0213904 2
2.478318 2 -1.9166354
3.6893488e+19 2.9780407 2
2.514683 0 -1.912565
3.6893488e+19 2.8686614 2
2.3248775 -0 -1.8842663
2 2.8780785 -1.0842022e-19
2.4186711 1.0842022e-19 -1.9004905
2 2.6201098 3.6893488e+19
2.2089605 3.6893488e+19 -1.7844794
-0 2.8505714 0
2.3541636 3.6893488e+19 -1.9089264
-3.6893488e+19 2.6185377 1.0842022e-19
2.2070112 3.6893488e+19 -1.8053828
3.6893488e+19 2.7141335 3.6893488e+19
2.2188892 -2 -1.8621988
-1.0842022e-19 2.617902 -3.6893488e+19
2.2062228 -3.6893488e+19 -1.826637
3.6893488e+19 2.6407728 -1.0842022e-19
2.1447768 3.6893488e+19 -1.8472787
0 2.6015303 1.0842022e-19
2.1859207 1.0842022e-19 -1.8382846
3.6893488e+19 2.5876448 2
2.0911045 2 -1.8365837
-2 2.5626628 1.0842022e-19
2.1377227 3.6893488e+19 -1.8330653
-1.0842022e-19 2.5523109 0
2.0554087 3.6893488e+19 -1.831939
3.6893488e+19 2.5284624 -3.6893488e+19
2.0953116 1.0842022e-19 -1.8266752
1.0842022e-19 2.5209866 2
2.0237632 1.0842022e-19 -1.8262019
3.6893488e+19 2.5016596 0
2.0620747 -2 -1.8220775
-1.0842022e-19 2.4866135 -2
1.9957998 2 -1.8197663
-3.6893488e+19 2.4549856 2
2.0321062 1.0842022e-19 -1.8165613
3.6893488e+19 2.4423947 1.0842022e-19
1.9734639 3.6893488e+19 -1.8149209
-0 2.3946395 -3.6893488e+19
1.9238851 2 -1.8103057
2 2.3433621 -1.0842022e-19
1.9012914 -2 -1.8061268
-3.6893488e+19 2.294858 -2
1.8799196 -1.0842022e-19 -1.7976899
-1.0842022e-19 2.261682 3.6893488e+19
1.8556036 3.6893488e+19 -1.7935404
-0 2.2070489 -2
1.8916926 3.6893488e+19 -1.7891904
0 2.1702273 0
1.8802774 0 -1.7886227
0 2.1353819 -2
1.8639494 -1.0842022e-19 -1.7867258
3.6893488e+19 2.1048522 -0
1.8450201 3.6893488e+19 -1.7847204
3.6893488e+19 3.1017911 0
2.5600109 -1.0842022e-19 2.5834982
2 3.1010296 -3.6893488e+19
2.6387181 -1.0842022e-19 2.5818613
-2 3.0959177 0
2.5548351 3.6893488e+19 2.5675418
-3.6893488e+19 3.1024606 0
2.6403031 -0 2.5725052
2 3.0954359 -1.0842022e-19
2.5544102 1.0842022e-19 2.5567558
2 3.082777 3.6893488e+19
2.5432549 0 2.5355818
0 3.1087017 -1.0842022e-19
2.6472139 -1.0842022e-19 2.5565133
3.6893488e+19 3.0853488 -0
2.5455213 2 2.5278068
-3.6893488e+19 3.095176 -1.0842022e-19
2.6322362 1.0842022e-19 2.5345612
-1.0842022e-19 3.0857835 1.0842022e-19
2.5459044 -0 2.5182018
1.0842022e-19 3.086328 2
2.6224382 -2 2.5171645
-0 3.0886014 3.6893488e+19
2.5483875 1.0842022e-19 2.5104294
1.0842022e-19 3.0828588 0
2.6185966 -3.6893488e+19 2.5044394
-0 3.085072 -0
2.5452774 0 2.4956479
1.0842022e-19 3.0879474 -1.0842022e-19
2.6690769 -3.6893488e+19 2.4907639
3.6893488e+19 3.0925314 3.6893488e+19
2.5960412 3.6893488e+19 2.4798918
1.0842022e-19 3.0940011 0
2.676584 0 2.4788888
2 3.0908651 -0
2.5943577 1.0842022e-19 2.457407
-1.0842022e-19 3.0936542 3.6893488e+19
2.6761539 -2 2.4578121
-0 3.0878601 -1.0842022e-19
2.5913219 1.0842022e-19 2.4334512
1.0842022e-19 3.0886562 3.6893488e+19
2.669956 -3.6893488e+19 2.4309003
-1.0842022e-19 3.0857306 2
2.5891707 2 2.4109602
-3.6893488e+19 3.0998182 3.6893488e+19
2.6837978 3.6893488e+19 2.4242306
3.6893488e+19 3.0861297 2
2.5895739 3.6893488e+19 2.3917072
1.0842022e-19 3.0975904 2
2.681035 3.6893488e+19 2.4008269
2 3.0260534 2
2.5923245 0 2.3019271
1.0842022e-19 3.0808978 0
2.5842884 2 2.3468583
2 3.0826123 -3.6893488e+19
2.662461 -0 2.3440511
0 3.0859058 2
2.5893476 -3.6893488e+19 2.3324935
-1.0842022e-19 3.0803249 2
2.5410941 2 2.3150547
2 3.0385568 -3.6893488e+19
2.5695379 -0 2.2704203
-3.6893488e+19 3.0829816 1.0842022e-19
2.5434353 -2 2.2983289
0 3.0298519 -0
2.5598984 -1.0842022e-19 2.2417526
-2 3.0870831 -3.6893488e+19
2.5470495 1.0842022e-19 2.2825365
0 3.0261853 3.6893488e+19
2.5558381 1.0842022e-19 2.2030082
3.6893488e+19 3.0540791 0
2.5179653 -0 2.2246809
-2 3.0275083 0
2.5573034 1.0842022e-19 2.1727731
0 3.0541217 -0
2.5180027 1.0842022e-19 2.1897171
-1.0842022e-19 3.0282493 -0
2.5581238 -2 2.1414452
-2 3.0535712 3.6893488e+19
2.5175178 0 2.1540041
0 2.9625304 1.0842022e-19
2.5060952 -2 2.048408
-1.0842022e-19 3.0476489 2
2.5122988 -3.6893488e+19 2.1119182
2 2.9632504 3.6893488e+19
2.5064938 2 2.0219157
-2 3.0431368 0
2.5083227 -0 2.072788
1.0842022e-19 2.9654512 3.6893488e+19
2.5077124 -3.6893488e+19 1.9961491
-3.6893488e+19 3.0315585 0
2.5991514 0 2.0339785
3.6893488e+19 2.9618568 -1.0842022e-19
2.4665892 -2 1.9661261
0 3.0905077 -0
2.6722519 1.0842022e-19 2.0535474
0 2.9629967 1.0842022e-19
2.4677408 -3.6893488e+19 1.9399498
-3.6893488e+19 2.9745622 1.0842022e-19
2.5442443 -1.0842022e-19 1.9337457
2 2.9627826 1.0842022e-19
2.4675245 -3.6893488e+19 1.9131883
-1.0842022e-19 3.0838971 0
2.6640546 -1.0842022e-19 1.9694974
-0 2.9709635 0
2.4757893 -0 1.8889389
-2 2.9749413 -3.6893488e+19
2.5444791 0 1.8783453
-2 2.9659207 -1.0842022e-19
2.4706948 0 1.8462524
2 2.9771254 -1.0842022e-19
2.5458333 -3.6893488e+19 1.8271029
-2 2.9633372 -1.0842022e-19
2.4680848 -0 1.7916838
3.6893488e+19 2.9792869 0
2.5471737 -3.6893488e+19 1.7720287
0 2.964366 1.0842022e-19
2.4691241 3.6893488e+19 1.7272408
3.6893488e+19 2.9793961 0
2.5472414 -0 1.682126
1.0842022e-19 2.9788244 -0
2.4837306 3.6893488e+19 1.6232461
3.6893488e+19 2.9791305 -2
2.4222267 3.6893488e+19 1.5121791
1.0842022e-19 2.9746468 3.6893488e+19
2.5128038 2 1.2224579
1.0842022e-19 2.9705884 -1.0842022e-19
2.4146991 -0 -1.4105525
2 2.9725902 3.6893488e+19
2.5116651 -1.0842022e-19 -1.5660708
2 2.9703853 0
2.4145203 3.6893488e+19 -1.6475621
0 2.9733417 -0
2.5120811 2 -1.7052708
-2 3.0686269 -0
2.5307853 3.6893488e+19 -1.7977568
-1.0842022e-19 2.9762981 -0
2.5137181 -2 -1.7834096
-3.6893488e+19 3.0687654 -1.0842022e-19
2.5309074 2 -1.8706682
2 2.9757986 2
2.5134416 3.6893488e+19 -1.8383451
0 2.9894669 -1.0842022e-19
2.4313354 -0 -1.8695621
0 2.9758179 0
2.5134523 2 -1.8842337
-0 2.9862401 2
2.4284921 -2 -1.8992771
1.0842022e-19 2.8790984 0
2.4198008 -3.6893488e+19 -1.8789181
3.6893488e+19 2.8686614 2
2.3248775 -0 -1.8842663
2 2.8780785 -1.0842022e-19
2.4186711 1.0842022e-19 -1.9004905
2 2.6201098 3.6893488e+19
2.2089605 3.6893488e+19 -1.7844794
-0 2.8505714 0
2.3541636 3.6893488e+19 -1.9089264
-3.6893488e+19 2.6185377 1.0842022e-19
2.2070112 3.6893488e+19 -1.8053828
3.6893488e+19 2.7141335 3.6893488e+19
2.2188892 -2 -1.8621988
-1.0842022e-19 2.617902 -3.6893488e+19
2.2062228 -3.6893488e+19 -1.826637
3.6893488e+19 2.6407728 -1.0842022e-19
2.1447768 3.6893488e+19 -1.8472787
0 2.6015303 1.0842022e-19
2.1859207 1.0842022e-19 -1.8382846
3.6893488e+19 2.5876448 2
2.0911045 2 -1.8365837
-2 2.5626628 1.0842022e-19
2.1377227 3.6893488e+19 -1.8330653
-1.0842022e-19 2.5523109 0
2.0554087 3.6893488e+19 -1.831939
3.6893488e+19 2.5284624 -3.6893488e+19
2.0953116 1.0842022e-19 -1.8266752
1.0842022e-19 2.5209866 2
2.0237632 1.0842022e-19 -1.8262019
3.6893488e+19 2.5016596 0
2.0620747 -2 -1.8220775
-1.0842022e-19 2.4866135 -2
1.9957998 2 -1.8197663
-3.6893488e+19 2.4549856 2
2.0321062 1.0842022e-19 -1.8165613
3.6893488e+19 2.4423947 1.0842022e-19
1.9734639 3.6893488e+19 -1.8149209
-0 2.3946395 -3.6893488e+19
1.9238851 2 -1.8103057
2 2.3433621 -1.0842022e-19
1.9012914 -2 -1.8061268
-3.6893488e+19 2.294858 -2
1.8799196 -1.0842022e-19 -1.7976899
-1.0842022e-19 2.261682 3.6893488e+19
1.8556036 3.6893488e+19 -1.7935404
-0 2.2070489 -2
1.8916926 3.6893488e+19 -1.7891904
0 2.1702273 0
1.8802774 0 -1.7886227
0 2.1353819 -2
1.8639494 -1.0842022e-19 -1.7867258
3.6893488e+19 2.1048522 -0
1.8450201 3.6893488e+19 -1.7847204
0 3.101963 3.6893488e+19
2.5563018 3.6893488e+19 2.5834701
-1.0842022e-19 3.1014001 -0
2.6351717 3.6893488e+19 2.5819724
2 3.0959373 3.6893488e+19
2.5510578 -0 2.5673778
1.0842022e-19 3.1026855 0
2.6365805 -2 2.5724783
3.6893488e+19 3.0959918 -3.6893488e+19
2.5511053 2 2.5570736
0 3.0955551 -1.0842022e-19
2.6287646 3.6893488e+19 2.5554972
2 3.0833263 -0
2.5400829 2 2.5358894
-2 3.0920453 -1.0842022e-19
2.6249177 3.6893488e+19 2.5420699
-0 3.0838649 -1.0842022e-19
2.5405517 0 2.5264192
-0 3.0961936 -0
2.6294646 -2 2.5351942
2 3.0845673 2
2.541163 0 2.5170774
-3.6893488e+19 3.088165 1.0842022e-19
2.5442941 1.0842022e-19 2.5099449
-2 3.0827429 0
2.6147215 2 2.5041678
-1.0842022e-19 3.085865 3.6893488e+19
2.5422924 -2 2.4965363
-3.6893488e+19 3.0790665 1.0842022e-19
2.6106918 -2 2.4830685
-0 3.0883675 1.0842022e-19
2.6657193 -1.0842022e-19 2.4909775
1.0842022e-19 3.0926969 -2
2.5923951 1.0842022e-19 2.4798081
3.6893488e+19 3.0943673 -3.6893488e+19
2.6730905 -2 2.4790115
-0 3.0925157 -1.0842022e-19
2.6708157 -0 2.4559271
3.6893488e+19 3.088232 -1.0842022e-19
2.5879343 -1.0842022e-19 2.4336431
-2 3.150862 1.0842022e-19
2.7425003 -2 2.5048192
-3.6893488e+19 3.0877206 -3.6893488e+19
2.5874233 -3.6893488e+19 2.4131246
-3.6893488e+19 3.0990069 1.0842022e-19
2.678791 -2 2.422905
-2 3.0865006 3.6893488e+19
2.5862045 -1.0842022e-19 2.3918819
1.0842022e-19 3.0984335 3.6893488e+19
2.6780863 -2 2.4014747
-3.6893488e+19 3.0264244 -3.6893488e+19
2.5896158 -3.6893488e+19 2.3020887
3.6893488e+19 3.0806942 3.6893488e+19
2.5804031 2 2.3464172
2 3.0831478 1.0842022e-19
2.6593063 1.0842022e-19 2.344327
2 3.0824239 -3.6893488e+19
2.5821311 -2 2.328831
2 3.0807569 -1.0842022e-19
2.5378468 3.6893488e+19 2.3152859
0 3.0898573 -3.6893488e+19
2.6225193 -3.6893488e+19 2.3182669
-1.0842022e-19 3.0841742 -0
2.5408208 -2 2.2992258
2 3.0879285 -1.0842022e-19
2.6204052 2 2.2966883
-2 3.0864561 -3.6893488e+19
2.5428066 3.6893488e+19 2.2818494
0 3.08724 -2
2.6196504 2 2.2763767
3.6893488e+19 3.0867183 -3.6893488e+19
2.5430348 -2 2.2626655
3.6893488e+19 3.0901051 2
2.6227911 -2 2.2588816
-3.6893488e+19 3.0865991 2
2.5429313 2 2.2363963
-0 3.0894434 -0
2.6220658 3.6893488e+19 2.22719
2 3.051554 0
2.5124326 1.0842022e-19 2.1510894
2 3.0842872 -3.6893488e+19
2.6164138 0 2.1810298
2 3.0973039 -3.6893488e+19
2.552247 1.0842022e-19 2.1720531
-2 3.0841293 -2
2.616241 -3.6893488e+19 2.1419675
-3.6893488e+19 3.1000037 2
2.5545969 0 2.1351864
0 3.0862713 3.6893488e+19
2.6185887 -3.6893488e+19 2.1054108
2 3.1052294 -1.0842022e-19
2.6864357 1.0842022e-19 2.1079931
-2 3.1120276 0
2.6117091 -1.0842022e-19 2.0885994
3.6893488e+19 3.1013129 -0
2.6816239 -3.6893488e+19 2.0629268
0 3.1115868 0
2.6112685 -1.0842022e-19 2.0464954
0 3.0897074 3.6893488e+19
2.6673653 0 2.0128503
2 3.1113701 -3.6893488e+19
2.6110518 -0 2.0046883
-1.0842022e-19 3.0853012 2
2.661952 -1.0842022e-19 1.9702425
-0 3.1116204 2
2.6113021 -0 1.9632231
-0 2.9746084 -0
2.5415525 -3.6893488e+19 1.8781517
2 2.964833 0
2.4644239 2 1.8455908
1.0842022e-19 2.9823487 -0
2.5463073 2 1.8291506
-3.6893488e+19 2.9635205 3.6893488e+19
2.4631126 -3.6893488e+19 1.7916402
1.0842022e-19 3.0326374 1.0842022e-19
2.597249 2 1.7982669
-3.6893488e+19 2.9671569 0
2.4667459 1.0842022e-19 1.7284565
-0 3.0341003 3.6893488e+19
2.5990465 -1.0842022e-19 1.7156893
0 2.9771988 1.0842022e-19
2.4767787 2 1.6222408
-2 2.9740307 2
2.4125335 3.6893488e+19 1.5106413
-0 2.9721558 -2
2.5087662 -2 1.221131
3.6893488e+19 2.973423 -1.0842022e-19
2.4120045 2 -1.4114271
0 3.0389364 0
2.5667048 -1.0842022e-19 -1.6084688
3.6893488e+19 3.0445027 0
2.5062962 -2 -1.6846681
0 3.0362048 -3.6893488e+19
2.5637105 3.6893488e+19 -1.748054
3.6893488e+19 3.0666723 -2
2.5255895 -0 -1.7965987
3.6893488e+19 2.9762197 1.0842022e-19
2.5109935 -1.0842022e-19 -1.7832694
-3.6893488e+19 3.0704134 -0
2.5288453 -3.6893488e+19 -1.8717967
-1.0842022e-19 2.9771056 -3.6893488e+19
2.5114789 1.0842022e-19 -1.8387771
-1.0842022e-19 3.024754 -0
2.478219 -2 -1.8872023
1.0842022e-19 2.9776068 -1.0842022e-19
2.5117536 3.6893488e+19 -1.8846413
-0 3.0246279 -1.0842022e-19
2.4779994 1.0842022e-19 -1.9185266
-3.6893488e+19 2.9780841 2
2.5120153 -1.0842022e-19 -1.9124626
1.0842022e-19 2.8695438 0
2.3216019 -1.0842022e-19 -1.8845105
-1.0842022e-19 2.8832278 0
2.4200583 3.6893488e+19 -1.9024303
-1.0842022e-19 2.619812 3.6893488e+19
2.2043521 -0 -1.7842225
-3.6893488e+19 2.8511651 2
2.3508561 0 -1.909091
-1.0842022e-19 2.6184776 -2
2.2027125 2 -1.8052078
-1.0842022e-19 2.712744 0
2.2123368 -2 -1.8613334
-2 2.6178415 0
2.2019312 -1.0842022e-19 -1.8264412
-0 2.6422396 2
2.1418943 -0 -1.8479664
1.0842022e-19 2.6016951 -2
2.1820934 1.0842022e-19 -1.8382124
1.0842022e-19 2.5883505 -3.6893488e+19
2.0880525 2 -1.8368866
-2 2.5630345 -0
2.1345952 -2 -1.8331444
-1.0842022e-19 2.5520263 3.6893488e+19
2.0517604 2 -1.8316083
1.0842022e-19 2.5291636 3.6893488e+19
2.0929811 -3.6893488e+19 -1.8270197
-2 2.5210438 0
2.0208054 3.6893488e+19 -1.8261123
1.0842022e-19 2.5021009 0
2.059732 -2 -1.8222637
-2 2.4876575 2
1.9936142 1.0842022e-19 -1.820056
1.0842022e-19 2.4522622 -1.0842022e-19
2.0278251 -0 -1.8152609
1.0842022e-19 2.4429269 -2
1.9712684 -1.0842022e-19 -1.8150244
0 3.101963 3.6893488e+19
2.5563018 3.6893488e+19 2.5834701
-1.0842022e-19 3.1014001 -0
2.6351717 3.6893488e+19 2.5819724
2 3.0959373 3.6893488e+19
2.5510578 -0 2.5673778
1.0842022e-19 3.1026855 0
2.6365805 -2 2.5724783
3.6893488e+19 3.0959918 -3.6893488e+19
2.5511053 2 2.5570736
0 3.0955551 -1.0842022e-19
2.6287646 3.6893488e+19 2.5554972
2 3.0833263 -0
2.5400829 2 2.5358894
-2 3.0920453 -1.0842022e-19
2.6249177 3.6893488e+19 2.5420699
-0 3.0838649 -1.0842022e-19
2.5405517 0 2.5264192
-0 3.0961936 -0
2.6294646 -2 2.5351942
2 3.0845673 2
2.541163 0 2.5170774
-3.6893488e+19 3.088165 1.0842022e-19
2.5442941 1.0842022e-19 2.5099449
-2 3.0827429 0
2.6147215 2 2.5041678
-1.0842022e-19 3.085865 3.6893488e+19
2.5422924 -2 2.4965363
-3.6893488e+19 3.0790665 1.0842022e-19
2.6106918 -2 2.4830685
-0 3.0883675 1.0842022e-19
2.6657193 -1.0842022e-19 2.4909775
1.0842022e-19 3.0926969 -2
2.5923951 1.0842022e-19 2.4798081
3.6893488e+19 3.0943673 -3.6893488e+19
2.6730905 -2 2.4790115
-0 3.0925157 -1.0842022e-19
2.6708157 -0 2.4559271
3.6893488e+19 3.088232 -1.0842022e-19
2.5879343 -1.0842022e-19 2.4336431
3.6893488e+19 3.0892251 3.6893488e+19
2.6667728 -3.6893488e+19 2.4312758
-3.6893488e+19 3.0877206 -3.6893488e+19
2.5874233 -3.6893488e+19 2.4131246
-3.6893488e+19 3.0990069 1.0842022e-19
2.678791 -2 2.422905
-2 3.0865006 3.6893488e+19
2.5862045 -1.0842022e-19 2.3918819
1.0842022e-19 3.0984335 3.6893488e+19
2.6780863 -2 2.4014747
-3.6893488e+19 3.0264244 -3.6893488e+19
2.5896158 -3.6893488e+19 2.3020887
-0 3.0395491 -0
2.5392942 2 2.3033159
-2 3.0264618 -1.0842022e-19
2.5896618 3.6893488e+19 2.2857389
-3.6893488e+19 3.0386846 -3.6893488e+19
2.5384305 0 2.2855647
2 3.0807569 -1.0842022e-19
2.5378468 3.6893488e+19 2.3152859
-1.0842022e-19 3.0390942 2
2.5668778 -0 2.2707288
-1.0842022e-19 3.0841742 -0
2.5408208 -2 2.2992258
0 3.0266669 1.0842022e-19
2.553256 3.6893488e+19 2.2358057
-2 3.0864561 -3.6893488e+19
2.5428066 3.6893488e+19 2.2818494
-1.0842022e-19 3.0261743 2
2.5527163 -2 2.2026639
-2 3.0531893 -1.0842022e-19
2.5138557 -0 2.223021
3.6893488e+19 3.0901051 2
2.6227911 -2 2.2588816
-2 3.0528662 3.6893488e+19
2.5135746 3.6893488e+19 2.1876512
-1.0842022e-19 3.0281196 3.6893488e+19
2.5548484 0 2.140981
2 3.051554 0
2.5124326 1.0842022e-19 2.1510894
2 3.0842872 -3.6893488e+19
2.6164138 0 2.1810298
-0 3.0464187 -1.0842022e-19
2.5079634 0 2.1102161
-3.6893488e+19 2.9548657 2
2.4985809 2 2.0168018
3.6893488e+19 3.0394051 -3.6893488e+19
2.5018597 3.6893488e+19 2.0684962
0 2.9589291 1.0842022e-19
2.5015173 1.0842022e-19 1.9925251
2 3.0285358 -1.0842022e-19
2.5922098 -0 2.0307028
-2 2.9647031 0
2.4642942 3.6893488e+19 1.9673152
3.6893488e+19 3.1013129 -0
2.6816239 -3.6893488e+19 2.0629268
1.0842022e-19 2.9614236 3.6893488e+19
2.4610174 -3.6893488e+19 1.93918
3.6893488e+19 2.9769151 -2
2.5429695 3.6893488e+19 1.9345077
-3.6893488e+19 2.9658735 -1.0842022e-19
2.4654634 -3.6893488e+19 1.9141704
0 2.9744306 -3.6893488e+19
2.5414431 3.6893488e+19 1.9058148
-3.6893488e+19 2.9636376 0
2.4632297 -0 1.8866879
-0 2.9746084 -0
2.5415525 -3.6893488e+19 1.8781517
2 2.964833 0
2.4644239 2 1.8455908
1.0842022e-19 2.9823487 -0
2.5463073 2 1.8291506
-3.6893488e+19 2.9635205 3.6893488e+19
2.4631126 -3.6893488e+19 1.7916402
0 2.9806299 0
2.5452516 2 1.7723217
-3.6893488e+19 2.9671569 0
2.4667459 1.0842022e-19 1.7284565
-1.0842022e-19 2.9803808 3.6893488e+19
2.5450985 -3.6893488e+19 1.6823528
0 2.9771988 1.0842022e-19
2.4767787 2 1.6222408
-2 2.9740307 2
2.4125335 3.6893488e+19 1.5106413
-0 2.9721558 -2
2.5087662 -2 1.221131
3.6893488e+19 2.973423 -1.0842022e-19
2.4120045 2 -1.4114271
1.0842022e-19 2.974679 -0
2.510149 0 -1.5667771
3.6893488e+19 2.97609 3.6893488e+19
2.4143255 0 -1.6492662
3.6893488e+19 2.9760938 -2
2.5109243 3.6893488e+19 -1.7063155
-1.0842022e-19 3.0437737 0
2.5056617 0 -1.7841904
3.6893488e+19 2.9762197 1.0842022e-19
2.5109935 -1.0842022e-19 -1.7832694
-2 3.0242257 -1.0842022e-19
2.4772995 -1.0842022e-19 -1.836221
-1.0842022e-19 2.9771056 -3.6893488e+19
2.5114789 1.0842022e-19 -1.8387771
-1.0842022e-19 3.024754 -0
2.478219 -2 -1.8872023
1.0842022e-19 2.9776068 -1.0842022e-19
2.5117536 3.6893488e+19 -1.8846413
-0 2.9722381 -0
2.4109733 -0 -1.8948954
0 2.8796127 1.0842022e-19
2.4160955 -1.0842022e-19 -1.8789999
1.0842022e-19 2.8695438 0
2.3216019 -1.0842022e-19 -1.8845105
-1.0842022e-19 2.8832278 0
2.4200583 3.6893488e+19 -1.9024303
-0 2.6193347 -0
2.2037656 3.6893488e+19 -1.784017
-3.6893488e+19 2.8511651 2
2.3508561 0 -1.909091
-1.0842022e-19 2.6184776 -2
2.2027125 2 -1.8052078
-1.0842022e-19 2.712744 0
2.2123368 -2 -1.8613334
-2 2.6178415 0
2.2019312 -1.0842022e-19 -1.8264412
-0 2.6422396 2
2.1418943 -0 -1.8479664
1.0842022e-19 2.6016951 -2
2.1820934 1.0842022e-19 -1.8382124
1.0842022e-19 2.5883505 -3.6893488e+19
2.0880525 2 -1.8368866
-2 2.5630345 -0
2.1345952 -2 -1.8331444
-1.0842022e-19 2.5520263 3.6893488e+19
2.0517604 2 -1.8316083
1.0842022e-19 2.5291636 3.6893488e+19
2.0929811 -3.6893488e+19 -1.8270197
-2 2.5210438 0
2.0208054 3.6893488e+19 -1.8261123
1.0842022e-19 2.5021009 0
2.059732 -2 -1.8222637
-2 2.4876575 2
1.9936142 1.0842022e-19 -1.820056
1.0842022e-19 2.4522622 -1.0842022e-19
2.0278251 -0 -1.8152609
1.0842022e-19 2.4429269 -2
1.9712684 -1.0842022e-19 -1.8150244
1.0842022e-19 3.10151 -2
2.5520043 -1.0842022e-19 2.58285
-1.0842022e-19 3.1017425 -2
2.6315382 -2 2.5820556
-1.0842022e-19 3.1017623 -2
2.6315596 -2 2.5714018
-2 3.0915866 -0
2.620522 1.0842022e-19 2.5517707
1.0842022e-19 3.0838764 1.0842022e-19
2.5368543 3.6893488e+19 2.5361969
2 3.0920269 -0
2.6209996 -3.6893488e+19 2.5418429
-3.6893488e+19 3.0845654 -2
2.5374463 -3.6893488e+19 2.5268402
-0 3.0841594 2
2.5370975 1.0842022e-19 2.5165989
0 3.0885394 -0
2.5408604 -1.0842022e-19 2.5100832
3.6893488e+19 3.082865 3.6893488e+19
2.6110616 3.6893488e+19 2.5040772
1.0842022e-19 3.0864787 -3.6893488e+19
2.5390899 3.6893488e+19 2.4971583
2 3.0790968 3.6893488e+19
2.6069741 -1.0842022e-19 2.4827635
3.6893488e+19 3.0893784 -1.0842022e-19
2.6630244 0 2.4920454
-0 3.0904999 2
2.5863652 2 2.4764183
-3.6893488e+19 3.0912876 0
2.6653483 3.6893488e+19 2.4539244
-1.0842022e-19 3.0883949 -1.0842022e-19
2.5842857 3.6893488e+19 2.4335663
2 3.1524582 2
2.7397928 -1.0842022e-19 2.5056264
-3.6893488e+19 3.0887234 1.0842022e-19
2.5846105 -0 2.4140785
2 3.0976036 -3.6893488e+19
2.6730344 1.0842022e-19 2.4208632
-2 3.086482 2
2.5823963 -0 2.3916023
3.6893488e+19 3.0988345 3.6893488e+19
2.6745327 -3.6893488e+19 2.4016111
1.0842022e-19 3.0878878 0
2.5837848 -3.6893488e+19 2.3734622
-2 3.0891407 -2
2.6627352 -1.0842022e-19 2.3703275
-1.0842022e-19 3.0808218 2
2.5768046 -2 2.3463225
3.6893488e+19 3.0865631 2
2.6595984 -0 2.3475749
-2 3.0826128 2
2.5785739 -3.6893488e+19 2.3288012
-0 3.0830102 1.0842022e-19
2.5361102 -0 2.3172519
-1.0842022e-19 3.0883048 3.6893488e+19
2.6169622 -2 2.3165841
-2 3.0843961 -1.0842022e-19
2.5373008 -2 2.299253
2 3.088203 -3.6893488e+19
2.6168516 -1.0842022e-19 2.2967145
3.6893488e+19 3.0869834 0
2.5395238 -0 2.2821293
3.6893488e+19 3.0868235 -3.6893488e+19
2.6153553 1.0842022e-19 2.275836
3.6893488e+19 3.085634 1.0842022e-19
2.5383644 -0 2.2616696
0 3.08936 -1.0842022e-19
2.6181066 -2 2.2581277
-0 3.0859096 3.6893488e+19
2.5386012 -3.6893488e+19 2.2351215
-1.0842022e-19 3.0899293 -1.0842022e-19
2.6187243 0 2.2275279
0 3.0491993 1.0842022e-19
2.507061 3.6893488e+19 2.1477294
1.0842022e-19 3.0915954 0
2.6205316 -1.0842022e-19 2.1901345
-1.0842022e-19 3.0901294 -2
2.5422266 2 2.1630976
-2 3.0865071 -3.6893488e+19
2.6150122 -0 2.1444716
-0 3.1074903 3.6893488e+19
2.5571425 1.0842022e-19 2.1431999
3.6893488e+19 3.0869057 0
2.6154447 3.6893488e+19 2.1058242
-1.0842022e-19 3.104264 -0
2.6811404 3.6893488e+19 2.1067309
0 3.1121149 0
2.6077178 -3.6893488e+19 2.0884578
-1.0842022e-19 3.1018963 3.6893488e+19
2.6782589 2 2.0631926
-2 3.11234 2
2.6079402 0 2.0469177
1.0842022e-19 3.1013017 -1.0842022e-19
2.6775351 -3.6893488e+19 2.021601
-1.0842022e-19 3.1115172 0
2.6071274 0 2.0046244
1.0842022e-19 3.0855732 0
2.6583936 -1.0842022e-19 1.9702425
0 3.102854 -1.0842022e-19
2.5985692 -0 1.9579171
2 2.9742165 -0
2.5385613 -0 1.8779421
1.0842022e-19 3.0925922 2
2.5884321 -1.0842022e-19 1.9124732
-2 3.0378745 -0
2.6003442 -1.0842022e-19 1.8684841
3.6893488e+19 3.0945938 -1.0842022e-19
2.5904093 -3.6893488e+19 1.8726065
-3.6893488e+19 3.0353475 -0
2.5972688 -1.0842022e-19 1.7997866
-2 2.954906 -1.0842022e-19
2.4493821 -3.6893488e+19 1.7223188
3.6893488e+19 3.0334339 2
2.5949399 -1.0842022e-19 1.715009
-2 2.9669557 0
2.4612856 -1.0842022e-19 1.6167744
-1.0842022e-19 2.9798021 2
2.4122283 -0 1.5122141
-0 3.0388489 -3.6893488e+19
2.5633168 -1.0842022e-19 1.2601826
0 2.9734502 -3.6893488e+19
2.4067707 -0 -1.4113438
0 3.0376675 -0
2.5620353 -1.0842022e-19 -1.6072755
2 3.0473297 -3.6893488e+19
2.5054545 0 -1.6863339
2 3.0363514 2
2.5606079 1.0842022e-19 -1.7480018
-0 3.0442171 -1.0842022e-19
2.5027804 1.0842022e-19 -1.7843393
-2 2.9755991 -2
2.5079432 3.6893488e+19 -1.782949
-0 3.0445426 3.6893488e+19
2.5030601 1.0842022e-19 -1.8517399
1.0842022e-19 2.9746168 -3.6893488e+19
2.5074103 3.6893488e+19 -1.8375081
-1.0842022e-19 3.046411 -2
2.5046654 -0 -1.8979322
2 2.9752393 0
2.5077481 -0 -1.883877
-3.6893488e+19 3.0251212 2
2.4727483 1.0842022e-19 -1.9187326
1.0842022e-19 2.9761398 3.6893488e+19
2.5082364 -1.0842022e-19 -1.9116849
-2 2.8865778 -1.0842022e-19
2.4193244 -3.6893488e+19 -1.9036516
0 2.8501849 -1.0842022e-19
2.3459325 0 -1.9085424
-3.6893488e+19 2.710263 0
2.2046742 -0 -1.8599116
0 2.6416507 -1.0842022e-19
2.1368947 1.0842022e-19 -1.8474851
1.0842022e-19 2.601861 -2
2.1782157 -3.6893488e+19 -1.83814
3.6893488e+19 2.5892994 3.6893488e+19
2.0851793 -3.6893488e+19 -1.837341
-0 2.5620964 3.6893488e+19
2.1298223 -2 -1.8323524
-0 2.5513787 -2
2.047719 -0 -1.8310295
3.6893488e+19 2.5291517 -2
2.0897284 -1.0842022e-19 -1.8268474
-3.6893488e+19 2.5212224 1.0842022e-19
2.0179291 3.6893488e+19 -1.8261123
0 2.5024245 -3.6893488e+19
2.0572011 -1.0842022e-19 -1.8223568
1.0842022e-19 2.4882207 2
1.9911461 2 -1.8201525
-0 2.4540567 1.0842022e-19
2.0262942 2 -1.8158611
-3.6893488e+19 2.4439428 1.0842022e-19
1.9692761 2 -1.8153349
-1.0842022e-19 2.3977633 -2
1.9208717 -3.6893488e+19 -1.8115585
1.0842022e-19 2.3420589 -1.0842022e-19
1.8969421 0 -1.8052328
-1.0842022e-19 2.2944703 2
1.8764991 3.6893488e+19 -1.7972653
3.6893488e+19 2.2619822 2
1.8500855 3.6893488e+19 -1.7935404
-1.0842022e-19 2.2115607 2
1.8904302 0 -1.7905432
2 2.1751404 -0
1.8793492 3.6893488e+19 -1.7902681
-2 2.1360059 3.6893488e+19
1.8598852 -1.0842022e-19 -1.7867258
-2 2.1054268 0
1.8412778 3.6893488e+19 -1.7847204
1.0842022e-19 3.10151 -2
2.5520043 -1.0842022e-19 2.58285
-1.0842022e-19 3.1017425 -2
2.6315382 -2 2.5820556
-1.0842022e-19 3.1017623 -2
2.6315596 -2 2.5714018
-2 3.0915866 -0
2.620522 1.0842022e-19 2.5517707
1.0842022e-19 3.0838764 1.0842022e-19
2.5368543 3.6893488e+19 2.5361969
2 3.0920269 -0
2.6209996 -3.6893488e+19 2.5418429
-3.6893488e+19 3.0845654 -2
2.5374463 -3.6893488e+19 2.5268402
-0 3.0841594 2
2.5370975 1.0842022e-19 2.5165989
0 3.0885394 -0
2.5408604 -1.0842022e-19 2.5100832
3.6893488e+19 3.082865 3.6893488e+19
2.6110616 3.6893488e+19 2.5040772
1.0842022e-19 3.0864787 -3.6893488e+19
2.5390899 3.6893488e+19 2.4971583
2 3.0790968 3.6893488e+19
2.6069741 -1.0842022e-19 2.4827635
3.6893488e+19 3.0893784 -1.0842022e-19
2.6630244 0 2.4920454
-0 3.0904999 2
2.5863652 2 2.4764183
-3.6893488e+19 3.0912876 0
2.6653483 3.6893488e+19 2.4539244
-1.0842022e-19 3.0883949 -1.0842022e-19
2.5842857 3.6893488e+19 2.4335663
3.6893488e+19 3.0882883 -0
2.6616979 -2 2.4297364
-3.6893488e+19 3.0887234 1.0842022e-19
2.5846105 -0 2.4140785
2 3.0976036 -3.6893488e+19
2.6730344 1.0842022e-19 2.4208632
-2 3.086482 2
2.5823963 -0 2.3916023
3.6893488e+19 3.0988345 3.6893488e+19
2.6745327 -3.6893488e+19 2.4016111
1.0842022e-19 3.0878878 0
2.5837848 -3.6893488e+19 2.3734622
3.6893488e+19 3.0273602 1.0842022e-19
2.5875483 -0 2.3028657
-3.6893488e+19 3.039499 2
2.5359838 0 2.3030639
-3.6893488e+19 3.0275168 2
2.587739 0 2.286597
-2 3.0425799 1.0842022e-19
2.5390272 1.0842022e-19 2.2892272
-0 3.0830102 1.0842022e-19
2.5361102 -0 2.3172519
-0 3.0359766 2
2.5602014 1.0842022e-19 2.2676158
-2 3.0843961 -1.0842022e-19
2.5373008 -2 2.299253
1.0842022e-19 3.0349951 2
2.5591366 -0 2.2500339
3.6893488e+19 3.0869834 0
2.5395238 -0 2.2821293
2 3.0275147 -1.0842022e-19
2.5510225 1.0842022e-19 2.2045321
-3.6893488e+19 3.0525115 -0
2.5099068 -1.0842022e-19 2.221693
1.0842022e-19 3.0261073 3.6893488e+19
2.5494959 -3.6893488e+19 2.1700315
-0 3.0859096 3.6893488e+19
2.5386012 -3.6893488e+19 2.2351215
-0 3.0267279 2
2.5501692 -3.6893488e+19 2.1387432
0 3.0491993 1.0842022e-19
2.507061 3.6893488e+19 2.1477294
1.0842022e-19 2.9564028 2
2.495064 -1.0842022e-19 2.04403
2 3.038362 2
2.4955001 2 2.1002245
3.6893488e+19 2.9570601 1.0842022e-19
2.4957771 -3.6893488e+19 2.017895
2 3.036797 0
2.492811 -2 2.0654449
0 2.9560704 2
2.4947035 -0 1.9908402
0 3.0315969 -3.6893488e+19
2.5927041 -0 2.0335577
-0 2.96404 2
2.4584053 -0 1.9668622
3.6893488e+19 3.029887 0
2.5906234 3.6893488e+19 1.9991033
-0 2.9631214 -3.6893488e+19
2.4574976 -0 1.9397511
-2 2.9854848 3.6893488e+19
2.5454183 -1.0842022e-19 1.9376709
-2 2.9621794 2
2.4565673 2 1.9127614
-1.0842022e-19 2.9787586 2
2.5413253 -1.0842022e-19 1.9071088
-3.6893488e+19 2.972008 -2
2.4662764 -1.0842022e-19 1.889064
2 2.9742165 -0
2.5385613 -0 1.8779421
1.0842022e-19 2.9670196 0
2.4613485 2 1.8464825
3.6893488e+19 2.979512 0
2.5417838 3.6893488e+19 1.8277855
1.0842022e-19 2.9684365 0
2.4627483 -1.0842022e-19 1.7932966
1.0842022e-19 2.9800034 -3.6893488e+19
2.5420825 1.0842022e-19 1.7720104
-2 2.954906 -1.0842022e-19
2.4493821 -3.6893488e+19 1.7223188
3.6893488e+19 2.9825044 2
2.5436046 -2 1.6830105
-2 2.9669557 0
2.4612856 -1.0842022e-19 1.6167744
-1.0842022e-19 2.9798021 2
2.4122283 -0 1.5122141
3.6893488e+19 2.9757547 -1.0842022e-19
2.5080276 -3.6893488e+19 1.2226554
0 2.9734502 -3.6893488e+19
2.4067707 -0 -1.4113438
2 2.9782796 1.0842022e-19
2.509397 3.6893488e+19 -1.5680921
-1.0842022e-19 2.9859562 0
2.4175158 1.0842022e-19 -1.6522722
-0 2.9773428 3.6893488e+19
2.508889 1.0842022e-19 -1.7067074
-0 3.0442171 -1.0842022e-19
2.5027804 1.0842022e-19 -1.7843393
-2 2.9755991 -2
2.5079432 3.6893488e+19 -1.782949
1.0842022e-19 3.0232224 3.6893488e+19
2.4694853 2 -1.8353275
1.0842022e-19 2.9746168 -3.6893488e+19
2.5074103 3.6893488e+19 -1.8375081
1.0842022e-19 3.0257974 1.0842022e-19
2.4739099 3.6893488e+19 -1.8876443
2 2.9752393 0
2.5077481 -0 -1.883877
-2 2.987042 -2
2.4184484 0 -1.8993521
-0 2.888988 -2
2.4219387 1.0842022e-19 -1.8820904
-2 2.8865778 -1.0842022e-19
2.4193244 -3.6893488e+19 -1.9036516
0 2.8501849 -1.0842022e-19
2.3459325 0 -1.9085424
-3.6893488e+19 2.710263 0
2.2046742 -0 -1.8599116
0 2.6416507 -1.0842022e-19
2.1368947 1.0842022e-19 -1.8474851
1.0842022e-19 2.601861 -2
2.1782157 -3.6893488e+19 -1.83814
3.6893488e+19 2.5892994 3.6893488e+19
2.0851793 -3.6893488e+19 -1.837341
-0 2.5620964 3.6893488e+19
2.1298223 -2 -1.8323524
-0 2.5513787 -2
2.047719 -0 -1.8310295
3.6893488e+19 2.5291517 -2
2.0897284 -1.0842022e-19 -1.8268474
-3.6893488e+19 2.5212224 1.0842022e-19
2.0179291 3.6893488e+19 -1.8261123
0 2.5024245 -3.6893488e+19
2.0572011 -1.0842022e-19 -1.8223568
1.0842022e-19 2.4882207 2
1.9911461 2 -1.8201525
-0 2.4540567 1.0842022e-19
2.0262942 2 -1.8158611
-3.6893488e+19 2.4439428 1.0842022e-19
1.9692761 2 -1.8153349
-1.0842022e-19 2.3977633 -2
1.9208717 -3.6893488e+19 -1.8115585
1.0842022e-19 2.3420589 -1.0842022e-19
1.8969421 0 -1.8052328
-1.0842022e-19 2.2944703 2
1.8764991 3.6893488e+19 -1.7972653
3.6893488e+19 2.2619822 2
1.8500855 3.6893488e+19 -1.7935404
-1.0842022e-19 2.2115607 2
1.8904302 0 -1.7905432
2 2.1751404 -0
1.8793492 3.6893488e+19 -1.7902681
-2 2.1360059 3.6893488e+19
1.8598852 -1.0842022e-19 -1.7867258
-2 2.1054268 0
1.8412778 3.6893488e+19 -1.7847204
1.0842022e-19 3.1015575 3.6893488e+19
2.548198 -0 2.5827091
-2 3.1010492 -3.6893488e+19
2.6268444 -1.0842022e-19 2.5811672
0 3.0965581 0
2.6220233 -3.6893488e+19 2.5664232
-0 3.0923002 2
2.6174526 0 2.5521877
3.6893488e+19 3.0919137 1.0842022e-19
2.6170378 2 2.5415406
3.6893488e+19 3.0859809 -3.6893488e+19
2.5349855 1.0842022e-19 2.5278563
-0 3.0855162 -2
2.5345914 -1.0842022e-19 2.5175319
2 3.078366 -0
2.6024945 2 2.5102799
3.6893488e+19 3.087136 3.6893488e+19
2.5359654 3.6893488e+19 2.5088606
3.6893488e+19 3.0814972 -2
2.6058557 3.6893488e+19 2.5028546
0 3.0877798 3.6893488e+19
2.5365114 -1.0842022e-19 2.4988019
3.6893488e+19 3.0808449 -1.0842022e-19
2.6051555 1.0842022e-19 2.4849856
-1.0842022e-19 3.0900011 0
2.6598976 -1.0842022e-19 2.4925578
1.0842022e-19 3.0899706 1.0842022e-19
2.5820694 -3.6893488e+19 2.4753718
2 3.0890625 -3.6893488e+19
2.5811822 -3.6893488e+19 2.4341424
1.0842022e-19 3.0869296 -3.6893488e+19
2.6561942 -3.6893488e+19 2.4276712
2 3.0881305 -1.0842022e-19
2.580272 -3.6893488e+19 2.4130878
-0 3.0976422 3.6893488e+19
2.6691093 1.0842022e-19 2.4205766
1.0842022e-19 3.0867286 2
2.5789027 1.0842022e-19 2.3916373
1.0842022e-19 3.0992889 -3.6893488e+19
2.6710944 0 2.4018159
2 3.0887067 -0
2.5808349 -3.6893488e+19 2.3741269
1.0842022e-19 3.0881042 -2
2.6576104 -0 2.3689032
2 3.0810044 2
2.5733116 -0 2.3462911
1.0842022e-19 3.0863252 -2
2.6554656 -1.0842022e-19 2.347054
0 3.0827966 3.6893488e+19
2.575062 0 2.3287716
2 3.1133792 -1.0842022e-19
2.5582254 -3.6893488e+19 2.3459904
0 3.0870442 -3.6893488e+19
2.6118102 1.0842022e-19 2.315182
1.0842022e-19 3.0839753 3.6893488e+19
2.5332844 -2 2.2987094
-2 3.0890119 1.0842022e-19
2.6139228 -0 2.2972145
-2 3.0856814 -2
2.5347316 -0 2.2808824
1.0842022e-19 3.0854695 -1.0842022e-19
2.6101198 1.0842022e-19 2.2745333
-2 3.0849693 1.0842022e-19
2.5341277 -1.0842022e-19 2.2610056
2 3.0868044 2
2.611553 -0 2.2560031
-0 3.0855491 -2
2.5346193 2 2.2343304
1.0842022e-19 3.0868914 -3.6893488e+19
2.6116462 -3.6893488e+19 2.2229259
3.6893488e+19 3.0483913 -2
2.5031013 0 2.1464341
-1.0842022e-19 2.9581091 -1.0842022e-19
2.4917712 3.6893488e+19 2.0449212
2 3.088033 3.6893488e+19
2.5367262 1.0842022e-19 2.1603222
-0 3.0862029 1.0842022e-19
2.6109073 0 2.143837
-3.6893488e+19 3.1059818 3.6893488e+19
2.5519509 -2 2.1413221
2 3.0884087 -1.0842022e-19
2.6132751 -0 2.1071594
-1.0842022e-19 3.1057694 1.0842022e-19
2.6789074 1.0842022e-19 2.1079631
-1.0842022e-19 2.9631259 -0
2.4523625 -2 1.966296
0 3.1029522 3.6893488e+19
2.6755109 -3.6893488e+19 2.0638833
-3.6893488e+19 2.9609327 -1.0842022e-19
2.4502203 -1.0842022e-19 1.9387331
3.6893488e+19 3.0996971 0
2.6715868 -2 2.0201464
2 3.1123259 1.0842022e-19
2.6039052 2 2.0050299
2 3.0852711 1.0842022e-19
2.6541951 -1.0842022e-19 1.96987
-2 3.1011693 1.0842022e-19
2.593008 0 1.9567916
-1.0842022e-19 3.0886741 -2
2.6582975 -0 1.9326017
3.6893488e+19 3.0914772 -1.0842022e-19
2.5835409 2 1.9118404
2 3.0381327 -3.6893488e+19
2.5973659 -1.0842022e-19 1.8685094
1.0842022e-19 3.0919623 0
2.5840149 1.0842022e-19 1.8705579
0 2.9782898 3.6893488e+19
2.5383074 3.6893488e+19 1.7713696
2 2.9550164 -2
2.4444413 -2 1.7222298
0 3.0352743 0
2.59392 3.6893488e+19 1.7162336
-0 2.9602737 -0
2.4495766 1.0842022e-19 1.6131617
-0 3.104336 -3.6893488e+19
2.5505548 -2 1.5775533
1.0842022e-19 3.0379362 -3.6893488e+19
2.5590937 -1.0842022e-19 1.2596604
0 3.1609848 1.0842022e-19
2.5986054 -3.6893488e+19 -1.5149784
-1.0842022e-19 3.0389268 -3.6893488e+19
2.5601573 -2 -1.6081278
0 3.1624041 -1.0842022e-19
2.5998092 3.6893488e+19 -1.7541528
1.0842022e-19 3.0379419 -1.0842022e-19
2.5590999 -2 -1.7492032
3.6893488e+19 3.0435562 -2
2.4980004 -3.6893488e+19 -1.7838925
0 2.9744263 0
2.5046437 0 -1.7824483
-0 3.0443404 -0
2.4993308 2 -1.8514577
1.0842022e-19 2.9771845 -1.0842022e-19
2.506124 2 -1.8385071
3.6893488e+19 3.0475545 -0
2.5023916 -3.6893488e+19 -1.8984199
2 2.9746699 -1.0842022e-19
2.5047743 -1.0842022e-19 -1.8836223
-1.0842022e-19 2.9741781 1.0842022e-19
2.4022074 2 -1.8953261
0 2.9747269 -3.6893488e+19
2.5048048 -1.0842022e-19 -1.9110913
1.0842022e-19 2.9194372 3.6893488e+19
2.3557749 2 -1.9024986
2 2.8848612 2
2.413141 3.6893488e+19 -1.9028614
-1.0842022e-19 2.8703456 -0
2.44648 0 -1.9091969
-1.0842022e-19 2.7541902 -0
2.3064458 -1.0842022e-19 -1.8732306
2 2.7169826 3.6893488e+19
2.2061296 0 -1.863188
1.0842022e-19 2.6410544 -1.0842022e-19
2.1319659 -2 -1.8470036
-3.6893488e+19 2.6022592 -2
2.1746755 1.0842022e-19 -1.8382124
3.6893488e+19 2.5892754 2
2.0813904 2 -1.8371896
2 2.5623438 0
2.1265545 -2 -1.8323524
-1.0842022e-19 2.5516934 -3.6893488e+19
2.0446818 -3.6893488e+19 -1.8311121
3.6893488e+19 2.5281806 -3.6893488e+19
2.0853679 -3.6893488e+19 -1.8259859
1.0842022e-19 2.5213969 -1.0842022e-19
2.0150893 3.6893488e+19 -1.8261123
-2 2.5017903 2
2.0535526 1.0842022e-19 -1.8217052
2 2.4904683 0
1.9895347 3.6893488e+19 -1.820925
2 2.4544168 -2
2.023917 2 -1.8158611
-0 2.4439867 2
1.9668341 0 -1.8152314
1.0842022e-19 3.1015575 3.6893488e+19
2.548198 -0 2.5827091
-2 3.1010492 -3.6893488e+19
2.6268444 -1.0842022e-19 2.5811672
0 3.0965581 0
2.6220233 -3.6893488e+19 2.5664232
-0 3.0923002 2
2.6174526 0 2.5521877
3.6893488e+19 3.0919137 1.0842022e-19
2.6170378 2 2.5415406
3.6893488e+19 3.0859809 -3.6893488e+19
2.5349855 1.0842022e-19 2.5278563
-0 3.0855162 -2
2.5345914 -1.0842022e-19 2.5175319
2 3.078366 -0
2.6024945 2 2.5102799
3.6893488e+19 3.087136 3.6893488e+19
2.5359654 3.6893488e+19 2.5088606
3.6893488e+19 3.0814972 -2
2.6058557 3.6893488e+19 2.5028546
0 3.0877798 3.6893488e+19
2.5365114 -1.0842022e-19 2.4988019
3.6893488e+19 3.0808449 -1.0842022e-19
2.6051555 1.0842022e-19 2.4849856
-1.0842022e-19 3.0900011 0
2.6598976 -1.0842022e-19 2.4925578
1.0842022e-19 3.0899706 1.0842022e-19
2.5820694 -3.6893488e+19 2.4753718
2 3.0890625 -3.6893488e+19
2.5811822 -3.6893488e+19 2.4341424
1.0842022e-19 3.0869296 -3.6893488e+19
2.6561942 -3.6893488e+19 2.4276712
2 3.0881305 -1.0842022e-19
2.580272 -3.6893488e+19 2.4130878
-0 3.0976422 3.6893488e+19
2.6691093 1.0842022e-19 2.4205766
1.0842022e-19 3.0867286 2
2.5789027 1.0842022e-19 2.3916373
1.0842022e-19 3.0992889 -3.6893488e+19
2.6710944 0 2.4018159
2 3.0887067 -0
2.5808349 -3.6893488e+19 2.3741269
2 3.0262747 3.6893488e+19
2.5830703 2 2.3014414
-1.0842022e-19 3.0426667 -3.6893488e+19
2.5358648 -2 2.3061829
0 3.0277667 -1.0842022e-19
2.5848689 3.6893488e+19 2.2866275
0 3.0827966 3.6893488e+19
2.575062 0 2.3287716
-2 3.0834391 2
2.5328298 -1.0842022e-19 2.3174832
1.0842022e-19 3.0312901 -1.0842022e-19
2.5519593 -3.6893488e+19 2.2630441
1.0842022e-19 3.0839753 3.6893488e+19
2.5332844 -2 2.2987094
0 3.0433903 -2
2.5649486 0 2.2572176
-2 3.0856814 -2
2.5347316 -0 2.2808824
1.0842022e-19 3.0854695 -1.0842022e-19
2.6101198 1.0842022e-19 2.2745333
-2 3.0849693 1.0842022e-19
2.5341277 -1.0842022e-19 2.2610056
-2 3.0291874 2
2.5497024 2 2.174418
0 3.0516868 -1.0842022e-19
2.5058966 3.6893488e+19 2.1854534
-3.6893488e+19 3.0266225 -2
2.5469489 2 2.1383212
3.6893488e+19 3.0483913 -2
2.5031013 0 2.1464341
-1.0842022e-19 2.9581091 -1.0842022e-19
2.4917712 3.6893488e+19 2.0449212
2 3.088033 3.6893488e+19
2.5367262 1.0842022e-19 2.1603222
-0 3.0862029 1.0842022e-19
2.6109073 0 2.143837
2 3.0374148 0
2.487582 2 2.065948
2 2.9575973 -0
2.4912217 -3.6893488e+19 1.9914759
3.6893488e+19 3.0329549 -1.0842022e-19
2.5911238 0 2.0346997
-1.0842022e-19 2.9631259 -0
2.4523625 -2 1.966296
3.6893488e+19 3.0297503 3.6893488e+19
2.5872605 -3.6893488e+19 1.9987844
-3.6893488e+19 2.9609327 -1.0842022e-19
2.4502203 -1.0842022e-19 1.9387331
-0 2.9872446 -3.6893488e+19
2.5437052 -0 1.938202
-0 2.9639931 -3.6893488e+19
2.4532094 2 1.9132951
1.0842022e-19 2.9797959 2
2.5392153 -2 1.9073244
-3.6893488e+19 2.9709158 -0
2.4599714 -1.0842022e-19 1.888653
3.6893488e+19 2.9753101 0
2.5365114 -1.0842022e-19 1.8781356
-3.6893488e+19 2.9685941 -3.6893488e+19
2.4577036 3.6893488e+19 1.8470865
-1.0842022e-19 2.9766018 0
2.5372901 -0 1.8263952
1.0842022e-19 3.0919623 0
2.5840149 1.0842022e-19 1.8705579
0 2.9782898 3.6893488e+19
2.5383074 3.6893488e+19 1.7713696
2 2.9550164 -2
2.4444413 -2 1.7222298
-0 2.9828269 -2
2.5410423 -0 1.6829878
-0 2.9602737 -0
2.4495766 1.0842022e-19 1.6131617
-0 2.9803147 3.6893488e+19
2.4074125 -3.6893488e+19 1.5122839
-0 2.9777808 2
2.5064442 -2 1.2234459
-2 2.9793394 -0
2.4065852 3.6893488e+19 -1.4132596
-2 2.9755991 -1.0842022e-19
2.5052731 1.0842022e-19 -1.5668745
-1.0842022e-19 2.9854329 1.0842022e-19
2.4117539 2 -1.6520233
-0 2.9726098 -3.6893488e+19
2.5036685 3.6893488e+19 -1.7045133
3.6893488e+19 3.0435562 -2
2.4980004 -3.6893488e+19 -1.7838925
0 2.9744263 0
2.5046437 0 -1.7824483
0 2.9889884 1.0842022e-19
2.4147696 -2 -1.8131073
1.0842022e-19 2.9771845 -1.0842022e-19
2.506124 2 -1.8385071
-2 2.9810739 2
2.4080565 -1.0842022e-19 -1.8649592
2 2.9746699 -1.0842022e-19
2.5047743 -1.0842022e-19 -1.8836223
-1.0842022e-19 2.9741781 1.0842022e-19
2.4022074 2 -1.8953261
3.6893488e+19 2.8896849 1.0842022e-19
2.4183192 -3.6893488e+19 -1.8822336
1.0842022e-19 2.9194372 3.6893488e+19
2.3557749 2 -1.9024986
2 2.8848612 2
2.413141 3.6893488e+19 -1.9028614
-1.0842022e-19 2.8703456 -0
2.44648 0 -1.9091969
-1.0842022e-19 2.7541902 -0
2.3064458 -1.0842022e-19 -1.8732306
2 2.7169826 3.6893488e+19
2.2061296 0 -1.863188
1.0842022e-19 2.6410544 -1.0842022e-19
2.1319659 -2 -1.8470036
-3.6893488e+19 2.6022592 -2
2.1746755 1.0842022e-19 -1.8382124
3.6893488e+19 2.5892754 2
2.0813904 2 -1.8371896
2 2.5623438 0
2.1265545 -2 -1.8323524
-1.0842022e-19 2.5516934 -3.6893488e+19
2.0446818 -3.6893488e+19 -1.8311121
3.6893488e+19 2.5281806 -3.6893488e+19
2.0853679 -3.6893488e+19 -1.8259859
1.0842022e-19 2.5213969 -1.0842022e-19
2.0150893 3.6893488e+19 -1.8261123
-2 2.5017903 2
2.0535526 1.0842022e-19 -1.8217052
2 2.4904683 0
1.9895347 3.6893488e+19 -1.820925
2 2.4544168 -2
2.023917 2 -1.8158611
-0 2.4439867 2
1.9668341 0 -1.8152314
1.0842022e-19 3.1057444 0
2.5478628 1.0842022e-19 2.5864861
1.0842022e-19 3.0987914 -3.6893488e+19
2.6205118 2 2.5788076
-1.0842022e-19 3.0979798 3.6893488e+19
2.6196499 -3.6893488e+19 2.5674996
1.0842022e-19 3.0928347 0
2.6141844 0 2.5524483
3.6893488e+19 3.0930991 3.6893488e+19
2.6144652 3.6893488e+19 2.5423472
-3.6893488e+19 3.0869155 1.0842022e-19
2.5320976 -1.0842022e-19 2.5284758
-1.0842022e-19 3.085551 1.0842022e-19
2.5309551 0 2.5174124
2 3.0844393 3.6893488e+19
2.6052661 -0 2.5149088
-2 3.0873518 2
2.5324628 1.0842022e-19 2.5088837
3.6893488e+19 3.0773623 0
2.5977485 -1.0842022e-19 2.4990528
3.6893488e+19 3.0889893 -0
2.5338337 3.6893488e+19 2.5001562
1.0842022e-19 3.0806596 0
2.6012511 -3.6893488e+19 2.4843755
-3.6893488e+19 3.0898869 -0
2.5782225 -2 2.4749534
2 3.0836408 -3.6893488e+19
2.6484251 -3.6893488e+19 2.4629843
0 3.0860894 -2
2.6513491 2 2.446306
1.0842022e-19 3.087194 -1.0842022e-19
2.6526682 -3.6893488e+19 2.4276712
1.0842022e-19 3.0883453 -2
2.5767336 -3.6893488e+19 2.4130878
0 3.0979447 1.0842022e-19
2.6655066 2 2.4206123
0 3.0897098 1.0842022e-19
2.5780513 -3.6893488e+19 2.3948536
