# .PCD v0.7 - Point Cloud Data file format
VERSION 0.7
FIELDS x y z
SIZE 4 4 4
TYPE F F F
COUNT 1 1 1
WIDTH 1700
HEIGHT 1
VIEWPOINT 0 0 0 1 0 0 0
POINTS 1700
DATA ascii
2 3.2504683 -3.6893488e+19
-2.5426078 -1.0842022e-19 2.6964319
3.6893488e+19 3.2505598 -2
-2.5427148 -1.0842022e-19 2.6818082
-0 3.2509563 -1.0842022e-19
-2.5431781 2 2.6677253
1.0842022e-19 3.2231815 -1.0842022e-19
-2.6302037 2 2.640456
-0 3.2513103 -0
-2.5435917 -3.6893488e+19 2.6535726
-1.0842022e-19 3.2360761 -2
-2.6405647 1.0842022e-19 2.6367276
3.6893488e+19 3.2470787 1.0842022e-19
-2.5403545 -3.6893488e+19 2.6345806
-0 3.243681 0
-2.6466753 0 2.6282213
1.0842022e-19 3.247669 2
-2.5406992 3.6893488e+19 2.6205199
-2 3.2555242 3.6893488e+19
-2.6606302 -0 2.6265004
-0 3.2490265 -0
-2.5414922 -1.0842022e-19 2.607008
0 3.2485723 2
-2.4585459 1.0842022e-19 2.5980535
3.6893488e+19 3.249608 2
-2.5883038 0 2.594152
-3.6893488e+19 3.2175267 -3.6893488e+19
-2.4299927 -3.6893488e+19 2.5628781
2 3.2481802 -3.6893488e+19
-2.5873368 -2 2.5786884
-0 3.2465403 -3.6893488e+19
-2.456677 3.6893488e+19 2.5679905
1.0842022e-19 3.2499506 2
-2.5885358 -2 2.565361
-1.0842022e-19 3.2117507 -1.0842022e-19
-2.4246805 -3.6893488e+19 2.5324357
-1.0842022e-19 3.1922672 2
-2.5494761 0 2.5161777
2 3.2417247 1.0842022e-19
-2.4522481 -1.0842022e-19 2.5366654
-0 3.1923478 1.0842022e-19
-2.5495307 -3.6893488e+19 2.5034523
-0 3.2452846 -2
-2.4555221 3.6893488e+19 2.5245605
2 3.1935666 3.6893488e+19
-2.5503559 3.6893488e+19 2.4827392
-3.6893488e+19 3.2632351 -3.6893488e+19
-2.4842043 -0 2.5268068
-2 3.1957738 -2
-2.5518506 2 2.4594951
3.6893488e+19 3.2512391 0
-2.5902474 -3.6893488e+19 2.4890926
-0 3.2458045 -3.6893488e+19
-2.6483815 2 2.4710352
3.6893488e+19 3.2403388 -1.0842022e-19
-2.5364175 -3.6893488e+19 2.4475594
0 3.2528944 -3.6893488e+19
-2.6564038 2 2.4513803
-0 3.2014754 -3.6893488e+19
-2.5137165 -1.0842022e-19 2.3863394
-3.6893488e+19 3.2055209 -0
-2.5160797 0 2.3638568
1.0842022e-19 3.1902957 -1.0842022e-19
-2.6037798 1.0842022e-19 2.3423166
2 3.2032063 -0
-2.5147276 2 2.3362355
1.0842022e-19 3.195369 3.6893488e+19
-2.6078563 -0 2.3207111
3.6893488e+19 3.2076139 2
-2.5173023 0 2.3135109
-2 3.1919065 -1.0842022e-19
-2.6050742 1.0842022e-19 2.2929029
-0 3.1909788 3.6893488e+19
-2.5075853 0 2.2770989
0 3.2029011 -1.0842022e-19
-2.6139083 -3.6893488e+19 2.2742696
1.0842022e-19 3.1930578 -2
-2.5087996 1.0842022e-19 2.2532942
3.6893488e+19 3.1988201 3.6893488e+19
-2.5121655 -3.6893488e+19 2.212352
-2 3.2019491 1.0842022e-19
-2.4156659 0 2.1882584
-3.6893488e+19 3.1980512 -3.6893488e+19
-2.5533926 1.0842022e-19 2.1623497
-0 3.2198918 1.0842022e-19
-2.432168 -0 2.1527369
2 3.2410545 2
-2.5825119 0 2.1462131
3.6893488e+19 3.2583952 3.6893488e+19
-2.4753015 1.0842022e-19 2.1347625
-0 3.1946988 3.6893488e+19
-2.5511227 2 2.0584013
1.0842022e-19 3.2760925 2
-2.5039272 3.6893488e+19 2.099
2 3.193866 -3.6893488e+19
-2.5505586 1.0842022e-19 2.0075293
2 3.3059185 1.0842022e-19
-2.5313587 1.0842022e-19 2.0679286
0 3.1931036 2
-2.5500424 1.0842022e-19 1.9569136
0 3.2752857 -2
-2.503185 3.6893488e+19 1.9742218
-2 3.1907787 0
-2.5484684 -0 1.9059283
0 3.2124696 -3.6893488e+19
-2.4253414 0 1.8863999
-1.0842022e-19 3.3014431 -2
-2.6582375 -1.0842022e-19 1.8950572
-1.0842022e-19 3.200969 1.0842022e-19
-2.4147644 3.6893488e+19 1.7897208
1.0842022e-19 3.192503 -1.0842022e-19
-2.5496356 -3.6893488e+19 1.7255954
-1.0842022e-19 3.191642 3.6893488e+19
-2.6048617 3.6893488e+19 1.6259514
2 3.1969469 0
-2.5110714 1.0842022e-19 1.3290232
0 3.1891019 3.6893488e+19
-2.6028206 -0 -1.5242243
-3.6893488e+19 3.1940629 -2
-2.5093868 2 -1.6748642
-1.0842022e-19 3.1862953 0
-2.6005657 1.0842022e-19 -1.7613328
-2 3.1920235 1.0842022e-19
-2.5081956 -0 -1.8117
1.0842022e-19 3.1797919 3.6893488e+19
-2.59534 -3.6893488e+19 -1.8571181
2 3.1940131 3.6893488e+19
-2.5093577 2 -1.8938285
-3.6893488e+19 3.1732383 2
-2.5900743 -2 -1.9124541
-3.6893488e+19 3.1592274 2
-2.4780774 0 -1.928719
2 3.1400545 -0
-2.5634108 2 -1.9441286
1.0842022e-19 2.832094 0
-2.2668393 1.0842022e-19 -1.8659509
1.0842022e-19 2.7897158 3.6893488e+19
-2.0884585 0 -1.8496342
0 2.7622981 2
-1.9912403 3.6893488e+19 -1.8423318
1.0842022e-19 2.7282147 -0
-2.0738175 -1.0842022e-19 -1.8381819
1.0842022e-19 2.6820374 3.6893488e+19
-1.9486762 3.6893488e+19 -1.8283099
-2 2.6488008 -1.0842022e-19
-2.0200434 1.0842022e-19 -1.8254167
0 2.6154313 3.6893488e+19
-1.9180468 -1.0842022e-19 -1.8175608
0 2.5910764 -2
-1.9809558 -0 -1.81578
2 2.572401 0
-1.898259 -2 -1.813069
-2 2.548506 -1.0842022e-19
-1.95213 3.6893488e+19 -1.808943
1.0842022e-19 2.5301411 0
-1.8788254 -2 -1.8042355
-0 2.5138271 2
-1.9286475 -1.0842022e-19 -1.8025888
3.6893488e+19 2.4936442 -3.6893488e+19
-1.8520067 -3.6893488e+19 -1.7968675
1.0842022e-19 2.4789727 1.0842022e-19
-1.9121654 2 -1.799853
-1.0842022e-19 2.4557471 1.0842022e-19
-1.8345795 -2 -1.7965701
0 3.2700489 0
-2.689877 -0 2.7551408
2 3.2727787 0
-2.6943238 -3.6893488e+19 2.7491114
-0 3.2835379 -2
-2.711849 1.0842022e-19 2.7509375
0 3.2518384 3.6893488e+19
-2.5496144 0 2.6841798
-2 3.2263877 -3.6893488e+19
-2.637989 0 2.657443
1.0842022e-19 3.2519038 -1.0842022e-19
-2.5496922 2 2.6694646
-2 3.2254813 3.6893488e+19
-2.6372509 -1.0842022e-19 2.6425622
0 3.2513497 -0
-2.5490329 2 2.6537919
2 3.2568097 3.6893488e+19
-2.6683121 -0 2.6588583
3.6893488e+19 3.2461274 -0
-2.5451236 0 2.6339934
-3.6893488e+19 3.239747 3.6893488e+19
-2.6488695 3.6893488e+19 2.6254067
2 3.2468076 -1.0842022e-19
-2.5455282 0 2.6200218
0 3.2502995 -3.6893488e+19
-2.5477834 -3.6893488e+19 2.6082714
1.0842022e-19 3.2500815 2
-2.4706593 3.6893488e+19 2.5992706
3.6893488e+19 3.2492931 1.0842022e-19
-2.5934882 -1.0842022e-19 2.594089
-0 3.2473876 2
-2.4680476 3.6893488e+19 2.5829635
-1.0842022e-19 3.2492032 -3.6893488e+19
-2.5934262 3.6893488e+19 2.5795112
3.6893488e+19 3.2456224 -2
-2.4663863 3.6893488e+19 2.5674996
2 3.2482355 2
-2.5927606 -3.6893488e+19 2.56442
-3.6893488e+19 3.2444723 -2
-2.4653041 -0 2.5525427
1.0842022e-19 3.2466309 2
-2.5916567 -2 2.5490301
-3.6893488e+19 3.2416358 -1.0842022e-19
-2.462635 -2 2.5367012
0 3.1922412 -0
-2.5542393 -3.6893488e+19 2.5035048
1.0842022e-19 3.2451334 -0
-2.4659262 3.6893488e+19 2.5245605
2 3.2517505 -2
-2.5963829 -1.0842022e-19 2.524106
-3.6893488e+19 3.25172 -0
-2.5963411 2 2.5095844
-3.6893488e+19 3.2517991 3.6893488e+19
-2.5964501 1.0842022e-19 2.4904029
-0 3.271039 -0
-2.6914899 0 2.5076354
3.6893488e+19 3.2410398 0
-2.5420973 2 2.4483728
1.0842022e-19 3.2713895 -0
-2.6920607 3.6893488e+19 2.4846487
0 3.2439349 0
-2.5438194 1.0842022e-19 2.4228368
-2 3.2402964 -2
-2.6493168 -2 2.4095671
2 3.244072 2
-2.543901 -0 2.3948028
3.6893488e+19 3.243835 3.6893488e+19
-2.6521988 -1.0842022e-19 2.3841457
-0 3.2445233 3.6893488e+19
-2.5441694 1.0842022e-19 2.3670309
3.6893488e+19 3.2415583 2
-2.6503446 2 2.3541603
2 3.2056813 -0
-2.521064 -0 2.3123076
-3.6893488e+19 3.243222 -3.6893488e+19
-2.6516995 -1.0842022e-19 2.3270893
-3.6893488e+19 3.2254465 0
-2.5328217 -2 2.2988729
-3.6893488e+19 3.1956673 -1.0842022e-19
-2.6129692 -2 2.2700324
1.0842022e-19 3.2091045 3.6893488e+19
-2.5231004 2 2.2625697
1.0842022e-19 3.1722088 -1.0842022e-19
-2.5938635 -2 2.2133434
-2 3.2456272 -2
-2.544826 -2 2.255384
-2 3.2673256 2
-2.5015566 0 2.2593069
-2 3.2387152 1.0842022e-19
-2.5862112 1.0842022e-19 2.199975
2 3.2596989 -1.0842022e-19
-2.4887593 -1.0842022e-19 2.1953037
-0 3.2389581 0
-2.5863783 1.0842022e-19 2.1446984
-1.0842022e-19 3.2595253 2
-2.4884329 -3.6893488e+19 2.1365633
2 3.2400696 0
-2.5871429 -0 2.0900185
1.0842022e-19 3.3075166 -2
-2.5393765 2 2.1388409
-0 3.1875422 0
-2.5510068 -0 2.003974
2 3.3063524 0
-2.5382812 -0 2.0684767
-2 3.3099287 -3.6893488e+19
-2.6764302 -2 2.0395811
-3.6893488e+19 3.3056691 -1.0842022e-19
-2.5376382 1.0842022e-19 1.9990455
1.0842022e-19 3.3071353 1.0842022e-19
-2.6725869 2 1.9673995
-3.6893488e+19 3.2119868 1.0842022e-19
-2.4347351 1.0842022e-19 1.8862991
-2 3.3021703 -3.6893488e+19
-2.6657555 -2 1.8954723
3.6893488e+19 3.2003348 -1.0842022e-19
-2.4237702 -1.0842022e-19 1.7895393
-2 3.2994225 -1.0842022e-19
-2.6619749 -3.6893488e+19 1.777719
-2 3.1908257 -1.0842022e-19
-2.609026 -2 1.6257854
3.6893488e+19 3.1950738 0
-2.5147543 -2 1.3282468
-0 3.2505918 -0
-2.6581838 2 -1.5454127
3.6893488e+19 3.194633 1.0842022e-19
-2.514492 -0 -1.6751564
-0 3.1824198 -2
-2.6021798 -2 -1.7601935
-2 3.1915743 -3.6893488e+19
-2.5126724 -1.0842022e-19 -1.8115824
-1.0842022e-19 3.1777265 -1.0842022e-19
-2.5983574 -1.0842022e-19 -1.8561255
3.6893488e+19 3.1940267 3.6893488e+19
-2.5141313 3.6893488e+19 -1.8938886
-3.6893488e+19 3.1803913 -2
-2.6005278 -2 -1.9152875
-1.0842022e-19 3.1922853 -2
-2.5130954 -1.0842022e-19 -1.9432309
3.6893488e+19 3.1392658 2
-2.5670335 1.0842022e-19 -1.9438391
-1.0842022e-19 2.835099 2
-2.272918 3.6893488e+19 -1.8682605
-1.0842022e-19 2.7935555 3.6893488e+19
-2.0992458 2 -1.8526995
2 2.7635818 1.0842022e-19
-1.9980335 3.6893488e+19 -1.8434621
0 2.7304606 3.6893488e+19
-2.0805323 3.6893488e+19 -1.8392791
0 2.6822772 0
-1.9533889 -0 -1.8284849
-2 2.6514502 -2
-2.0261772 3.6893488e+19 -1.8268385
3.6893488e+19 2.6166823 -0
-1.9225261 -2 -1.818279
-1.0842022e-19 2.5908005 2
-1.9844534 -1.0842022e-19 -1.8157113
-1.0842022e-19 2.5731692 -0
-1.902053 2 -1.8135748
0 2.5484953 -3.6893488e+19
-1.9553494 -1.0842022e-19 -1.8090187
-0 2.530303 2
-1.8818842 -1.0842022e-19 -1.8043939
-0 2.5121129 -2
-1.9303203 -1.0842022e-19 -1.801514
0 2.4934936 1.0842022e-19
-1.8571916 -3.6893488e+19 -1.7968675
-3.6893488e+19 2.477531 -0
-1.9142585 1.0842022e-19 -1.7994049
1.0842022e-19 2.4553609 -3.6893488e+19
-1.8392498 -3.6893488e+19 -1.796477
1.0842022e-19 2.4214551 -1.0842022e-19
-1.823297 1.0842022e-19 -1.7956547
1.0842022e-19 2.3533871 1.0842022e-19
-1.8939062 -3.6893488e+19 -1.7903742
-0 2.3037086 2
-1.8723524 -2 -1.7846675
2 2.2718503 2
-1.8464057 0 -1.7836766
1.0842022e-19 2.2402921 -1.0842022e-19
-1.8246566 0 -1.7823561
-0 2.2027187 -3.6893488e+19
-1.7130067 0 -1.7814121
1.0842022e-19 2.1747406 -2
-1.6998428 2 -1.7840523
-2 2.1400023 1.0842022e-19
-1.6834984 3.6893488e+19 -1.7824026
1.0842022e-19 2.111202 2
-1.6699476 3.6893488e+19 -1.7813579
0 3.2700489 0
-2.689877 -0 2.7551408
2 3.2727787 0
-2.6943238 -3.6893488e+19 2.7491114
-2 3.2570529 -0
-2.6687083 -1.0842022e-19 2.7049954
0 3.2518384 3.6893488e+19
-2.5496144 0 2.6841798
-2 3.2263877 -3.6893488e+19
-2.637989 0 2.657443
1.0842022e-19 3.2519038 -1.0842022e-19
-2.5496922 2 2.6694646
-2 3.2254813 3.6893488e+19
-2.6372509 -1.0842022e-19 2.6425622
0 3.2513497 -0
-2.5490329 2 2.6537919
2 3.2568097 3.6893488e+19
-2.6683121 -0 2.6588583
3.6893488e+19 3.2461274 -0
-2.5451236 0 2.6339934
-3.6893488e+19 3.239747 3.6893488e+19
-2.6488695 3.6893488e+19 2.6254067
2 3.2468076 -1.0842022e-19
-2.5455282 0 2.6200218
0 3.2502995 -3.6893488e+19
-2.5477834 -3.6893488e+19 2.6082714
-2 3.217412 -2
-2.4398401 -2 2.5764
3.6893488e+19 3.2492931 1.0842022e-19
-2.5934882 -1.0842022e-19 2.594089
0 3.217231 -3.6893488e+19
-2.4396696 1.0842022e-19 2.5627759
-1.0842022e-19 3.2492032 -3.6893488e+19
-2.5934262 3.6893488e+19 2.5795112
3.6893488e+19 3.2456224 -2
-2.4663863 3.6893488e+19 2.5674996
2 3.2482355 2
-2.5927606 -3.6893488e+19 2.56442
-3.6893488e+19 3.2092164 -1.0842022e-19
-2.432128 -3.6893488e+19 2.5309713
-1.0842022e-19 3.1917949 1.0842022e-19
-2.5539324 -1.0842022e-19 2.5160124
0 3.2161419 3.6893488e+19
-2.4386449 -3.6893488e+19 2.5218341
0 3.1922412 -0
-2.5542393 -3.6893488e+19 2.5035048
1.0842022e-19 3.2158632 3.6893488e+19
-2.4383826 2 2.5083296
-3.6893488e+19 3.1935813 0
-2.5551615 1.0842022e-19 2.4829719
-3.6893488e+19 3.1959407 0
-2.5567846 0 2.4598732
-3.6893488e+19 3.2517991 3.6893488e+19
-2.5964501 1.0842022e-19 2.4904029
3.6893488e+19 3.2479746 -0
-2.6555703 -0 2.4733481
3.6893488e+19 3.2410398 0
-2.5420973 2 2.4483728
1.0842022e-19 3.252821 0
-2.6618149 1.0842022e-19 2.451489
0 3.2439349 0
-2.5438194 1.0842022e-19 2.4228368
1.0842022e-19 3.1894543 3.6893488e+19
-2.607909 2 2.3670964
1.0842022e-19 3.204422 -0
-2.5203149 1.0842022e-19 2.3631194
2 3.1892388 3.6893488e+19
-2.6077335 -2 2.3416762
0 3.201061 -2
-2.5183156 -2 2.3347733
-2 3.1938512 -3.6893488e+19
-2.61149 1.0842022e-19 2.3197882
2 3.2056813 -0
-2.521064 -0 2.3123076
2 3.1929233 -1.0842022e-19
-2.6107342 -3.6893488e+19 2.2937326
-0 3.2077267 0
-2.5222809 -1.0842022e-19 2.287734
-3.6893488e+19 3.1956673 -1.0842022e-19
-2.6129692 -2 2.2700324
1.0842022e-19 3.2091045 3.6893488e+19
-2.5231004 2 2.2625697
1.0842022e-19 3.1722088 -1.0842022e-19
-2.5938635 -2 2.2133434
-3.6893488e+19 3.2045074 -3.6893488e+19
-2.5203657 -3.6893488e+19 2.2183921
1.0842022e-19 3.2001383 0
-2.4235854 -2 2.1866355
2 3.1966822 0
-2.5572946 -2 2.1612737
3.6893488e+19 3.2072585 -1.0842022e-19
-2.4302855 3.6893488e+19 2.1420288
-0 3.2389581 0
-2.5863783 1.0842022e-19 2.1446984
-1.0842022e-19 3.2595253 2
-2.4884329 -3.6893488e+19 2.1365633
-3.6893488e+19 3.1886225 3.6893488e+19
-2.5517499 -1.0842022e-19 2.0543237
1.0842022e-19 3.3075166 -2
-2.5393765 2 2.1388409
-0 3.1875422 0
-2.5510068 -0 2.003974
1.0842022e-19 3.2235496 -1.0842022e-19
-2.4456155 3.6893488e+19 1.9961455
0 3.1961067 1.0842022e-19
-2.5568986 2 1.9584093
-1.0842022e-19 3.2266541 0
-2.4485371 3.6893488e+19 1.9441781
1.0842022e-19 3.1970782 -1.0842022e-19
-2.5575669 3.6893488e+19 1.9082276
-3.6893488e+19 3.2119868 1.0842022e-19
-2.4347351 1.0842022e-19 1.8862991
-3.6893488e+19 3.1991367 0
-2.5589833 -2 1.8412256
3.6893488e+19 3.2003348 -1.0842022e-19
-2.4237702 -1.0842022e-19 1.7895393
1.0842022e-19 3.1875312 1.0842022e-19
-2.5509992 1.0842022e-19 1.7231607
-2 3.1908257 -1.0842022e-19
-2.609026 -2 1.6257854
3.6893488e+19 3.1950738 0
-2.5147543 -2 1.3282468
0 3.1788249 1.0842022e-19
-2.599252 3.6893488e+19 -1.5208092
3.6893488e+19 3.194633 1.0842022e-19
-2.514492 -0 -1.6751564
-0 3.1824198 -2
-2.6021798 -2 -1.7601935
-2 3.1915743 -3.6893488e+19
-2.5126724 -1.0842022e-19 -1.8115824
-1.0842022e-19 3.1777265 -1.0842022e-19
-2.5983574 -1.0842022e-19 -1.8561255
3.6893488e+19 3.1940267 3.6893488e+19
-2.5141313 3.6893488e+19 -1.8938886
-3.6893488e+19 3.1803913 -2
-2.6005278 -2 -1.9152875
3.6893488e+19 3.1577096 2
-2.4850559 3.6893488e+19 -1.928125
3.6893488e+19 3.1392658 2
-2.5670335 1.0842022e-19 -1.9438391
-1.0842022e-19 2.835099 2
-2.272918 3.6893488e+19 -1.8682605
-1.0842022e-19 2.7935555 3.6893488e+19
-2.0992458 2 -1.8526995
2 2.7635818 1.0842022e-19
-1.9980335 3.6893488e+19 -1.8434621
0 2.7304606 3.6893488e+19
-2.0805323 3.6893488e+19 -1.8392791
0 2.6822772 0
-1.9533889 -0 -1.8284849
-2 2.6514502 -2
-2.0261772 3.6893488e+19 -1.8268385
3.6893488e+19 2.6166823 -0
-1.9225261 -2 -1.818279
-1.0842022e-19 2.5908005 2
-1.9844534 -1.0842022e-19 -1.8157113
-1.0842022e-19 2.5731692 -0
-1.902053 2 -1.8135748
0 2.5484953 -3.6893488e+19
-1.9553494 -1.0842022e-19 -1.8090187
-0 2.530303 2
-1.8818842 -1.0842022e-19 -1.8043939
-0 2.5121129 -2
-1.9303203 -1.0842022e-19 -1.801514
0 2.4934936 1.0842022e-19
-1.8571916 -3.6893488e+19 -1.7968675
-3.6893488e+19 2.477531 -0
-1.9142585 1.0842022e-19 -1.7994049
1.0842022e-19 2.4553609 -3.6893488e+19
-1.8392498 -3.6893488e+19 -1.796477
1.0842022e-19 2.4214551 -1.0842022e-19
-1.823297 1.0842022e-19 -1.7956547
1.0842022e-19 2.3533871 1.0842022e-19
-1.8939062 -3.6893488e+19 -1.7903742
-0 2.3037086 2
-1.8723524 -2 -1.7846675
2 2.2718503 2
-1.8464057 0 -1.7836766
1.0842022e-19 2.2402921 -1.0842022e-19
-1.8246566 0 -1.7823561
-0 2.2027187 -3.6893488e+19
-1.7130067 0 -1.7814121
1.0842022e-19 2.1747406 -2
-1.6998428 2 -1.7840523
-2 2.1400023 1.0842022e-19
-1.6834984 3.6893488e+19 -1.7824026
1.0842022e-19 2.111202 2
-1.6699476 3.6893488e+19 -1.7813579
1.0842022e-19 3.269665 -3.6893488e+19
-2.6951551 -3.6893488e+19 2.7549152
-3.6893488e+19 3.27302 -2
-2.7006938 -3.6893488e+19 2.7498221
-2 3.2823234 3.6893488e+19
-2.7160516 -3.6893488e+19 2.7499943
3.6893488e+19 3.2998629 -1.0842022e-19
-2.6131914 -0 2.7585897
2 3.2249932 1.0842022e-19
-2.6420527 -0 2.6564689
-0 3.2250755 1.0842022e-19
-2.6421206 0 2.6424384
2 3.249804 0
-2.5526793 -0 2.6516244
3.6893488e+19 3.2571521 -3.6893488e+19
-2.6744993 -2 2.6596239
2 3.248997 0
-2.5521905 0 2.6363666
-2 3.2362049 3.6893488e+19
-2.6513066 -1.0842022e-19 2.6228921
-2 3.2503376 -1.0842022e-19
-2.5532069 2 2.6084676
3.6893488e+19 3.2509511 -2
-2.4829895 -0 2.6005945
2 3.2489445 2
-2.5986471 -1.0842022e-19 2.5940053
0 3.2517381 -0
-2.4845042 -2 2.5871444
-2 3.2474568 2
-2.5976076 3.6893488e+19 2.5785079
-3.6893488e+19 3.2466931 2
-2.477977 -1.0842022e-19 2.568285
3.6893488e+19 3.2480695 -2
-2.5980356 -3.6893488e+19 2.5644584
-2 3.2424467 3.6893488e+19
-2.4738905 1.0842022e-19 2.5513976
-3.6893488e+19 3.191411 -0
-2.5584445 0 2.5159025
3.6893488e+19 3.2402234 3.6893488e+19
-2.471751 -1.0842022e-19 2.5359669
-2 3.1924665 -3.6893488e+19
-2.5591819 2 2.5037496
-2 3.2437491 -0
-2.4751439 1.0842022e-19 2.5238786
2 3.2473223 -2
-2.5975134 3.6893488e+19 2.5208657
3.6893488e+19 3.251636 0
-2.6016712 -0 2.5096159
-0 3.2514095 3.6893488e+19
-2.6013546 0 2.489867
-2 3.2481017 3.6893488e+19
-2.6611261 -2 2.4737239
2 3.240263 2
-2.5469012 1.0842022e-19 2.44784
-0 3.2407937 3.6893488e+19
-2.6550941 0 2.4102035
-2 3.2422168 3.6893488e+19
-2.5480845 3.6893488e+19 2.3934755
-3.6893488e+19 3.2433863 0
-2.6572342 -2 2.3840034
2 3.2383595 1.0842022e-19
-2.5457485 1.0842022e-19 2.3625989
2 3.2404096 -0
-2.6547771 0 2.353523
3.6893488e+19 3.2255445 -0
-2.5379877 3.6893488e+19 2.3260496
2 3.2398148 1.0842022e-19
-2.6542861 -0 2.3250046
1.0842022e-19 3.2259679 -3.6893488e+19
-2.538244 -1.0842022e-19 2.2993186
-3.6893488e+19 3.1714683 -1.0842022e-19
-2.5978739 2 2.2555077
1.0842022e-19 3.2030985 -0
-2.5243945 3.6893488e+19 2.2592368
-0 3.1701798 -3.6893488e+19
-2.5968103 -0 2.2113652
-3.6893488e+19 3.24278 -3.6893488e+19
-2.5484254 2 2.2540171
0 3.2679701 -2
-2.5078723 -3.6893488e+19 2.2600129
0 3.2398145 3.6893488e+19
-2.5922673 2 2.2011924
1.0842022e-19 3.2651327 3.6893488e+19
-2.505142 -2 2.2047629
-1.0842022e-19 3.2398117 3.6893488e+19
-2.5922654 2 2.1455674
-3.6893488e+19 3.2699974 2
-2.5098236 -2 2.1522872
-0 3.252243 2
-2.6025195 -1.0842022e-19 2.1001804
-3.6893488e+19 3.2030699 -3.6893488e+19
-2.4359975 3.6893488e+19 2.0365329
-0 3.186574 -1.0842022e-19
-2.5550644 1.0842022e-19 2.0035274
-0 3.2233086 -2
-2.4554734 -1.0842022e-19 1.9960971
3.6893488e+19 3.190057 -3.6893488e+19
-2.5574982 -1.0842022e-19 1.9556767
2 3.3065197 2
-2.5449696 -3.6893488e+19 1.9998164
-2 3.3060875 -1.0842022e-19
-2.6777692 0 1.9667566
0 3.3014789 -2
-2.5401185 -1.0842022e-19 1.927945
0 3.3010018 -2
-2.6706614 -1.0842022e-19 1.8949757
3.6893488e+19 3.1996977 3.6893488e+19
-2.4327524 -2 1.7893579
-0 3.2989938 2
-2.6678555 0 1.7775699
2 3.1772754 0
-2.6026671 2 1.6189692
-0 3.1933227 -0
-2.5184743 -3.6893488e+19 1.3275269
-1.0842022e-19 3.1767271 0
-2.6022146 -0 -1.520174
-2 3.193469 -0
-2.518563 0 -1.6747668
-1.0842022e-19 3.1832888 2
-2.6076305 -2 -1.7605381
-1.0842022e-19 3.1910605 -1.0842022e-19
-2.5171044 -1.0842022e-19 -1.8114388
-0 3.1836472 -2
-2.6079261 3.6893488e+19 -1.8594509
-1.0842022e-19 3.1921217 1.0842022e-19
-2.5177472 -3.6893488e+19 -1.8933277
1.0842022e-19 3.178477 -3.6893488e+19
-2.6036587 -0 -1.9146409
2 3.1933157 -2
-2.51847 0 -1.9437574
-2 3.1383526 -3.6893488e+19
-2.5705407 -0 -1.9434885
0 3.0501542 3.6893488e+19
-2.3635442 -1.0842022e-19 -1.9150748
-1.0842022e-19 2.8305159 -1.0842022e-19
-2.2728031 -1.0842022e-19 -1.8650626
-3.6893488e+19 2.7932546 -2
-2.1051877 0 -1.8525559
2 2.7640572 -0
-2.004107 2 -1.8439245
-3.6893488e+19 2.7306106 -2
-2.0858359 0 -1.8394437
1.0842022e-19 2.6795404 -3.6893488e+19
-1.9566772 -1.0842022e-19 -1.8272598
-3.6893488e+19 2.6516361 2
-2.0306511 1.0842022e-19 -1.827024
-0 2.6181777 -0
-1.927152 -1.0842022e-19 -1.8191279
3.6893488e+19 2.590277 -0
-1.9877751 -3.6893488e+19 -1.8155049
1.0842022e-19 2.5757916 2
-1.9067576 2 -1.8151643
3.6893488e+19 2.5481138 -3.6893488e+19
-1.9583127 2 -1.8088673
3.6893488e+19 2.5300918 2
-1.8847687 2 -1.8043147
1.0842022e-19 2.5124846 3.6893488e+19
-1.9334161 -3.6893488e+19 -1.8018447
1.0842022e-19 2.4943285 2
-1.8628507 -0 -1.7972121
-0 2.4770684 -3.6893488e+19
-1.9166803 3.6893488e+19 -1.7993152
-0 2.4552186 0
-1.8440326 -3.6893488e+19 -1.796477
1.0842022e-19 3.269665 -3.6893488e+19
-2.6951551 -3.6893488e+19 2.7549152
-3.6893488e+19 3.27302 -2
-2.7006938 -3.6893488e+19 2.7498221
-2 3.2823234 3.6893488e+19
-2.7160516 -3.6893488e+19 2.7499943
3.6893488e+19 3.2998629 -1.0842022e-19
-2.6131914 -0 2.7585897
2 3.2249932 1.0842022e-19
-2.6420527 -0 2.6564689
-0 3.2250755 1.0842022e-19
-2.6421206 0 2.6424384
2 3.249804 0
-2.5526793 -0 2.6516244
3.6893488e+19 3.2571521 -3.6893488e+19
-2.6744993 -2 2.6596239
2 3.248997 0
-2.5521905 0 2.6363666
-2 3.2362049 3.6893488e+19
-2.6513066 -1.0842022e-19 2.6228921
-2 3.2503376 -1.0842022e-19
-2.5532069 2 2.6084676
-3.6893488e+19 3.2172048 -3.6893488e+19
-2.4495997 -1.0842022e-19 2.5763574
2 3.2489445 2
-2.5986471 -1.0842022e-19 2.5940053
2 3.2171156 2
-2.4495139 1.0842022e-19 2.5627964
-2 3.2474568 2
-2.5976076 3.6893488e+19 2.5785079
3.6893488e+19 3.2236817 -2
-2.4558325 -0 2.553539
3.6893488e+19 3.2480695 -2
-2.5980356 -3.6893488e+19 2.5644584
-2 3.2424467 3.6893488e+19
-2.4738905 1.0842022e-19 2.5513976
-3.6893488e+19 3.191411 -0
-2.5584445 0 2.5159025
2 3.2164569 -0
-2.44888 -2 2.5221028
-2 3.1924665 -3.6893488e+19
-2.5591819 2 2.5037496
1.0842022e-19 3.2140887 -1.0842022e-19
-2.4466009 2 2.507426
2 3.1921592 -3.6893488e+19
-2.5589671 2 2.4816425
2 3.1928368 -2
-2.5594406 -3.6893488e+19 2.4568799
-0 3.2514095 3.6893488e+19
-2.6013546 0 2.489867
-2 3.2481017 3.6893488e+19
-2.6611261 -2 2.4737239
2 3.240263 2
-2.5469012 1.0842022e-19 2.44784
-3.6893488e+19 3.1907704 0
-2.6138058 -0 2.3683941
2 3.2041507 0
-2.5250318 -3.6893488e+19 2.3630455
-3.6893488e+19 3.2433863 0
-2.6572342 -2 2.3840034
-3.6893488e+19 3.2009447 0
-2.5230904 -0 2.3348191
-2 3.1917832 1.0842022e-19
-2.6146417 3.6893488e+19 2.3184695
-3.6893488e+19 3.2056556 0
-2.5259433 1.0842022e-19 2.3124132
2 3.17063 1.0842022e-19
-2.597182 2 2.2790987
3.6893488e+19 3.2072999 -0
-2.5269389 -0 2.2875791
-3.6893488e+19 3.1714683 -1.0842022e-19
-2.5978739 2 2.2555077
1.0842022e-19 3.2030985 -0
-2.5243945 3.6893488e+19 2.2592368
-0 3.1701798 -3.6893488e+19
-2.5968103 -0 2.2113652
-2 3.2051609 2
-2.5256436 -3.6893488e+19 2.2192504
1.0842022e-19 3.1991305 -2
-2.4322064 -1.0842022e-19 2.1857941
-3.6893488e+19 3.1974008 -1.0842022e-19
-2.5626299 1.0842022e-19 2.1621232
3.6893488e+19 3.1977279 -2
-2.4308567 0 2.1339779
-1.0842022e-19 3.2398117 3.6893488e+19
-2.5922654 2 2.1455674
-3.6893488e+19 3.2699974 2
-2.5098236 -2 2.1522872
1.0842022e-19 3.1987877 -3.6893488e+19
-2.5635989 3.6893488e+19 2.0615182
-3.6893488e+19 3.2030699 -3.6893488e+19
-2.4359975 3.6893488e+19 2.0365329
-0 3.186574 -1.0842022e-19
-2.5550644 1.0842022e-19 2.0035274
-0 3.2233086 -2
-2.4554734 -1.0842022e-19 1.9960971
3.6893488e+19 3.190057 -3.6893488e+19
-2.5574982 -1.0842022e-19 1.9556767
3.6893488e+19 3.2248924 3.6893488e+19
-2.4569976 0 1.9435209
-1.0842022e-19 3.1947203 2
-2.5607569 -1.0842022e-19 1.9074647
2 3.2117805 -1.0842022e-19
-2.4443798 -1.0842022e-19 1.8862808
-2 3.1996095 0
-2.5641735 -1.0842022e-19 1.8415518
3.6893488e+19 3.1996977 3.6893488e+19
-2.4327524 -2 1.7893579
1.0842022e-19 3.1983216 -3.6893488e+19
-2.5632732 -3.6893488e+19 1.7287683
2 3.1772754 0
-2.6026671 2 1.6189692
-0 3.1933227 -0
-2.5184743 -3.6893488e+19 1.3275269
-1.0842022e-19 3.1767271 0
-2.6022146 -0 -1.520174
-2 3.193469 -0
-2.518563 0 -1.6747668
-1.0842022e-19 3.1832888 2
-2.6076305 -2 -1.7605381
-1.0842022e-19 3.1910605 -1.0842022e-19
-2.5171044 -1.0842022e-19 -1.8114388
-0 3.1836472 -2
-2.6079261 3.6893488e+19 -1.8594509
-1.0842022e-19 3.1921217 1.0842022e-19
-2.5177472 -3.6893488e+19 -1.8933277
1.0842022e-19 3.178477 -3.6893488e+19
-2.6036587 -0 -1.9146409
-2 3.1552942 -0
-2.4908891 -2 -1.9271395
-2 3.1383526 -3.6893488e+19
-2.5705407 -0 -1.9434885
0 3.0501542 3.6893488e+19
-2.3635442 -1.0842022e-19 -1.9150748
-1.0842022e-19 2.8305159 -1.0842022e-19
-2.2728031 -1.0842022e-19 -1.8650626
-3.6893488e+19 2.7932546 -2
-2.1051877 0 -1.8525559
2 2.7640572 -0
-2.004107 2 -1.8439245
-3.6893488e+19 2.7306106 -2
-2.0858359 0 -1.8394437
1.0842022e-19 2.6795404 -3.6893488e+19
-1.9566772 -1.0842022e-19 -1.8272598
-3.6893488e+19 2.6516361 2
-2.0306511 1.0842022e-19 -1.827024
-0 2.6181777 -0
-1.927152 -1.0842022e-19 -1.8191279
3.6893488e+19 2.590277 -0
-1.9877751 -3.6893488e+19 -1.8155049
1.0842022e-19 2.5757916 2
-1.9067576 2 -1.8151643
3.6893488e+19 2.5481138 -3.6893488e+19
-1.9583127 2 -1.8088673
3.6893488e+19 2.5300918 2
-1.8847687 2 -1.8043147
1.0842022e-19 2.5124846 3.6893488e+19
-1.9334161 -3.6893488e+19 -1.8018447
1.0842022e-19 2.4943285 2
-1.8628507 -0 -1.7972121
-0 2.4770684 -3.6893488e+19
-1.9166803 3.6893488e+19 -1.7993152
-0 2.4552186 0
-1.8440326 -3.6893488e+19 -1.796477
1.0842022e-19 3.2684715 -0
-2.6992064 1.0842022e-19 2.7539289
2 3.2731066 2
-2.7069619 -2 2.7501297
1.0842022e-19 3.3015039 -3.6893488e+19
-2.6218126 -3.6893488e+19 2.7690189
-2 3.2821209 1.0842022e-19
-2.7220449 -1.0842022e-19 2.7499149
2 3.2997549 2
-2.6196558 1.0842022e-19 2.7586029
-1.0842022e-19 3.2238598 -2
-2.646431 -1.0842022e-19 2.6557255
1.0842022e-19 3.2245705 2
-2.6470256 3.6893488e+19 2.64224
3.6893488e+19 3.2494473 3.6893488e+19
-2.5579576 -3.6893488e+19 2.6515026
3.6893488e+19 3.2417405 0
-2.6613901 3.6893488e+19 2.6418715
2 3.2497325 -2
-2.5581334 2 2.637095
-2 3.2412546 3.6893488e+19
-2.6609836 1.0842022e-19 2.6269755
-2 3.2506454 -1.0842022e-19
-2.5590944 1.0842022e-19 2.6090558
-1.0842022e-19 3.2512662 1.0842022e-19
-2.494561 1.0842022e-19 2.6011498
1.0842022e-19 3.2487085 0
-2.6040096 -1.0842022e-19 2.5940053
0 3.2519464 3.6893488e+19
-2.4958994 0 2.587534
2 3.2476771 2
-2.6032774 -2 2.5788088
3.6893488e+19 3.2410479 -0
-2.4832582 -3.6893488e+19 2.5647702
-2 3.2479858 -3.6893488e+19
-2.6034966 -1.0842022e-19 2.5645545
-1.0842022e-19 3.2396486 -3.6893488e+19
-2.4818811 1.0842022e-19 2.549783
-3.6893488e+19 3.2529242 0
-2.6090782 -2 2.5548632
1.0842022e-19 3.2403088 3.6893488e+19
-2.4825308 -0 2.5361102
3.6893488e+19 3.2533016 -2
-2.6096137 -1.0842022e-19 2.5406687
2 3.2429733 2
-2.4851532 -3.6893488e+19 2.5235374
-2 3.2483373 1.0842022e-19
-2.6037462 1.0842022e-19 2.5215471
-0 3.2274418 -3.6893488e+19
-2.4698679 0 2.501266
-1.0842022e-19 3.2509675 1.0842022e-19
-2.6063001 -2 2.5090487
1.0842022e-19 3.2287884 -3.6893488e+19
-2.4711931 -1.0842022e-19 2.4766095
0 3.2507102 3.6893488e+19
-2.6059346 0 2.4887354
3.6893488e+19 3.235306 -3.6893488e+19
-2.6560068 2 2.4618123
0 3.2496371 0
-2.5580747 -3.6893488e+19 2.4565902
-3.6893488e+19 3.2436242 -0
-2.662966 -1.0842022e-19 2.441242
0 3.2400362 2
-2.5521548 2 2.419837
3.6893488e+19 3.2407024 -0
-2.6605215 -0 2.410356
-1.0842022e-19 3.238265 -3.6893488e+19
-2.5510626 -1.0842022e-19 2.3904767
-3.6893488e+19 3.2433546 2
-2.6627405 -1.0842022e-19 2.3841932
3.6893488e+19 3.2376053 -1.0842022e-19
-2.5506558 3.6893488e+19 2.3621876
-2 3.2426343 -2
-2.6621377 -2 2.355325
3.6893488e+19 3.2341816 3.6893488e+19
-2.5485449 -1.0842022e-19 2.3321078
1.0842022e-19 3.237956 -0
-2.6582239 0 2.3239522
-1.0842022e-19 3.2364881 3.6893488e+19
-2.5499671 -0 2.3060601
2 3.1711111 -2
-2.6023014 -2 2.2554336
-3.6893488e+19 3.1911128 1.0842022e-19
-2.5219889 -3.6893488e+19 2.2524829
0 3.1708915 0
-2.6021178 1.0842022e-19 2.2124047
2 3.242023 -0
-2.5533798 1.0842022e-19 2.253731
-0 3.2657616 0
-2.5115459 1.0842022e-19 2.2579546
1.0842022e-19 3.2377396 -2
-2.5962231 -0 2.1994936
-2 3.2663467 3.6893488e+19
-2.5121217 2 2.206995
0 3.2376747 -1.0842022e-19
-2.5961771 2 2.1440279
3.6893488e+19 3.2514167 -1.0842022e-19
-2.6069376 -1.0842022e-19 2.0991983
-3.6893488e+19 3.202271 0
-2.4450967 -0 2.0361211
-1.0842022e-19 3.1927018 -0
-2.5642531 2 2.0072076
-0 3.2023218 2
-2.4451466 -1.0842022e-19 1.9852619
3.6893488e+19 3.1928015 0
-2.5643239 -0 1.9570574
-3.6893488e+19 3.307024 0
-2.5521538 -3.6893488e+19 2.0003092
-3.6893488e+19 3.3059273 2
-2.6843269 -1.0842022e-19 1.9667456
-0 3.215816 3.6893488e+19
-2.4584267 2 1.8875167
-3.6893488e+19 3.301013 3.6893488e+19
-2.67735 -0 1.8950498
-2 3.1994886 0
-2.4423585 -0 1.7893353
3.6893488e+19 3.2994678 3.6893488e+19
-2.6751561 3.6893488e+19 1.777884
0 3.1902204 0
-2.6182883 -1.0842022e-19 1.6257504
0 3.1936967 2
-2.523582 2 1.3277811
-2 3.1806488 -0
-2.6102808 0 -1.5215901
-2 3.1945841 -2
-2.5241292 0 -1.6752782
-3.6893488e+19 3.1812422 0
-2.6107774 -1.0842022e-19 -1.7599733
-2 3.1899838 -0
-2.5212927 -0 -1.8110601
3.6893488e+19 3.180989 1.0842022e-19
-2.6105654 -0 -1.8581439
-0 3.1910448 1.0842022e-19
-2.5219469 -1.0842022e-19 -1.8930373
3.6893488e+19 3.1766477 3.6893488e+19
-2.6069334 1.0842022e-19 -1.9140296
-3.6893488e+19 3.1958196 -3.6893488e+19
-2.5248909 0 -1.9449319
-1.0842022e-19 3.1374938 -1.0842022e-19
-2.5741773 -0 -1.9431684
-3.6893488e+19 3.0512655 -1.0842022e-19
-2.3715189 1.0842022e-19 -1.9157542
2 2.924686 -3.6893488e+19
-2.2618599 -1.0842022e-19 -1.8908296
1.0842022e-19 2.8906529 2
-2.3268201 -2 -1.89195
2 2.7968364 -2
-2.1160567 0 -1.8554296
1.0842022e-19 2.7647762 2
-2.010576 2 -1.8445925
3.6893488e+19 2.7298918 -0
-2.0906525 2 -1.8392242
-1.0842022e-19 2.6800191 2
-1.9615989 -0 -1.8275515
-3.6893488e+19 2.6519375 -0
-2.0353165 3.6893488e+19 -1.8272712
0 2.6181812 0
-1.9311703 3.6893488e+19 -1.8191932
1.0842022e-19 2.5908527 -3.6893488e+19
-1.9919552 2 -1.8159176
3.6893488e+19 2.5753138 -1.0842022e-19
-1.9100766 -3.6893488e+19 -1.8149475
-2 2.5479727 0
-1.9615169 2 -1.8088673
0 2.5301239 0
-1.8878402 -1.0842022e-19 -1.8043939
2 2.5123603 2
-1.9362372 -3.6893488e+19 -1.8018447
3.6893488e+19 2.4941669 0
-1.8681639 -0 -1.7972121
-3.6893488e+19 2.4768426 -0
-1.9192441 3.6893488e+19 -1.7993152
-2 2.4555638 -3.6893488e+19
-1.8491685 -2 -1.7966632
2 2.4192107 0
-1.8312804 0 -1.7948544
0 2.355674 -3.6893488e+19
-1.8987783 -0 -1.791627
1.0842022e-19 2.3050747 1.0842022e-19
-1.8776127 3.6893488e+19 -1.7855617
0 2.2747016 -0
-1.8548152 2 -1.7855167
0 2.2402382 2
-1.8300666 1.0842022e-19 -1.7825115
-0 2.2043858 0
-1.7235889 -2 -1.7820884
-1.0842022e-19 2.1720295 -3.6893488e+19
-1.7076674 2 -1.7831382
0 2.1363471 3.6893488e+19
-1.6901091 2 -1.7810271
-2 2.1129117 3.6893488e+19
-1.6785774 1.0842022e-19 -1.7821985
2 3.2207861 0
-2.6438596 0 2.6952846
2 3.2731066 2
-2.7069619 -2 2.7501297
1.0842022e-19 3.3015039 -3.6893488e+19
-2.6218126 -3.6893488e+19 2.7690189
-2 3.2821209 1.0842022e-19
-2.7220449 -1.0842022e-19 2.7499149
2 3.2997549 2
-2.6196558 1.0842022e-19 2.7586029
-1.0842022e-19 3.2238598 -2
-2.646431 -1.0842022e-19 2.6557255
1.0842022e-19 3.2245705 2
-2.6470256 3.6893488e+19 2.64224
3.6893488e+19 3.2494473 3.6893488e+19
-2.5579576 -3.6893488e+19 2.6515026
3.6893488e+19 3.2417405 0
-2.6613901 3.6893488e+19 2.6418715
2 3.2497325 -2
-2.5581334 2 2.637095
-2 3.2412546 3.6893488e+19
-2.6609836 1.0842022e-19 2.6269755
-2 3.2506454 -1.0842022e-19
-2.5590944 1.0842022e-19 2.6090558
-2 3.2120097 -3.6893488e+19
-2.4546807 2 2.572834
1.0842022e-19 3.2487085 0
-2.6040096 -1.0842022e-19 2.5940053
0 3.2170854 -0
-2.4596758 -3.6893488e+19 2.5628781
2 3.2476771 2
-2.6032774 -2 2.5788088
-2 3.2238331 2
-2.4663167 1.0842022e-19 2.5537355
-2 3.2479858 -3.6893488e+19
-2.6034966 -1.0842022e-19 2.5645545
-1.0842022e-19 3.2396486 -3.6893488e+19
-2.4818811 1.0842022e-19 2.549783
-1.0842022e-19 3.1911414 -0
-2.5631454 1.0842022e-19 2.5158658
1.0842022e-19 3.2403088 3.6893488e+19
-2.4825308 -0 2.5361102
2 3.1910386 2
-2.5630724 -0 2.5030503
1.0842022e-19 3.2143672 3.6893488e+19
-2.4570007 3.6893488e+19 2.5076647
-0 3.1921024 -3.6893488e+19
-2.5638275 2 2.4818087
-0 3.2274418 -3.6893488e+19
-2.4698679 0 2.501266
-2 3.1927798 -2
-2.5643084 -1.0842022e-19 2.4570374
1.0842022e-19 3.2287884 -3.6893488e+19
-2.4711931 -1.0842022e-19 2.4766095
3.6893488e+19 3.1927946 -0
-2.5643189 1.0842022e-19 2.4315927
3.6893488e+19 3.235306 -3.6893488e+19
-2.6560068 2 2.4618123
0 3.2496371 0
-2.5580747 -3.6893488e+19 2.4565902
-3.6893488e+19 3.2436242 -0
-2.662966 -1.0842022e-19 2.441242
3.6893488e+19 3.2001698 1.0842022e-19
-2.5275733 3.6893488e+19 2.3856816
0 3.1920156 -1.0842022e-19
-2.6197901 3.6893488e+19 2.3696411
-0 3.2049477 -2
-2.5305192 -3.6893488e+19 2.363832
3.6893488e+19 3.1899145 0
-2.6180325 1.0842022e-19 2.3425775
2 3.2013133 2
-2.5282784 1.0842022e-19 2.3352304
1.0842022e-19 3.1898913 -1.0842022e-19
-2.6180129 -2 2.3172827
-0 3.2043607 -1.0842022e-19
-2.5301573 -2 2.3116531
3.6893488e+19 3.1706696 -0
-2.601932 3.6893488e+19 2.2792809
-1.0842022e-19 3.2074201 0
-2.5320439 1.0842022e-19 2.2877729
2 3.1711111 -2
-2.6023014 -2 2.2554336
-3.6893488e+19 3.1911128 1.0842022e-19
-2.5219889 -3.6893488e+19 2.2524829
0 3.1708915 0
-2.6021178 1.0842022e-19 2.2124047
-2 3.1941552 3.6893488e+19
-2.5238647 -3.6893488e+19 2.2080922
-3.6893488e+19 3.1965067 -0
-2.4394238 2 2.1833901
-3.6893488e+19 3.1917517 -3.6893488e+19
-2.5635786 3.6893488e+19 2.1571121
-2 3.2663467 3.6893488e+19
-2.5121217 2 2.206995
0 3.2376747 -1.0842022e-19
-2.5961771 2 2.1440279
-0 3.1891992 0
-2.5617669 0 2.055007
-3.6893488e+19 3.202271 0
-2.4450967 -0 2.0361211
-1.0842022e-19 3.1927018 -0
-2.5642531 2 2.0072076
-0 3.2023218 2
-2.4451466 -1.0842022e-19 1.9852619
3.6893488e+19 3.1928015 0
-2.5643239 -0 1.9570574
1.0842022e-19 3.2233729 2
-2.4658637 -3.6893488e+19 1.9429647
0 3.1929412 -2
-2.5644228 -1.0842022e-19 1.906909
-0 3.215816 3.6893488e+19
-2.4584267 2 1.8875167
-0 3.1978278 2
-2.5678918 2 1.8407958
-2 3.1994886 0
-2.4423585 -0 1.7893353
0 3.1984172 -1.0842022e-19
-2.56831 3.6893488e+19 1.7289255
0 3.1902204 0
-2.6182883 -1.0842022e-19 1.6257504
0 3.1936967 2
-2.523582 2 1.3277811
-2 3.1806488 -0
-2.6102808 0 -1.5215901
-2 3.1945841 -2
-2.5241292 0 -1.6752782
-3.6893488e+19 3.1812422 0
-2.6107774 -1.0842022e-19 -1.7599733
-2 3.1899838 -0
-2.5212927 -0 -1.8110601
3.6893488e+19 3.180989 1.0842022e-19
-2.6105654 -0 -1.8581439
-0 3.1910448 1.0842022e-19
-2.5219469 -1.0842022e-19 -1.8930373
3.6893488e+19 3.1766477 3.6893488e+19
-2.6069334 1.0842022e-19 -1.9140296
-2 3.1588635 2
-2.502104 0 -1.928773
-1.0842022e-19 3.1374938 -1.0842022e-19
-2.5741773 -0 -1.9431684
-3.6893488e+19 3.0512655 -1.0842022e-19
-2.3715189 1.0842022e-19 -1.9157542
2 2.924686 -3.6893488e+19
-2.2618599 -1.0842022e-19 -1.8908296
-2 2.8299646 3.6893488e+19
-2.2760484 1.0842022e-19 -1.8647962
2 2.7968364 -2
-2.1160567 0 -1.8554296
1.0842022e-19 2.7647762 2
-2.010576 2 -1.8445925
3.6893488e+19 2.7298918 -0
-2.0906525 2 -1.8392242
-1.0842022e-19 2.6800191 2
-1.9615989 -0 -1.8275515
-3.6893488e+19 2.6519375 -0
-2.0353165 3.6893488e+19 -1.8272712
0 2.6181812 0
-1.9311703 3.6893488e+19 -1.8191932
1.0842022e-19 2.5908527 -3.6893488e+19
-1.9919552 2 -1.8159176
3.6893488e+19 2.5753138 -1.0842022e-19
-1.9100766 -3.6893488e+19 -1.8149475
-2 2.5479727 0
-1.9615169 2 -1.8088673
0 2.5301239 0
-1.8878402 -1.0842022e-19 -1.8043939
2 2.5123603 2
-1.9362372 -3.6893488e+19 -1.8018447
3.6893488e+19 2.4941669 0
-1.8681639 -0 -1.7972121
-3.6893488e+19 2.4768426 -0
-1.9192441 3.6893488e+19 -1.7993152
-2 2.4555638 -3.6893488e+19
-1.8491685 -2 -1.7966632
2 2.4192107 0
-1.8312804 0 -1.7948544
0 2.355674 -3.6893488e+19
-1.8987783 -0 -1.791627
1.0842022e-19 2.3050747 1.0842022e-19
-1.8776127 3.6893488e+19 -1.7855617
0 2.2747016 -0
-1.8548152 2 -1.7855167
0 2.2402382 2
-1.8300666 1.0842022e-19 -1.7825115
-0 2.2043858 0
-1.7235889 -2 -1.7820884
-1.0842022e-19 2.1720295 -3.6893488e+19
-1.7076674 2 -1.7831382
0 2.1363471 3.6893488e+19
-1.6901091 2 -1.7810271
-2 2.1129117 3.6893488e+19
-1.6785774 1.0842022e-19 -1.7821985
2 3.2674892 0
-2.7034287 0 2.7531397
0 3.2732391 1.0842022e-19
-2.7131755 0 2.7503896
1.0842022e-19 3.3013809 1.0842022e-19
-2.6281426 -3.6893488e+19 2.7690189
0 3.281532 -2
-2.7272329 1.0842022e-19 2.7491469
3.6893488e+19 3.3003874 2
-2.6268961 -2 2.7592542
3.6893488e+19 3.2633095 -3.6893488e+19
-2.6963434 0 2.701148
3.6893488e+19 3.2496371 -3.6893488e+19
-2.5634472 -0 2.6518192
-3.6893488e+19 3.2393682 -2
-2.6647711 -2 2.6401966
-2 3.250128 0
-2.5638359 -1.0842022e-19 2.6376588
-2 3.2426958 1.0842022e-19
-2.6675916 2 2.6282904
-2 3.2504101 3.6893488e+19
-2.5641897 -0 2.6234632
-3.6893488e+19 3.2509079 3.6893488e+19
-2.5648143 -2 2.6095784
-3.6893488e+19 3.2508175 -2
-2.502187 -0 2.6006372
2 3.2510564 0
-2.6118667 -0 2.5965164
-2 3.2519252 0
-2.5033009 0 2.587616
3.6893488e+19 3.2257302 0
-2.4783278 0 2.5550511
-1.0842022e-19 3.2492108 -2
-2.6097751 0 2.5654764
1.0842022e-19 3.2395809 -3.6893488e+19
-2.4922538 3.6893488e+19 2.5498393
3.6893488e+19 3.2532315 -2
-2.6150017 0 2.555377
1.0842022e-19 3.239934 0
-2.492609 -1.0842022e-19 2.5359848
0 3.2532742 2
-2.6150632 -1.0842022e-19 2.5407736
0 3.2399559 3.6893488e+19
-2.492631 -0 2.5219519
-1.0842022e-19 3.2487435 2
-2.6094384 -2 2.5218959
-2 3.2280238 -3.6893488e+19
-2.4806337 2 2.5016544
1.0842022e-19 3.2491369 0
-2.6097219 -0 2.5077255
-0 3.2320786 3.6893488e+19
-2.4847107 1.0842022e-19 2.4800415
-1.0842022e-19 3.2501802 3.6893488e+19
-2.6106038 0 2.4879315
-3.6893488e+19 3.2423561 3.6893488e+19
-2.6673036 3.6893488e+19 2.46878
-0 3.2502687 0
-2.5640123 -1.0842022e-19 2.4575999
-0 3.2443545 3.6893488e+19
-2.6689973 -1.0842022e-19 2.4421389
3.6893488e+19 3.2390072 3.6893488e+19
-2.5567787 2 2.4191265
-1.0842022e-19 3.2421951 1.0842022e-19
-2.6671672 -2 2.4118319
3.6893488e+19 3.2330887 1.0842022e-19
-2.5530658 1.0842022e-19 2.3864949
-2 3.2427168 -2
-2.6676092 0 2.3839087
-1.0842022e-19 3.233963 -2
-2.5536141 -1.0842022e-19 2.3596289
0 3.2377944 2
-2.6634371 0 2.3520286
1.0842022e-19 3.2345071 0
-2.5539556 -3.6893488e+19 2.3324666
3.6893488e+19 3.2378693 -1.0842022e-19
-2.6635005 3.6893488e+19 2.3240736
0 3.2070181 3.6893488e+19
-2.5367103 3.6893488e+19 2.2876372
1.0842022e-19 3.2562466 0
-2.684371 2 2.3110352
0 3.1913333 -3.6893488e+19
-2.5268703 3.6893488e+19 2.2527122
-2 3.1687677 -3.6893488e+19
-2.6049325 0 2.210326
3.6893488e+19 3.2501321 0
-2.5638409 3.6893488e+19 2.2580862
1.0842022e-19 3.2047796 -3.6893488e+19
-2.4572625 -0 2.1915638
-1.0842022e-19 3.2434981 3.6893488e+19
-2.6056581 -2 2.2050142
-0 3.2056096 2
-2.4580972 0 2.1409926
0 3.2412241 0
-2.6040192 0 2.1470821
-3.6893488e+19 3.2062011 1.0842022e-19
-2.4586921 -1.0842022e-19 2.0900843
-0 3.1924038 2
-2.568835 1.0842022e-19 2.0573766
2 3.2049739 -0
-2.457458 2 2.037925
2 3.2894638 0
-2.6672261 -3.6893488e+19 2.0865119
3.6893488e+19 3.2936451 0
-2.5452485 3.6893488e+19 2.0555615
3.6893488e+19 3.3208089 2
-2.7124062 0 2.0501664
2 3.2109129 -0
-2.4634295 3.6893488e+19 1.9379469
2 3.3053226 -3.6893488e+19
-2.6900845 1.0842022e-19 1.9664187
3.6893488e+19 3.212688 2
-2.4652143 -2 1.8866378
-3.6893488e+19 3.30264 -0
-2.686218 3.6893488e+19 1.8959023
2 3.2008302 -1.0842022e-19
-2.4532917 1.0842022e-19 1.7898796
-3.6893488e+19 3.3005111 -0
-2.6831496 3.6893488e+19 1.7784888
-3.6893488e+19 3.1868281 -2
-2.62024 2 1.624701
-0 3.2943392 1.0842022e-19
-2.6193075 1.0842022e-19 1.3845757
-3.6893488e+19 3.1828566 1.0842022e-19
-2.616874 2 -1.522423
0 3.1977062 0
-2.5308685 2 -1.676581
-1.0842022e-19 3.295167 2
-2.7501731 1.0842022e-19 -1.8098692
-2 3.198911 3.6893488e+19
-2.5316243 3.6893488e+19 -1.8149127
3.6893488e+19 3.180537 -2
-2.6149077 0 -1.8580282
3.6893488e+19 3.1923773 2
-2.5275254 0 -1.8935281
1.0842022e-19 3.1795294 -2
-2.6140537 -1.0842022e-19 -1.9152287
-0 3.1995263 -0
-2.5320103 -0 -1.9466327
1.0842022e-19 3.1371882 0
-2.578167 0 -1.9431227
-2 3.0499084 -3.6893488e+19
-2.3762951 -1.0842022e-19 -1.9150748
1.0842022e-19 2.9395659 3.6893488e+19
-2.2757616 -2 -1.8958234
1.0842022e-19 2.8288052 -3.6893488e+19
-2.2786834 -3.6893488e+19 -1.8640854
2 2.7972703 0
-2.1229851 0 -1.8558607
3.6893488e+19 2.7658045 -0
-2.0172558 2 -1.8455173
1.0842022e-19 2.7297895 -3.6893488e+19
-2.0957782 3.6893488e+19 -1.8392791
0 2.679879 -0
-1.966113 -0 -1.8275515
0 2.6486795 -3.6893488e+19
-2.0373232 1.0842022e-19 -1.8257258
-3.6893488e+19 2.6176896 2
-1.9348487 1.0842022e-19 -1.8189974
0 2.5908155 2
-1.9956216 2 -1.8159864
-0 2.5748365 -0
-1.913305 -1.0842022e-19 -1.8147308
-2 2.5474648 -3.6893488e+19
-1.9643793 -0 -1.8086401
3.6893488e+19 2.5297852 -2
-1.8906564 -2 -1.8042355
1.0842022e-19 2.5124824 2
-1.9391679 -3.6893488e+19 -1.8020101
-0 2.4942527 2
-1.8734757 1.0842022e-19 -1.7972983
-0 2.4763739 -1.0842022e-19
-1.9216584 -1.0842022e-19 -1.7992256
-0 2.4549212 -1.0842022e-19
-1.8537025 -3.6893488e+19 -1.796477
-0 3.2204962 -0
-2.6487758 -3.6893488e+19 2.6952562
0 3.2732391 1.0842022e-19
-2.7131755 0 2.7503896
1.0842022e-19 3.3013809 1.0842022e-19
-2.6281426 -3.6893488e+19 2.7690189
0 3.281532 -2
-2.7272329 1.0842022e-19 2.7491469
3.6893488e+19 3.3003874 2
-2.6268961 -2 2.7592542
-2 3.222461 3.6893488e+19
-2.6504412 1.0842022e-19 2.6547515
3.6893488e+19 3.2496371 -3.6893488e+19
-2.5634472 -0 2.6518192
-3.6893488e+19 3.2393682 -2
-2.6647711 -2 2.6401966
-2 3.250128 0
-2.5638359 -1.0842022e-19 2.6376588
-2 3.2426958 1.0842022e-19
-2.6675916 2 2.6282904
-2 3.2504101 3.6893488e+19
-2.5641897 -0 2.6234632
-3.6893488e+19 3.2509079 3.6893488e+19
-2.5648143 -2 2.6095784
-1.0842022e-19 3.2134781 -1.0842022e-19
-2.4660087 1.0842022e-19 2.5739658
2 3.2510564 0
-2.6118667 -0 2.5965164
1.0842022e-19 3.2170858 -2
-2.469636 -2 2.5629807
3.6893488e+19 3.2257302 0
-2.4783278 0 2.5550511
-1.0842022e-19 3.2492108 -2
-2.6097751 0 2.5654764
1.0842022e-19 3.2395809 -3.6893488e+19
-2.4922538 3.6893488e+19 2.5498393
3.6893488e+19 3.2532315 -2
-2.6150017 0 2.555377
1.0842022e-19 3.239934 0
-2.492609 -1.0842022e-19 2.5359848
1.0842022e-19 3.1909535 0
-2.5677898 -2 2.5031202
0 3.2399559 3.6893488e+19
-2.492631 -0 2.5219519
3.6893488e+19 3.1918645 0
-2.5684464 -2 2.4817753
-2 3.2280238 -3.6893488e+19
-2.4806337 2 2.5016544
1.0842022e-19 3.1927247 0
-2.5690663 3.6893488e+19 2.457195
-0 3.2320786 3.6893488e+19
-2.4847107 1.0842022e-19 2.4800415
0 3.1921899 3.6893488e+19
-2.5686808 -0 2.4312055
-3.6893488e+19 3.2423561 3.6893488e+19
-2.6673036 3.6893488e+19 2.46878
-0 3.2502687 0
-2.5640123 -1.0842022e-19 2.4575999
-0 3.2443545 3.6893488e+19
-2.6689973 -1.0842022e-19 2.4421389
-1.0842022e-19 3.2013676 -1.0842022e-19
-2.5331655 -3.6893488e+19 2.3868656
2 3.1886997 -2
-2.6218262 -0 2.3670709
-1.0842022e-19 3.2054994 -1.0842022e-19
-2.5357575 2 2.3644221
-0 3.1921365 -0
-2.6247392 3.6893488e+19 2.3444982
-2 3.202328 -1.0842022e-19
-2.5337679 1.0842022e-19 2.3361213
2 3.1916277 -1.0842022e-19
-2.6243079 3.6893488e+19 2.3187113
-2 3.203037 3.6893488e+19
-2.5342128 -3.6893488e+19 2.3108721
3.6893488e+19 3.1922543 1.0842022e-19
-2.6248391 -1.0842022e-19 2.2937732
0 3.2070181 3.6893488e+19
-2.5367103 3.6893488e+19 2.2876372
1.0842022e-19 3.1690493 2
-2.6051712 3.6893488e+19 2.2543235
0 3.1913333 -3.6893488e+19
-2.5268703 3.6893488e+19 2.2527122
-2 3.1687677 -3.6893488e+19
-2.6049325 0 2.210326
2 3.1927109 -3.6893488e+19
-2.5277345 0 2.206789
1.0842022e-19 3.2047796 -3.6893488e+19
-2.4572625 -0 2.1915638
0 3.1926193 3.6893488e+19
-2.5689902 3.6893488e+19 2.158103
-0 3.2056096 2
-2.4580972 0 2.1409926
0 3.2412241 0
-2.6040192 0 2.1470821
-3.6893488e+19 3.2062011 1.0842022e-19
-2.4586921 -1.0842022e-19 2.0900843
-0 3.1924038 2
-2.568835 1.0842022e-19 2.0573766
2 3.2049739 -0
-2.457458 2 2.037925
2 3.1946456 -2
-2.5704505 -1.0842022e-19 2.0084581
3.6893488e+19 3.2936451 0
-2.5452485 3.6893488e+19 2.0555615
3.6893488e+19 3.3208089 2
-2.7124062 0 2.0501664
2 3.2109129 -0
-2.4634295 3.6893488e+19 1.9379469
2 3.3053226 -3.6893488e+19
-2.6900845 1.0842022e-19 1.9664187
3.6893488e+19 3.212688 2
-2.4652143 -2 1.8866378
-3.6893488e+19 3.30264 -0
-2.686218 3.6893488e+19 1.8959023
2 3.2008302 -1.0842022e-19
-2.4532917 1.0842022e-19 1.7898796
-3.6893488e+19 3.3005111 -0
-2.6831496 3.6893488e+19 1.7784888
-3.6893488e+19 3.1868281 -2
-2.62024 2 1.624701
-0 3.1966028 -3.6893488e+19
-2.5301762 0 1.3291926
-3.6893488e+19 3.1828566 1.0842022e-19
-2.616874 2 -1.522423
0 3.1977062 0
-2.5308685 2 -1.676581
1.0842022e-19 3.1820436 2
-2.6161847 0 -1.7602988
-2 3.198911 3.6893488e+19
-2.5316243 3.6893488e+19 -1.8149127
3.6893488e+19 3.180537 -2
-2.6149077 0 -1.8580282
3.6893488e+19 3.1923773 2
-2.5275254 0 -1.8935281
1.0842022e-19 3.1795294 -2
-2.6140537 -1.0842022e-19 -1.9152287
2 3.1585116 -0
-2.5062797 -0 -1.928692
1.0842022e-19 3.1371882 0
-2.578167 0 -1.9431227
-2 3.0499084 -3.6893488e+19
-2.3762951 -1.0842022e-19 -1.9150748
1.0842022e-19 2.9395659 3.6893488e+19
-2.2757616 -2 -1.8958234
1.0842022e-19 2.8288052 -3.6893488e+19
-2.2786834 -3.6893488e+19 -1.8640854
2 2.7972703 0
-2.1229851 0 -1.8558607
3.6893488e+19 2.7658045 -0
-2.0172558 2 -1.8455173
1.0842022e-19 2.7297895 -3.6893488e+19
-2.0957782 3.6893488e+19 -1.8392791
0 2.679879 -0
-1.966113 -0 -1.8275515
0 2.6486795 -3.6893488e+19
-2.0373232 1.0842022e-19 -1.8257258
-3.6893488e+19 2.6176896 2
-1.9348487 1.0842022e-19 -1.8189974
0 2.5908155 2
-1.9956216 2 -1.8159864
-0 2.5748365 -0
-1.913305 -1.0842022e-19 -1.8147308
-2 2.5474648 -3.6893488e+19
-1.9643793 -0 -1.8086401
3.6893488e+19 2.5297852 -2
-1.8906564 -2 -1.8042355
1.0842022e-19 2.5124824 2
-1.9391679 -3.6893488e+19 -1.8020101
-0 2.4942527 2
-1.8734757 1.0842022e-19 -1.7972983
-0 2.4763739 -1.0842022e-19
-1.9216584 -1.0842022e-19 -1.7992256
-0 2.4549212 -1.0842022e-19
-1.8537025 -3.6893488e+19 -1.796477
1.0842022e-19 3.2675924 -1.0842022e-19
-2.7094812 -2 2.7533791
0 3.2754564 -3.6893488e+19
-2.7229843 2 2.7525628
3.6893488e+19 3.3009694 -3.6893488e+19
-2.6341076 -1.0842022e-19 2.7687633
3.6893488e+19 3.2815535 -3.6893488e+19
-2.7334538 2 2.7494648
3.6893488e+19 3.3004286 -0
-2.6334176 -3.6893488e+19 2.7593975
-2 3.2632217 -3.6893488e+19
-2.7019765 0 2.7012506
1.0842022e-19 3.2562778 3.6893488e+19
-2.690053 -3.6893488e+19 2.6741068
0 3.2923632 1.0842022e-19
-2.6231241 3.6893488e+19 2.7204452
-3.6893488e+19 3.252809 -1.0842022e-19
-2.6840971 -0 2.6533794
-3.6893488e+19 3.2923515 -3.6893488e+19
-2.6231093 -0 2.7032869
3.6893488e+19 3.2924159 -2
-2.6231914 3.6893488e+19 2.6862919
3.6893488e+19 3.2507734 1.0842022e-19
-2.5700459 1.0842022e-19 2.609535
1.0842022e-19 3.2132626 3.6893488e+19
-2.4756818 0 2.5739231
2 3.257786 -1.0842022e-19
-2.6271608 -0 2.6059744
0 3.2154624 -1.0842022e-19
-2.4779406 -0 2.5619969
3.6893488e+19 3.2584338 1.0842022e-19
-2.6281087 2 2.5918112
0 3.2510357 1.0842022e-19
-2.6172845 2 2.5674353
-2 3.2546463 1.0842022e-19
-2.6225674 -1.0842022e-19 2.5572295
-1.0842022e-19 3.2394331 2
-2.501277 2 2.5357878
0 3.2532144 -3.6893488e+19
-2.620472 -3.6893488e+19 2.5408435
-0 3.2392397 -3.6893488e+19
-2.5011775 2 2.5216451
0 3.2502432 -3.6893488e+19
-2.6161249 1.0842022e-19 2.5229762
-0 3.2305384 2
-2.4934208 -0 2.5030625
1.0842022e-19 3.2425561 -0
-2.6103237 0 2.5044489
0 3.2317026 -1.0842022e-19
-2.494616 -0 2.4798269
-3.6893488e+19 3.246551 -3.6893488e+19
-2.6132462 1.0842022e-19 2.4844475
-1.0842022e-19 3.2422929 -0
-2.6726565 2 2.4689825
-1.0842022e-19 3.2505634 1.0842022e-19
-2.569778 2 2.4583292
0 3.2424984 1.0842022e-19
-2.672833 -0 2.4407256
2 3.2305183 -3.6893488e+19
-2.556627 0 2.4120219
2 3.2414334 1.0842022e-19
-2.6719186 2 2.4114249
-1.0842022e-19 3.2322738 -1.0842022e-19
-2.5577474 2 2.3860033
-2 3.1880565 -3.6893488e+19
-2.626092 -0 2.3415103
-2 3.2363126 3.6893488e+19
-2.5603247 -1.0842022e-19 2.3615251
-0 3.2373385 -3.6893488e+19
-2.6684029 -3.6893488e+19 2.3518965
2 3.2341213 1.0842022e-19
-2.5589263 -0 2.33234
-0 3.2387533 3.6893488e+19
-2.6696177 3.6893488e+19 2.3248427
3.6893488e+19 3.2504125 0
-2.5695853 -0 2.3153393
1.0842022e-19 3.1916978 0
-2.6292183 2 2.2682192
-3.6893488e+19 3.186717 -3.6893488e+19
-2.5286767 -2 2.2501729
3.6893488e+19 3.1689601 -0
-2.6096969 -2 2.2107952
-1.0842022e-19 3.2501359 -3.6893488e+19
-2.5692322 0 2.2581975
3.6893488e+19 3.2520657 1.0842022e-19
-2.5088232 -3.6893488e+19 2.2396448
-2 3.1952624 1.0842022e-19
-2.5757267 -1.0842022e-19 2.1607358
0 3.2515309 -2
-2.5082738 3.6893488e+19 2.1818588
1.0842022e-19 3.2783463 -0
-2.6572421 -2 2.2002182
-1.0842022e-19 3.2065134 0
-2.4687519 2 2.0904307
-1.0842022e-19 3.2791576 0
-2.6584294 -3.6893488e+19 2.1380954
0 3.2531178 1.0842022e-19
-2.5099034 1.0842022e-19 2.0704722
2 3.2898173 -0
-2.6740251 -2 2.0870836
