# .PCD v0.7 - Point Cloud Data file format
VERSION 0.7
FIELDS x y z
SIZE 4 4 4
TYPE F F F
COUNT 1 1 1
WIDTH 1731
HEIGHT 1
VIEWPOINT 0 0 0 1 0 0 0
POINTS 1731
DATA ascii
3.1019094 -2 2.2620716
-0 3.1052902 3.6893488e+19
3.1275454 -1.0842022e-19 2.2584376
2 3.1864917 0
3.1669669 -2 2.2840235
3.6893488e+19 3.0997479 1.0842022e-19
3.1216559 -3.6893488e+19 2.2016983
1.0842022e-19 3.1037962 0
3.0879705 0 2.1556823
-1.0842022e-19 3.0987833 -3.6893488e+19
3.1206307 -3.6893488e+19 2.1435287
-2 3.1033058 -0
3.087502 3.6893488e+19 2.1005003
-0 3.101995 -1.0842022e-19
3.1240437 1.0842022e-19 2.0897434
2 3.1023014 -0
3.0865424 1.0842022e-19 2.0450628
3.6893488e+19 3.1033721 3.6893488e+19
3.1255071 -0 2.033483
0 3.0991108 -3.6893488e+19
3.0834944 2 1.9884816
2 3.0858722 3.6893488e+19
3.1069109 -2 1.9647223
-3.6893488e+19 3.0967827 -1.0842022e-19
3.0812707 3.6893488e+19 1.9333545
0 3.0835729 1.0842022e-19
3.1044676 -2 1.9089364
0 3.0952959 -1.0842022e-19
3.0798502 0 1.8792892
-3.6893488e+19 3.0849183 -0
3.1058974 -2 1.8350948
-0 3.0962319 -0
3.0807445 -2 1.7774364
1.0842022e-19 3.0983477 -3.6893488e+19
3.0629876 2 1.6937128
3.6893488e+19 3.0926547 3.6893488e+19
3.0925286 -0 1.5595968
3.6893488e+19 3.0988197 0
3.063412 -2 -1.2442255
1.0842022e-19 3.0985987 -3.6893488e+19
3.0984702 -2 -1.6259881
-3.6893488e+19 3.1030869 -2
3.067246 1.0842022e-19 -1.7272102
0 3.0945363 0
3.0944095 -3.6893488e+19 -1.7959498
3.6893488e+19 3.1043849 -1.0842022e-19
3.0684121 -1.0842022e-19 -1.8453233
-2 3.1013296 3.6893488e+19
3.1012003 3.6893488e+19 -1.8925744
-3.6893488e+19 3.1073849 -3.6893488e+19
3.0711076 2 -1.9146949
-1.0842022e-19 3.1004155 -0
3.1002865 1.0842022e-19 -1.9474981
0 3.111552 0
3.0748518 3.6893488e+19 -1.9708675
-1.0842022e-19 3.1032619 1.0842022e-19
3.103132 -3.6893488e+19 -2.0048544
3.6893488e+19 3.0608516 1.0842022e-19
3.0292978 1.0842022e-19 -1.9865584
-1.0842022e-19 3.0340946 0
3.0339901 -2 -1.9998199
-1.0842022e-19 2.7146628 0
2.6938779 -2 -1.8858237
2 2.630604 -2
2.6544447 3.6893488e+19 -1.8751509
-3.6893488e+19 2.6385105 -1.0842022e-19
2.6211319 -2 -1.878595
-2 2.5803461 0
2.6010389 1.0842022e-19 -1.8692316
-0 2.5755699 0
2.5610068 -2 -1.865732
2 2.5376365 -0
2.5556538 -3.6893488e+19 -1.8611646
0 2.5371003 1.0842022e-19
2.5242579 -0 -1.8595413
1.0842022e-19 2.5005062 2
2.5161977 2 -1.8511772
1.0842022e-19 2.5018094 -2
2.481091 -0 -1.8502462
3.6893488e+19 2.4416599 0
2.4693253 1.0842022e-19 -1.8424693
-2 2.4512794 1.0842022e-19
2.4310932 3.6893488e+19 -1.8443654
-2 2.3944693 1.0842022e-19
2.4191787 -2 -1.8354089
-3.6893488e+19 2.3982623 0
2.3804476 1.0842022e-19 -1.8340788
3.6893488e+19 2.3578908 -0
2.3803089 -3.6893488e+19 -1.8305926
0 2.3648984 -3.6893488e+19
2.3485758 -2 -1.8307725
1.0842022e-19 2.3609974 1.0842022e-19
2.3243535 3.6893488e+19 -1.8297304
2 2.3253472 0
2.3252275 2 -1.8255516
-1.0842022e-19 2.2815299 2
2.2529526 -0 -1.8167518
0 2.240931 3.6893488e+19
2.1910977 -2 -1.8109208
-2 2.0684781 0
2.0884275 -2 -1.7958174
3.6893488e+19 2.0474641 -2
2.066097 3.6893488e+19 -1.7970915
3.6893488e+19 2.0275092 0
2.0448923 -1.0842022e-19 -1.7973154
-2 3.2321503 -1.0842022e-19
3.2083352 -0 2.707552
3.6893488e+19 3.2378683 -1.0842022e-19
3.2137706 -2 2.6744187
1.0842022e-19 3.1864293 1.0842022e-19
3.1648724 -0 2.5782063
1.0842022e-19 3.1843157 0
3.1628633 -0 2.54264
1.0842022e-19 3.1923745 -1.0842022e-19
3.1455207 -2 2.5314
-3.6893488e+19 3.1666484 -0
3.1644647 0 2.5203803
1.0842022e-19 3.1985869 -3.6893488e+19
3.1510751 -3.6893488e+19 2.5183489
-0 3.1699901 -1.0842022e-19
3.1677887 2 2.5058262
1.0842022e-19 3.1970248 -2
3.1496785 -3.6893488e+19 2.5004971
-0 3.1650057 1.0842022e-19
3.1628306 2 2.4725754
-0 3.2003071 0
3.1526134 -0 2.4706464
0 3.1653538 1.0842022e-19
3.1631768 0 2.4399922
-1.0842022e-19 3.1974697 -1.0842022e-19
3.1500764 -3.6893488e+19 2.4339075
-0 3.1668293 0
3.1646447 1.0842022e-19 2.4084954
-0 3.199389 -3.6893488e+19
3.1517923 2 2.4019001
3.6893488e+19 3.1681538 -3.6893488e+19
3.165962 3.6893488e+19 2.3766749
0 3.205493 -3.6893488e+19
3.1572497 1.0842022e-19 2.3730633
0 3.1716688 2
3.1694586 0 2.3464751
2 3.2046783 0
3.1565216 -3.6893488e+19 2.3382049
-3.6893488e+19 3.1697943 3.6893488e+19
3.1675942 3.6893488e+19 2.3117509
2 3.098454 -3.6893488e+19
3.1184726 -0 2.2528093
3.6893488e+19 3.186537 0
3.1649749 -0 2.2833924
-3.6893488e+19 3.1483779 3.6893488e+19
3.1712649 2 2.2565866
0 3.1798067 0
3.158577 2 2.2416937
0 3.1488652 -2
3.1717799 -3.6893488e+19 2.1988714
1.0842022e-19 3.179318 3.6893488e+19
3.1581123 2 2.1749182
2 3.1474452 -3.6893488e+19
3.1702783 3.6893488e+19 2.1326191
2 3.1781063 -0
3.1569605 1.0842022e-19 2.1077178
0 3.147121 -0
3.1699355 1.0842022e-19 2.0677552
-0 3.1873322 3.6893488e+19
3.1657307 3.6893488e+19 2.0480518
-3.6893488e+19 3.0875373 0
3.1069291 -1.0842022e-19 1.9652287
-1.0842022e-19 3.1787887 -0
3.1576092 -1.0842022e-19 1.9761862
-0 3.0848887 3.6893488e+19
3.1041281 -3.6893488e+19 1.9091506
-2 3.0981388 1.0842022e-19
3.0809431 -3.6893488e+19 1.8800504
-2 3.0851429 -3.6893488e+19
3.1043968 1.0842022e-19 1.8346919
-0 3.0950687 -3.6893488e+19
3.0780244 -0 1.7765709
-1.0842022e-19 3.1212656 1.0842022e-19
3.0819435 3.6893488e+19 1.7060057
-0 3.0923164 2
3.0905223 0 1.5589658
1.0842022e-19 3.1236031 3.6893488e+19
3.0840333 -1.0842022e-19 -1.2555026
2 3.1002688 0
3.098433 -3.6893488e+19 -1.6262836
-2 3.112597 2
3.074193 -0 -1.7328193
2 3.1193249 2
3.1173892 -2 -1.8078034
0 3.1049523 -0
3.0673578 -2 -1.8451933
0 3.1122215 0
3.110323 2 -1.8966367
-2 3.108285 -3.6893488e+19
3.0703375 3.6893488e+19 -1.9147484
-1.0842022e-19 3.099875 1.0842022e-19
3.0980413 2 -1.9467136
2 3.113672 2
3.0751541 -1.0842022e-19 -1.9716766
-3.6893488e+19 3.1154392 1.0842022e-19
3.113524 2 -2.0129981
-3.6893488e+19 3.1140101 -1.0842022e-19
3.0754564 -1.0842022e-19 -2.026406
1.0842022e-19 3.0346992 -0
3.0332069 1.0842022e-19 -1.9997423
1.0842022e-19 2.6305308 1.0842022e-19
2.6523924 1.0842022e-19 -1.8436369
-3.6893488e+19 2.717103 0
2.6940312 -0 -1.8862195
2 2.6306479 -0
2.6525161 -0 -1.8746831
0 2.6372459 3.6893488e+19
2.6181183 2 -1.8778783
1.0842022e-19 2.5805173 -2
2.5995054 3.6893488e+19 -1.8687259
0 2.5764194 0
2.5602963 1.0842022e-19 -1.8657987
2 2.5386395 -2
2.5552218 -0 -1.8613751
1.0842022e-19 2.5378599 -1.0842022e-19
2.5236413 2 -1.859615
1.0842022e-19 2.5011559 -0
2.5155847 2 -1.8511772
-2 2.5025768 -2
2.4802024 -1.0842022e-19 -1.8504074
-1.0842022e-19 2.4429765 -2
2.4684255 2 -1.8425534
2 2.4521511 1.0842022e-19
2.4298177 1.0842022e-19 -1.8442779
3.6893488e+19 2.397032 -0
2.4198415 -1.0842022e-19 -1.836228
0 2.4009948 0
2.3811882 -0 -1.8350235
-0 2.3591609 1.0842022e-19
2.3797948 0 -1.8307886
2 2.3659294 -3.6893488e+19
2.3478546 -1.0842022e-19 -1.830874
-1.0842022e-19 2.3621595 3.6893488e+19
2.3238018 0 -1.8299402
3.6893488e+19 2.3259647 -0
2.3242562 3.6893488e+19 -1.8254433
-2 3.2321503 -1.0842022e-19
3.2083352 -0 2.707552
3.6893488e+19 3.2378683 -1.0842022e-19
3.2137706 -2 2.6744187
-0 3.1740861 -1.0842022e-19
3.1531389 -1.0842022e-19 2.568924
0 3.1670268 -1.0842022e-19
3.1464281 1.0842022e-19 2.5309908
1.0842022e-19 3.1923745 -1.0842022e-19
3.1455207 -2 2.5314
1.0842022e-19 3.1527603 0
3.1506493 1.0842022e-19 2.5113676
1.0842022e-19 3.1985869 -3.6893488e+19
3.1510751 -3.6893488e+19 2.5183489
3.6893488e+19 3.1537561 3.6893488e+19
3.1516399 -1.0842022e-19 2.4918754
1.0842022e-19 3.1970248 -2
3.1496785 -3.6893488e+19 2.5004971
-3.6893488e+19 3.1501706 -1.0842022e-19
3.1480732 1.0842022e-19 2.4556825
1.0842022e-19 3.1113865 3.6893488e+19
3.0731106 3.6893488e+19 2.3777094
0 3.1653538 1.0842022e-19
3.1631768 0 2.4399922
0 3.1141522 -1.0842022e-19
3.0755832 -3.6893488e+19 2.3531151
0 3.1020041 -1.0842022e-19
3.1001589 0 2.3449662
2 3.1146512 2
3.0760295 -0 2.3261168
0 3.1022086 2
3.1003625 -3.6893488e+19 2.317271
-2 3.1135998 -1.0842022e-19
3.0750895 -3.6893488e+19 2.2977998
-3.6893488e+19 3.104495 -2
3.1026371 -3.6893488e+19 2.29128
-3.6893488e+19 3.1149464 -1.0842022e-19
3.0762935 -2 2.2714593
-2 3.1045558 2
3.1026976 1.0842022e-19 2.263303
2 3.098454 -3.6893488e+19
3.1184726 -0 2.2528093
-0 3.1083732 -0
3.0906718 -3.6893488e+19 2.2152996
-0 3.0983396 -0
3.1183517 -3.6893488e+19 2.1987157
3.6893488e+19 3.105865 1.0842022e-19
3.0882876 2 2.1571054
-1.0842022e-19 3.1002455 0
3.1203673 0 2.1441565
0 3.1006904 -2
3.0833683 -3.6893488e+19 2.0970962
-0 3.1020713 -2
3.1222978 -2 2.0889378
-0 3.0987091 -1.0842022e-19
3.081485 2 2.0413749
1.0842022e-19 3.087615 -3.6893488e+19
3.1070108 -1.0842022e-19 2.0201416
0 3.0982041 -2
3.0810049 -3.6893488e+19 1.987309
-3.6893488e+19 3.0875373 0
3.1069291 -1.0842022e-19 1.9652287
-2 3.1006706 -1.0842022e-19
3.0833497 -2 1.9349788
-0 3.0848887 3.6893488e+19
3.1041281 -3.6893488e+19 1.9091506
-2 3.0981388 1.0842022e-19
3.0809431 -3.6893488e+19 1.8800504
-2 3.0851429 -3.6893488e+19
3.1043968 1.0842022e-19 1.8346919
-0 3.0950687 -3.6893488e+19
3.0780244 -0 1.7765709
2 3.1000199 -3.6893488e+19
3.0629478 1.0842022e-19 1.694217
-0 3.0923164 2
3.0905223 0 1.5589658
-0 3.1016579 -0
3.0644124 -0 -1.245674
2 3.1002688 0
3.098433 -3.6893488e+19 -1.6262836
-2 3.112597 2
3.074193 -0 -1.7328193
2 3.1193249 2
3.1173892 -2 -1.8078034
0 3.1049523 -0
3.0673578 -2 -1.8451933
0 3.1013451 1.0842022e-19
3.0995035 -2 -1.8922336
-2 3.108285 -3.6893488e+19
3.0703375 3.6893488e+19 -1.9147484
-1.0842022e-19 3.099875 1.0842022e-19
3.0980413 2 -1.9467136
2 3.113672 2
3.0751541 -1.0842022e-19 -1.9716766
-1.0842022e-19 3.0440254 0
3.0424845 2 -1.9616033
2 3.0611839 2
3.0282252 -0 -1.9862932
1.0842022e-19 3.0346992 -0
3.0332069 1.0842022e-19 -1.9997423
1.0842022e-19 2.6305308 1.0842022e-19
2.6523924 1.0842022e-19 -1.8436369
-3.6893488e+19 2.717103 0
2.6940312 -0 -1.8862195
2 2.6306479 -0
2.6525161 -0 -1.8746831
0 2.6372459 3.6893488e+19
2.6181183 2 -1.8778783
1.0842022e-19 2.5805173 -2
2.5995054 3.6893488e+19 -1.8687259
0 2.5764194 0
2.5602963 1.0842022e-19 -1.8657987
2 2.5386395 -2
2.5552218 -0 -1.8613751
1.0842022e-19 2.5378599 -1.0842022e-19
2.5236413 2 -1.859615
1.0842022e-19 2.5011559 -0
2.5155847 2 -1.8511772
-2 2.5025768 -2
2.4802024 -1.0842022e-19 -1.8504074
-1.0842022e-19 2.4429765 -2
2.4684255 2 -1.8425534
2 2.4521511 1.0842022e-19
2.4298177 1.0842022e-19 -1.8442779
3.6893488e+19 2.397032 -0
2.4198415 -1.0842022e-19 -1.836228
0 2.4009948 0
2.3811882 -0 -1.8350235
-0 2.3591609 1.0842022e-19
2.3797948 0 -1.8307886
2 2.3659294 -3.6893488e+19
2.3478546 -1.0842022e-19 -1.830874
-1.0842022e-19 2.3621595 3.6893488e+19
2.3238018 0 -1.8299402
3.6893488e+19 2.3259647 -0
2.3242562 3.6893488e+19 -1.8254433
-2 3.2331758 1.0842022e-19
3.2069404 -0 2.7074037
-2 3.2392662 1.0842022e-19
3.2127001 3.6893488e+19 2.6745939
-2 3.200613 2
3.2240427 -0 2.634393
2 3.1903319 0
3.1664228 -3.6893488e+19 2.5975595
1.0842022e-19 3.198761 -1.0842022e-19
3.2220941 3.6893488e+19 2.6142752
-0 3.1880391 3.6893488e+19
3.1642544 -0 2.5786114
0 3.1890302 2
3.1651917 -3.6893488e+19 2.5622067
3.6893488e+19 3.1502023 1.0842022e-19
3.1710107 -1.0842022e-19 2.5418928
-3.6893488e+19 3.1856508 -1.0842022e-19
3.1619959 1.0842022e-19 2.5428219
1.0842022e-19 3.1698139 0
3.165462 2 2.5217371
0 3.2068849 -3.6893488e+19
3.1563759 -3.6893488e+19 2.5226841
1.0842022e-19 3.1691244 0
3.1647797 -3.6893488e+19 2.5046453
0 3.2033505 -1.0842022e-19
3.1532323 3.6893488e+19 2.5034575
1.0842022e-19 3.1678164 -3.6893488e+19
3.1634851 2 2.4745584
0 3.2011364 3.6893488e+19
3.151263 -1.0842022e-19 2.4704282
-3.6893488e+19 3.1678789 -2
3.163547 3.6893488e+19 2.4415343
0 3.2068269 -2
3.1563244 -2 2.441962
0 3.1984706 -0
3.1488919 1.0842022e-19 2.400156
2 3.1705773 -3.6893488e+19
3.1662173 3.6893488e+19 2.3778884
2 3.2062404 -3.6893488e+19
3.1558027 -2 2.3728158
-2 3.1722188 0
3.1678421 3.6893488e+19 2.3460393
3.6893488e+19 3.2061925 2
3.1557603 0 2.3385508
2 3.1709602 2
3.1665964 -3.6893488e+19 2.3118165
2 3.1628172 1.0842022e-19
3.1842816 3.6893488e+19 2.2986913
0 3.187494 1.0842022e-19
3.163739 -1.0842022e-19 2.283319
-0 3.1509049 3.6893488e+19
3.1717498 -1.0842022e-19 2.2575116
-3.6893488e+19 3.1804521 -2
3.1570795 -2 2.2412279
-3.6893488e+19 3.1521034 2
3.1730108 -3.6893488e+19 2.2012849
0 3.178556 -1.0842022e-19
3.1552861 -2 2.1731265
-0 3.1494112 -2
3.1701784 0 2.133466
0 3.1786568 -2
3.1553814 1.0842022e-19 2.1073017
1.0842022e-19 3.1014464 1.0842022e-19
3.1197197 3.6893488e+19 2.0304439
-1.0842022e-19 3.1837747 -2
3.1602216 0 2.0449045
-2 3.0889745 -3.6893488e+19
3.1065993 0 1.9655572
-1.0842022e-19 3.1818147 1.0842022e-19
3.1583681 -0 1.9772253
3.6893488e+19 3.1067252 -0
3.125273 0 1.919067
2 3.1004 2
3.0813739 -1.0842022e-19 1.8805749
-3.6893488e+19 3.0878007 0
3.1053648 -2 1.8357799
-3.6893488e+19 3.0966184 1.0842022e-19
3.0777979 -0 1.7768793
-3.6893488e+19 3.1235693 -1.0842022e-19
3.0822711 1.0842022e-19 1.7068071
2 3.0944164 2
3.0908461 2 1.5596206
-2 3.1223395 -2
3.0811772 -2 -1.2547621
-1.0842022e-19 3.0965252 -3.6893488e+19
3.0929329 -3.6893488e+19 -1.6242286
3.6893488e+19 3.1219323 2
3.0808151 -2 -1.738264
3.6893488e+19 3.1128986 -2
3.1091366 -3.6893488e+19 -1.8041629
3.6893488e+19 3.1227677 -3.6893488e+19
3.081558 1.0842022e-19 -1.8557131
1.0842022e-19 3.111685 2
3.1079357 3.6893488e+19 -1.8960449
-2 3.1063564 -2
3.0669611 2 -1.9134847
-2 3.1009281 -1.0842022e-19
3.0972903 -0 -1.9468007
-1.0842022e-19 3.1050341 -2
3.0657849 0 -1.9659137
3.6893488e+19 3.1150005 3.6893488e+19
3.1112168 0 -2.0120101
-2 3.0611312 -2
3.0267355 -1.0842022e-19 -1.9857098
0 3.0352077 3.6893488e+19
3.0322511 0 -1.9995481
1.0842022e-19 2.6324289 -2
2.652313 -0 -1.8441297
-1.0842022e-19 2.7144392 1.0842022e-19
2.6892211 0 -1.8851115
0 2.6319442 -3.6893488e+19
2.651803 1.0842022e-19 -1.8748519
0 2.6392832 -2
2.6181457 -0 -1.8782367
-2 2.5815046 -3.6893488e+19
2.5987411 -1.0842022e-19 -1.8687891
2 2.5768571 1.0842022e-19
2.5591094 -1.0842022e-19 -1.8655319
1.0842022e-19 2.5390832 -2
2.5541139 3.6893488e+19 -1.8610945
-3.6893488e+19 2.5397429 1.0842022e-19
2.5240107 -2 -1.8605722
-0 2.5018408 2
2.5149353 2 -1.8511772
1.0842022e-19 2.5034678 -0
2.4794099 -2 -1.8506491
0 2.4431551 0
2.4661968 2 -1.842049
1.0842022e-19 2.4547071 0
2.4300175 -0 -1.8449781
1.0842022e-19 2.3988011 2
2.4195366 2 -1.8365921
2 2.400712 2
2.3789542 -2 -1.8343621
1.0842022e-19 2.3608263 -1.0842022e-19
2.3795872 -0 -1.8311803
-3.6893488e+19 2.3648386 -1.0842022e-19
2.3450286 3.6893488e+19 -1.8297584
0 2.3631804 -3.6893488e+19
2.3230305 -2 -1.830045
2 2.3268011 1.0842022e-19
2.3234134 3.6893488e+19 -1.8254433
-1.0842022e-19 2.333575 0
2.2966983 -0 -1.8259281
3.6893488e+19 2.2822418 0
2.25104 2 -1.8163749
-3.6893488e+19 2.2427716 -1.0842022e-19
2.1882956 -1.0842022e-19 -1.8107814
-1.0842022e-19 2.0681422 -1.0842022e-19
2.0846839 -3.6893488e+19 -1.7947328
3.6893488e+19 2.0504007 1.0842022e-19
2.06602 2 -1.7978693
-3.6893488e+19 2.0286508 -0
2.0431392 -2 -1.7971072
-2 3.2331758 1.0842022e-19
3.2069404 -0 2.7074037
-2 3.2392662 1.0842022e-19
3.2127001 3.6893488e+19 2.6745939
-2 3.200613 2
3.2240427 -0 2.634393
2 3.1903319 0
3.1664228 -3.6893488e+19 2.5975595
1.0842022e-19 3.198761 -1.0842022e-19
3.2220941 3.6893488e+19 2.6142752
-2 3.1754632 -2
3.1523614 -0 2.5691772
0 3.1890302 2
3.1651917 -3.6893488e+19 2.5622067
3.6893488e+19 3.1502023 1.0842022e-19
3.1710107 -1.0842022e-19 2.5418928
0 3.1636093 -1.0842022e-19
3.141151 1.0842022e-19 2.5280066
3.6893488e+19 3.1539481 0
3.1497607 -0 2.5114675
0 3.2068849 -3.6893488e+19
3.1563759 -3.6893488e+19 2.5226841
-2 3.1541295 -0
3.1499403 1.0842022e-19 2.4910705
0 3.2033505 -1.0842022e-19
3.1532323 3.6893488e+19 2.5034575
1.0842022e-19 3.1678164 -3.6893488e+19
3.1634851 2 2.4745584
-1.0842022e-19 3.1140556 -1.0842022e-19
3.0738091 3.6893488e+19 2.3796239
-3.6893488e+19 3.1678789 -2
3.163547 3.6893488e+19 2.4415343
0 3.1141081 -2
3.0738556 -3.6893488e+19 2.3522601
3.6893488e+19 3.1129556 -0
3.0728307 2 2.3238537
0 3.10464 -1.0842022e-19
3.1009636 2 2.3186438
1.0842022e-19 3.114089 -2
3.0738387 -3.6893488e+19 2.2975144
-1.0842022e-19 3.0976288 0
3.0940254 2 2.2849073
3.6893488e+19 3.2061925 2
3.1557603 0 2.3385508
2 3.10551 0
3.1018248 0 2.2633359
-0 3.0998986 0
3.1180916 -0 2.2531669
0 3.10762 -2
3.0882018 -0 2.213186
-1.0842022e-19 3.0996981 3.6893488e+19
3.1178806 -1.0842022e-19 2.1992404
2 3.1063974 -0
3.0870457 2 2.1567173
-3.6893488e+19 3.1007276 1.0842022e-19
3.1189637 -2 2.1436253
-2 3.103478 -3.6893488e+19
3.0842848 0 2.099
-3.6893488e+19 3.1013105 2
3.1195769 -2 2.0872855
-2 3.0999043 -2
3.0809052 1.0842022e-19 2.0416586
-1.0842022e-19 3.0905154 -2
3.1082203 2 2.0217214
-3.6893488e+19 3.0994434 -2
3.0804694 1.0842022e-19 1.9875714
-2 3.0889745 -3.6893488e+19
3.1065993 0 1.9655572
3.6893488e+19 3.1015985 -0
3.0825074 3.6893488e+19 1.9350147
-3.6893488e+19 3.0876963 2
3.1052549 0 1.9100485
2 3.1004 2
3.0813739 -1.0842022e-19 1.8805749
-3.6893488e+19 3.0878007 0
3.1053648 -2 1.8357799
-3.6893488e+19 3.0966184 1.0842022e-19
3.0777979 -0 1.7768793
-0 3.1006634 2
3.0618975 1.0842022e-19 1.6941265
2 3.0944164 2
3.0908461 2 1.5596206
-2 3.1000636 -1.0842022e-19
3.0613639 3.6893488e+19 -1.2439977
-1.0842022e-19 3.0965252 -3.6893488e+19
3.0929329 -3.6893488e+19 -1.6242286
-2 3.1032994 1.0842022e-19
3.0642421 0 -1.7263277
3.6893488e+19 3.1128986 -2
3.1091366 -3.6893488e+19 -1.8041629
2 3.1046267 3.6893488e+19
3.0654225 0 -1.8444853
0 3.0994039 1.0842022e-19
3.0957818 0 -1.8910859
-2 3.1063564 -2
3.0669611 2 -1.9134847
-2 3.1009281 -1.0842022e-19
3.0972903 -0 -1.9468007
-1.0842022e-19 3.1050341 -2
3.0657849 0 -1.9659137
1.0842022e-19 3.0446467 0
3.0415924 1.0842022e-19 -1.9615077
-2 3.0611312 -2
3.0267355 -1.0842022e-19 -1.9857098
0 3.0352077 3.6893488e+19
3.0322511 0 -1.9995481
1.0842022e-19 2.6324289 -2
2.652313 -0 -1.8441297
-1.0842022e-19 2.7144392 1.0842022e-19
2.6892211 0 -1.8851115
0 2.6319442 -3.6893488e+19
2.651803 1.0842022e-19 -1.8748519
0 2.6392832 -2
2.6181457 -0 -1.8782367
-2 2.5815046 -3.6893488e+19
2.5987411 -1.0842022e-19 -1.8687891
2 2.5768571 1.0842022e-19
2.5591094 -1.0842022e-19 -1.8655319
1.0842022e-19 2.5390832 -2
2.5541139 3.6893488e+19 -1.8610945
-3.6893488e+19 2.5397429 1.0842022e-19
2.5240107 -2 -1.8605722
-0 2.5018408 2
2.5149353 2 -1.8511772
1.0842022e-19 2.5034678 -0
2.4794099 -2 -1.8506491
0 2.4431551 0
2.4661968 2 -1.842049
1.0842022e-19 2.4547071 0
2.4300175 -0 -1.8449781
1.0842022e-19 2.3988011 2
2.4195366 2 -1.8365921
2 2.400712 2
2.3789542 -2 -1.8343621
1.0842022e-19 2.3608263 -1.0842022e-19
2.3795872 -0 -1.8311803
-3.6893488e+19 2.3648386 -1.0842022e-19
2.3450286 3.6893488e+19 -1.8297584
0 2.3631804 -3.6893488e+19
2.3230305 -2 -1.830045
2 2.3268011 1.0842022e-19
2.3234134 3.6893488e+19 -1.8254433
-1.0842022e-19 2.333575 0
2.2966983 -0 -1.8259281
3.6893488e+19 2.2822418 0
2.25104 2 -1.8163749
-3.6893488e+19 2.2427716 -1.0842022e-19
2.1882956 -1.0842022e-19 -1.8107814
-1.0842022e-19 2.0681422 -1.0842022e-19
2.0846839 -3.6893488e+19 -1.7947328
3.6893488e+19 2.0504007 1.0842022e-19
2.06602 2 -1.7978693
-3.6893488e+19 2.0286508 -0
2.0431392 -2 -1.7971072
3.6893488e+19 3.2379122 2
3.209007 0 2.6723752
1.0842022e-19 3.2012076 -0
3.2221875 2 2.652467
-1.0842022e-19 3.2023432 -0
3.223376 -0 2.6348109
2 3.1915553 0
3.1653965 3.6893488e+19 2.597666
-3.6893488e+19 3.1995242 -3.6893488e+19
3.2204258 1.0842022e-19 2.6138945
1.0842022e-19 3.1887157 3.6893488e+19
3.162725 3.6893488e+19 2.5783076
0 3.18858 1.0842022e-19
3.1625974 -1.0842022e-19 2.5611179
3.6893488e+19 3.151581 2
3.1702535 2 2.5420954
-1.0842022e-19 3.1851685 2
3.1593881 0 2.5417767
2 3.1544175 -2
3.1481359 -3.6893488e+19 2.511096
-2 3.2098305 -0
3.156846 2 2.5238061
2 3.1698761 -2
3.1633544 -2 2.5044441
-3.6893488e+19 3.2026348 2
3.1504796 -0 2.5024707
2 3.1698053 3.6893488e+19
3.1632848 -3.6893488e+19 2.4755874
-1.0842022e-19 3.2019284 -0
3.1498544 -0 2.4701617
1.0842022e-19 3.1691592 3.6893488e+19
3.1626487 3.6893488e+19 2.4417446
-1.0842022e-19 3.2064199 -2
3.1538284 -2 2.4405446
-2 3.1701109 0
3.1635859 2 2.4095986
1.0842022e-19 3.1137059 3.6893488e+19
3.0717974 0 2.3237708
-2 3.165427 1.0842022e-19
3.1589746 1.0842022e-19 2.3722982
0 3.2070208 -3.6893488e+19
3.1543598 2 2.3725877
3.6893488e+19 3.1672251 -1.0842022e-19
3.1607447 -1.0842022e-19 2.3410645
-1.0842022e-19 3.2071126 0
3.1544414 -3.6893488e+19 2.3384469
2 3.1680934 -3.6893488e+19
3.1615994 -3.6893488e+19 2.3088942
2 3.1889386 2
3.1629348 -1.0842022e-19 2.2835538
-1.0842022e-19 3.1590345 1.0842022e-19
3.1780536 3.6893488e+19 2.2620132
2 3.1792202 0
3.1537921 1.0842022e-19 2.2386146
-3.6893488e+19 3.1000314 3.6893488e+19
3.116307 0 2.141767
-1.0842022e-19 3.1785007 2
3.1531153 2 2.1720293
1.0842022e-19 3.1527312 3.6893488e+19
3.1714571 3.6893488e+19 2.1355932
0 3.1900649 1.0842022e-19
3.1639943 -1.0842022e-19 2.1159065
-3.6893488e+19 3.1024125 -2
3.1187987 3.6893488e+19 2.0304439
-3.6893488e+19 3.1816161 2
3.1560462 -2 2.0427134
0 3.1447449 -1.0842022e-19
3.1630993 0 2.0003338
2 3.1864088 -3.6893488e+19
3.1605546 -2 1.9790766
0 3.1049216 2
3.1214244 1.0842022e-19 1.917751
-2 3.1055245 -1.0842022e-19
3.1220555 0 1.846231
3.6893488e+19 3.1025505 1.0842022e-19
3.0816646 2 1.7790978
-1.0842022e-19 3.1023443 -3.6893488e+19
3.0617449 1.0842022e-19 1.6946048
-2 3.132941 -2
3.0888162 2 -1.2581474
-2 3.0967309 3.6893488e+19
3.0913455 -0 -1.6237334
1.0842022e-19 3.1163607 3.6893488e+19
3.0741463 -2 -1.7341505
-1.0842022e-19 3.0999417 1.0842022e-19
3.0945065 -3.6893488e+19 -1.7973205
1.0842022e-19 3.1133606 2
3.071492 -1.0842022e-19 -1.8493694
3.6893488e+19 3.0999956 2
3.0945594 -3.6893488e+19 -1.8909602
-1.0842022e-19 3.107559 -1.0842022e-19
3.0663588 -2 -1.913656
2 3.1131673 1.0842022e-19
3.1075265 -1.0842022e-19 -1.9531391
-3.6893488e+19 3.1087601 3.6893488e+19
3.0674217 1.0842022e-19 -1.9676738
-0 3.1157663 1.0842022e-19
3.1100852 2 -2.0118825
-3.6893488e+19 3.0644505 -3.6893488e+19
3.0282176 -3.6893488e+19 -1.9876721
-0 3.0364792 3.6893488e+19
3.0320296 3.6893488e+19 -2.0000141
-0 2.6321864 0
2.6499572 -2 -1.8433903
-1.0842022e-19 2.723042 -0
2.6950178 -0 -1.8872749
1.0842022e-19 2.6332529 -1.0842022e-19
2.651073 -2 -1.8750103
3.6893488e+19 2.6405177 0
2.6173825 1.0842022e-19 -1.8783263
2 2.5814681 -0
2.5968804 2 -1.8680938
1.0842022e-19 2.5777557 0
2.5583386 1.0842022e-19 -1.8655987
2 2.5395334 1.0842022e-19
2.5529959 0 -1.8608139
2 2.5413671 -3.6893488e+19
2.5241055 0 -1.8613087
3.6893488e+19 2.5023611 -2
2.5140951 -1.0842022e-19 -1.851023
0 2.5058184 -3.6893488e+19
2.4813259 3.6893488e+19 -1.8521804
-2 2.4426522 -1.0842022e-19
2.4632344 -1.0842022e-19 -1.8412083
-3.6893488e+19 2.456012 3.6893488e+19
2.4289968 0 -1.8450657
-0 2.4000695 -1.0842022e-19
2.4186716 -3.6893488e+19 -1.836683
-2 2.4018834 1.0842022e-19
2.3780749 2 -1.8344567
1.0842022e-19 2.3619902 -3.6893488e+19
2.3788216 3.6893488e+19 -1.8312783
0 2.3659215 2
2.3442433 1.0842022e-19 -1.8298599
0 2.3649554 3.6893488e+19
2.3229029 -3.6893488e+19 -1.8305694
0 2.327292 1.0842022e-19
2.3222084 -0 -1.8252265
3.6893488e+19 3.2379122 2
3.209007 0 2.6723752
1.0842022e-19 3.2012076 -0
3.2221875 2 2.652467
-1.0842022e-19 3.2023432 -0
3.223376 -0 2.6348109
2 3.1915553 0
3.1653965 3.6893488e+19 2.597666
-3.6893488e+19 3.1995242 -3.6893488e+19
3.2204258 1.0842022e-19 2.6138945
1.0842022e-19 3.1887157 3.6893488e+19
3.162725 3.6893488e+19 2.5783076
0 3.1631172 1.0842022e-19
3.138643 0 2.5430553
3.6893488e+19 3.151581 2
3.1702535 2 2.5420954
-3.6893488e+19 3.1654897 3.6893488e+19
3.1408751 -1.0842022e-19 2.5285821
2 3.1544175 -2
3.1481359 -3.6893488e+19 2.511096
-2 3.2098305 -0
3.156846 2 2.5238061
-3.6893488e+19 3.1573443 -2
3.1510174 2 2.4937003
-3.6893488e+19 3.2026348 2
3.1504796 -0 2.5024707
2 3.1698053 3.6893488e+19
3.1632848 -3.6893488e+19 2.4755874
-1.0842022e-19 3.2019284 -0
3.1498544 -0 2.4701617
1.0842022e-19 3.1691592 3.6893488e+19
3.1626487 3.6893488e+19 2.4417446
2 3.1130428 0
3.0712109 0 2.3504155
3.6893488e+19 3.1052175 1.0842022e-19
3.0997002 -2 2.3463287
1.0842022e-19 3.1137059 3.6893488e+19
3.0717974 0 2.3237708
-2 3.1061785 -3.6893488e+19
3.1006463 -1.0842022e-19 2.3192008
0 3.2070208 -3.6893488e+19
3.1543598 2 2.3725877
3.6893488e+19 3.1672251 -1.0842022e-19
3.1607447 -1.0842022e-19 2.3410645
-1.0842022e-19 3.2071126 0
3.1544414 -3.6893488e+19 2.3384469
-0 3.0983407 2
3.0929303 0 2.25736
3.6893488e+19 3.1081173 -3.6893488e+19
3.0869014 2 2.212687
-1.0842022e-19 3.1590345 1.0842022e-19
3.1780536 3.6893488e+19 2.2620132
2 3.1075509 -0
3.0863686 -1.0842022e-19 2.1570277
-3.6893488e+19 3.1000314 3.6893488e+19
3.116307 0 2.141767
3.6893488e+19 3.1071711 0
3.0860114 3.6893488e+19 2.1017768
2 3.1034198 -1.0842022e-19
3.1198528 -3.6893488e+19 2.0883801
2 3.1040215 -0
3.0830483 2 2.044363
-3.6893488e+19 3.1024125 -2
3.1187987 3.6893488e+19 2.0304439
0 3.1013992 -3.6893488e+19
3.0805812 -1.0842022e-19 1.9883119
-3.6893488e+19 3.089669 -0
3.1054628 0 1.9654067
1.0842022e-19 3.1015117 0
3.0806873 2 1.9345131
1.0842022e-19 3.0861642 1.0842022e-19
3.101795 -3.6893488e+19 1.9088854
-2 3.1055245 -1.0842022e-19
3.1220555 0 1.846231
3.6893488e+19 3.1025505 1.0842022e-19
3.0816646 2 1.7790978
-1.0842022e-19 3.1023443 -3.6893488e+19
3.0617449 1.0842022e-19 1.6946048
-1.0842022e-19 3.1133282 3.6893488e+19
3.0714633 -2 -1.251328
-2 3.0967309 3.6893488e+19
3.0913455 -0 -1.6237334
1.0842022e-19 3.1163607 3.6893488e+19
3.0741463 -2 -1.7341505
-1.0842022e-19 3.0999417 1.0842022e-19
3.0945065 -3.6893488e+19 -1.7973205
1.0842022e-19 3.1133606 2
3.071492 -1.0842022e-19 -1.8493694
3.6893488e+19 3.0999956 2
3.0945594 -3.6893488e+19 -1.8909602
-1.0842022e-19 3.107559 -1.0842022e-19
3.0663588 -2 -1.913656
2 3.1131673 1.0842022e-19
3.1075265 -1.0842022e-19 -1.9531391
-3.6893488e+19 3.1087601 3.6893488e+19
3.0674217 1.0842022e-19 -1.9676738
-0 3.1157663 1.0842022e-19
3.1100852 2 -2.0118825
-3.6893488e+19 3.0644505 -3.6893488e+19
3.0282176 -3.6893488e+19 -1.9876721
-0 3.0364792 3.6893488e+19
3.0320296 3.6893488e+19 -2.0000141
-0 2.6321864 0
2.6499572 -2 -1.8433903
-1.0842022e-19 2.723042 -0
2.6950178 -0 -1.8872749
1.0842022e-19 2.6332529 -1.0842022e-19
2.651073 -2 -1.8750103
3.6893488e+19 2.6405177 0
2.6173825 1.0842022e-19 -1.8783263
2 2.5814681 -0
2.5968804 2 -1.8680938
1.0842022e-19 2.5777557 0
2.5583386 1.0842022e-19 -1.8655987
2 2.5395334 1.0842022e-19
2.5529959 0 -1.8608139
2 2.5413671 -3.6893488e+19
2.5241055 0 -1.8613087
3.6893488e+19 2.5023611 -2
2.5140951 -1.0842022e-19 -1.851023
0 2.5058184 -3.6893488e+19
2.4813259 3.6893488e+19 -1.8521804
-2 2.4426522 -1.0842022e-19
2.4632344 -1.0842022e-19 -1.8412083
-3.6893488e+19 2.456012 3.6893488e+19
2.4289968 0 -1.8450657
-0 2.4000695 -1.0842022e-19
2.4186716 -3.6893488e+19 -1.836683
-2 2.4018834 1.0842022e-19
2.3780749 2 -1.8344567
1.0842022e-19 2.3619902 -3.6893488e+19
2.3788216 3.6893488e+19 -1.8312783
0 2.3659215 2
2.3442433 1.0842022e-19 -1.8298599
0 2.3649554 3.6893488e+19
2.3229029 -3.6893488e+19 -1.8305694
0 2.327292 1.0842022e-19
2.3222084 -0 -1.8252265
2 3.2379994 -0
3.2066879 2 2.6905341
-0 3.1996577 3.6893488e+19
3.2181072 -0 2.6685417
3.6893488e+19 3.238796 2
3.2074335 1.0842022e-19 2.6721027
2 3.2023988 -2
3.2209606 -1.0842022e-19 2.6524289
1.0842022e-19 3.2043943 0
3.2230382 -0 2.6355014
-0 3.1916468 0
3.1633096 3.6893488e+19 2.5968854
-0 3.1896358 2
3.1614275 -2 2.5781894
3.6893488e+19 3.1877346 -3.6893488e+19
3.1596482 -2 2.5597568
-1.0842022e-19 3.1524429 1.0842022e-19
3.1689553 3.6893488e+19 2.541924
2 3.1855814 1.0842022e-19
3.1576333 2 2.5413373
3.6893488e+19 3.2500048 -1.0842022e-19
3.1900682 2 2.565865
2 3.1733575 -3.6893488e+19
3.1646059 -1.0842022e-19 2.5226226
-2 3.2514875 2
3.1926785 -3.6893488e+19 2.5488057
-3.6893488e+19 3.1729095 -0
3.1641674 0 2.505625
0 3.1737287 -0
3.1649694 -3.6893488e+19 2.4788003
1.0842022e-19 3.2079229 -2
3.1530268 1.0842022e-19 2.4752994
2 3.1622128 2
3.1536918 0 2.4333093
-0 3.2060966 3.6893488e+19
3.1514196 2 2.4392173
-0 3.1659424 1.0842022e-19
3.1573443 0 2.4044938
-2 3.2077053 -2
3.1528354 0 2.4065094
-3.6893488e+19 3.1655164 -0
3.1569271 -2 2.3714228
-2 3.2075391 2
3.1526892 -3.6893488e+19 2.3721499
-3.6893488e+19 3.099313 -0
3.0920923 -0 2.2848165
-1.0842022e-19 3.2078884 -1.0842022e-19
3.1529965 -2 2.3382394
-1.0842022e-19 3.1701269 3.6893488e+19
3.1614423 -3.6893488e+19 2.3096001
-3.6893488e+19 3.1500027 -0
3.166415 -3.6893488e+19 2.2878387
3.6893488e+19 3.1890609 -3.6893488e+19
3.1608894 0 2.2829375
2 3.1772447 -1.0842022e-19
3.1498313 2 2.235173
0 3.1549389 0
3.1715536 -2 2.2019849
3.6893488e+19 3.1791666 -1.0842022e-19
3.1516299 3.6893488e+19 2.1716485
-1.0842022e-19 3.1531403 1.0842022e-19
3.1696813 3.6893488e+19 2.1349323
3.6893488e+19 3.1792219 -2
3.1516817 1.0842022e-19 2.1060157
1.0842022e-19 3.1491144 -2
3.1654899 0 2.0667422
-0 3.1831105 3.6893488e+19
3.1553209 3.6893488e+19 2.0430067
2 3.09181 1.0842022e-19
3.1058345 3.6893488e+19 1.9661731
-2 3.1911995 -1.0842022e-19
3.1628909 -0 1.9810236
1.0842022e-19 3.0864992 1.0842022e-19
3.1003058 2 1.90861
1.0842022e-19 3.201483 -1.0842022e-19
3.1725144 -1.0842022e-19 1.9174168
3.6893488e+19 3.0882273 -2
3.1021047 -0 1.8348933
-1.0842022e-19 3.5030756 -3.6893488e+19
3.4454737 -0 1.8894548
-0 3.1120918 2
3.1046069 -0 1.5680979
-1.0842022e-19 3.1338263 1.0842022e-19
3.0878131 2 -1.2581474
1.0842022e-19 3.111845 1.0842022e-19
3.1043651 -2 -1.6294547
-0 3.1251128 2
3.0801442 2 -1.7391914
-3.6893488e+19 3.1145496 -0
3.1070139 0 -1.8040533
-3.6893488e+19 3.1276641 -2
3.0823896 -0 -1.8576639
-1.0842022e-19 3.1129057 -1.0842022e-19
3.1054039 -2 -1.8957847
-3.6893488e+19 3.1060636 -3.6893488e+19
3.0633786 -1.0842022e-19 -1.9125957
3.6893488e+19 3.1153514 3.6893488e+19
3.1077991 3.6893488e+19 -1.9538364
0 3.1075027 -0
3.0646451 -1.0842022e-19 -1.9664104
1.0842022e-19 3.1161494 0
3.1085806 2 -2.0114841
-2 3.0674515 3.6893488e+19
3.0293953 0 -1.989387
0 3.0368817 -1.0842022e-19
3.0309513 1.0842022e-19 -1.9997228
-1.0842022e-19 2.7207415 3.6893488e+19
2.6905375 2 -1.8862723
3.6893488e+19 2.6472695 -0
2.6635695 -2 -1.8792288
-0 2.6413865 0
2.6162741 -0 -1.8782964
2 2.587992 2
2.6018598 -0 -1.8722023
-3.6893488e+19 2.5794718 -3.6893488e+19
2.558332 0 -1.8662655
-2 2.5412753 1.0842022e-19
2.5532265 2 -1.8615856
-3.6893488e+19 2.5422652 -2
2.5235126 -1.0842022e-19 -1.8614559
-3.6893488e+19 2.5021877 -0
2.5125351 -2 -1.8502518
2 2.5075388 -1.0842022e-19
2.4820287 -1.0842022e-19 -1.8531474
2 2.4440355 -0
2.4622543 -3.6893488e+19 -1.8412924
1.0842022e-19 2.457315 1.0842022e-19
2.4279723 2 -1.8451532
-1.0842022e-19 2.4016809 0
2.4181621 0 -1.8369561
2 2.4055972 3.6893488e+19
2.3795729 3.6893488e+19 -1.8358738
3.6893488e+19 2.3628078 -3.6893488e+19
2.3776937 -0 -1.8311803
-0 2.3670025 2
2.3434546 0 -1.8299613
3.6893488e+19 2.3650525 -1.0842022e-19
2.3212898 -1.0842022e-19 -1.8301499
-1.0842022e-19 2.3274236 1.0842022e-19
2.3206553 0 -1.8247932
-3.6893488e+19 2.3349366 -2
2.2947843 -1.0842022e-19 -1.8258163
1.0842022e-19 2.2803867 2
2.2435477 -2 -1.8142387
-3.6893488e+19 2.2428286 3.6893488e+19
2.1837482 -2 -1.8099445
3.6893488e+19 2.0678453 1.0842022e-19
2.0808866 -3.6893488e+19 -1.7936482
0 2.0493324 -3.6893488e+19
2.0616138 -1.0842022e-19 -1.7963136
2 2.0335691 3.6893488e+19
2.0452039 3.6893488e+19 -1.7991884
2 3.2379994 -0
3.2066879 2 2.6905341
-0 3.1996577 3.6893488e+19
3.2181072 -0 2.6685417
3.6893488e+19 3.238796 2
3.2074335 1.0842022e-19 2.6721027
2 3.2023988 -2
3.2209606 -1.0842022e-19 2.6524289
1.0842022e-19 3.2043943 0
3.2230382 -0 2.6355014
3.6893488e+19 3.1701901 3.6893488e+19
3.1432295 2 2.5800326
-0 3.1896358 2
3.1614275 -2 2.5781894
1.0842022e-19 3.1621187 3.6893488e+19
3.1356759 -0 2.54163
-1.0842022e-19 3.1524429 1.0842022e-19
3.1689553 3.6893488e+19 2.541924
2 3.1855814 1.0842022e-19
3.1576333 2 2.5413373
3.6893488e+19 3.2500048 -1.0842022e-19
3.1900682 2 2.565865
2 3.1733575 -3.6893488e+19
3.1646059 -1.0842022e-19 2.5226226
-2 3.2514875 2
3.1926785 -3.6893488e+19 2.5488057
1.0842022e-19 3.1594357 0
3.1509721 2 2.4949615
0 3.1737287 -0
3.1649694 -3.6893488e+19 2.4788003
1.0842022e-19 3.2079229 -2
3.1530268 1.0842022e-19 2.4752994
2 3.1622128 2
3.1536918 0 2.4333093
-2 3.1214283 2
3.0769014 1.0842022e-19 2.3576825
-0 3.1659424 1.0842022e-19
3.1573443 0 2.4044938
-1.0842022e-19 3.1169076 1.0842022e-19
3.0729227 -0 2.3258677
-3.6893488e+19 3.1655164 -0
3.1569271 -2 2.3714228
-2 3.1156616 -2
3.071826 -3.6893488e+19 2.2974193
-3.6893488e+19 3.099313 -0
3.0920923 -0 2.2848165
0 3.1151688 -2
3.0713921 -0 2.269748
2 3.0986354 -1.0842022e-19
3.0914285 -2 2.2569165
-3.6893488e+19 3.1500027 -0
3.166415 -3.6893488e+19 2.2878387
3.6893488e+19 3.1097493 1.0842022e-19
3.0866668 -1.0842022e-19 2.2136557
2 3.1095235 -2
3.0864553 1.0842022e-19 2.1582699
0 3.0973778 1.0842022e-19
3.1116307 3.6893488e+19 2.1377363
-2 3.1084592 -1.0842022e-19
3.0854595 1.0842022e-19 2.10218
2 3.0954099 -2
3.1095819 2 2.0798092
-0 3.1048234 -3.6893488e+19
3.0820568 2 2.0443063
-0 3.1131124 3.6893488e+19
3.128011 3.6893488e+19 2.0381706
-0 3.1032891 -2
3.080621 -2 1.9890062
2 3.09181 1.0842022e-19
3.1058345 3.6893488e+19 1.9661731
-3.6893488e+19 3.1033108 3.6893488e+19
3.0806415 1.0842022e-19 1.9350028
1.0842022e-19 3.0864992 1.0842022e-19
3.1003058 2 1.90861
-0 3.1027224 2
3.0800908 -2 1.8807949
3.6893488e+19 3.0882273 -2
3.1021047 -0 1.8348933
1.0842022e-19 3.1049182 1.0842022e-19
3.0623705 -1.0842022e-19 1.6955742
-0 3.1120918 2
3.1046069 -0 1.5680979
-3.6893488e+19 3.1091714 2
3.0661139 2 -1.2491895
-1.0842022e-19 3.0995207 2
3.0922956 1.0842022e-19 -1.6250457
1.0842022e-19 3.1081529 -2
3.0652173 1.0842022e-19 -1.7283769
0 3.0972924 -2
3.0901132 3.6893488e+19 -1.795577
3.6893488e+19 3.1096032 -1.0842022e-19
3.0664937 -3.6893488e+19 -1.8465371
-1.0842022e-19 3.1012084 -3.6893488e+19
3.0939484 0 -1.8910859
-3.6893488e+19 3.1060636 -3.6893488e+19
3.0633786 -1.0842022e-19 -1.9125957
3.6893488e+19 3.1153514 3.6893488e+19
3.1077991 3.6893488e+19 -1.9538364
2 3.0710161 -1.0842022e-19
3.0325325 -0 -1.9443237
1.0842022e-19 3.1161494 0
3.1085806 2 -2.0114841
-2 3.0674515 3.6893488e+19
3.0293953 0 -1.989387
0 3.0368817 -1.0842022e-19
3.0309513 1.0842022e-19 -1.9997228
-1.0842022e-19 2.7207415 3.6893488e+19
2.6905375 2 -1.8862723
3.6893488e+19 2.6472695 -0
2.6635695 -2 -1.8792288
-0 2.6413865 0
2.6162741 -0 -1.8782964
2 2.587992 2
2.6018598 -0 -1.8722023
-3.6893488e+19 2.5794718 -3.6893488e+19
2.558332 0 -1.8662655
-2 2.5412753 1.0842022e-19
2.5532265 2 -1.8615856
-3.6893488e+19 2.5422652 -2
2.5235126 -1.0842022e-19 -1.8614559
-3.6893488e+19 2.5021877 -0
2.5125351 -2 -1.8502518
2 2.5075388 -1.0842022e-19
2.4820287 -1.0842022e-19 -1.8531474
2 2.4440355 -0
2.4622543 -3.6893488e+19 -1.8412924
1.0842022e-19 2.457315 1.0842022e-19
2.4279723 2 -1.8451532
-1.0842022e-19 2.4016809 0
2.4181621 0 -1.8369561
2 2.4055972 3.6893488e+19
2.3795729 3.6893488e+19 -1.8358738
3.6893488e+19 2.3628078 -3.6893488e+19
2.3776937 -0 -1.8311803
-0 2.3670025 2
2.3434546 0 -1.8299613
3.6893488e+19 2.3650525 -1.0842022e-19
2.3212898 -1.0842022e-19 -1.8301499
-1.0842022e-19 2.3274236 1.0842022e-19
2.3206553 0 -1.8247932
-3.6893488e+19 2.3349366 -2
2.2947843 -1.0842022e-19 -1.8258163
1.0842022e-19 2.2803867 2
2.2435477 -2 -1.8142387
-3.6893488e+19 2.2428286 3.6893488e+19
2.1837482 -2 -1.8099445
3.6893488e+19 2.0678453 1.0842022e-19
2.0808866 -3.6893488e+19 -1.7936482
0 2.0493324 -3.6893488e+19
2.0616138 -1.0842022e-19 -1.7963136
2 2.0335691 3.6893488e+19
2.0452039 3.6893488e+19 -1.7991884
-3.6893488e+19 3.2006023 -0
3.2166405 -2 2.668283
-1.0842022e-19 3.2398105 -1.0842022e-19
3.2059846 0 2.671947
3.6893488e+19 3.203651 1.0842022e-19
3.2197976 3.6893488e+19 2.6524479
1.0842022e-19 3.1914136 -0
3.1609299 -2 2.5958564
1.0842022e-19 3.1905522 1.0842022e-19
3.1601281 2 2.5780714
-1.0842022e-19 3.1890998 2
3.158776 -3.6893488e+19 2.5599649
-1.0842022e-19 3.1901202 -1.0842022e-19
3.1597259 -0 2.5436549
2 3.2503812 2
3.188411 0 2.5656149
-0 3.1746855 3.6893488e+19
3.1637352 -1.0842022e-19 2.5227797
3.6893488e+19 3.2521243 -2
3.191463 2 2.5488751
-0 3.176796 1.0842022e-19
3.1657913 -3.6893488e+19 2.5073154
3.6893488e+19 3.2416029 -0
3.1803918 1.0842022e-19 2.5229464
-0 3.1752138 2
3.1642499 -3.6893488e+19 2.4792521
-1.0842022e-19 3.2416914 -1.0842022e-19
3.1804693 -0 2.5045891
-0 3.1660311 3.6893488e+19
3.155304 -3.6893488e+19 2.4362066
-2 3.2079182 -1.0842022e-19
3.1509013 1.0842022e-19 2.4399598
3.6893488e+19 3.1523113 0
3.141938 -2 2.390239
-1.0842022e-19 3.210398 -0
3.1530724 -3.6893488e+19 2.4079626
3.6893488e+19 3.1748133 -0
3.1638596 -3.6893488e+19 2.3787637
0 3.1218245 1.0842022e-19
3.0755274 -3.6893488e+19 2.301738
1.0842022e-19 3.1741464 3.6893488e+19
3.1632099 2 2.34495
3.6893488e+19 3.2136326 0
3.1559043 2 2.341697
0 3.1742175 -0
3.1632791 -3.6893488e+19 2.3118165
3.6893488e+19 3.1546226 -2
3.169024 -1.0842022e-19 2.2903731
1.0842022e-19 3.1920526 3.6893488e+19
3.1615248 3.6893488e+19 2.2841704
-1.0842022e-19 3.1517973 3.6893488e+19
3.1660984 -3.6893488e+19 2.2559788
-2 3.1914692 1.0842022e-19
3.1609819 0 2.2500517
2 3.1547179 0
3.1691229 -0 2.2005126
1.0842022e-19 3.181587 -3.6893488e+19
3.1517818 1.0842022e-19 2.1729922
-0 3.154454 -3.6893488e+19
3.1688495 -1.0842022e-19 2.1351388
0 3.1817114 -2
3.1518977 -0 2.1072071
-1.0842022e-19 3.0937724 0
3.1060083 -1.0842022e-19 2.0220819
0 3.1855185 -3.6893488e+19
3.1554418 -0 2.0439169
2 3.147856 -0
3.1620166 -2 2.0009358
-2 3.1932616 -3.6893488e+19
3.1626503 -2 1.9815371
-3.6893488e+19 3.1484647 0
3.1626472 -1.0842022e-19 1.9373081
-0 3.2136786 -2
3.1816573 -1.0842022e-19 1.9215198
2 3.1453428 3.6893488e+19
3.1594141 -1.0842022e-19 1.8696718
-2 3.0991123 -1.0842022e-19
3.0750029 1.0842022e-19 1.7768495
-0 3.5036576 -0
3.4441478 -0 1.8894548
-2 3.1115859 -2
3.1022625 3.6893488e+19 1.567336
3.6893488e+19 3.1264796 2
3.079603 1.0842022e-19 -1.2552992
1.0842022e-19 3.113935 0
3.1045511 0 -1.6298702
-1.0842022e-19 3.1109984 -0
3.0660493 1.0842022e-19 -1.7296633
1.0842022e-19 3.1130655 1.0842022e-19
3.103704 -2 -1.802869
-1.0842022e-19 3.1278744 0
3.0808241 3.6893488e+19 -1.8572593
0 3.1155131 3.6893488e+19
3.1060884 -2 -1.8964573
-1.0842022e-19 3.1085985 -3.6893488e+19
3.0639482 0 -1.9133776
3.6893488e+19 3.1165102 -3.6893488e+19
3.1070597 0 -1.953961
-3.6893488e+19 3.1079485 -0
3.0633793 -0 -1.9661833
-3.6893488e+19 3.1174443 2
3.10797 -2 -2.011739
0 3.0401881 -1.0842022e-19
3.0327055 -3.6893488e+19 -2.001956
2 2.750936 -0
2.7598674 1.0842022e-19 -1.8926117
3.6893488e+19 2.7253644 -2
2.6925361 -0 -1.8872749
-3.6893488e+19 2.6516445 -2
2.66594 -2 -1.8802975
3.6893488e+19 2.6431656 0
2.616014 2 -1.8785652
2 2.5906446 -2
2.6027689 -3.6893488e+19 -1.8734664
-2 2.5812817 3.6893488e+19
2.5584037 2 -1.866999
1.0842022e-19 2.5419812 -3.6893488e+19
2.5523734 -1.0842022e-19 -1.8615154
-3.6893488e+19 2.5425236 -3.6893488e+19
2.5223222 -3.6893488e+19 -1.8610877
-1.0842022e-19 2.503047 0
2.5120537 -0 -1.8504061
-2 2.5079861 -0
2.4803398 -1.0842022e-19 -1.8529862
-2 2.4454165 1.0842022e-19
2.4612701 0 -1.8413765
0 2.4586155 -2
2.4269438 -0 -1.8452407
1.0842022e-19 2.4027739 -0
2.4171095 0 -1.8369561
2 2.4071355 -0
2.379019 0 -1.8361573
1.0842022e-19 2.3627579 -2
2.3756692 -3.6893488e+19 -1.8305926
-3.6893488e+19 2.3689921 -0
2.3435099 -0 -1.8305697
-3.6893488e+19 2.3660789 -0
2.3204973 -0 -1.8302548
3.6893488e+19 2.3280835 -1.0842022e-19
2.3196239 1.0842022e-19 -1.8246849
-3.6893488e+19 3.2006023 -0
3.2166405 -2 2.668283
-1.0842022e-19 3.2398105 -1.0842022e-19
3.2059846 0 2.671947
3.6893488e+19 3.203651 1.0842022e-19
3.2197976 3.6893488e+19 2.6524479
1.0842022e-19 3.1914136 -0
3.1609299 -2 2.5958564
1.0842022e-19 3.1905522 1.0842022e-19
3.1601281 2 2.5780714
-1.0842022e-19 3.1890998 2
3.158776 -3.6893488e+19 2.5599649
-1.0842022e-19 3.1901202 -1.0842022e-19
3.1597259 -0 2.5436549
-1.0842022e-19 3.2321301 0
3.1720986 -0 2.5538714
-0 3.1746855 3.6893488e+19
3.1637352 -1.0842022e-19 2.5227797
0 3.2325404 1.0842022e-19
3.1724577 -1.0842022e-19 2.5360081
2 3.1596601 0
3.1490972 -2 2.4939685
3.6893488e+19 3.2416029 -0
3.1803918 1.0842022e-19 2.5229464
0 3.1627424 -0
3.1520998 -1.0842022e-19 2.4651957
-2 3.2087886 0
3.1516635 0 2.4751055
-0 3.1660311 3.6893488e+19
3.155304 -3.6893488e+19 2.4362066
1.0842022e-19 3.1208775 -2
3.0746982 1.0842022e-19 2.3563325
3.6893488e+19 3.1523113 0
3.141938 -2 2.390239
-1.0842022e-19 3.210398 -0
3.1530724 -3.6893488e+19 2.4079626
3.6893488e+19 3.1748133 -0
3.1638596 -3.6893488e+19 2.3787637
0 3.1218245 1.0842022e-19
3.0755274 -3.6893488e+19 2.301738
1.0842022e-19 3.1741464 3.6893488e+19
3.1632099 2 2.34495
3.6893488e+19 3.2136326 0
3.1559043 2 2.341697
0 3.1742175 -0
3.1632791 -3.6893488e+19 2.3118165
1.0842022e-19 3.1033623 1.0842022e-19
3.1159394 2 2.2535868
3.6893488e+19 3.1111999 0
3.0862558 -3.6893488e+19 2.2143896
-3.6893488e+19 3.0937753 -2
3.1060112 -1.0842022e-19 2.1880281
-3.6893488e+19 3.178906 1.0842022e-19
3.1492863 -1.0842022e-19 2.2358716
2 3.1547179 0
3.1691229 -0 2.2005126
-2 3.1059997 -2
3.0814147 2 2.0989103
3.6893488e+19 3.0986269 -0
3.1110353 0 2.0819778
3.6893488e+19 3.1053939 -2
3.0808506 0 2.0440605
-1.0842022e-19 3.0937724 0
3.1060083 -1.0842022e-19 2.0220819
0 3.1045418 2
3.0800574 -3.6893488e+19 1.9892684
-1.0842022e-19 3.0930436 2
3.1052535 -1.0842022e-19 1.9663646
0 3.0981154 -1.0842022e-19
3.0740747 -1.0842022e-19 1.9318376
1.0842022e-19 3.0915382 0
3.1036944 3.6893488e+19 1.9105483
-2 3.0981419 -2
3.0740995 1.0842022e-19 1.8787816
-2 3.0880404 3.6893488e+19
3.1000721 -0 1.8342083
-2 3.0991123 -1.0842022e-19
3.0750029 1.0842022e-19 1.7768495
-3.6893488e+19 3.1053345 -1.0842022e-19
3.0610907 2 1.6953545
-2 3.1115859 -2
3.1022625 3.6893488e+19 1.567336
-1.0842022e-19 3.1100914 1.0842022e-19
3.0652554 3.6893488e+19 -1.2492546
1.0842022e-19 3.113935 0
3.1045511 0 -1.6298702
-1.0842022e-19 3.1109984 -0
3.0660493 1.0842022e-19 -1.7296633
2 3.0976887 2
3.0887237 -2 -1.7953358
3.6893488e+19 3.1128516 -0
3.0676718 3.6893488e+19 -1.8480256
-3.6893488e+19 3.1009881 0
3.0919383 -2 -1.8906374
-1.0842022e-19 3.1085985 -3.6893488e+19
3.0639482 0 -1.9133776
3.6893488e+19 3.1165102 -3.6893488e+19
3.1070597 0 -1.953961
-3.6893488e+19 3.1079485 -0
3.0633793 -0 -1.9661833
-3.6893488e+19 3.1174443 2
3.10797 -2 -2.011739
0 3.0401881 -1.0842022e-19
3.0327055 -3.6893488e+19 -2.001956
2 2.750936 -0
2.7598674 1.0842022e-19 -1.8926117
3.6893488e+19 2.7253644 -2
2.6925361 -0 -1.8872749
-3.6893488e+19 2.6516445 -2
2.66594 -2 -1.8802975
3.6893488e+19 2.6431656 0
2.616014 2 -1.8785652
2 2.5906446 -2
2.6027689 -3.6893488e+19 -1.8734664
-2 2.5812817 3.6893488e+19
2.5584037 2 -1.866999
1.0842022e-19 2.5419812 -3.6893488e+19
2.5523734 -1.0842022e-19 -1.8615154
-3.6893488e+19 2.5425236 -3.6893488e+19
2.5223222 -3.6893488e+19 -1.8610877
-1.0842022e-19 2.503047 0
2.5120537 -0 -1.8504061
-2 2.5079861 -0
2.4803398 -1.0842022e-19 -1.8529862
-2 2.4454165 1.0842022e-19
2.4612701 0 -1.8413765
0 2.4586155 -2
2.4269438 -0 -1.8452407
1.0842022e-19 2.4027739 -0
2.4171095 0 -1.8369561
2 2.4071355 -0
2.379019 0 -1.8361573
1.0842022e-19 2.3627579 -2
2.3756692 -3.6893488e+19 -1.8305926
-3.6893488e+19 2.3689921 -0
2.3435099 -0 -1.8305697
-3.6893488e+19 2.3660789 -0
2.3204973 -0 -1.8302548
3.6893488e+19 2.3280835 -1.0842022e-19
2.3196239 1.0842022e-19 -1.8246849
1.0842022e-19 3.23177 -3.6893488e+19
3.2168968 -3.6893488e+19 2.7597187
1.0842022e-19 3.1709464 -1.0842022e-19
3.1579509 1.0842022e-19 2.6869247
0 3.1743221 2
3.1429513 1.0842022e-19 2.6477737
0 3.2014997 -3.6893488e+19
3.2151277 1.0842022e-19 2.6679847
-1.0842022e-19 3.2374687 -2
3.2014294 -3.6893488e+19 2.6689105
1.0842022e-19 3.2038677 -2
3.2175672 -0 2.6515534
-2 3.1927142 -3.6893488e+19
3.1599836 -3.6893488e+19 2.5960338
-2 3.191442 2
3.1588056 0 2.5779364
2 3.1919417 -3.6893488e+19
3.1592681 -1.0842022e-19 2.561214
1.0842022e-19 3.1913502 2
3.1587205 2 2.543761
-1.0842022e-19 3.2508252 -2
3.1868749 0 2.5654531
-3.6893488e+19 3.1772156 -0
3.1640267 -0 2.5237081
0 3.2527714 -2
3.1902645 -3.6893488e+19 2.5489581
-1.0842022e-19 3.1767223 1.0842022e-19
3.1635487 -0 2.5066178
-0 3.2518365 1.0842022e-19
3.1886365 0 2.5290098
3.6893488e+19 3.1654229 0
3.1525981 1.0842022e-19 2.4670281
2 3.2110813 -2
3.1515441 1.0842022e-19 2.4763899
-2 3.1672466 2
3.1543655 -3.6893488e+19 2.4363701
-0 3.2115943 1.0842022e-19
3.1519911 2 2.4424796
1.0842022e-19 3.1853726 -1.0842022e-19
3.1719317 -1.0842022e-19 2.4212358
2 3.2108171 -2
3.151314 -1.0842022e-19 2.407402
3.6893488e+19 3.1690049 1.0842022e-19
3.1560695 -2 2.3726363
-3.6893488e+19 3.1224868 0
3.0743897 -0 2.3015859
0 3.1772182 3.6893488e+19
3.1640291 -3.6893488e+19 2.3465657
0 3.1214771 1.0842022e-19
3.0735102 -0 2.2731535
-2 3.1733491 0
3.1602798 0 2.3103883
3.6893488e+19 3.1542404 1.0842022e-19
3.1664422 1.0842022e-19 2.2893159
2 3.1923497 3.6893488e+19
3.159646 1.0842022e-19 2.2836714
-3.6893488e+19 3.1529064 -1.0842022e-19
3.1650679 -3.6893488e+19 2.2559927
2 3.181186 1.0842022e-19
3.1493077 -0 2.2372689
-0 3.0981784 -1.0842022e-19
3.1086879 -3.6893488e+19 2.1365294
-0 3.1829345 2
3.1509271 2 2.1732833
2 3.1535044 -3.6893488e+19
3.1656837 -3.6893488e+19 2.1331973
-0 3.1856484 -1.0842022e-19
3.1534402 1.0842022e-19 2.1095901
-3.6893488e+19 3.0919836 -2
3.1023061 -0 2.0199356
1.0842022e-19 3.188205 -0
3.1558077 0 2.0450125
0 3.0938416 0
3.1042202 -2 1.9662825
2 3.0975869 -0
3.0718892 -3.6893488e+19 1.9311209
0 3.1469319 -0
3.1589129 0 1.9360839
1.0842022e-19 3.0987368 -2
3.0729539 -0 1.8786885
3.6893488e+19 3.1431699 -0
3.1550374 -0 1.8676703
0 3.0994573 3.6893488e+19
3.0736213 2 1.7766306
-3.6893488e+19 3.1021411 0
3.0566711 -1.0842022e-19 1.693157
-0 3.1055498 -3.6893488e+19
3.0945733 1.0842022e-19 1.563645
3.6893488e+19 3.1291318 -2
3.0801764 1.0842022e-19 -1.2559177
-3.6893488e+19 3.1078823 2
3.0968339 -1.0842022e-19 -1.627386
2 3.1091142 -3.6893488e+19
3.0627434 3.6893488e+19 -1.7279431
0 3.1069663 -3.6893488e+19
3.0959458 -2 -1.7994368
2 3.1298227 -0
3.0807781 -1.0842022e-19 -1.857924
-1.0842022e-19 3.1157479 -0
3.1044567 -2 -1.8961793
1.0842022e-19 3.1087356 -3.6893488e+19
3.0624137 -1.0842022e-19 -1.913067
-0 3.1135621 -0
3.1023383 3.6893488e+19 -1.9518067
-1.0842022e-19 3.1074953 0
3.0613339 -0 -1.9654168
-2 3.1176395 -1.0842022e-19
3.1062899 -3.6893488e+19 -2.0112131
-1.0842022e-19 3.1095591 2
3.0631311 -0 -2.0199003
-0 3.0383255 3.6893488e+19
3.0294244 3.6893488e+19 -1.9997034
1.0842022e-19 3.0567915 1.0842022e-19
3.0171771 0 -2.0257311
3.6893488e+19 2.7537022 -1.0842022e-19
2.7613599 0 -1.8937947
2 2.7235901 0
2.6885769 2 -1.8864306
2 2.6511669 -3.6893488e+19
2.6632757 1.0842022e-19 -1.8797914
0 2.6409178 -2
2.6120164 0 -1.87752
2 2.584789 2
2.5948944 -2 -1.8685362
0 2.5819962 -3.6893488e+19
2.557451 -3.6893488e+19 -1.8669323
2 2.5426846 -2
2.5515189 0 -1.8614453
0 2.5433269 -3.6893488e+19
2.5216405 -1.0842022e-19 -1.8611614
3.6893488e+19 2.505034 2
2.512732 -2 -1.8515627
3.6893488e+19 2.5074253 -3.6893488e+19
2.4767869 2 -1.8519386
-0 2.4483571 -0
2.4618905 -1.0842022e-19 -1.8422171
-1.0842022e-19 2.4599137 2
2.4259117 -3.6893488e+19 -1.8453282
-2 2.4031701 0
2.4153397 2 -1.8365921
0 2.4083085 1.0842022e-19
2.3781216 -0 -1.8362517
3.6893488e+19 2.3651259 1.0842022e-19
2.376147 -3.6893488e+19 -1.8313762
-3.6893488e+19 2.3724444 0
2.3449092 -2 -1.8319895
3.6893488e+19 2.3656039 2
2.3183954 -1.0842022e-19 -1.8295206
-3.6893488e+19 2.3296325 2
2.3194563 -2 -1.8251182
-3.6893488e+19 2.3347886 0
2.2915592 0 -1.82481
0 2.2837317 0
2.2441897 -2 -1.8156209
-0 2.2469587 1.0842022e-19
2.1827891 -2 -1.8106419
-0 2.0719702 -1.0842022e-19
2.0816886 1.0842022e-19 -1.7949136
3.6893488e+19 2.0513005 -2
2.060395 -2 -1.7965081
0 2.033407 -3.6893488e+19
2.0419612 -0 -1.7981478
3.6893488e+19 3.1734297 2
3.1603577 1.0842022e-19 2.7065361
1.0842022e-19 3.1709464 -1.0842022e-19
3.1579509 1.0842022e-19 2.6869247
0 3.1743221 2
3.1429513 1.0842022e-19 2.6477737
0 3.2014997 -3.6893488e+19
3.2151277 1.0842022e-19 2.6679847
-1.0842022e-19 3.2374687 -2
3.2014294 -3.6893488e+19 2.6689105
1.0842022e-19 3.2038677 -2
3.2175672 -0 2.6515534
-2 3.1927142 -3.6893488e+19
3.1599836 -3.6893488e+19 2.5960338
-2 3.191442 2
3.1588056 0 2.5779364
2 3.1919417 -3.6893488e+19
3.1592681 -1.0842022e-19 2.561214
1.0842022e-19 3.1913502 2
3.1587205 2 2.543761
-2 3.2370474 1.0842022e-19
3.1741576 -0 2.5562701
-3.6893488e+19 3.1772156 -0
3.1640267 -0 2.5237081
