# .PCD v0.7 - Point Cloud Data file format
VERSION 0.7
FIELDS x y z
SIZE 4 4 4
TYPE F F F
COUNT 1 1 1
WIDTH 1687
HEIGHT 1
VIEWPOINT 0 0 0 1 0 0 0
POINTS 1687
DATA ascii
-2.1071231 -2 2.0833929
3.6893488e+19 3.2179377 2
-0.91442484 0 2.0961108
3.6893488e+19 3.1680548 -1.0842022e-19
-2.1067593 -2 2.0362628
1.0842022e-19 3.1617768 -0
-0.902192 -2 2.008554
-0 3.1687617 -3.6893488e+19
-2.1073625 -3.6893488e+19 1.9898961
-3.6893488e+19 3.1564758 3.6893488e+19
-0.9010374 -3.6893488e+19 1.9598347
2 3.1703844 -3.6893488e+19
-2.1087472 2 1.943826
-2 3.1584318 2
-0.90146345 -2 1.9152466
2 3.157994 1.0842022e-19
-0.90136808 -2 1.864091
0 3.1599112 -2
-0.90178561 2 1.7737442
-0 3.1568778 2
-2.0972211 -1.0842022e-19 1.704814
-2 3.1405573 -3.6893488e+19
-2.2625353 1.0842022e-19 1.5941721
0 3.1477823 -2
-1.9447923 -0 1.3047589
-3.6893488e+19 3.143518 3.6893488e+19
-2.2645257 0 -1.5065761
3.6893488e+19 3.1459322 0
-1.9438864 2 -1.6543471
-1.0842022e-19 3.1410725 3.6893488e+19
-2.2628818 -3.6893488e+19 -1.740461
-1.0842022e-19 3.1457808 2
-1.9438123 3.6893488e+19 -1.7904912
-2 3.1479802 3.6893488e+19
-2.2675252 -0 -1.8364707
1.0842022e-19 3.1433306 -1.0842022e-19
-1.9426123 2 -1.8761328
2 3.1480181 -3.6893488e+19
-2.2675505 -2 -1.9003094
-1.0842022e-19 3.1433597 -1.0842022e-19
-1.9426266 1.0842022e-19 -1.9200659
-1.0842022e-19 3.1443999 -2
-1.943136 3.6893488e+19 -1.9645634
-3.6893488e+19 3.1142735 0
-1.9283834 -0 -1.9888843
-0 3.0982711 -1.0842022e-19
-2.2182207 1.0842022e-19 -1.9986125
-1.0842022e-19 3.1094184 3.6893488e+19
-1.9260057 -1.0842022e-19 -2.0258832
1.0842022e-19 2.8702271 1.0842022e-19
-1.9079721 3.6893488e+19 -1.9129585
2 2.8991315 3.6893488e+19
-0.83693767 2 -1.9365959
0 2.8626013 -1.0842022e-19
-1.9047182 -3.6893488e+19 -1.9299237
-2 2.792624 3.6893488e+19
-0.81373852 -2 -1.9031867
-3.6893488e+19 2.7536614 -0
-1.8414695 -0 -1.8900933
1.0842022e-19 2.7169015 -0
-0.78919911 0 -1.8852898
-2 2.6730535 -3.6893488e+19
-1.8055125 2 -1.8786995
3.6893488e+19 2.6479957 -2
-0.77419025 -1.0842022e-19 -1.8764865
2 2.6157219 -2
-1.7810497 2 -1.8680686
0 2.5899813 -1.0842022e-19
-0.7615537 3.6893488e+19 -1.8601872
2 2.5683842 1.0842022e-19
-1.7608513 -2 -1.8545225
1.0842022e-19 2.5500662 -0
-0.75285953 1.0842022e-19 -1.8494469
-0 2.5315261 -3.6893488e+19
-1.7402486 0 -1.8438103
2 2.5145414 -2
-0.74024326 -1.0842022e-19 -1.8377681
3.6893488e+19 2.4995885 -1.0842022e-19
-1.7131692 2 -1.8332403
-0 2.4802763 2
-1.7864226 -1.0842022e-19 -1.8324051
-1.0842022e-19 2.4589593 3.6893488e+19
-1.5997505 2 -1.8290738
1.0842022e-19 3.175581 1.0842022e-19
-2.2950709 1.0842022e-19 2.6454797
3.6893488e+19 3.1774116 -3.6893488e+19
-2.29634 3.6893488e+19 2.6345985
3.6893488e+19 3.2188818 -0
-1.9993007 -1.0842022e-19 2.6637077
-1.0842022e-19 3.1718924 -3.6893488e+19
-2.2925134 3.6893488e+19 2.6172488
-3.6893488e+19 3.2596755 1.0842022e-19
-2.026135 0 2.6930661
3.6893488e+19 3.2612789 -2
-2.0278397 -2 2.6805806
-3.6893488e+19 3.2633016 1.0842022e-19
-2.0299909 0 2.6686227
3.6893488e+19 3.2539344 -2
-2.352124 -0 2.6476374
-1.0842022e-19 3.2507913 -3.6893488e+19
-2.0166874 -3.6893488e+19 2.6342046
0 3.2500756 0
-2.0159264 2 2.6186633
3.6893488e+19 3.255749 -3.6893488e+19
-2.3546402 3.6893488e+19 2.6208363
2 3.2039752 -2
-1.5304567 3.6893488e+19 2.5648475
2 3.2437124 -2
-2.1920986 1.0842022e-19 2.5858448
3.6893488e+19 3.1946483 -2
-1.5272628 3.6893488e+19 2.5456214
0 3.1925294 0
-1.5265373 2 2.5315478
2 3.197242 3.6893488e+19
-1.528151 3.6893488e+19 2.5217721
-1.0842022e-19 3.2016015 3.6893488e+19
-1.5296439 -3.6893488e+19 2.5115526
2 3.2602558 1.0842022e-19
-2.2160964 0 2.5445147
1.0842022e-19 3.2622066 1.0842022e-19
-2.2195899 2 2.5318
2 3.2634358 3.6893488e+19
-2.2217915 -3.6893488e+19 2.5181541
2 3.2504246 -3.6893488e+19
-1.546508 -1.0842022e-19 2.4948416
3.6893488e+19 3.2599761 -1.0842022e-19
-2.2155955 1.0842022e-19 2.4997828
3.6893488e+19 3.2569971 1.0842022e-19
-2.3563712 -1.0842022e-19 2.4805472
2 3.2412314 -0
-2.0111837 -0 2.4439135
1.0842022e-19 3.2530215 -3.6893488e+19
-2.350858 -2 2.444422
2 3.2457991 -1.0842022e-19
-2.0136123 1.0842022e-19 2.4200475
1.0842022e-19 3.2533166 -2
-2.3512673 3.6893488e+19 2.4162598
3.6893488e+19 3.2494786 2
-2.0155687 3.6893488e+19 2.3949995
2 3.2522514 2
-2.3497903 2 2.3859954
3.6893488e+19 3.2403243 -0
-2.0107014 3.6893488e+19 2.3601544
1.0842022e-19 3.251467 -3.6893488e+19
-2.3487024 -0 2.3564019
-0 3.242929 2
-2.0120864 -1.0842022e-19 2.3343453
2 3.1696334 2
-2.2909472 1.0842022e-19 2.2737148
2 3.2470071 -2
-2.0142546 3.6893488e+19 2.3091984
-2 3.2572162 -3.6893488e+19
-2.3566749 -3.6893488e+19 2.3065758
-3.6893488e+19 3.1626785 2
-1.9694179 -2 2.2171588
-0 3.2582905 -3.6893488e+19
-2.3581645 2 2.2787974
-3.6893488e+19 3.1569185 -3.6893488e+19
-1.9663553 -3.6893488e+19 2.1650169
-0 3.217433 0
-1.5350652 -1.0842022e-19 2.2003086
2 3.2460504 -1.0842022e-19
-2.1941922 -0 2.2008243
-0 3.217649 -0
-1.5351391 1.0842022e-19 2.1481934
0 3.2564533 3.6893488e+19
-2.2092862 -2 2.1586776
1.0842022e-19 3.2175615 -3.6893488e+19
-1.535109 -3.6893488e+19 2.0958335
3.6893488e+19 3.2514858 2
-2.2003901 2 2.0944591
2 3.218013 1.0842022e-19
-1.5352638 0 2.0438659
2 3.2487752 -3.6893488e+19
-2.1966321 -2 2.0357742
3.6893488e+19 3.2177236 -2
-1.5351646 -3.6893488e+19 1.9914534
2 3.2603908 -3.6893488e+19
-2.2163379 2 1.9901503
0 3.2177551 -3.6893488e+19
-1.5351753 0 1.9392488
-3.6893488e+19 3.3156495 -0
-2.2826509 1.0842022e-19 1.9705379
0 3.1585238 2
-1.5148926 -3.6893488e+19 1.8644023
-3.6893488e+19 3.1623781 3.6893488e+19
-1.5162125 -1.0842022e-19 1.77464
-1.0842022e-19 3.1603451 0
-2.1174469 2 1.706589
-1.0842022e-19 3.1396916 -3.6893488e+19
-2.2701874 2 1.5937352
3.6893488e+19 3.1471868 2
-1.961181 2 1.3045049
0 3.145267 1.0842022e-19
-2.2740531 1.0842022e-19 -1.5071903
2 3.146836 -2
-1.9609945 -0 -1.6547123
-1.0842022e-19 3.1412029 -3.6893488e+19
-2.2712352 2 -1.7405951
-2 3.1449044 -3.6893488e+19
-1.9599675 3.6893488e+19 -1.7901386
-2 3.1534321 3.6893488e+19
-2.2797143 2 -1.8394157
-3.6893488e+19 3.1446402 -2
-1.9598271 -1.0842022e-19 -1.8765634
-2 3.1770928 0
-2.2961192 0 -1.9113256
-3.6893488e+19 3.1463864 -3.6893488e+19
-1.9607555 -3.6893488e+19 -1.9213887
-0 3.1490989 -2
-2.2767098 3.6893488e+19 -1.9454699
-2 3.1465518 -2
-1.9608434 -2 -1.9657521
2 3.1734269 0
-2.2935774 3.6893488e+19 -2.0048497
1.0842022e-19 3.1156163 -3.6893488e+19
-1.9443952 -0 -1.9897848
-0 3.0975711 -0
-2.2319677 2 -1.9981683
-0 3.10917 -0
-1.9409678 -0 -2.0257156
-3.6893488e+19 2.9004402 3.6893488e+19
-1.3871245 -1.0842022e-19 -1.9372084
-0 2.8583763 3.6893488e+19
-1.9104555 -1.0842022e-19 -1.9278527
-1.0842022e-19 2.7888186 -0
-1.3228029 2 -1.9011952
-1.0842022e-19 2.7548079 2
-1.8531699 3.6893488e+19 -1.8907467
-3.6893488e+19 2.7172737 -2
-1.2850106 1.0842022e-19 -1.8853981
1.0842022e-19 2.6748598 2
-1.815222 -2 -1.8792675
-2 2.6430099 3.6893488e+19
-1.2595801 0 -1.8748051
-3.6893488e+19 2.6144257 1.0842022e-19
-1.788164 -3.6893488e+19 -1.8672417
-3.6893488e+19 2.5899799 3.6893488e+19
-1.2328417 3.6893488e+19 -1.8601872
-2 2.5685871 2
-1.7676407 -0 -1.8547018
-2 2.5506873 -0
-1.2059314 -2 -1.8499123
3.6893488e+19 2.53161 -2
-1.7510849 1.0842022e-19 -1.8439069
1.0842022e-19 2.5152867 -1.0842022e-19
-1.1816865 -0 -1.8383683
-0 2.5000067 -0
-1.7238705 -2 -1.8334472
0 2.4799213 3.6893488e+19
-1.7913735 2 -1.8322982
-3.6893488e+19 2.4594176 -2
-1.6192687 1.0842022e-19 -1.8292947
3.6893488e+19 2.4397109 0
-1.7774339 2 -1.8273898
-3.6893488e+19 2.3727622 3.6893488e+19
-1.7542249 1.0842022e-19 -1.8177507
-1.0842022e-19 2.32669 1.0842022e-19
-1.7265062 -2 -1.8125526
3.6893488e+19 2.2854099 -1.0842022e-19
-1.6978852 -3.6893488e+19 -1.8051906
-3.6893488e+19 2.2594581 -1.0842022e-19
-1.0526948 -0 -1.8030561
-1.0842022e-19 2.2243664 -2
-1.0374393 -1.0842022e-19 -1.80142
-1.0842022e-19 2.1799486 3.6893488e+19
-1.0222292 -1.0842022e-19 -1.7973372
-0 2.1435096 -1.0842022e-19
-1.0097512 -1.0842022e-19 -1.7941775
1.0842022e-19 3.175581 1.0842022e-19
-2.2950709 1.0842022e-19 2.6454797
3.6893488e+19 3.1774116 -3.6893488e+19
-2.29634 3.6893488e+19 2.6345985
3.6893488e+19 3.2188818 -0
-1.9993007 -1.0842022e-19 2.6637077
-1.0842022e-19 3.1718924 -3.6893488e+19
-2.2925134 3.6893488e+19 2.6172488
-3.6893488e+19 3.2596755 1.0842022e-19
-2.026135 0 2.6930661
3.6893488e+19 3.2612789 -2
-2.0278397 -2 2.6805806
-3.6893488e+19 3.2633016 1.0842022e-19
-2.0299909 0 2.6686227
3.6893488e+19 3.2539344 -2
-2.352124 -0 2.6476374
-1.0842022e-19 3.2507913 -3.6893488e+19
-2.0166874 -3.6893488e+19 2.6342046
0 3.2500756 0
-2.0159264 2 2.6186633
3.6893488e+19 3.255749 -3.6893488e+19
-2.3546402 3.6893488e+19 2.6208363
2 3.2039752 -2
-1.5304567 3.6893488e+19 2.5648475
2 3.2437124 -2
-2.1920986 1.0842022e-19 2.5858448
3.6893488e+19 3.1946483 -2
-1.5272628 3.6893488e+19 2.5456214
0 3.1925294 0
-1.5265373 2 2.5315478
2 3.197242 3.6893488e+19
-1.528151 3.6893488e+19 2.5217721
-1.0842022e-19 3.2016015 3.6893488e+19
-1.5296439 -3.6893488e+19 2.5115526
2 3.2602558 1.0842022e-19
-2.2160964 0 2.5445147
1.0842022e-19 3.2622066 1.0842022e-19
-2.2195899 2 2.5318
2 3.2634358 3.6893488e+19
-2.2217915 -3.6893488e+19 2.5181541
0 3.2081738 1.0842022e-19
-1.5318944 2 2.452678
-1.0842022e-19 3.1657388 1.0842022e-19
-2.1222768 -2 2.3996117
-1.0842022e-19 3.1582019 1.0842022e-19
-2.2830215 -2 2.381639
1.0842022e-19 3.1556973 3.6893488e+19
-1.965706 -1.0842022e-19 2.3666184
1.0842022e-19 3.1589568 -3.6893488e+19
-2.2835445 -0 2.359158
2 3.1576529 -0
-1.9667457 3.6893488e+19 2.3453689
1.0842022e-19 3.2533166 -2
-2.3512673 3.6893488e+19 2.4162598
-2 3.1599329 1.0842022e-19
-1.9679581 -0 2.3241847
-1.0842022e-19 3.1655531 -2
-2.2881181 0 2.31794
2 3.1761296 -0
-1.9765697 -0 2.3130019
3.6893488e+19 3.1506848 -2
-2.2778094 0 2.2839437
-0 3.1599598 0
-1.9679724 -0 2.2780688
2 3.1696334 2
-2.2909472 1.0842022e-19 2.2737148
0 3.1610951 2
-1.968576 -1.0842022e-19 2.2557507
0 3.1557341 0
-2.2813103 -0 2.2335939
-3.6893488e+19 3.1626785 2
-1.9694179 -2 2.2171588
-2 3.1574249 -2
-2.2824826 0 2.1897724
-3.6893488e+19 3.1569185 -3.6893488e+19
-1.9663553 -3.6893488e+19 2.1650169
1.0842022e-19 3.1530187 -1.0842022e-19
-1.5130074 0 2.1382542
3.6893488e+19 3.1574254 1.0842022e-19
-2.1148324 1.0842022e-19 2.1202796
2 3.1523979 3.6893488e+19
-1.5127949 -0 2.0926332
0 3.2564533 3.6893488e+19
-2.2092862 -2 2.1586776
3.6893488e+19 3.1648679 1.0842022e-19
-1.517065 -3.6893488e+19 2.0568585
2 3.1520345 -2
-2.1100049 0 2.0253325
2 3.1646168 -3.6893488e+19
-1.516979 2 2.0103383
-0 3.1549196 0
-2.1125886 3.6893488e+19 1.9819996
2 3.1608472 3.6893488e+19
-1.5156882 -1.0842022e-19 1.962092
-1.0842022e-19 3.1550107 1.0842022e-19
-2.1126702 -2 1.9367644
-3.6893488e+19 3.1595862 -1.0842022e-19
-1.5152564 -3.6893488e+19 1.9157143
2 3.1700864 3.6893488e+19
-2.1261697 1.0842022e-19 1.8967528
0 3.1585238 2
-1.5148926 -3.6893488e+19 1.8644023
-3.6893488e+19 3.1623781 3.6893488e+19
-1.5162125 -1.0842022e-19 1.77464
-1.0842022e-19 3.1603451 0
-2.1174469 2 1.706589
-1.0842022e-19 3.1396916 -3.6893488e+19
-2.2701874 2 1.5937352
3.6893488e+19 3.1471868 2
-1.961181 2 1.3045049
0 3.145267 1.0842022e-19
-2.2740531 1.0842022e-19 -1.5071903
2 3.146836 -2
-1.9609945 -0 -1.6547123
-1.0842022e-19 3.1412029 -3.6893488e+19
-2.2712352 2 -1.7405951
-2 3.1449044 -3.6893488e+19
-1.9599675 3.6893488e+19 -1.7901386
-2 3.1534321 3.6893488e+19
-2.2797143 2 -1.8394157
-3.6893488e+19 3.1446402 -2
-1.9598271 -1.0842022e-19 -1.8765634
2 3.1445365 -3.6893488e+19
-2.2735465 -3.6893488e+19 -1.8990279
-3.6893488e+19 3.1463864 -3.6893488e+19
-1.9607555 -3.6893488e+19 -1.9213887
-0 3.1490989 -2
-2.2767098 3.6893488e+19 -1.9454699
-2 3.1465518 -2
-1.9608434 -2 -1.9657521
2 3.1734269 0
-2.2935774 3.6893488e+19 -2.0048497
1.0842022e-19 3.1156163 -3.6893488e+19
-1.9443952 -0 -1.9897848
-0 3.0975711 -0
-2.2319677 2 -1.9981683
-0 3.10917 -0
-1.9409678 -0 -2.0257156
-3.6893488e+19 2.9004402 3.6893488e+19
-1.3871245 -1.0842022e-19 -1.9372084
-0 2.8583763 3.6893488e+19
-1.9104555 -1.0842022e-19 -1.9278527
-1.0842022e-19 2.7888186 -0
-1.3228029 2 -1.9011952
-1.0842022e-19 2.7548079 2
-1.8531699 3.6893488e+19 -1.8907467
-3.6893488e+19 2.7172737 -2
-1.2850106 1.0842022e-19 -1.8853981
1.0842022e-19 2.6748598 2
-1.815222 -2 -1.8792675
-2 2.6430099 3.6893488e+19
-1.2595801 0 -1.8748051
-3.6893488e+19 2.6144257 1.0842022e-19
-1.788164 -3.6893488e+19 -1.8672417
-3.6893488e+19 2.5899799 3.6893488e+19
-1.2328417 3.6893488e+19 -1.8601872
-2 2.5685871 2
-1.7676407 -0 -1.8547018
-2 2.5506873 -0
-1.2059314 -2 -1.8499123
3.6893488e+19 2.53161 -2
-1.7510849 1.0842022e-19 -1.8439069
1.0842022e-19 2.5152867 -1.0842022e-19
-1.1816865 -0 -1.8383683
-0 2.5000067 -0
-1.7238705 -2 -1.8334472
0 2.4799213 3.6893488e+19
-1.7913735 2 -1.8322982
-3.6893488e+19 2.4594176 -2
-1.6192687 1.0842022e-19 -1.8292947
3.6893488e+19 2.4397109 0
-1.7774339 2 -1.8273898
-3.6893488e+19 2.3727622 3.6893488e+19
-1.7542249 1.0842022e-19 -1.8177507
-1.0842022e-19 2.32669 1.0842022e-19
-1.7265062 -2 -1.8125526
3.6893488e+19 2.2854099 -1.0842022e-19
-1.6978852 -3.6893488e+19 -1.8051906
-3.6893488e+19 2.2594581 -1.0842022e-19
-1.0526948 -0 -1.8030561
-1.0842022e-19 2.2243664 -2
-1.0374393 -1.0842022e-19 -1.80142
-1.0842022e-19 2.1799486 3.6893488e+19
-1.0222292 -1.0842022e-19 -1.7973372
-0 2.1435096 -1.0842022e-19
-1.0097512 -1.0842022e-19 -1.7941775
3.6893488e+19 3.1753614 -0
-2.303915 2 2.6453669
1.0842022e-19 3.1773434 -3.6893488e+19
-2.305331 1.0842022e-19 2.6346259
-3.6893488e+19 3.1876707 0
-2.0010993 0 2.6362045
0 3.1727686 2
-2.3020625 1.0842022e-19 2.6180964
-0 3.2600186 1.0842022e-19
-2.0483544 2 2.6936915
1.0842022e-19 3.2615764 1.0842022e-19
-2.0501418 0 2.6811101
-1.0842022e-19 3.2610111 0
-2.0494933 0 2.6650186
-0 3.2538757 -0
-2.3627818 -0 2.6476374
-2 3.2505538 -1.0842022e-19
-2.0374942 1.0842022e-19 2.6338758
-0 3.2561114 -3.6893488e+19
-2.3659763 2 2.6362724
3.6893488e+19 3.26091 2
-2.0493772 3.6893488e+19 2.6346705
-1.0842022e-19 3.2554755 0
-2.365068 1.0842022e-19 2.6205254
-3.6893488e+19 3.2045245 3.6893488e+19
-1.6541387 -1.0842022e-19 2.5652318
1.0842022e-19 3.2418852 -2
-2.2111771 -0 2.5846519
2 3.1972947 -3.6893488e+19
-1.6516868 1.0842022e-19 2.547384
2 3.1945925 -2
-1.6507704 1.0842022e-19 2.5328634
2 3.2011919 -0
-1.6530085 -1.0842022e-19 2.5241752
-3.6893488e+19 3.2524245 -2
-2.2233319 1.0842022e-19 2.5500941
2 3.2016587 3.6893488e+19
-1.6531668 1.0842022e-19 2.5115886
1.0842022e-19 3.2600777 -0
-2.2376826 1.0842022e-19 2.5443573
-2 3.2046111 -0
-1.654168 2 2.5003676
0 3.261657 2
-2.240644 2 2.5312517
0 3.2613692 -2
-2.2401042 1.0842022e-19 2.5160906
-3.6893488e+19 3.2590697 -2
-2.2357926 0 2.4981153
3.6893488e+19 3.2590711 0
-2.3702059 3.6893488e+19 2.4845371
-1.0842022e-19 3.2408144 0
-2.0315888 -3.6893488e+19 2.4435768
2 3.2560263 -0
-2.3658547 2 2.4498038
0 3.1577091 2
-1.9839097 3.6893488e+19 2.3454478
1.0842022e-19 3.2532272 1.0842022e-19
-2.361855 -2 2.4162087
1.0842022e-19 3.2388356 -3.6893488e+19
-2.0304532 -1.0842022e-19 2.3866177
-1.0842022e-19 3.2526114 -3.6893488e+19
-2.360975 -2 2.3866355
1.0842022e-19 3.2402799 3.6893488e+19
-2.0312819 3.6893488e+19 2.3601544
-0 3.2506647 1.0842022e-19
-2.3581934 -3.6893488e+19 2.3553469
-1.0842022e-19 3.2413595 -0
-2.0319014 3.6893488e+19 2.3333111
2 3.3539364 -3.6893488e+19
-2.5028827 -2 2.4618316
1.0842022e-19 3.248301 0
-2.0358839 3.6893488e+19 2.3100314
-3.6893488e+19 3.2715442 -3.6893488e+19
-2.3880296 -2 2.3237281
-1.0842022e-19 3.1556942 -3.6893488e+19
-1.9827538 -1.0842022e-19 2.2092941
-0 3.2593024 2
-2.3705363 1.0842022e-19 2.2799542
2 3.1603725 3.6893488e+19
-1.9854378 -1.0842022e-19 2.1685774
-1.0842022e-19 3.1522033 -0
-1.6363955 -3.6893488e+19 2.1374726
-2 3.248374 2
-2.2172611 -3.6893488e+19 2.2030041
2 3.1535482 1.0842022e-19
-1.6368515 0 2.0936165
-2 3.2602003 -0
-2.2379127 -3.6893488e+19 2.1647112
1.0842022e-19 3.1662371 -2
-1.6411545 0 2.0578747
-3.6893488e+19 3.252383 -0
-2.2232542 -3.6893488e+19 2.0957398
1.0842022e-19 3.2308419 1.0842022e-19
-1.6630634 2 2.0519242
-3.6893488e+19 3.2502229 -1.0842022e-19
-2.2192037 0 2.0367749
0 3.158438 0
-1.6385098 0 1.9608506
3.6893488e+19 3.2603204 -3.6893488e+19
-2.2381377 0 1.9901216
2 3.1601443 3.6893488e+19
-1.6390884 2 1.9159418
3.6893488e+19 3.3139024 1.0842022e-19
-2.2943058 2 1.9693501
-3.6893488e+19 3.1570508 -1.0842022e-19
-1.6380394 0 1.8635418
-2 3.1619051 -0
-1.6396855 -2 1.7744699
2 3.1602211 3.6893488e+19
-2.1346114 -2 1.7065575
3.6893488e+19 3.138917 -2
-2.2778759 3.6893488e+19 1.5933508
-3.6893488e+19 3.1511168 -1.0842022e-19
-1.9801277 0 1.3062975
3.6893488e+19 3.2857211 -3.6893488e+19
-2.4082878 -0 -1.5661533
1.0842022e-19 3.1474559 -3.6893488e+19
-1.9780272 3.6893488e+19 -1.654968
-1.0842022e-19 3.2858801 3.6893488e+19
-2.4085152 -3.6893488e+19 -1.8008606
0 3.1473982 0
-1.9779942 1.0842022e-19 -1.7911965
2 3.2859008 1.0842022e-19
-2.4085448 3.6893488e+19 -1.9019853
-0 3.2598901 -1.0842022e-19
-2.0482068 3.6893488e+19 -1.9167117
-3.6893488e+19 3.1434495 2
-2.2811146 0 -1.8986518
-2 3.2590513 2
-2.0472445 -1.0842022e-19 -1.9740366
-0 3.1495979 2
-2.2855074 -1.0842022e-19 -1.9457594
-1.0842022e-19 3.259917 -0
-2.0482378 -2 -2.0328519
3.6893488e+19 3.1132429 3.6893488e+19
-1.9583987 2 -1.9882499
-3.6893488e+19 3.1358004 3.6893488e+19
-2.2756493 1.0842022e-19 -2.025528
0 3.1085761 0
-1.9557213 -0 -2.0252845
-3.6893488e+19 2.8960061 1.0842022e-19
-1.5092939 -1.0842022e-19 -1.9351374
0 2.8491683 -1.0842022e-19
-1.913685 -0 -1.9233091
-3.6893488e+19 2.790936 -1.0842022e-19
-1.4473249 1.0842022e-19 -1.9023052
2 2.7542095 -2
-1.8633394 1.0842022e-19 -1.8904372
3.6893488e+19 2.718765 -1.0842022e-19
-1.4089679 -2 -1.8858316
-3.6893488e+19 2.6730537 -1.0842022e-19
-1.8233215 -3.6893488e+19 -1.8787373
3.6893488e+19 2.6430058 -2
-1.3832763 0 -1.8748051
-2 2.6144953 0
-1.7958702 -0 -1.8673245
-0 2.5897274 -3.6893488e+19
-1.3554171 1.0842022e-19 -1.8600149
-2 2.571522 2
-1.7757249 -2 -1.8568527
-0 2.5505598 -1.0842022e-19
-1.3288521 -3.6893488e+19 -1.8498192
-1.0842022e-19 2.5321887 -0
-1.757286 1.0842022e-19 -1.8443897
1.0842022e-19 2.5157814 -0
-1.3052639 0 -1.8387685
2 2.4974561 1.0842022e-19
-1.7332002 -1.0842022e-19 -1.8324122
-0 2.4798105 2
-1.7964091 2 -1.8322982
2 2.4593761 2
-1.631776 1.0842022e-19 -1.8292947
3.6893488e+19 3.1753614 -0
-2.303915 2 2.6453669
1.0842022e-19 3.1773434 -3.6893488e+19
-2.305331 1.0842022e-19 2.6346259
-3.6893488e+19 3.1876707 0
-2.0010993 0 2.6362045
0 3.1727686 2
-2.3020625 1.0842022e-19 2.6180964
1.0842022e-19 3.1873555 1.0842022e-19
-2.0009184 -0 2.623148
-2 3.1888206 0
-2.0017591 3.6893488e+19 2.6116152
-0 3.1921966 -1.0842022e-19
-2.0036957 3.6893488e+19 2.6015553
3.6893488e+19 3.1950312 3.6893488e+19
-2.3179688 -0 2.5985188
-2 3.2505538 -1.0842022e-19
-2.0374942 1.0842022e-19 2.6338758
-0 3.2561114 -3.6893488e+19
-2.3659763 2 2.6362724
3.6893488e+19 3.26091 2
-2.0493772 3.6893488e+19 2.6346705
-1.0842022e-19 3.2554755 0
-2.365068 1.0842022e-19 2.6205254
-3.6893488e+19 3.2045245 3.6893488e+19
-1.6541387 -1.0842022e-19 2.5652318
1.0842022e-19 3.2418852 -2
-2.2111771 -0 2.5846519
2 3.1972947 -3.6893488e+19
-1.6516868 1.0842022e-19 2.547384
2 3.1945925 -2
-1.6507704 1.0842022e-19 2.5328634
2 3.2011919 -0
-1.6530085 -1.0842022e-19 2.5241752
-3.6893488e+19 3.2524245 -2
-2.2233319 1.0842022e-19 2.5500941
2 3.2016587 3.6893488e+19
-1.6531668 1.0842022e-19 2.5115886
1.0842022e-19 3.2600777 -0
-2.2376826 1.0842022e-19 2.5443573
-2 3.2046111 -0
-1.654168 2 2.5003676
3.6893488e+19 3.1582313 -0
-2.1327457 3.6893488e+19 2.4388025
-2 3.1632142 0
-2.1374178 -0 2.4206786
-3.6893488e+19 3.1652117 1.0842022e-19
-2.1392906 2 2.3991652
1.0842022e-19 3.1591899 1.0842022e-19
-2.2923608 1.0842022e-19 2.3826511
-3.6893488e+19 3.154295 -3.6893488e+19
-1.981951 -2 2.3653843
0 3.1612759 1.0842022e-19
-2.2938511 -1.0842022e-19 2.3612781
0 3.1577091 2
-1.9839097 3.6893488e+19 2.3454478
-2 3.1651711 -3.6893488e+19
-2.2966342 1.0842022e-19 2.3411915
-1.0842022e-19 3.1593363 1.0842022e-19
-1.9848434 -2 2.3237422
3.6893488e+19 3.1501193 -1.0842022e-19
-2.2858799 2 2.3062022
0 3.1772728 1.0842022e-19
-1.9951338 -2 2.31387
1.0842022e-19 3.1509645 3.6893488e+19
-2.2864838 1.0842022e-19 2.2842073
-0 3.1758864 3.6893488e+19
-1.9943384 2 2.2888978
2 3.3539364 -3.6893488e+19
-2.5028827 -2 2.4618316
1.0842022e-19 3.248301 0
-2.0358839 3.6893488e+19 2.3100314
-1.0842022e-19 3.1713469 1.0842022e-19
-2.3010468 -0 2.2511594
-1.0842022e-19 3.1556942 -3.6893488e+19
-1.9827538 -1.0842022e-19 2.2092941
-0 3.2593024 2
-2.3705363 1.0842022e-19 2.2799542
2 3.1603725 3.6893488e+19
-1.9854378 -1.0842022e-19 2.1685774
-1.0842022e-19 3.1522033 -0
-1.6363955 -3.6893488e+19 2.1374726
1.0842022e-19 3.1560249 -3.6893488e+19
-2.130677 0 2.1190622
2 3.1535482 1.0842022e-19
-1.6368515 0 2.0936165
-2 3.2602003 -0
-2.2379127 -3.6893488e+19 2.1647112
1.0842022e-19 3.1662371 -2
-1.6411545 0 2.0578747
-2 3.1515377 -0
-2.1264701 -0 2.0250335
1.0842022e-19 3.1583049 -1.0842022e-19
-1.6384646 3.6893488e+19 2.0063777
3.6893488e+19 3.1548588 -0
-2.1295838 3.6893488e+19 1.9819996
0 3.158438 0
-1.6385098 0 1.9608506
-2 3.1559165 0
-2.1305757 -1.0842022e-19 1.9372102
2 3.1601443 3.6893488e+19
-1.6390884 2 1.9159418
1.0842022e-19 3.1746705 -1.0842022e-19
-2.1481586 -0 1.8983765
-3.6893488e+19 3.1570508 -1.0842022e-19
-1.6380394 0 1.8635418
-2 3.1619051 -0
-1.6396855 -2 1.7744699
2 3.1602211 3.6893488e+19
-2.1346114 -2 1.7065575
3.6893488e+19 3.138917 -2
-2.2778759 3.6893488e+19 1.5933508
-3.6893488e+19 3.1511168 -1.0842022e-19
-1.9801277 0 1.3062975
3.6893488e+19 3.2857211 -3.6893488e+19
-2.4082878 -0 -1.5661533
1.0842022e-19 3.1474559 -3.6893488e+19
-1.9780272 3.6893488e+19 -1.654968
1.0842022e-19 3.1398678 0
-2.2785554 -2 -1.7398292
0 3.1473982 0
-1.9779942 1.0842022e-19 -1.7911965
3.6893488e+19 3.144376 3.6893488e+19
-2.2817764 2 -1.8346509
2 3.1452603 2
-1.9767677 -3.6893488e+19 -1.8767737
-3.6893488e+19 3.1434495 2
-2.2811146 0 -1.8986518
-0 3.1461632 0
-1.9772857 3.6893488e+19 -1.9213078
-0 3.1495979 2
-2.2855074 -1.0842022e-19 -1.9457594
1.0842022e-19 3.1465161 -1.0842022e-19
-1.977488 -2 -1.9657521
3.6893488e+19 3.1132429 3.6893488e+19
-1.9583987 2 -1.9882499
3.6893488e+19 3.0989835 -1.0842022e-19
-2.2486882 2 -1.9992343
0 3.1085761 0
-1.9557213 -0 -2.0252845
-3.6893488e+19 2.8960061 1.0842022e-19
-1.5092939 -1.0842022e-19 -1.9351374
0 2.8491683 -1.0842022e-19
-1.913685 -0 -1.9233091
-3.6893488e+19 2.790936 -1.0842022e-19
-1.4473249 1.0842022e-19 -1.9023052
2 2.7542095 -2
-1.8633394 1.0842022e-19 -1.8904372
3.6893488e+19 2.718765 -1.0842022e-19
-1.4089679 -2 -1.8858316
-3.6893488e+19 2.6730537 -1.0842022e-19
-1.8233215 -3.6893488e+19 -1.8787373
3.6893488e+19 2.6430058 -2
-1.3832763 0 -1.8748051
-2 2.6144953 0
-1.7958702 -0 -1.8673245
-0 2.5897274 -3.6893488e+19
-1.3554171 1.0842022e-19 -1.8600149
-2 2.571522 2
-1.7757249 -2 -1.8568527
-0 2.5505598 -1.0842022e-19
-1.3288521 -3.6893488e+19 -1.8498192
-1.0842022e-19 2.5321887 -0
-1.757286 1.0842022e-19 -1.8443897
1.0842022e-19 2.5157814 -0
-1.3052639 0 -1.8387685
2 2.4974561 1.0842022e-19
-1.7332002 -1.0842022e-19 -1.8324122
-0 2.4798105 2
-1.7964091 2 -1.8322982
2 2.4593761 2
-1.631776 1.0842022e-19 -1.8292947
3.6893488e+19 3.1754422 -2
-2.3129704 -1.0842022e-19 2.6455359
-1.0842022e-19 3.1772721 -3.6893488e+19
-2.3143165 -3.6893488e+19 2.6346531
0 3.1879637 -0
-2.0196667 -1.0842022e-19 2.6365004
0 3.1754661 0
-2.312988 2 2.620533
-3.6893488e+19 3.2611384 -2
-2.0715809 0 2.695646
-2 3.1891448 2
-2.0203941 1.0842022e-19 2.6119177
-2 3.1704578 -2
-2.3093038 0 2.5915902
0 3.2612615 1.0842022e-19
-2.0717323 -0 2.6654568
3.6893488e+19 3.2537849 -3.6893488e+19
-2.3733864 -2 2.6475894
0 3.2506523 -1.0842022e-19
-2.0586674 -2 2.6340637
-2 3.2560046 1.0842022e-19
-2.3766525 -3.6893488e+19 2.6362031
-2 3.2549248 -1.0842022e-19
-2.3750637 -1.0842022e-19 2.6198144
-1.0842022e-19 3.2505894 3.6893488e+19
-2.0585902 -2 2.6050475
-1.0842022e-19 3.2016225 2
-1.7289462 2 2.5632246
-3.6893488e+19 3.2417769 1.0842022e-19
-2.2317817 -1.0842022e-19 2.584631
0 3.2508476 -2
-1.752165 3.6893488e+19 2.5835578
-3.6893488e+19 3.1998928 -2
-1.7280693 2 2.5362406
-0 3.2615182 2
-2.2562029 0 2.5759046
2 3.2012768 -3.6893488e+19
-1.7287709 -2 2.5242314
0 3.2524159 3.6893488e+19
-2.244571 1.0842022e-19 2.5501308
-0 3.2025168 2
-1.7293996 -2 2.51209
0 3.2599597 -1.0842022e-19
-2.2546759 -0 2.5442698
1.0842022e-19 3.2033651 2
-1.7298295 -3.6893488e+19 2.4993713
1.0842022e-19 3.2615695 -0
-2.256253 1.0842022e-19 2.5312018
0 3.2613127 2
-2.2560015 0 2.5160749
-3.6893488e+19 3.2588277 0
-2.2535672 3.6893488e+19 2.4977281
-0 3.2603695 -2
-2.3830743 -1.0842022e-19 2.4870813
-1.0842022e-19 3.2527218 -1.0842022e-19
-2.0612161 -2 2.4568427
0 3.2560892 2
-2.3767767 2 2.4500213
1.0842022e-19 3.1556199 -1.0842022e-19
-1.9997517 1.0842022e-19 2.3437111
-1.0842022e-19 3.2535849 -3.6893488e+19
-2.3730922 -1.0842022e-19 2.4168959
-3.6893488e+19 3.2374825 0
-2.0501571 -1.0842022e-19 2.3855853
1.0842022e-19 3.2530007 -0
-2.3722327 1.0842022e-19 2.3873234
1.0842022e-19 3.2398279 -0
-2.0516009 -2 2.3598573
-1.0842022e-19 3.1511791 3.6893488e+19
-2.2951217 -3.6893488e+19 2.2844269
-0 3.2414672 3.6893488e+19
-2.0526104 0 2.3334167
3.6893488e+19 3.3531699 0
-2.5098045 2 2.4609411
0 3.2499959 0
-2.0578618 -0 2.3111162
1.0842022e-19 3.1720848 2
-2.3105006 -3.6893488e+19 2.2516589
3.6893488e+19 3.2448347 -3.6893488e+19
-2.0546837 -1.0842022e-19 2.280133
-1.0842022e-19 3.2604206 -2
-2.3831494 1.0842022e-19 2.2812283
3.6893488e+19 3.164633 0
-2.0053015 0 2.1729646
-1.0842022e-19 3.150512 1.0842022e-19
-1.7030362 -1.0842022e-19 2.13585
1.0842022e-19 3.1659265 -1.0842022e-19
-2.1574726 -0 2.1281216
0 3.2531183 -3.6893488e+19
-1.753316 1.0842022e-19 2.1810617
-1.0842022e-19 3.2602217 -2
-2.2549326 -0 2.1648107
1.0842022e-19 3.231221 2
-1.7439508 -0 2.1059468
-0 3.2515488 1.0842022e-19
-2.2428722 2 2.0946512
0 3.2290225 1.0842022e-19
-1.7428364 -0 2.050787
-2 3.2534411 -3.6893488e+19
-2.2465799 1.0842022e-19 2.0405087
-3.6893488e+19 3.2255499 -2
-1.741076 2 1.9955006
-0 3.2587361 3.6893488e+19
-2.2534773 1.0842022e-19 1.9886978
3.6893488e+19 3.1527023 -0
-1.7041465 0 1.9129337
2 3.1563878 0
-1.7060149 -0 1.8631573
-2 3.1618354 -1.0842022e-19
-1.7087765 -0 1.7744472
1.0842022e-19 3.160687 1.0842022e-19
-2.1523397 -3.6893488e+19 1.7068245
-0 3.1383889 3.6893488e+19
-2.2857127 1.0842022e-19 1.5931062
2 3.1531389 3.6893488e+19
-1.9982241 0 1.3072292
-3.6893488e+19 3.2848907 0
-2.4191518 -2 -1.5656431
0 3.2600839 0
-2.0702822 2 -1.7028332
-1.0842022e-19 3.284723 3.6893488e+19
-2.418905 -0 -1.8001906
-2 3.2596292 3.6893488e+19
-2.0697224 -1.0842022e-19 -1.8421811
-0 3.1428199 2
-2.2889724 3.6893488e+19 -1.8338733
1.0842022e-19 3.2596307 0
-2.0697241 1.0842022e-19 -1.9165615
0 3.1426096 0
-2.2888176 0 -1.8983697
-2 3.2592914 -0
-2.0693064 -2 -1.9742661
-0 3.1461437 -2
-2.2914174 -0 -1.9441134
1.0842022e-19 3.2612338 3.6893488e+19
-2.0716982 -1.0842022e-19 -2.0343125
-1.0842022e-19 3.1381512 1.0842022e-19
-2.285538 -1.0842022e-19 -1.9837277
3.6893488e+19 3.1140187 -0
-1.9741367 0 -1.988782
-2 3.1390662 -0
-2.286211 -2 -2.0279262
-3.6893488e+19 3.1071997 2
-1.9699382 2 -2.0242548
0 2.9034865 -1.0842022e-19
-1.5795439 -0 -1.9386377
-0 2.8468719 -2
-1.9199108 1.0842022e-19 -1.9221964
1.0842022e-19 2.7929268 0
-1.5234967 1.0842022e-19 -1.90335
-2 2.7539206 1.0842022e-19
-1.8737597 3.6893488e+19 -1.8902997
1.0842022e-19 2.7190063 0
-1.4877588 -2 -1.8859038
-1.0842022e-19 2.6726141 0
-1.8320123 0 -1.8786238
2 2.6432483 -3.6893488e+19
-1.4493538 -3.6893488e+19 -1.8749634
-1.0842022e-19 2.6144381 3.6893488e+19
-1.8035154 -0 -1.8673245
-2 2.5893478 -2
-1.4220295 1.0842022e-19 -1.8597565
-3.6893488e+19 2.5708501 -0
-1.7821645 -1.0842022e-19 -1.8564045
-2 2.5505545 -3.6893488e+19
-1.4023635 -3.6893488e+19 -1.8498192
-0 2.5322685 2
-1.7632657 1.0842022e-19 -1.8444862
-0 2.5141599 3.6893488e+19
-1.3839136 2 -1.837468
3.6893488e+19 2.4976261 0
-1.7437559 -2 -1.8325157
-1.0842022e-19 2.4789538 -3.6893488e+19
-1.8011677 3.6893488e+19 -1.8319772
-0 2.4600761 1.0842022e-19
-1.641641 0 -1.829626
-0 2.4387629 3.6893488e+19
-1.7863848 -3.6893488e+19 -1.8270481
3.6893488e+19 2.3728347 2
-1.7621353 -2 -1.8178784
-3.6893488e+19 2.3250582 -0
-1.7391245 2 -1.8117033
1.0842022e-19 2.2845385 -3.6893488e+19
-1.7093166 -1.0842022e-19 -1.8047246
3.6893488e+19 2.258219 3.6893488e+19
-1.2559019 2 -1.8022107
0 2.2194378 1.0842022e-19
-1.2379775 -2 -1.7995918
2 2.1814075 -3.6893488e+19
-1.2186983 0 -1.7979268
-1.0842022e-19 2.1434987 -2
-1.1994808 -1.0842022e-19 -1.7941775
3.6893488e+19 3.1754422 -2
-2.3129704 -1.0842022e-19 2.6455359
-1.0842022e-19 3.1772721 -3.6893488e+19
-2.3143165 -3.6893488e+19 2.6346531
0 3.1879637 -0
-2.0196667 -1.0842022e-19 2.6365004
0 3.1754661 0
-2.312988 2 2.620533
-0 3.1848085 2
-2.017724 -2 2.621011
-2 3.1891448 2
-2.0203941 1.0842022e-19 2.6119177
-2 3.1704578 -2
-2.3093038 0 2.5915902
2 3.1923985 -3.6893488e+19
-2.0223973 3.6893488e+19 2.6017501
3.6893488e+19 3.2537849 -3.6893488e+19
-2.3733864 -2 2.6475894
0 3.2506523 -1.0842022e-19
-2.0586674 -2 2.6340637
-2 3.2560046 1.0842022e-19
-2.3766525 -3.6893488e+19 2.6362031
-2 3.2549248 -1.0842022e-19
-2.3750637 -1.0842022e-19 2.6198144
-1.0842022e-19 3.2505894 3.6893488e+19
-2.0585902 -2 2.6050475
-1.0842022e-19 3.2016225 2
-1.7289462 2 2.5632246
-3.6893488e+19 3.2417769 1.0842022e-19
-2.2317817 -1.0842022e-19 2.584631
2 3.1972253 -3.6893488e+19
-1.726717 1.0842022e-19 2.547343
-3.6893488e+19 3.1998928 -2
-1.7280693 2 2.5362406
-0 3.2615182 2
-2.2562029 0 2.5759046
2 3.2012768 -3.6893488e+19
-1.7287709 -2 2.5242314
0 3.2524159 3.6893488e+19
-2.244571 1.0842022e-19 2.5501308
-0 3.2025168 2
-1.7293996 -2 2.51209
0 3.2599597 -1.0842022e-19
-2.2546759 -0 2.5442698
1.0842022e-19 3.2033651 2
-1.7298295 -3.6893488e+19 2.4993713
1.0842022e-19 3.1569924 1.0842022e-19
-2.1487203 1.0842022e-19 2.4375396
0 3.1629329 -1.0842022e-19
-2.1545398 -0 2.4204581
-2 3.1650226 2
-2.1565874 -2 2.3990459
-0 3.2603695 -2
-2.3830743 -1.0842022e-19 2.4870813
-3.6893488e+19 3.2398977 2
-2.0516441 1.0842022e-19 2.4427917
2 3.1610234 -1.0842022e-19
-2.3023634 -1.0842022e-19 2.3611422
1.0842022e-19 3.1556199 -1.0842022e-19
-1.9997517 1.0842022e-19 2.3437111
-1.0842022e-19 3.1631532 2
-2.3039303 -2 2.3396137
-3.6893488e+19 3.1590788 2
-2.0018816 1.0842022e-19 2.3235703
-0 3.1499622 -1.0842022e-19
-2.2942264 2 2.3061547
-1.0842022e-19 3.1595373 1.0842022e-19
-2.0021639 3.6893488e+19 2.3008711
-1.0842022e-19 3.1511791 3.6893488e+19
-2.2951217 -3.6893488e+19 2.2844269
0 3.1615319 0
-2.003392 0 2.2791877
-2 3.1710806 2
-2.309762 -0 2.2747874
0 3.2499959 0
-2.0578618 -0 2.3111162
1.0842022e-19 3.1720848 2
-2.3105006 -3.6893488e+19 2.2516589
3.6893488e+19 3.2448347 -3.6893488e+19
-2.0546837 -1.0842022e-19 2.280133
-1.0842022e-19 3.2604206 -2
-2.3831494 1.0842022e-19 2.2812283
3.6893488e+19 3.164633 0
-2.0053015 0 2.1729646
-1.0842022e-19 3.150512 1.0842022e-19
-1.7030362 -1.0842022e-19 2.13585
1.0842022e-19 3.1659265 -1.0842022e-19
-2.1574726 -0 2.1281216
3.6893488e+19 3.1526363 -1.0842022e-19
-1.704113 1.0842022e-19 2.0928459
-1.0842022e-19 3.1495695 -0
-2.1414483 -1.0842022e-19 2.06847
-3.6893488e+19 3.1645753 2
-1.7101655 3.6893488e+19 2.0566509
0 3.1523473 0
-2.1441696 -1.0842022e-19 2.0256312
0 3.1513348 3.6893488e+19
-1.7034532 -2 2.0020053
1.0842022e-19 3.1544836 1.0842022e-19
-2.1462624 -1.0842022e-19 1.9818209
-0 3.1629283 0
-1.7093306 -3.6893488e+19 1.9631723
-0 3.2587361 3.6893488e+19
-2.2534773 1.0842022e-19 1.9886978
3.6893488e+19 3.1527023 -0
-1.7041465 0 1.9129337
2 3.1563878 0
-1.7060149 -0 1.8631573
-2 3.1618354 -1.0842022e-19
-1.7087765 -0 1.7744472
1.0842022e-19 3.160687 1.0842022e-19
-2.1523397 -3.6893488e+19 1.7068245
-0 3.1383889 3.6893488e+19
-2.2857127 1.0842022e-19 1.5931062
2 3.1531389 3.6893488e+19
-1.9982241 0 1.3072292
3.6893488e+19 3.1412542 2
-2.2878206 1.0842022e-19 -1.5059097
-0 3.1465116 -2
-1.9941435 3.6893488e+19 -1.6546149
0 3.1408954 -2
-2.2875564 -1.0842022e-19 -1.7405185
-3.6893488e+19 3.1469846 -0
-1.9944348 -0 -1.7910397
-0 3.1428199 2
-2.2889724 3.6893488e+19 -1.8338733
0 3.1462834 -1.0842022e-19
-1.9940029 1.0842022e-19 -1.8771143
0 3.1426096 0
-2.2888176 0 -1.8983697
1.0842022e-19 3.1463432 -3.6893488e+19
-1.9940398 1.0842022e-19 -1.9214023
-0 3.1461437 -2
-2.2914174 -0 -1.9441134
2 3.1464462 0
-1.9941033 3.6893488e+19 -1.9657352
-1.0842022e-19 3.1381512 1.0842022e-19
-2.285538 -1.0842022e-19 -1.9837277
3.6893488e+19 3.1140187 -0
-1.9741367 0 -1.988782
-2 3.0997088 0
-2.2572584 -2 -1.9998116
-3.6893488e+19 3.1071997 2
-1.9699382 2 -2.0242548
0 2.9034865 -1.0842022e-19
-1.5795439 -0 -1.9386377
-0 2.8468719 -2
-1.9199108 1.0842022e-19 -1.9221964
1.0842022e-19 2.7929268 0
-1.5234967 1.0842022e-19 -1.90335
-2 2.7539206 1.0842022e-19
-1.8737597 3.6893488e+19 -1.8902997
1.0842022e-19 2.7190063 0
-1.4877588 -2 -1.8859038
-1.0842022e-19 2.6726141 0
-1.8320123 0 -1.8786238
2 2.6432483 -3.6893488e+19
-1.4493538 -3.6893488e+19 -1.8749634
-1.0842022e-19 2.6144381 3.6893488e+19
-1.8035154 -0 -1.8673245
-2 2.5893478 -2
-1.4220295 1.0842022e-19 -1.8597565
-3.6893488e+19 2.5708501 -0
-1.7821645 -1.0842022e-19 -1.8564045
-2 2.5505545 -3.6893488e+19
-1.4023635 -3.6893488e+19 -1.8498192
-0 2.5322685 2
-1.7632657 1.0842022e-19 -1.8444862
-0 2.5141599 3.6893488e+19
-1.3839136 2 -1.837468
3.6893488e+19 2.4976261 0
-1.7437559 -2 -1.8325157
-1.0842022e-19 2.4789538 -3.6893488e+19
-1.8011677 3.6893488e+19 -1.8319772
-0 2.4600761 1.0842022e-19
-1.641641 0 -1.829626
-0 2.4387629 3.6893488e+19
-1.7863848 -3.6893488e+19 -1.8270481
3.6893488e+19 2.3728347 2
-1.7621353 -2 -1.8178784
-3.6893488e+19 2.3250582 -0
-1.7391245 2 -1.8117033
1.0842022e-19 2.2845385 -3.6893488e+19
-1.7093166 -1.0842022e-19 -1.8047246
3.6893488e+19 2.258219 3.6893488e+19
-1.2559019 2 -1.8022107
0 2.2194378 1.0842022e-19
-1.2379775 -2 -1.7995918
2 2.1814075 -3.6893488e+19
-1.2186983 0 -1.7979268
-1.0842022e-19 2.1434987 -2
-1.1994808 -1.0842022e-19 -1.7941775
2 3.1762545 -1.0842022e-19
-2.3219867 2 2.6463816
2 3.1775694 -0
-2.3229799 3.6893488e+19 2.6350086
-3.6893488e+19 3.2608559 1.0842022e-19
-2.091696 1.0842022e-19 2.7104528
-3.6893488e+19 3.1768587 2
-2.3224432 -1.0842022e-19 2.6218307
1.0842022e-19 3.2610369 -0
-2.0919328 3.6893488e+19 2.6955156
1.0842022e-19 3.1893775 -0
-2.0377707 -1.0842022e-19 2.6121445
-2 3.1767962 2
-2.322396 0 2.5968187
-2 3.2593677 -1.0842022e-19
-2.0897465 1.0842022e-19 2.6624858
-3.6893488e+19 3.2538185 -0
-2.3834622 -3.6893488e+19 2.647733
2 3.2506585 -0
-2.0783381 -2 2.6341107
-3.6893488e+19 3.2559462 -2
-2.3866765 -3.6893488e+19 2.6362031
1.0842022e-19 3.2548821 0
-2.3850689 -3.6893488e+19 2.6198366
-3.6893488e+19 3.2475021 -3.6893488e+19
-2.0758395 -0 2.6024771
-3.6893488e+19 3.200196 3.6893488e+19
-1.7743746 2 2.5622423
-2 3.2416096 1.0842022e-19
-2.2504723 3.6893488e+19 2.5845683
-2 3.2516124 -1.0842022e-19
-1.7919695 -0 2.5845826
-2 3.2526309 2
-2.2574282 1.0842022e-19 2.5793507
3.6893488e+19 3.1986792 2
-1.7738713 3.6893488e+19 2.5354748
0 3.2615554 2
-2.2665219 -2 2.5760005
2 3.2013903 0
-1.7747709 -2 2.5243065
1.0842022e-19 3.2516677 -3.6893488e+19
-2.2564464 -3.6893488e+19 2.5492868
1.0842022e-19 3.202816 2
-1.7752439 1.0842022e-19 2.5122693
2 3.2595339 -0
-2.264462 -0 2.5438328
3.6893488e+19 3.2030144 -0
-1.7753097 -1.0842022e-19 2.4989963
0 3.2616687 2
-2.2666373 -0 2.5313513
0 3.1612363 0
-1.7614478 -0 2.4296317
-3.6893488e+19 3.2614582 3.6893488e+19
-2.266423 -3.6893488e+19 2.5162637
-0 3.2588966 0
-2.2638128 -1.0842022e-19 2.4979365
3.6893488e+19 3.2601712 2
-2.3930595 3.6893488e+19 2.4868212
1.0842022e-19 3.2516735 -0
-2.0796676 -3.6893488e+19 2.4549916
-1.0842022e-19 3.2530153 3.6893488e+19
-2.3822486 -3.6893488e+19 2.444721
-1.0842022e-19 3.1551766 -2
-2.0153708 3.6893488e+19 2.343369
1.0842022e-19 3.2539914 -2
-2.383723 3.6893488e+19 2.4176593
-3.6893488e+19 3.2517653 -3.6893488e+19
-2.079788 1.0842022e-19 2.3983178
-3.6893488e+19 3.2529583 -2
-2.3821626 -0 2.387347
-2 3.2398734 2
-2.0708432 2 2.359926
0 3.259644 -0
-2.3922629 -1.0842022e-19 2.3682475
2 3.2426951 2
-2.0726912 0 2.3342822
-3.6893488e+19 3.2600143 0
-2.3928227 0 2.3394363
-0 3.2503004 3.6893488e+19
-2.0778692 -3.6893488e+19 2.311523
1.0842022e-19 3.2529883 -3.6893488e+19
-2.3822076 3.6893488e+19 2.3017466
-1.0842022e-19 3.2488978 -3.6893488e+19
-2.0767536 -1.0842022e-19 2.2824607
0 3.2598181 3.6893488e+19
-2.3925259 1.0842022e-19 2.2806416
3.6893488e+19 3.2606122 -3.6893488e+19
-2.0913765 -2 2.2658746
0 3.2727258 -2
-1.8059802 -2 2.2627475
3.6893488e+19 3.1724327 -0
-2.180454 -1.0842022e-19 2.1340952
-3.6893488e+19 3.2529252 2
-1.7928407 -1.0842022e-19 2.1807427
-1.0842022e-19 3.1489789 -2
-2.1565549 2 2.068048
-1.0842022e-19 3.2308979 -2
-1.7845614 1.0842022e-19 2.105716
-3.6893488e+19 3.2369118 3.6893488e+19
-2.2461576 -2 2.0836139
1.0842022e-19 3.232384 -1.0842022e-19
-1.7850544 0 2.0529046
0 3.1550763 -3.6893488e+19
-2.1627679 -3.6893488e+19 1.9821961
2 3.2244151 -1.0842022e-19
-1.7824104 0 1.9949201
-3.6893488e+19 3.2591174 0
-2.2640378 -0 1.989086
-2 3.2206991 1.0842022e-19
-1.7811775 -0 1.9404495
-3.6893488e+19 3.1576283 2
-1.7602507 2 1.8638897
-1.0842022e-19 3.1593578 -3.6893488e+19
-1.7608244 2 1.7735515
1.0842022e-19 3.1583476 -0
-2.1661015 -3.6893488e+19 1.7056779
0 3.1376781 2
-2.2928467 2 1.5927566
3.6893488e+19 3.1526937 -3.6893488e+19
-2.0137446 -1.0842022e-19 1.3070456
-3.6893488e+19 3.1385515 -3.6893488e+19
-2.2935064 2 -1.505035
0 3.2604802 -1.0842022e-19
-2.0912035 2 -1.703162
-1.0842022e-19 3.1406505 0
-2.2950921 -0 -1.7404227
3.6893488e+19 3.2608998 -1.0842022e-19
-2.0917532 -0 -1.8432651
1.0842022e-19 3.1424193 -3.6893488e+19
-2.296428 -0 -1.8337078
0 3.2599645 2
-2.090528 3.6893488e+19 -1.9167918
0 3.1393476 -0
-2.2941077 -0 -1.8971704
-3.6893488e+19 3.1468976 -2
-2.0099485 -1.0842022e-19 -1.9216588
1.0842022e-19 3.1390254 0
-2.2938645 -0 -1.9406688
0 3.1821072 3.6893488e+19
-2.0330091 0 -1.9851638
-3.6893488e+19 3.1397414 0
-2.2944055 -2 -1.9847388
3.6893488e+19 3.1830549 1.0842022e-19
-2.0336299 -2 -2.0340946
1.0842022e-19 3.1391952 -3.6893488e+19
-2.2939925 -2 -2.0280817
-0 3.1056368 2
-1.9829248 -0 -2.0230813
0 2.9034774 -0
-1.6338733 -0 -1.9386377
0 2.8468189 0
-1.9267023 1.0842022e-19 -1.9221964
2 2.7886171 -2
-1.5665257 -2 -1.9010972
0 2.7534463 3.6893488e+19
-1.8791294 1.0842022e-19 -1.890059
-0 2.719619 -3.6893488e+19
-1.5308191 0 -1.8860846
-1.0842022e-19 2.6730471 -2
-1.8405401 -1.0842022e-19 -1.8787752
0 2.6429904 -0
-1.5053937 0 -1.8748051
-1.0842022e-19 2.6131392 3.6893488e+19
-1.8100173 1.0842022e-19 -1.8664978
-2 2.5888422 1.0842022e-19
-1.4748551 -0 -1.8594118
1.0842022e-19 2.5686891 -2
-1.7873702 0 -1.854881
-0 2.5502989 -2
-1.4492778 0 -1.8496331
2 2.5301147 -1.0842022e-19
-1.7677168 -2 -1.8428446
-1.0842022e-19 2.5145271 0
-1.4255397 -1.0842022e-19 -1.8377681
3.6893488e+19 2.49755 -0
-1.7517494 -2 -1.8325157
-0 2.4788446 1.0842022e-19
-1.8058563 3.6893488e+19 -1.8319772
2 2.4595349 1.0842022e-19
-1.6504865 3.6893488e+19 -1.8294051
2 3.1762545 -1.0842022e-19
-2.3219867 2 2.6463816
2 3.1775694 -0
-2.3229799 3.6893488e+19 2.6350086
3.6893488e+19 3.1893237 -2
-2.0377355 -3.6893488e+19 2.6377382
-3.6893488e+19 3.1768587 2
-2.3224432 -1.0842022e-19 2.6218307
1.0842022e-19 3.1876369 -2
-2.0366306 1.0842022e-19 2.6234608
1.0842022e-19 3.1893775 -0
-2.0377707 -1.0842022e-19 2.6121445
-2 3.1767962 2
-2.322396 0 2.5968187
-2 3.2593677 -1.0842022e-19
-2.0897465 1.0842022e-19 2.6624858
-3.6893488e+19 3.2538185 -0
-2.3834622 -3.6893488e+19 2.647733
2 3.2506585 -0
-2.0783381 -2 2.6341107
-3.6893488e+19 3.2559462 -2
-2.3866765 -3.6893488e+19 2.6362031
1.0842022e-19 3.2548821 0
-2.3850689 -3.6893488e+19 2.6198366
-3.6893488e+19 3.2475021 -3.6893488e+19
-2.0758395 -0 2.6024771
-3.6893488e+19 3.200196 3.6893488e+19
-1.7743746 2 2.5622423
-2 3.2416096 1.0842022e-19
-2.2504723 3.6893488e+19 2.5845683
1.0842022e-19 3.1967838 -0
-1.7732424 -1.0842022e-19 2.547056
-2 3.2526309 2
-2.2574282 1.0842022e-19 2.5793507
3.6893488e+19 3.1986792 2
-1.7738713 3.6893488e+19 2.5354748
0 3.2615554 2
-2.2665219 -2 2.5760005
2 3.2013903 0
-1.7747709 -2 2.5243065
1.0842022e-19 3.2516677 -3.6893488e+19
-2.2564464 -3.6893488e+19 2.5492868
1.0842022e-19 3.202816 2
-1.7752439 1.0842022e-19 2.5122693
2 3.2595339 -0
-2.264462 -0 2.5438328
3.6893488e+19 3.2030144 -0
-1.7753097 -1.0842022e-19 2.4989963
-0 3.1572392 -1.0842022e-19
-2.1649721 0 2.4378719
0 3.1612363 0
-1.7614478 -0 2.4296317
-2 3.1645093 -3.6893488e+19
-2.1723802 -0 2.422128
3.6893488e+19 3.1632562 -1.0842022e-19
-2.1711032 -0 2.3974082
-3.6893488e+19 3.2407682 1.0842022e-19
-2.3707197 -2 2.4591522
1.0842022e-19 3.2516735 -0
-2.0796676 -3.6893488e+19 2.4549916
0 3.1628163 -3.6893488e+19
-2.3118355 -2 2.3628001
-1.0842022e-19 3.1551766 -2
-2.0153708 3.6893488e+19 2.343369
0 3.1612949 -2
-2.3106863 0 2.3381634
1.0842022e-19 3.1586664 0
-2.0176566 -3.6893488e+19 2.3232751
-2 3.1506143 -0
-2.3026185 2 2.3067238
-0 3.1613009 3.6893488e+19
-2.019382 -3.6893488e+19 2.302196
-3.6893488e+19 3.1511805 -1.0842022e-19
-2.3030462 -0 2.284493
0 3.1617408 -0
-2.01967 2 2.2793565
1.0842022e-19 3.1676047 1.0842022e-19
-2.3154528 -3.6893488e+19 2.2725811
2 3.1621919 -2
-2.0199654 3.6893488e+19 2.2565062
0 3.1628358 -2
-2.3118503 -0 2.2424014
-1.0842022e-19 3.2488978 -3.6893488e+19
-2.0767536 -1.0842022e-19 2.2824607
0 3.2598181 3.6893488e+19
-2.3925259 1.0842022e-19 2.2806416
0 3.1706069 1.0842022e-19
-2.0254769 0 2.1791
-3.6893488e+19 3.1514387 -1.0842022e-19
-1.7581969 -3.6893488e+19 2.1367514
3.6893488e+19 3.1724327 -0
-2.180454 -1.0842022e-19 2.1340952
-2 3.1551547 3.6893488e+19
-1.7594299 2 2.0949981
-1.0842022e-19 3.1489789 -2
-2.1565549 2 2.068048
-3.6893488e+19 3.1557634 -1.0842022e-19
-1.7596319 2 2.0501397
1.0842022e-19 3.1541865 0
-2.1618614 -2 2.0269334
-1.0842022e-19 3.1518564 1.0842022e-19
-1.7583356 -2 2.0023386
0 3.1550763 -3.6893488e+19
-2.1627679 -3.6893488e+19 1.9821961
2 3.2244151 -1.0842022e-19
-1.7824104 0 1.9949201
-3.6893488e+19 3.2591174 0
-2.2640378 -0 1.989086
1.0842022e-19 3.1549425 3.6893488e+19
-1.7593595 -3.6893488e+19 1.9138436
-3.6893488e+19 3.1576283 2
-1.7602507 2 1.8638897
-1.0842022e-19 3.1593578 -3.6893488e+19
-1.7608244 2 1.7735515
1.0842022e-19 3.1583476 -0
-2.1661015 -3.6893488e+19 1.7056779
0 3.1376781 2
-2.2928467 2 1.5927566
3.6893488e+19 3.1526937 -3.6893488e+19
-2.0137446 -1.0842022e-19 1.3070456
-3.6893488e+19 3.1385515 -3.6893488e+19
-2.2935064 2 -1.505035
1.0842022e-19 3.1461296 -1.0842022e-19
-2.0094454 -2 -1.6544809
-1.0842022e-19 3.1406505 0
-2.2950921 -0 -1.7404227
3.6893488e+19 3.1485384 -3.6893488e+19
-2.011023 -1.0842022e-19 -1.7917057
1.0842022e-19 3.1424193 -3.6893488e+19
-2.296428 -0 -1.8337078
0 3.1444342 2
-2.0083351 -1.0842022e-19 -1.8765334
0 3.1393476 -0
-2.2941077 -0 -1.8971704
-3.6893488e+19 3.1468976 -2
-2.0099485 -1.0842022e-19 -1.9216588
1.0842022e-19 3.1390254 0
-2.2938645 -0 -1.9406688
1.0842022e-19 3.1467822 2
-2.0098729 -2 -1.9659389
-3.6893488e+19 3.1397414 0
-2.2944055 -2 -1.9847388
-2 3.113796 0
-1.9882687 -3.6893488e+19 -1.9886591
1.0842022e-19 3.0962725 -3.6893488e+19
-2.2615693 -0 -1.9974133
-0 3.1056368 2
-1.9829248 -0 -2.0230813
0 2.9034774 -0
-1.6338733 -0 -1.9386377
0 2.8468189 0
-1.9267023 1.0842022e-19 -1.9221964
2 2.7886171 -2
-1.5665257 -2 -1.9010972
0 2.7534463 3.6893488e+19
-1.8791294 1.0842022e-19 -1.890059
-0 2.719619 -3.6893488e+19
-1.5308191 0 -1.8860846
-1.0842022e-19 2.6730471 -2
-1.8405401 -1.0842022e-19 -1.8787752
0 2.6429904 -0
-1.5053937 0 -1.8748051
-1.0842022e-19 2.6131392 3.6893488e+19
-1.8100173 1.0842022e-19 -1.8664978
-2 2.5888422 1.0842022e-19
-1.4748551 -0 -1.8594118
1.0842022e-19 2.5686891 -2
-1.7873702 0 -1.854881
-0 2.5502989 -2
-1.4492778 0 -1.8496331
2 2.5301147 -1.0842022e-19
-1.7677168 -2 -1.8428446
-1.0842022e-19 2.5145271 0
-1.4255397 -1.0842022e-19 -1.8377681
3.6893488e+19 2.49755 -0
-1.7517494 -2 -1.8325157
-0 2.4788446 1.0842022e-19
-1.8058563 3.6893488e+19 -1.8319772
2 2.4595349 1.0842022e-19
-1.6504865 3.6893488e+19 -1.8294051
-3.6893488e+19 3.1741171 1.0842022e-19
-2.3293505 3.6893488e+19 2.6444931
0 3.1778567 -2
-2.3322542 0 2.6353641
3.6893488e+19 3.2594247 -0
-2.1116273 -3.6893488e+19 2.7079768
-3.6893488e+19 3.1775723 -3.6893488e+19
-2.3320334 0 2.622546
-2 3.2596338 -1.0842022e-19
-2.1119189 2 2.6931703
2 3.1752248 -0
-2.3302104 0 2.6080475
0 3.2531791 -3.6893488e+19
-2.102921 -2 2.6673975
-3.6893488e+19 3.2674692 -2
-2.1228411 -3.6893488e+19 2.6754169
-1.0842022e-19 3.2544265 3.6893488e+19
-2.3951526 3.6893488e+19 2.6487858
-3.6893488e+19 3.250922 3.6893488e+19
-2.0997751 3.6893488e+19 2.6345572
-3.6893488e+19 3.2551024 -3.6893488e+19
-2.3962023 1.0842022e-19 2.6350267
-1.0842022e-19 3.2485099 1.0842022e-19
-2.0974512 0 2.6175992
-0 3.2553537 1.0842022e-19
-2.3965926 -2 2.6206141
-3.6893488e+19 3.2473855 3.6893488e+19
-2.0966675 -2 2.6024334
3.6893488e+19 3.2514303 -0
-1.8340478 2 2.5987794
3.6893488e+19 3.2438929 1.0842022e-19
-2.2620397 2 2.5861795
-0 3.2508187 3.6893488e+19
-1.8335394 2 2.5835373
-1.0842022e-19 3.2501719 0
-2.2654624 -3.6893488e+19 2.5762002
-2 3.1958263 -1.0842022e-19
-1.8103377 -1.0842022e-19 2.5336683
-3.6893488e+19 3.2622347 -0
-2.2782624 -1.0842022e-19 2.5769031
-0 3.2032299 -3.6893488e+19
-1.8134154 3.6893488e+19 2.5254331
1.0842022e-19 3.2518253 1.0842022e-19
-2.2672167 1.0842022e-19 2.5495255
-0 3.2028329 -1.0842022e-19
-1.8132504 1.0842022e-19 2.5122871
-0 3.2593198 -3.6893488e+19
-2.2751691 0 2.5436406
2 3.2390635 -2
-1.828312 0 2.5193605
3.6893488e+19 3.1595495 -0
-2.1845808 -2 2.4404309
-1.0842022e-19 3.2360506 2
-1.8270596 -1.0842022e-19 2.5039041
3.6893488e+19 3.2612436 -3.6893488e+19
-2.2772105 1.0842022e-19 2.5160906
0 3.2376909 0
-1.8277415 -1.0842022e-19 2.4818799
3.6893488e+19 3.260741 1.0842022e-19
-2.2766774 3.6893488e+19 2.5007846
0 3.2608011 -2
-2.4050527 3.6893488e+19 2.4881222
-3.6893488e+19 3.2465589 0
-2.0960915 2 2.4489057
-1.0842022e-19 3.1562805 0
-2.0331693 0 2.3443427
2 3.2525816 -2
-2.392287 -2 2.4154453
3.6893488e+19 3.1592114 -2
-2.0352118 -2 2.3237422
1.0842022e-19 3.2541955 -1.0842022e-19
-2.3947935 0 2.389339
-2 3.1604159 1.0842022e-19
-2.0360515 -2 2.3015792
1.0842022e-19 3.2579522 -3.6893488e+19
-2.4006281 -3.6893488e+19 2.3659399
-0 3.2513909 -2
-2.1004286 2 2.3411636
-1.0842022e-19 3.2593911 -2
-2.402863 -3.6893488e+19 2.3387074
2 3.2497985 1.0842022e-19
-2.0983493 -2 2.311058
-2 3.2550495 -2
-2.3961201 -1.0842022e-19 2.3042815
2 3.2514923 0
-2.10057 -1.0842022e-19 2.284806
3.6893488e+19 3.2623596 1.0842022e-19
-2.4074736 2 2.283458
-2 3.2528408 -2
-2.1024497 -1.0842022e-19 2.2579749
-2 3.1529236 3.6893488e+19
-1.7925023 -3.6893488e+19 2.1381938
-2 3.1739483 1.0842022e-19
-2.1998599 -1.0842022e-19 2.1355391
2 3.2393911 1.0842022e-19
-1.8284483 1.0842022e-19 2.1667399
3.6893488e+19 3.1476653 0
-2.1719704 -0 2.0670547
0 3.1579986 -2
-1.7946119 1.0842022e-19 2.0518022
-2 3.250268 -2
-2.2655642 -0 2.0930073
-3.6893488e+19 3.2333994 -3.6893488e+19
-1.8259574 -3.6893488e+19 2.0535514
1.0842022e-19 3.1563783 3.6893488e+19
-2.1812158 -3.6893488e+19 1.9829822
3.6893488e+19 3.2243381 0
-1.8221905 -0 1.9948878
0 3.22031 -1.0842022e-19
-1.8205159 2 1.9402978
2 3.2456563 -1.0842022e-19
-1.8310528 2 1.8952435
2 3.1577518 3.6893488e+19
-1.7945094 2 1.7729732
-2 3.1543491 -2
-2.1790626 2 1.7036988
3.6893488e+19 3.1369276 -0
-2.3004706 -2 1.5923896
3.6893488e+19 3.1532423 2
-2.0310516 3.6893488e+19 1.3073138
2 3.1399159 -2
-2.3027911 3.6893488e+19 -1.5055244
1.0842022e-19 3.1495512 3.6893488e+19
-2.0284789 -0 -1.6558325
-2 3.1396816 -2
-2.3026092 3.6893488e+19 -1.7398866
-0 3.149899 -1.0842022e-19
-2.0287213 -0 -1.7922934
-2 3.1432226 2
-2.3053591 3.6893488e+19 -1.8341876
-3.6893488e+19 3.145951 -0
-2.0259697 0 -1.8770342
3.6893488e+19 3.1366999 -3.6893488e+19
-2.3002937 -0 -1.8962064
-0 3.1465416 -2
-2.0263813 2 -1.9215238
3.6893488e+19 3.1380572 -3.6893488e+19
-2.3013477 -1.0842022e-19 -1.9402421
-0 3.1932297 0
-2.0589221 0 -1.9912437
3.6893488e+19 3.1394572 -2
-2.3024349 3.6893488e+19 -1.9846265
-0 3.1902752 0
-2.0568628 1.0842022e-19 -2.0388634
