# .PCD v0.7 - Point Cloud Data file format
VERSION 0.7
FIELDS x y z
SIZE 4 4 4
TYPE F F F
COUNT 1 1 1
WIDTH 1694
HEIGHT 1
VIEWPOINT 0 0 0 1 0 0 0
POINTS 1694
DATA ascii
-2 3.230907 -0
-2.5482821 0 2.6127338
2 3.2023768 2
-2.6301429 3.6893488e+19 2.5878813
3.6893488e+19 3.2336175 -3.6893488e+19
-2.5499632 0 2.6006746
-3.6893488e+19 3.2460318 0
-2.491756 1.0842022e-19 2.6009603
1.0842022e-19 3.2190411 -1.0842022e-19
-2.584676 -0 2.5777004
1.0842022e-19 3.2436604 0
-2.4894049 2 2.585
3.6893488e+19 3.2401862 -2
-2.4859605 2 2.5684967
-0 3.2250125 0
-2.588937 1.0842022e-19 2.5542324
-3.6893488e+19 3.2385182 -1.0842022e-19
-2.4843071 -0 2.5533442
-2 3.243989 -0
-2.6024773 -0 2.5520606
0 3.2256451 -1.0842022e-19
-2.5893881 0 2.5270791
-1.0842022e-19 3.2414551 2
-2.4872186 3.6893488e+19 2.5269537
-1.0842022e-19 3.2445807 1.0842022e-19
-2.4903173 3.6893488e+19 2.500432
1.0842022e-19 3.1918488 1.0842022e-19
-2.5652735 3.6893488e+19 2.4383693
0 3.1681004 1.0842022e-19
-2.6013396 1.0842022e-19 2.4051914
-0 3.2434666 3.6893488e+19
-2.5560722 0 2.4594893
-2 3.1701984 -1.0842022e-19
-2.6031027 -0 2.3829601
1.0842022e-19 3.1907656 -3.6893488e+19
-2.5233843 -1.0842022e-19 2.3852353
1.0842022e-19 3.1714275 -3.6893488e+19
-2.6041353 3.6893488e+19 2.3597822
-3.6893488e+19 3.1882598 -0
-2.5218303 0 2.3580399
-3.6893488e+19 3.1737328 -1.0842022e-19
-2.6060727 -1.0842022e-19 2.3373599
-3.6893488e+19 3.1879425 -3.6893488e+19
-2.5216334 3.6893488e+19 2.3328331
0 3.1586289 3.6893488e+19
-2.5933805 -3.6893488e+19 2.3018408
1.0842022e-19 3.1894801 3.6893488e+19
-2.5225871 1.0842022e-19 2.3089943
-2 3.1596382 1.0842022e-19
-2.5942287 3.6893488e+19 2.2790689
0 3.1921058 1.0842022e-19
-2.5242157 -3.6893488e+19 2.2857189
-3.6893488e+19 3.1892316 -1.0842022e-19
-2.6190968 2 2.2740376
3.6893488e+19 3.2406344 3.6893488e+19
-2.5543156 -1.0842022e-19 2.2892284
0 3.2567351 0
-2.6814811 -0 2.290942
-3.6893488e+19 3.1889186 1.0842022e-19
-2.522239 -0 2.2177002
-1.0842022e-19 3.2041695 2
-2.4502544 -2 2.2062695
0 3.1703148 -2
-2.5499082 -2 2.1517723
0 3.2932582 -2
-2.54073 2 2.2615438
-3.6893488e+19 3.2859247 -1.0842022e-19
-2.6580334 -1.0842022e-19 2.2316279
3.6893488e+19 3.1936471 -1.0842022e-19
-2.4398227 -3.6893488e+19 2.0956681
-0 3.1675451 0
-2.5479321 0 2.0542552
0 3.1876817 -3.6893488e+19
-2.4339085 1.0842022e-19 2.0417249
3.6893488e+19 3.1720617 0
-2.5511549 -3.6893488e+19 2.0096407
2 3.1908345 1.0842022e-19
-2.4370344 3.6893488e+19 1.9942144
0 3.3063748 3.6893488e+19
-2.6872168 3.6893488e+19 2.0574479
0 3.1948357 2
-2.4410009 1.0842022e-19 1.9463829
1.0842022e-19 3.1739349 1.0842022e-19
-2.5524914 1.0842022e-19 1.914638
0 3.1976073 0
-2.4437487 -0 1.8972756
-1.0842022e-19 3.1692889 -3.6893488e+19
-2.5491762 1.0842022e-19 1.8556275
-0 3.1847908 -3.6893488e+19
-2.4310427 -1.0842022e-19 1.8133465
1.0842022e-19 3.1733274 1.0842022e-19
-2.552058 2 1.7618973
-3.6893488e+19 3.1578691 0
-2.5927422 -2 1.6723974
1.0842022e-19 3.1813123 -3.6893488e+19
-2.5175209 -3.6893488e+19 1.5412966
-1.0842022e-19 3.1590397 -3.6893488e+19
-2.5937257 -0 -1.2176807
-1.0842022e-19 3.1831326 -3.6893488e+19
-2.5186501 0 -1.5990678
3.6893488e+19 3.1750226 3.6893488e+19
-2.6071565 3.6893488e+19 -1.7078846
-0 3.184654 -1.0842022e-19
-2.5195937 -3.6893488e+19 -1.7793483
-3.6893488e+19 3.1669476 -3.6893488e+19
-2.6003709 -1.0842022e-19 -1.8220295
0 3.1429586 3.6893488e+19
-2.4874644 -1.0842022e-19 -1.853259
-0 3.1249461 2
-2.5650761 2 -1.8813339
2 3.1383309 -2
-2.4817238 2 -1.9066411
0 2.9387805 -0
-2.2721531 -3.6893488e+19 -1.8515515
0 2.7958632 0
-2.1170177 -3.6893488e+19 -1.8111997
-2 2.7670507 -3.6893488e+19
-2.1988182 3.6893488e+19 -1.8099493
0 2.7282758 -3.6893488e+19
-2.0466499 -2 -1.8025374
-3.6893488e+19 2.688731 -3.6893488e+19
-1.9674745 2 -1.799525
-3.6893488e+19 2.6399171 1.0842022e-19
-2.0282187 1.0842022e-19 -1.7924316
3.6893488e+19 2.6200778 -1.0842022e-19
-1.9334438 -2 -1.7930678
-3.6893488e+19 2.5922258 -0
-1.9941894 3.6893488e+19 -1.7914031
1.0842022e-19 2.5681739 0
-1.9077156 -3.6893488e+19 -1.7874417
-0 2.5465221 -1.0842022e-19
-1.9615782 -3.6893488e+19 -1.7860436
-2 2.5311494 3.6893488e+19
-1.8893629 2 -1.7844076
3.6893488e+19 2.5117688 -3.6893488e+19
-1.9367806 -2 -1.7820727
-1.0842022e-19 2.4959636 1.0842022e-19
-1.8708441 -0 -1.7796148
3.6893488e+19 2.4683051 2
-1.9170755 3.6893488e+19 -1.7788444
-2 2.4437671 -0
-1.8449708 -0 -1.7758919
-0 2.3812277 -1.0842022e-19
-1.8139707 -2 -1.7762315
-0 2.3253014 -3.6893488e+19
-1.8866792 -1.0842022e-19 -1.7746059
1.0842022e-19 2.2820408 0
-1.8620056 1.0842022e-19 -1.7710129
2 2.2500205 3.6893488e+19
-1.8350981 0 -1.7689388
1.0842022e-19 2.2069428 1.0842022e-19
-1.8169899 1.0842022e-19 -1.7698377
-2 2.1746547 -1.0842022e-19
-1.710497 3.6893488e+19 -1.7699816
1.0842022e-19 2.1414006 3.6893488e+19
-1.6940132 2 -1.7699689
3.6893488e+19 2.1116424 -1.0842022e-19
-1.6792624 -1.0842022e-19 -1.769479
2 2.079546 0
-1.6633526 -2 -1.7663069
1.0842022e-19 3.2731228 3.6893488e+19
-2.5946929 -2 2.7543638
-3.6893488e+19 3.2523093 3.6893488e+19
-2.6795869 -2 2.7170496
3.6893488e+19 3.2701244 2
-2.590909 -1.0842022e-19 2.7211287
3.6893488e+19 3.2695425 -0
-2.7089281 1.0842022e-19 2.7167375
-2 3.2711277 -0
-2.5921752 2 2.7068837
-1.0842022e-19 3.2494104 -0
-2.6751528 -3.6893488e+19 2.6675317
0 3.2359509 -1.0842022e-19
-2.5566456 -2 2.6451533
-3.6893488e+19 3.2505946 0
-2.6766675 0 2.6541562
2 3.2553411 -3.6893488e+19
-2.5722516 -1.0842022e-19 2.6502855
0 3.2070038 0
-2.6390517 -2 2.6050067
3.6893488e+19 3.2568932 0
-2.5742106 -3.6893488e+19 2.6376929
2 3.2513044 -3.6893488e+19
-2.6778755 -0 2.6256084
2 3.2380676 0
-2.5579815 -0 2.6040468
-3.6893488e+19 3.2462654 3.6893488e+19
-2.5012941 -1.0842022e-19 2.6012411
-3.6893488e+19 3.243834 3.6893488e+19
-2.5000629 -2 2.5852282
-2 3.2427182 0
-2.498996 1.0842022e-19 2.5702474
-0 3.2405636 -1.0842022e-19
-2.4968138 1.0842022e-19 2.5547147
3.6893488e+19 3.2434516 1.0842022e-19
-2.6074505 2 2.5518746
0 3.2492537 -0
-2.6116533 2 2.5409694
-1.0842022e-19 3.2490396 -0
-2.6114984 -2 2.5264277
-2 3.2501211 0
-2.5033081 -0 2.5176785
-0 3.2458944 2
-2.5011063 2 2.5011799
-3.6893488e+19 3.238615 -0
-2.6039469 -0 2.4849966
1.0842022e-19 3.246664 -2
-2.6728146 -3.6893488e+19 2.4815969
3.6893488e+19 3.2417305 -0
-2.5602927 0 2.458061
2 3.2524195 0
-2.6797743 2 2.4603555
-0 3.243463 1.0842022e-19
-2.5613861 3.6893488e+19 2.4314711
-0 3.170038 2
-2.6075823 -1.0842022e-19 2.3587954
1.0842022e-19 3.2415192 1.0842022e-19
-2.5601594 0 2.4017155
0 3.1740451 -2
-2.6109934 2 2.3377962
-2 3.244127 -2
-2.561805 2 2.3756874
-3.6893488e+19 3.1582799 -0
-2.5975726 -0 2.3017509
-1.0842022e-19 3.2430239 -3.6893488e+19
-2.5611088 0 2.3467832
0 3.158771 -0
-2.5979905 -1.0842022e-19 2.2786329
0 3.2467875 -3.6893488e+19
-2.5634837 -3.6893488e+19 2.3211901
1.0842022e-19 3.2574069 -2
-2.6882658 3.6893488e+19 2.321372
-0 3.244004 -3.6893488e+19
-2.5617273 3.6893488e+19 2.2913346
-3.6893488e+19 3.2559671 0
-2.6858149 -3.6893488e+19 2.2902331
-3.6893488e+19 3.189693 2
-2.527456 -3.6893488e+19 2.2187181
-0 3.2383044 -3.6893488e+19
-2.4945257 3.6893488e+19 2.2407238
-3.6893488e+19 3.1712518 -0
-2.5551498 -0 2.1528585
1.0842022e-19 3.2912579 -1.0842022e-19
-2.5449686 -0 2.2598453
-2 3.2856514 -3.6893488e+19
-2.6638451 -2 2.231395
-1.0842022e-19 3.2937164 -0
-2.5474586 0 2.20785
0 3.2861319 0
-2.664541 2 2.167192
2 3.2943659 -3.6893488e+19
-2.5481162 -0 2.1425326
1.0842022e-19 3.3225961 -3.6893488e+19
-2.7173693 -2 2.1470921
0 3.189605 0
-2.4452059 2 1.9936135
2 3.2940731 1.0842022e-19
-2.5478199 -0 2.0097361
-3.6893488e+19 3.3041825 1.0842022e-19
-2.6906927 -2 1.9863745
3.6893488e+19 3.2927582 0
-2.5464883 2 1.9427152
3.6893488e+19 3.302166 -1.0842022e-19
-2.6877708 2 1.9162832
-0 3.1866937 -3.6893488e+19
-2.4422574 -3.6893488e+19 1.8142331
-3.6893488e+19 3.1754642 -3.6893488e+19
-2.5582011 -1.0842022e-19 1.7626534
1.0842022e-19 3.15642 -3.6893488e+19
-2.595989 3.6893488e+19 1.6718804
2 3.1865678 3.6893488e+19
-2.5254838 3.6893488e+19 1.5433922
0 3.1552975 -2
-2.5950334 -3.6893488e+19 -1.215809
1.0842022e-19 3.1825843 2
-2.5229702 -3.6893488e+19 -1.598876
0 3.1595042 2
-2.5986147 -0 -1.7004056
1.0842022e-19 3.1824074 0
-2.5228586 0 -1.7786137
1.0842022e-19 3.1664104 3.6893488e+19
-2.6044941 -0 -1.821885
-0 3.1829193 0
-2.5231817 2 -1.8757873
-0 3.1247377 0
-2.5690179 2 -1.8813339
0 3.1376159 -3.6893488e+19
-2.4891882 0 -1.906417
2 2.9497688 -0
-2.283814 -1.0842022e-19 -1.8573205
0 2.8704658 -2
-2.3153808 -2 -1.839407
-0 2.7951245 -3.6893488e+19
-2.1224601 -2 -1.8108113
-2 2.767452 -1.0842022e-19
-2.205369 -1.0842022e-19 -1.8103302
-1.0842022e-19 2.7296824 2
-2.0526903 -2 -1.8031329
1.0842022e-19 2.6888344 -3.6893488e+19
-1.9722127 2 -1.7996236
-2 2.6401014 1.0842022e-19
-2.0325849 0 -1.7925899
0 2.6202037 2
-1.9374602 -0 -1.7931803
0 2.5913277 2
-1.9972537 2 -1.7910447
1.0842022e-19 2.5685642 -3.6893488e+19
-1.9113114 -1.0842022e-19 -1.7876946
0 2.5463822 1.0842022e-19
-1.9646957 -3.6893488e+19 -1.7860436
1.0842022e-19 2.532294 -1.0842022e-19
-1.8929453 -3.6893488e+19 -1.7851092
2 2.5117679 -3.6893488e+19
-1.9396214 -0 -1.7821463
3.6893488e+19 2.4967895 1.0842022e-19
-1.8757797 0 -1.7799233
3.6893488e+19 2.4685743 2
-1.9197148 -0 -1.7790055
2 2.4446096 -2
-1.8501371 1.0842022e-19 -1.7762282
1.0842022e-19 3.2731228 3.6893488e+19
-2.5946929 -2 2.7543638
-3.6893488e+19 3.2523093 3.6893488e+19
-2.6795869 -2 2.7170496
3.6893488e+19 3.2701244 2
-2.590909 -1.0842022e-19 2.7211287
3.6893488e+19 3.2695425 -0
-2.7089281 1.0842022e-19 2.7167375
2 3.2354403 1.0842022e-19
-2.5563235 -2 2.659013
-1.0842022e-19 3.2494104 -0
-2.6751528 -3.6893488e+19 2.6675317
0 3.2359509 -1.0842022e-19
-2.5566456 -2 2.6451533
1.0842022e-19 3.2041984 -2
-2.6366632 -0 2.6162627
-1.0842022e-19 3.2294974 -0
-2.5525734 0 2.6258423
0 3.2070038 0
-2.6390517 -2 2.6050067
1.0842022e-19 3.2306488 3.6893488e+19
-2.5532999 -3.6893488e+19 2.6126878
2 3.2513044 -3.6893488e+19
-2.6778755 -0 2.6256084
2 3.2380676 0
-2.5579815 -0 2.6040468
-3.6893488e+19 3.2462654 3.6893488e+19
-2.5012941 -1.0842022e-19 2.6012411
-3.6893488e+19 3.243834 3.6893488e+19
-2.5000629 -2 2.5852282
-2 3.2427182 0
-2.498996 1.0842022e-19 2.5702474
-0 3.2405636 -1.0842022e-19
-2.4968138 1.0842022e-19 2.5547147
3.6893488e+19 3.2434516 1.0842022e-19
-2.6074505 2 2.5518746
-0 3.2255116 -3.6893488e+19
-2.5944548 2 2.5271323
-1.0842022e-19 3.2490396 -0
-2.6114984 -2 2.5264277
-2 3.1941237 2
-2.4497824 0 2.4752994
-0 3.2458944 2
-2.5011063 2 2.5011799
3.6893488e+19 3.1913347 2
-2.5696976 -1.0842022e-19 2.4380662
3.6893488e+19 3.1688392 -3.6893488e+19
-2.6065617 -0 2.4061332
3.6893488e+19 3.2417305 -0
-2.5602927 0 2.458061
0 3.1703904 1.0842022e-19
-2.6078823 1.0842022e-19 2.383348
-1.0842022e-19 3.1914129 2
-2.5285413 3.6893488e+19 2.3859599
-0 3.170038 2
-2.6075823 -1.0842022e-19 2.3587954
1.0842022e-19 3.2415192 1.0842022e-19
-2.5601594 0 2.4017155
0 3.1740451 -2
-2.6109934 2 2.3377962
-2 3.1874859 -2
-2.5260632 3.6893488e+19 2.3326228
-3.6893488e+19 3.1582799 -0
-2.5975726 -0 2.3017509
2 3.1912367 -2
-2.52843 -3.6893488e+19 2.3103569
0 3.158771 -0
-2.5979905 -1.0842022e-19 2.2786329
-0 3.1908469 1.0842022e-19
-2.5281842 -0 2.2850227
-0 3.1573832 3.6893488e+19
-2.5968091 -2 2.2543085
-0 3.244004 -3.6893488e+19
-2.5617273 3.6893488e+19 2.2913346
-3.6893488e+19 3.2559671 0
-2.6858149 -3.6893488e+19 2.2902331
-3.6893488e+19 3.189693 2
-2.527456 -3.6893488e+19 2.2187181
-1.0842022e-19 3.1909003 -2
-2.4465177 3.6893488e+19 2.193085
-3.6893488e+19 3.1712518 -0
-2.5551498 -0 2.1528585
1.0842022e-19 3.2912579 -1.0842022e-19
-2.5449686 -0 2.2598453
-2 3.2856514 -3.6893488e+19
-2.6638451 -2 2.231395
-2 3.193532 -1.0842022e-19
-2.449183 1.0842022e-19 2.0956924
0 3.2861319 0
-2.664541 2 2.167192
2 3.1863914 -0
-2.4419513 0 2.0409608
-2 3.168267 -2
-2.5529876 1.0842022e-19 2.0074282
0 3.189605 0
-2.4452059 2 1.9936135
2 3.2940731 1.0842022e-19
-2.5478199 -0 2.0097361
0 3.1738269 -3.6893488e+19
-2.5570149 -2 1.9146738
0 3.189184 -0
-2.4447794 -0 1.8945516
-3.6893488e+19 3.1704128 3.6893488e+19
-2.5545421 1.0842022e-19 1.8563551
-0 3.1866937 -3.6893488e+19
-2.4422574 -3.6893488e+19 1.8142331
-3.6893488e+19 3.1754642 -3.6893488e+19
-2.5582011 -1.0842022e-19 1.7626534
1.0842022e-19 3.15642 -3.6893488e+19
-2.595989 3.6893488e+19 1.6718804
2 3.1865678 3.6893488e+19
-2.5254838 3.6893488e+19 1.5433922
0 3.1552975 -2
-2.5950334 -3.6893488e+19 -1.215809
1.0842022e-19 3.1825843 2
-2.5229702 -3.6893488e+19 -1.598876
0 3.1595042 2
-2.5986147 -0 -1.7004056
1.0842022e-19 3.1824074 0
-2.5228586 0 -1.7786137
1.0842022e-19 3.1664104 3.6893488e+19
-2.6044941 -0 -1.821885
1.0842022e-19 3.1429822 1.0842022e-19
-2.495961 3.6893488e+19 -1.8533666
-0 3.1247377 0
-2.5690179 2 -1.8813339
0 3.1376159 -3.6893488e+19
-2.4891882 0 -1.906417
2 2.9497688 -0
-2.283814 -1.0842022e-19 -1.8573205
0 2.8704658 -2
-2.3153808 -2 -1.839407
-0 2.7951245 -3.6893488e+19
-2.1224601 -2 -1.8108113
-2 2.767452 -1.0842022e-19
-2.205369 -1.0842022e-19 -1.8103302
-1.0842022e-19 2.7296824 2
-2.0526903 -2 -1.8031329
1.0842022e-19 2.6888344 -3.6893488e+19
-1.9722127 2 -1.7996236
-2 2.6401014 1.0842022e-19
-2.0325849 0 -1.7925899
0 2.6202037 2
-1.9374602 -0 -1.7931803
0 2.5913277 2
-1.9972537 2 -1.7910447
1.0842022e-19 2.5685642 -3.6893488e+19
-1.9113114 -1.0842022e-19 -1.7876946
0 2.5463822 1.0842022e-19
-1.9646957 -3.6893488e+19 -1.7860436
1.0842022e-19 2.532294 -1.0842022e-19
-1.8929453 -3.6893488e+19 -1.7851092
2 2.5117679 -3.6893488e+19
-1.9396214 -0 -1.7821463
3.6893488e+19 2.4967895 1.0842022e-19
-1.8757797 0 -1.7799233
3.6893488e+19 2.4685743 2
-1.9197148 -0 -1.7790055
2 2.4446096 -2
-1.8501371 1.0842022e-19 -1.7762282
-3.6893488e+19 3.2141128 0
-2.6501975 -0 2.6937385
3.6893488e+19 3.2735951 -1.0842022e-19
-2.6011765 2 2.7549102
1.0842022e-19 3.2506781 -3.6893488e+19
-2.6823115 0 2.7142906
-2 3.2689576 -1.0842022e-19
-2.7138362 0 2.7159867
1.0842022e-19 3.2280481 -1.0842022e-19
-2.5568023 2 2.6529529
2 3.2487109 -3.6893488e+19
-2.6800306 -1.0842022e-19 2.6671813
-0 3.234659 1.0842022e-19
-2.5610452 -2 2.6442673
0 3.250499 -0
-2.6820028 3.6893488e+19 2.6542287
-2 3.2552798 -2
-2.5776677 3.6893488e+19 2.6503568
3.6893488e+19 3.2079175 0
-2.6448553 3.6893488e+19 2.6059165
-2 3.2558455 -1.0842022e-19
-2.5783939 1.0842022e-19 2.6362734
1.0842022e-19 3.2505021 2
-2.6820083 -1.0842022e-19 2.6246197
3.6893488e+19 3.2396255 0
-2.5642326 2 2.6053252
-2 3.2461905 1.0842022e-19
-2.5065484 -1.0842022e-19 2.601306
3.6893488e+19 3.2443714 -3.6893488e+19
-2.5056076 -3.6893488e+19 2.5857055
2 3.2422776 2
-2.5045252 1.0842022e-19 2.5700684
0 3.2406442 -3.6893488e+19
-2.5036805 -3.6893488e+19 2.5548668
-1.0842022e-19 3.2383525 -3.6893488e+19
-2.6090519 -1.0842022e-19 2.5488982
-2 3.2489538 0
-2.6168466 -0 2.5409338
-3.6893488e+19 3.2493794 3.6893488e+19
-2.6171594 -1.0842022e-19 2.5267484
-0 3.2487535 1.0842022e-19
-2.5078735 -1.0842022e-19 2.5169713
-2 3.2209144 3.6893488e+19
-2.596231 1.0842022e-19 2.494772
-3.6893488e+19 3.2466812 2
-2.5068021 1.0842022e-19 2.501663
0 3.2375882 2
-2.60849 3.6893488e+19 2.4842088
1.0842022e-19 3.2437155 1.0842022e-19
-2.6757233 -1.0842022e-19 2.479007
3.6893488e+19 3.2415559 -1.0842022e-19
-2.5654714 0 2.4580896
-0 3.2522321 2
-2.6849918 -2 2.4602723
3.6893488e+19 3.2433798 2
-2.566642 -1.0842022e-19 2.4315784
-2 3.2650917 -2
-2.7071691 -3.6893488e+19 2.453136
1.0842022e-19 3.2418973 3.6893488e+19
-2.5656905 2 2.4021924
2 3.2436445 -0
-2.5668118 1.0842022e-19 2.3754771
-2 3.2650564 -1.0842022e-19
-2.7071083 -1.0842022e-19 2.3920152
-3.6893488e+19 3.2431562 -0
-2.5664985 -3.6893488e+19 2.3470209
0 3.2647147 1.0842022e-19
-2.7065189 -0 2.3610809
2 3.2494099 0
-2.5705121 -1.0842022e-19 2.3230205
-0 3.2649381 -2
-2.7069042 1.0842022e-19 2.3309608
-0 3.3103085 -2
-2.6483004 -2 2.3661563
-1.0842022e-19 3.2640517 1.0842022e-19
-2.7053757 -2 2.2995682
1.0842022e-19 3.3091192 -3.6893488e+19
-2.6467738 -0 2.3296623
-1.0842022e-19 3.2366557 -2
-2.5016184 -3.6893488e+19 2.2392311
-1.0842022e-19 3.2882888 -0
-2.673918 -0 2.2758331
-2 3.2866044 -2
-2.6714411 -0 2.2332323
-0 3.2927821 3.6893488e+19
-2.5527577 3.6893488e+19 2.2065465
-3.6893488e+19 3.1648145 -0
-2.5549846 2 2.0525532
-0 3.293911 -1.0842022e-19
-2.553925 2 2.1420577
-1.0842022e-19 3.1666234 -1.0842022e-19
-2.5563145 0 2.0065393
2 3.2920218 3.6893488e+19
-2.5519714 3.6893488e+19 2.0737648
1.0842022e-19 3.169826 -1.0842022e-19
-2.5586691 1.0842022e-19 1.9608488
3.6893488e+19 3.2923944 -2
-2.5523567 3.6893488e+19 2.0083401
-2 3.1700904 3.6893488e+19
-2.5588636 3.6893488e+19 1.9133003
-0 3.292505 -1.0842022e-19
-2.5524712 3.6893488e+19 1.9426131
2 3.1704576 2
-2.5591335 -1.0842022e-19 1.8564904
0 3.2929425 -1.0842022e-19
-2.5529234 -0 1.8769838
1.0842022e-19 3.1751685 -1.0842022e-19
-2.562597 2 1.7626235
2 3.1551225 3.6893488e+19
-2.5993309 2 1.671428
1.0842022e-19 3.183948 0
-2.5284998 0 1.5424516
2 3.1555891 -3.6893488e+19
-2.5997331 -3.6893488e+19 -1.2160857
3.6893488e+19 3.1825888 2
-2.5276275 -3.6893488e+19 -1.5989718
0 3.1567998 3.6893488e+19
-2.6007771 -3.6893488e+19 -1.699194
-3.6893488e+19 3.1819799 -0
-2.5272367 1.0842022e-19 -1.7785259
-3.6893488e+19 3.1605561 3.6893488e+19
-2.6040163 -0 -1.8192261
-3.6893488e+19 3.182214 -2
-2.5273869 3.6893488e+19 -1.8756348
-2 3.1242828 -0
-2.5727384 -0 -1.8812482
-3.6893488e+19 3.1383176 3.6893488e+19
-2.4984303 -3.6893488e+19 -1.9067656
-1.0842022e-19 2.9423645 -3.6893488e+19
-2.2839012 -0 -1.8535914
-1.0842022e-19 2.87502 -0
-2.323374 -0 -1.8421649
2 2.7925348 -0
-2.1254869 2 -1.8092577
-2 2.7654095 -1.0842022e-19
-2.2077172 -2 -1.8090181
1.0842022e-19 2.730592 -0
-2.058435 -3.6893488e+19 -1.8035451
2 2.6901729 3.6893488e+19
-1.9775852 -0 -1.800215
-0 2.6422474 3.6893488e+19
-2.0383925 3.6893488e+19 -1.7935925
0 2.6200795 1.0842022e-19
-1.9413444 -0 -1.7931803
-3.6893488e+19 2.5906732 0
-2.0004737 0 -1.7908058
-1.0842022e-19 2.5687046 0
-1.9147818 1.0842022e-19 -1.7878211
-0 2.5461175 2
-1.9677149 3.6893488e+19 -1.785977
1.0842022e-19 2.5320756 -3.6893488e+19
-1.8958431 2 -1.7850391
-0 2.5120103 -3.6893488e+19
-1.9426382 -1.0842022e-19 -1.7823672
0 2.49687 2
-1.8784498 -3.6893488e+19 -1.7800003
-3.6893488e+19 2.4683499 2
-1.9221728 -0 -1.7790055
2 2.4442134 -2
-1.8546742 0 -1.7761441
-0 2.3819613 -2
-1.8224877 3.6893488e+19 -1.7766234
0 2.3256667 3.6893488e+19
-1.8904086 -0 -1.7749413
2 2.2824531 -0
-1.8685549 3.6893488e+19 -1.7713898
3.6893488e+19 2.2480304 0
-1.839722 0 -1.7685204
3.6893488e+19 2.2049832 0
-1.8211626 0 -1.7693779
0 2.1729059 -0
-1.7186575 0 -1.7694806
-2 2.1426034 -2
-1.7029901 2 -1.7705112
-0 2.1094563 -1.0842022e-19
-1.6858518 -2 -1.7687012
-2 2.0827219 2
-1.6720293 1.0842022e-19 -1.7677637
-3.6893488e+19 3.2141128 0
-2.6501975 -0 2.6937385
3.6893488e+19 3.2735951 -1.0842022e-19
-2.6011765 2 2.7549102
1.0842022e-19 3.214649 -1.0842022e-19
-2.6506596 -0 2.6802971
-2 3.2689576 -1.0842022e-19
-2.7138362 0 2.7159867
1.0842022e-19 3.2280481 -1.0842022e-19
-2.5568023 2 2.6529529
2 3.2487109 -3.6893488e+19
-2.6800306 -1.0842022e-19 2.6671813
-0 3.234659 1.0842022e-19
-2.5610452 -2 2.6442673
2 3.2067904 0
-2.6438835 1.0842022e-19 2.6185601
3.6893488e+19 3.2292671 2
-2.5575848 3.6893488e+19 2.6258185
3.6893488e+19 3.2079175 0
-2.6448553 3.6893488e+19 2.6059165
3.6893488e+19 3.2301447 -1.0842022e-19
-2.5581479 -0 2.6124589
1.0842022e-19 3.2505021 2
-2.6820083 -1.0842022e-19 2.6246197
3.6893488e+19 3.2396255 0
-2.5642326 2 2.6053252
-2 3.2461905 1.0842022e-19
-2.5065484 -1.0842022e-19 2.601306
3.6893488e+19 3.2443714 -3.6893488e+19
-2.5056076 -3.6893488e+19 2.5857055
2 3.2422776 2
-2.5045252 1.0842022e-19 2.5700684
0 3.2406442 -3.6893488e+19
-2.5036805 -3.6893488e+19 2.5548668
-1.0842022e-19 3.2383525 -3.6893488e+19
-2.6090519 -1.0842022e-19 2.5488982
1.0842022e-19 3.2250407 -0
-2.5992646 0 2.5269904
-3.6893488e+19 3.2493794 3.6893488e+19
-2.6171594 -1.0842022e-19 2.5267484
-1.0842022e-19 3.1937904 -2
-2.4589112 3.6893488e+19 2.4751019
-2 3.2209144 3.6893488e+19
-2.596231 1.0842022e-19 2.494772
-3.6893488e+19 3.2466812 2
-2.5068021 1.0842022e-19 2.501663
-3.6893488e+19 3.1956997 -3.6893488e+19
-2.5776923 0 2.442611
1.0842022e-19 3.2437155 1.0842022e-19
-2.6757233 -1.0842022e-19 2.479007
3.6893488e+19 3.2415559 -1.0842022e-19
-2.5654714 0 2.4580896
-0 3.2522321 2
-2.6849918 -2 2.4602723
2 3.1902778 -2
-2.532562 2 2.385128
3.6893488e+19 3.1606264 2
-2.6040769 -3.6893488e+19 2.3509531
1.0842022e-19 3.2418973 3.6893488e+19
-2.5656905 2 2.4021924
-1.0842022e-19 3.188993 3.6893488e+19
-2.5317376 -2 2.3339078
-2 3.2650564 -1.0842022e-19
-2.7071083 -1.0842022e-19 2.3920152
1.0842022e-19 3.1905608 3.6893488e+19
-2.5327437 2 2.3100109
3.6893488e+19 3.1590588 -2
-2.602725 0 2.278986
1.0842022e-19 3.1963532 -0
-2.5364611 2 2.2887032
2 3.1588297 1.0842022e-19
-2.6025276 -0 2.2553549
-0 3.3103085 -2
-2.6483004 -2 2.3661563
-3.6893488e+19 3.1691244 2
-2.6114047 -0 2.2254992
3.6893488e+19 3.1879702 0
-2.5310812 -3.6893488e+19 2.2170763
-1.0842022e-19 3.1905668 0
-2.4555779 -3.6893488e+19 2.1928983
1.0842022e-19 3.1707742 -1.0842022e-19
-2.5593662 3.6893488e+19 2.1525943
-2 3.2866044 -2
-2.6714411 -0 2.2332323
-0 3.2927821 3.6893488e+19
-2.5527577 3.6893488e+19 2.2065465
-3.6893488e+19 3.1648145 -0
-2.5549846 2 2.0525532
1.0842022e-19 3.1859972 3.6893488e+19
-2.4508524 0 2.0407956
-1.0842022e-19 3.1666234 -1.0842022e-19
-2.5563145 0 2.0065393
0 3.1873822 2
-2.4522846 -2 1.992463
1.0842022e-19 3.169826 -1.0842022e-19
-2.5586691 1.0842022e-19 1.9608488
2 3.1895521 -0
-2.4545283 0 1.9441794
-2 3.1700904 3.6893488e+19
-2.5588636 3.6893488e+19 1.9133003
-2 3.1891913 -1.0842022e-19
-2.4541554 3.6893488e+19 1.8946027
2 3.1704576 2
-2.5591335 -1.0842022e-19 1.8564904
1.0842022e-19 3.1891193 -1.0842022e-19
-2.4540808 -3.6893488e+19 1.815348
1.0842022e-19 3.1751685 -1.0842022e-19
-2.562597 2 1.7626235
2 3.1551225 3.6893488e+19
-2.5993309 2 1.671428
1.0842022e-19 3.183948 0
-2.5284998 0 1.5424516
2 3.1555891 -3.6893488e+19
-2.5997331 -3.6893488e+19 -1.2160857
3.6893488e+19 3.1825888 2
-2.5276275 -3.6893488e+19 -1.5989718
0 3.1567998 3.6893488e+19
-2.6007771 -3.6893488e+19 -1.699194
-3.6893488e+19 3.1819799 -0
-2.5272367 1.0842022e-19 -1.7785259
-3.6893488e+19 3.1605561 3.6893488e+19
-2.6040163 -0 -1.8192261
-0 3.1468904 -0
-2.5047169 -2 -1.855734
-2 3.1242828 -0
-2.5727384 -0 -1.8812482
-3.6893488e+19 3.1383176 3.6893488e+19
-2.4984303 -3.6893488e+19 -1.9067656
-1.0842022e-19 2.9423645 -3.6893488e+19
-2.2839012 -0 -1.8535914
-1.0842022e-19 2.87502 -0
-2.323374 -0 -1.8421649
2 2.7925348 -0
-2.1254869 2 -1.8092577
-2 2.7654095 -1.0842022e-19
-2.2077172 -2 -1.8090181
1.0842022e-19 2.730592 -0
-2.058435 -3.6893488e+19 -1.8035451
2 2.6901729 3.6893488e+19
-1.9775852 -0 -1.800215
-0 2.6422474 3.6893488e+19
-2.0383925 3.6893488e+19 -1.7935925
0 2.6200795 1.0842022e-19
-1.9413444 -0 -1.7931803
-3.6893488e+19 2.5906732 0
-2.0004737 0 -1.7908058
-1.0842022e-19 2.5687046 0
-1.9147818 1.0842022e-19 -1.7878211
-0 2.5461175 2
-1.9677149 3.6893488e+19 -1.785977
1.0842022e-19 2.5320756 -3.6893488e+19
-1.8958431 2 -1.7850391
-0 2.5120103 -3.6893488e+19
-1.9426382 -1.0842022e-19 -1.7823672
0 2.49687 2
-1.8784498 -3.6893488e+19 -1.7800003
-3.6893488e+19 2.4683499 2
-1.9221728 -0 -1.7790055
2 2.4442134 -2
-1.8546742 0 -1.7761441
-0 2.3819613 -2
-1.8224877 3.6893488e+19 -1.7766234
0 2.3256667 3.6893488e+19
-1.8904086 -0 -1.7749413
2 2.2824531 -0
-1.8685549 3.6893488e+19 -1.7713898
3.6893488e+19 2.2480304 0
-1.839722 0 -1.7685204
3.6893488e+19 2.2049832 0
-1.8211626 0 -1.7693779
0 2.1729059 -0
-1.7186575 0 -1.7694806
-2 2.1426034 -2
-1.7029901 2 -1.7705112
-0 2.1094563 -1.0842022e-19
-1.6858518 -2 -1.7687012
-2 2.0827219 2
-1.6720293 1.0842022e-19 -1.7677637
-0 3.2654302 -2
-2.7135828 0 2.7539225
-2 3.273509 -2
-2.6069536 -2 2.7549381
3.6893488e+19 3.2487185 -0
-2.6855142 3.6893488e+19 2.7121108
3.6893488e+19 3.2483897 2
-2.6852272 1.0842022e-19 2.6968749
-3.6893488e+19 3.254113 0
-2.5816402 1.0842022e-19 2.6935763
-0 3.2658477 0
-2.7143121 3.6893488e+19 2.7108605
2 3.2281473 -1.0842022e-19
-2.5620122 2 2.6532075
3.6893488e+19 3.2473505 -1.0842022e-19
-2.6843195 3.6893488e+19 2.66628
0 3.2359655 -2
-2.5671139 -2 2.6454978
-1.0842022e-19 3.2457106 -0
-2.6828876 0 2.6501904
1.0842022e-19 3.2544298 -1.0842022e-19
-2.5820534 3.6893488e+19 2.6491928
0 3.2078371 0
-2.6498139 -0 2.6060565
1.0842022e-19 3.2555704 1.0842022e-19
-2.5835421 -2 2.6360214
-0 3.2514708 1.0842022e-19
-2.6892023 -2 2.6262825
3.6893488e+19 3.2564578 -3.6893488e+19
-2.5847001 -0 2.622385
1.0842022e-19 3.2459903 -3.6893488e+19
-2.5117354 0 2.6012845
0 3.2441106 3.6893488e+19
-2.5107436 -2 2.5856433
0 3.2560558 1.0842022e-19
-2.6320758 -3.6893488e+19 2.5933669
1.0842022e-19 3.2416503 0
-2.5094454 -0 2.5697699
2 3.241456 1.0842022e-19
-2.5093429 3.6893488e+19 2.555476
-3.6893488e+19 3.2753167 -3.6893488e+19
-2.6608162 -1.0842022e-19 2.5871813
3.6893488e+19 3.2488379 -3.6893488e+19
-2.5132382 0 2.5457177
-0 3.2487421 -0
-2.6221011 -3.6893488e+19 2.5409515
1.0842022e-19 3.2494903 -1.0842022e-19
-2.5135825 3.6893488e+19 2.5317655
-2 3.2484906 2
-2.5130551 -2 2.516922
-2 3.2726498 -0
-2.6568367 0 2.536602
-2 3.2474642 -0
-2.5125134 0 2.502146
2 3.2377479 2
-2.6138985 -0 2.4846027
-1.0842022e-19 3.2431314 -1.0842022e-19
-2.6806352 1.0842022e-19 2.4787128
1.0842022e-19 3.2407041 1.0842022e-19
-2.5702062 -3.6893488e+19 2.4574895
-3.6893488e+19 3.2376101 -1.0842022e-19
-2.6758137 0 2.445148
-1.0842022e-19 3.2427106 2
-2.5715156 3.6893488e+19 2.4311759
2 3.1607573 -3.6893488e+19
-2.6087005 -3.6893488e+19 2.3512647
-2 3.2429774 -1.0842022e-19
-2.5716896 1.0842022e-19 2.4032466
-2 3.2526956 2
-2.5797904 -2 2.3557813
-2 3.1538668 0
-2.6026835 2 2.2756016
-3.6893488e+19 3.1936734 1.0842022e-19
-2.5395167 3.6893488e+19 2.2870917
-3.6893488e+19 3.2647569 2
-2.7124071 -1.0842022e-19 2.3309226
-3.6893488e+19 3.309377 -3.6893488e+19
-2.6537645 -2 2.3652122
-3.6893488e+19 3.2637796 1.0842022e-19
-2.7107003 -2 2.2994299
0 3.3083265 3.6893488e+19
-2.6523933 -0 2.3289564
3.6893488e+19 3.2351286 3.6893488e+19
-2.5060039 1.0842022e-19 2.2378631
-3.6893488e+19 3.2870295 2
-2.6782937 3.6893488e+19 2.2747617
-3.6893488e+19 3.1950819 -3.6893488e+19
-2.4697423 -3.6893488e+19 2.1473486
2 3.2855604 -1.0842022e-19
-2.6761012 2 2.2317057
-0 3.1937265 -0
-2.4683118 -2 2.0960784
-3.6893488e+19 3.1650121 0
-2.5596321 3.6893488e+19 2.0528443
-2 3.2939341 3.6893488e+19
-2.56022 1.0842022e-19 2.1422229
-1.0842022e-19 3.1676798 -1.0842022e-19
-2.5616221 2 2.0073147
0 3.2944918 2
-2.5608084 3.6893488e+19 2.0766151
-3.6893488e+19 3.1659374 3.6893488e+19
-2.5603223 1.0842022e-19 1.9589974
1.0842022e-19 3.2929757 0
-2.5592084 0 2.0089424
3.6893488e+19 3.3059318 -3.6893488e+19
-2.7064986 -1.0842022e-19 1.9879631
-1.0842022e-19 3.2931173 3.6893488e+19
-2.5593579 0 1.9430825
2 3.3041325 2
-2.7038138 2 1.9175268
0 3.2939575 0
-2.5602446 2 1.8774674
-2 3.173764 -3.6893488e+19
-2.5661614 -1.0842022e-19 1.7622355
3.6893488e+19 3.2626975 -2
-2.7088099 -0 1.7224479
-1.0842022e-19 3.1887603 0
-2.5363107 2 1.5443804
3.6893488e+19 3.2616954 1.0842022e-19
-2.7070599 -2 -1.2645028
0 3.1830223 -2
-2.5325661 1.0842022e-19 -1.5992914
1.0842022e-19 3.1550725 -0
-2.6037362 -1.0842022e-19 -1.6984611
-1.0842022e-19 3.1821668 -3.6893488e+19
-2.5320079 -3.6893488e+19 -1.7786574
3.6893488e+19 3.1566288 -0
-2.6050954 1.0842022e-19 -1.8174777
2 3.182586 -2
-2.5322814 -0 -1.8757962
0 3.125108 2
-2.5775692 1.0842022e-19 -1.8816124
2 3.1371973 2
-2.5026634 -0 -1.9063796
0 2.9347169 0
-2.2836721 -3.6893488e+19 -1.8497348
-3.6893488e+19 2.8738303 2
-2.3264537 0 -1.8415992
-1.0842022e-19 2.7970335 3.6893488e+19
-2.1376553 2 -1.8121707
2 2.7648926 -3.6893488e+19
-2.2126436 -0 -1.8087642
0 2.7280467 1.0842022e-19
-2.0619466 -0 -1.8026749
1.0842022e-19 2.6906412 1.0842022e-19
-1.9825277 -3.6893488e+19 -1.8004614
0 2.6427934 -1.0842022e-19
-2.0430548 2 -1.7939091
-1.0842022e-19 2.6199527 2
-1.9452252 -0 -1.7931803
-0 2.5902627 3.6893488e+19
-2.0038629 0 -1.7906864
-0 2.5678535 -2
-1.9177322 -3.6893488e+19 -1.7874417
-1.0842022e-19 2.5459738 1.0842022e-19
-1.97082 3.6893488e+19 -1.785977
-1.0842022e-19 2.5321026 -2
-1.8988664 -3.6893488e+19 -1.7851092
2 2.5117607 -3.6893488e+19
-1.9452941 0 -1.7822937
2 2.4949701 -3.6893488e+19
-1.8805985 -1.0842022e-19 -1.7794605
-3.6893488e+19 2.4683676 1.0842022e-19
-1.9247197 -0 -1.7790861
0 3.2134328 -0
-2.6547003 3.6893488e+19 2.6933403
-2 3.273509 -2
-2.6069536 -2 2.7549381
-0 3.2148015 3.6893488e+19
-2.6558957 -2 2.6806834
3.6893488e+19 3.2483897 2
-2.6852272 1.0842022e-19 2.6968749
-3.6893488e+19 3.254113 0
-2.5816402 1.0842022e-19 2.6935763
0 3.2146997 1.0842022e-19
-2.6558068 -1.0842022e-19 2.6527901
2 3.2281473 -1.0842022e-19
-2.5620122 2 2.6532075
3.6893488e+19 3.2473505 -1.0842022e-19
-2.6843195 3.6893488e+19 2.66628
0 3.2359655 -2
-2.5671139 -2 2.6454978
-0 3.2034154 -2
-2.6459525 -1.0842022e-19 2.616045
-2 3.2289124 0
-2.5625117 2 2.6256998
0 3.2078371 0
-2.6498139 -0 2.6060565
2 3.2304566 2
-2.5635192 2 2.6128483
-0 3.2514708 1.0842022e-19
-2.6892023 -2 2.6262825
3.6893488e+19 3.2564578 -3.6893488e+19
-2.5847001 -0 2.622385
1.0842022e-19 3.2459903 -3.6893488e+19
-2.5117354 0 2.6012845
0 3.2441106 3.6893488e+19
-2.5107436 -2 2.5856433
-2 3.2228885 2
-2.6028123 1.0842022e-19 2.5670683
1.0842022e-19 3.2416503 0
-2.5094454 -0 2.5697699
2 3.241456 1.0842022e-19
-2.5093429 3.6893488e+19 2.555476
0 3.2377207 1.0842022e-19
-2.6138783 2 2.5486565
3.6893488e+19 3.2488379 -3.6893488e+19
-2.5132382 0 2.5457177
-1.0842022e-19 3.2265129 1.0842022e-19
-2.6055164 -3.6893488e+19 2.5279837
1.0842022e-19 3.2494903 -1.0842022e-19
-2.5135825 3.6893488e+19 2.5317655
-2 3.1917343 -2
-2.4662092 2 2.4730628
2 3.2203813 1.0842022e-19
-2.6009417 0 2.4944518
-2 3.2474642 -0
-2.5125134 0 2.502146
-1.0842022e-19 3.1945381 -3.6893488e+19
-2.5816605 -1.0842022e-19 2.4416716
-1.0842022e-19 3.2431314 -1.0842022e-19
-2.6806352 1.0842022e-19 2.4787128
1.0842022e-19 3.2407041 1.0842022e-19
-2.5702062 -3.6893488e+19 2.4574895
-3.6893488e+19 3.2376101 -1.0842022e-19
-2.6758137 0 2.445148
0 3.1911337 -1.0842022e-19
-2.5378592 1.0842022e-19 2.3860404
2 3.1607573 -3.6893488e+19
-2.6087005 -3.6893488e+19 2.3512647
-2 3.2429774 -1.0842022e-19
-2.5716896 1.0842022e-19 2.4032466
-0 3.1938152 1.0842022e-19
-2.5396092 -0 2.3124335
-2 3.1538668 0
-2.6026835 2 2.2756016
-3.6893488e+19 3.1936734 1.0842022e-19
-2.5395167 3.6893488e+19 2.2870917
-2 3.1585362 0
-2.6067612 0 2.255317
1.0842022e-19 3.1920333 -2
-2.5384462 3.6893488e+19 2.2609048
-3.6893488e+19 3.1729369 2
-2.6193368 -0 2.2300975
0 3.3083265 3.6893488e+19
-2.6523933 -0 2.3289564
-2 3.1922712 -1.0842022e-19
-2.4667759 3.6893488e+19 2.1947641
-2 3.1725326 3.6893488e+19
-2.5652428 -2 2.1544731
-3.6893488e+19 3.1950819 -3.6893488e+19
-2.4697423 -3.6893488e+19 2.1473486
3.6893488e+19 3.1657622 -1.0842022e-19
-2.5601914 2 2.1006701
-0 3.1937265 -0
-2.4683118 -2 2.0960784
-3.6893488e+19 3.1650121 0
-2.5596321 3.6893488e+19 2.0528443
-2 3.2939341 3.6893488e+19
-2.56022 1.0842022e-19 2.1422229
-1.0842022e-19 3.1676798 -1.0842022e-19
-2.5616221 2 2.0073147
1.0842022e-19 3.1862726 -3.6893488e+19
-2.4604447 -2 1.9919307
-3.6893488e+19 3.1659374 3.6893488e+19
-2.5603223 1.0842022e-19 1.9589974
-3.6893488e+19 3.1873574 -2
-2.4615898 -1.0842022e-19 1.943276
-2 3.1721284 -3.6893488e+19
-2.5649412 -1.0842022e-19 1.9141722
3.6893488e+19 3.1873994 -3.6893488e+19
-2.4616339 -1.0842022e-19 1.8940619
-0 3.170192 0
-2.5634966 -1.0842022e-19 1.8564565
-1.0842022e-19 3.1871412 2
-2.4613616 3.6893488e+19 1.8145555
-2 3.173764 -3.6893488e+19
-2.5661614 -1.0842022e-19 1.7622355
2 3.1534266 -1.0842022e-19
-2.602299 -0 1.6708075
-1.0842022e-19 3.1887603 0
-2.5363107 2 1.5443804
2 3.1566713 -3.6893488e+19
-2.6051323 -0 -1.2167856
0 3.1830223 -2
-2.5325661 1.0842022e-19 -1.5992914
1.0842022e-19 3.1550725 -0
-2.6037362 -1.0842022e-19 -1.6984611
-1.0842022e-19 3.1821668 -3.6893488e+19
-2.5320079 -3.6893488e+19 -1.7786574
3.6893488e+19 3.1566288 -0
-2.6050954 1.0842022e-19 -1.8174777
-3.6893488e+19 3.145581 -2
-2.5081341 1.0842022e-19 -1.8550705
0 3.125108 2
-2.5775692 1.0842022e-19 -1.8816124
-3.6893488e+19 2.9334462 -1.0842022e-19
-2.2828429 3.6893488e+19 -1.8000585
0 2.9347169 0
-2.2836721 -3.6893488e+19 -1.8497348
-3.6893488e+19 2.8738303 2
-2.3264537 0 -1.8415992
-1.0842022e-19 2.7970335 3.6893488e+19
-2.1376553 2 -1.8121707
2 2.7648926 -3.6893488e+19
-2.2126436 -0 -1.8087642
0 2.7280467 1.0842022e-19
-2.0619466 -0 -1.8026749
1.0842022e-19 2.6906412 1.0842022e-19
-1.9825277 -3.6893488e+19 -1.8004614
0 2.6427934 -1.0842022e-19
-2.0430548 2 -1.7939091
-1.0842022e-19 2.6199527 2
-1.9452252 -0 -1.7931803
-0 2.5902627 3.6893488e+19
-2.0038629 0 -1.7906864
-0 2.5678535 -2
-1.9177322 -3.6893488e+19 -1.7874417
-1.0842022e-19 2.5459738 1.0842022e-19
-1.97082 3.6893488e+19 -1.785977
-1.0842022e-19 2.5321026 -2
-1.8988664 -3.6893488e+19 -1.7851092
2 2.5117607 -3.6893488e+19
-1.9452941 0 -1.7822937
2 2.4949701 -3.6893488e+19
-1.8805985 -1.0842022e-19 -1.7794605
-3.6893488e+19 2.4683676 1.0842022e-19
-1.9247197 -0 -1.7790861
-1.0842022e-19 3.2127795 1.0842022e-19
-2.6592181 -1.0842022e-19 2.6929705
-1.0842022e-19 3.2538829 0
-2.5868096 2 2.6933658
-1.0842022e-19 3.2147305 1.0842022e-19
-2.6609433 -1.0842022e-19 2.653049
-0 3.2277901 -1.0842022e-19
-2.566926 2 2.6530802
3.6893488e+19 3.2467053 -3.6893488e+19
-2.6892171 3.6893488e+19 2.6659796
-1.0842022e-19 3.2354233 3.6893488e+19
-2.5719893 3.6893488e+19 2.6452272
-0 3.2442276 -2
-2.6870263 -2 2.6492229
0 3.2543201 1.0842022e-19
-2.5873895 3.6893488e+19 2.6491928
-1.0842022e-19 3.255157 -0
-2.5884998 -3.6893488e+19 2.6355634
3.6893488e+19 3.2562258 3.6893488e+19
-2.5899177 0 2.6222088
3.6893488e+19 3.2458475 2
-2.5169532 -1.0842022e-19 2.601306
0 3.2442434 -2
-2.5160894 1.0842022e-19 2.585851
-3.6893488e+19 3.2226555 1.0842022e-19
-2.6077709 1.0842022e-19 2.5670683
2 3.2411728 1.0842022e-19
-2.5144365 1.0842022e-19 2.569571
-0 3.2415674 -1.0842022e-19
-2.6220858 1.0842022e-19 2.5654433
-3.6893488e+19 3.2458756 0
-2.5169685 -2 2.5583308
-0 3.2743158 2
-2.6652801 2 2.5861211
-2 3.2490926 2
-2.5187004 0 2.5459721
-1.0842022e-19 3.2523332 1.0842022e-19
-2.6320012 3.6893488e+19 2.5445528
-2 3.2487328 -3.6893488e+19
-2.5185065 -3.6893488e+19 2.5314364
-1.0842022e-19 3.2489612 -1.0842022e-19
-2.5186296 1.0842022e-19 2.5172675
1.0842022e-19 3.2177439 -3.6893488e+19
-2.6040528 0 2.4919217
0 3.2472599 3.6893488e+19
-2.5177135 -1.0842022e-19 2.5021303
1.0842022e-19 3.2379954 -3.6893488e+19
-2.6193819 -2 2.4850874
2 3.2414536 1.0842022e-19
-2.6845734 3.6893488e+19 2.4773588
2 3.2439532 -2
-2.5776472 0 2.4607177
2 3.2394218 3.6893488e+19
-2.6827767 -0 2.4470592
-0 3.2417932 2
-2.5762146 -1.0842022e-19 2.4305587
-2 3.1589122 -2
-2.6115851 3.6893488e+19 2.3498886
-0 3.2443292 -3.6893488e+19
-2.5778966 -0 2.4045267
2 3.1610222 0
-2.613451 2 2.3279815
2 3.2436213 3.6893488e+19
-2.5774271 2 2.3757808
1.0842022e-19 3.1935933 -0
-2.5442426 -3.6893488e+19 2.3124118
-2 3.2202275 -2
-2.6658039 0 2.3210716
-2 3.1942811 -2
-2.544699 -3.6893488e+19 2.2876089
-3.6893488e+19 3.1592441 -2
-2.6118786 -1.0842022e-19 2.2559066
-2 3.1795435 3.6893488e+19
-2.5349233 2 2.2536423
-2 3.1618567 3.6893488e+19
-2.6141889 2 2.2177892
1.0842022e-19 3.3080397 0
-2.6586556 -3.6893488e+19 2.3287921
-2 3.2360718 -3.6893488e+19
-2.5116901 3.6893488e+19 2.2389824
2 3.288053 2
-2.6860764 1.0842022e-19 2.2758772
1.0842022e-19 3.29351 -0
-2.5660384 -2 2.2621236
0 3.283258 0
-2.6788173 2 2.2280571
0 3.2936161 -0
-2.5661526 0 2.2081637
-2 3.1648691 0
-2.5640302 2 2.0528891
0 3.1655412 2
-2.5645387 -3.6893488e+19 2.0061231
-2 3.3113544 -1.0842022e-19
-2.7213519 2 2.0630486
-3.6893488e+19 3.186152 -3.6893488e+19
-2.469629 1.0842022e-19 1.9428108
-1.0842022e-19 3.3076689 1.0842022e-19
-2.7157726 -1.0842022e-19 1.9894322
-1.0842022e-19 3.2984955 1.0842022e-19
-2.5714068 -0 1.9466939
3.6893488e+19 3.3043971 -1.0842022e-19
-2.7108192 2 1.9177552
-1.0842022e-19 3.2965333 3.6893488e+19
-2.569294 -0 1.8786293
-2 3.1732175 -3.6893488e+19
-2.5703492 -1.0842022e-19 1.7621261
-2 3.2628207 -3.6893488e+19
-2.7148044 2 1.7226806
1.0842022e-19 3.2378974 3.6893488e+19
-2.5736303 3.6893488e+19 1.5634307
-3.6893488e+19 3.2621853 1.0842022e-19
-2.713681 -2 -1.2648445
-2 3.2368782 1.0842022e-19
-2.5729544 -3.6893488e+19 -1.6261479
2 3.1554799 -0
-2.6085501 -1.0842022e-19 -1.6987752
-0 3.1816106 1.0842022e-19
-2.5362945 1.0842022e-19 -1.7785259
-1.0842022e-19 3.1541369 -2
-2.6073625 0 -1.8164084
0 3.1827385 0
-2.5370426 -3.6893488e+19 -1.8758948
3.6893488e+19 3.1245868 -0
-2.5812325 -2 -1.8815053
0 3.1348422 1.0842022e-19
-2.5052722 -3.6893488e+19 -1.9054954
-2 2.9351456 3.6893488e+19
-2.2886393 -1.0842022e-19 -1.8500535
0 2.8773355 -2
-2.333663 -0 -1.843756
3.6893488e+19 2.8057775 2
-2.1556547 -1.0842022e-19 -1.8177637
2 2.7687032 -3.6893488e+19
-2.2252076 3.6893488e+19 -1.8115152
-0 2.7285795 -3.6893488e+19
-2.0674496 -3.6893488e+19 -1.8029497
-0 2.6904871 0
-1.9871485 -3.6893488e+19 -1.8004614
0 2.6427226 2
-2.0472665 -3.6893488e+19 -1.7939618
-3.6893488e+19 2.6200707 0
-1.9492379 1.0842022e-19 -1.7932929
0 2.5909534 -3.6893488e+19
-2.0080802 2 -1.7911044
0 2.5673716 2
-1.9208658 1.0842022e-19 -1.7872522
2 2.5458281 2
-1.9739234 3.6893488e+19 -1.785977
0 2.5318806 3.6893488e+19
-1.9017582 2 -1.7850391
-0 2.5116317 -0
-1.9480389 0 -1.7822937
1.0842022e-19 2.4950442 3.6893488e+19
-1.8832604 -1.0842022e-19 -1.7795377
-0 2.4676473 -0
-1.9269899 3.6893488e+19 -1.7789249
-2 2.4439061 0
-1.8639892 0 -1.7761441
-0 2.3816972 -1.0842022e-19
-1.8304973 3.6893488e+19 -1.7766234
0 2.323596 3.6893488e+19
-1.8930717 -3.6893488e+19 -1.7741586
2 2.2816455 3.6893488e+19
-1.8740482 2 -1.7711385
3.6893488e+19 2.2469771 -3.6893488e+19
-1.8447287 -3.6893488e+19 -1.7683808
3.6893488e+19 2.20591 -2
-1.8265717 1.0842022e-19 -1.7698377
-2 2.1760333 1.0842022e-19
-1.7293669 -3.6893488e+19 -1.7706497
-0 2.138433 0
-1.7091237 -1.0842022e-19 -1.769065
-2 2.1130962 -0
-1.695483 3.6893488e+19 -1.7702569
2 2.083946 -0
-1.6797891 3.6893488e+19 -1.768388
-1.0842022e-19 3.2127795 1.0842022e-19
-2.6592181 -1.0842022e-19 2.6929705
-1.0842022e-19 3.2538829 0
-2.5868096 2 2.6933658
-1.0842022e-19 3.2147305 1.0842022e-19
-2.6609433 -1.0842022e-19 2.653049
-0 3.2277901 -1.0842022e-19
-2.566926 2 2.6530802
3.6893488e+19 3.2467053 -3.6893488e+19
-2.6892171 3.6893488e+19 2.6659796
-1.0842022e-19 3.2354233 3.6893488e+19
-2.5719893 3.6893488e+19 2.6452272
-0 3.2442276 -2
-2.6870263 -2 2.6492229
-3.6893488e+19 3.2285242 2
-2.5674131 3.6893488e+19 2.6255572
0 3.2304616 -2
-2.5686979 -0 2.6130085
3.6893488e+19 3.2562258 3.6893488e+19
-2.5899177 0 2.6222088
3.6893488e+19 3.2458475 2
-2.5169532 -1.0842022e-19 2.601306
0 3.2442434 -2
-2.5160894 1.0842022e-19 2.585851
-3.6893488e+19 3.2226555 1.0842022e-19
-2.6077709 1.0842022e-19 2.5670683
-3.6893488e+19 3.1898661 -1.0842022e-19
-2.4736283 0 2.5361896
-0 3.2415674 -1.0842022e-19
-2.6220858 1.0842022e-19 2.5654433
0 3.1899827 1.0842022e-19
-2.4737537 -1.0842022e-19 2.523577
-0 3.2743158 2
-2.6652801 2 2.5861211
2 3.187227 2
-2.4707866 1.0842022e-19 2.5092845
-2 3.2281322 -1.0842022e-19
-2.6119163 -1.0842022e-19 2.5290658
-2 3.2487328 -3.6893488e+19
-2.5185065 -3.6893488e+19 2.5314364
1.0842022e-19 3.1904135 0
-2.4742177 1.0842022e-19 2.471813
1.0842022e-19 3.2177439 -3.6893488e+19
-2.6040528 0 2.4919217
0 3.2472599 3.6893488e+19
-2.5177135 -1.0842022e-19 2.5021303
1.0842022e-19 3.2379954 -3.6893488e+19
-2.6193819 -2 2.4850874
2 3.2414536 1.0842022e-19
-2.6845734 3.6893488e+19 2.4773588
2 3.2439532 -2
-2.5776472 0 2.4607177
2 3.2394218 3.6893488e+19
-2.6827767 -0 2.4470592
1.0842022e-19 3.203449 -2
-2.5507801 2 2.3969889
-2 3.1589122 -2
-2.6115851 3.6893488e+19 2.3498886
-0 3.2443292 -3.6893488e+19
-2.5778966 -0 2.4045267
2 3.1610222 0
-2.613451 2 2.3279815
3.6893488e+19 3.1967208 1.0842022e-19
-2.5463173 3.6893488e+19 2.3400767
1.0842022e-19 3.1935933 -0
-2.5442426 -3.6893488e+19 2.3124118
-1.0842022e-19 3.1527524 -3.6893488e+19
-2.6061382 -3.6893488e+19 2.2749994
-2 3.1942811 -2
-2.544699 -3.6893488e+19 2.2876089
-3.6893488e+19 3.1592441 -2
-2.6118786 -1.0842022e-19 2.2559066
-2 3.1795435 3.6893488e+19
-2.5349233 2 2.2536423
-2 3.1618567 3.6893488e+19
-2.6141889 2 2.2177892
1.0842022e-19 3.3080397 0
-2.6586556 -3.6893488e+19 2.3287921
-2 3.2360718 -3.6893488e+19
-2.5116901 3.6893488e+19 2.2389824
-3.6893488e+19 3.1735198 -2
-2.5705781 -2 2.155618
-0 3.1941226 3.6893488e+19
-2.4782114 2 2.1466308
0 3.1628897 3.6893488e+19
-2.5625317 1.0842022e-19 2.098419
0 3.1945925 2
-2.4787173 3.6893488e+19 2.096875
-2 3.1648691 0
-2.5640302 2 2.0528891
0 3.1655412 2
-2.5645387 -3.6893488e+19 2.0061231
3.6893488e+19 3.1655486 0
-2.5645444 -1.0842022e-19 1.9589047
-3.6893488e+19 3.186152 -3.6893488e+19
-2.469629 1.0842022e-19 1.9428108
-1.0842022e-19 3.3076689 1.0842022e-19
-2.7157726 -1.0842022e-19 1.9894322
-0 3.1869678 1.0842022e-19
-2.4705076 3.6893488e+19 1.8939701
-2 3.1649194 -2
-2.5640681 2 1.8536649
-0 3.1887846 0
-2.4724638 1.0842022e-19 1.8153347
-2 3.1732175 -3.6893488e+19
-2.5703492 -1.0842022e-19 1.7621261
0 3.1515467 -1.0842022e-19
-2.605072 1.0842022e-19 1.6701095
1.0842022e-19 3.1870606 -2
-2.5399094 2 1.543797
-1.0842022e-19 3.1554606 2
-2.6085331 -2 -1.2162647
-1.0842022e-19 3.1840377 -3.6893488e+19
-2.5379043 3.6893488e+19 -1.5999144
2 3.1554799 -0
-2.6085501 -1.0842022e-19 -1.6987752
-0 3.1816106 1.0842022e-19
-2.5362945 1.0842022e-19 -1.7785259
-1.0842022e-19 3.1541369 -2
-2.6073625 0 -1.8164084
-1.0842022e-19 3.1438076 -2
-2.511219 -2 -1.8541378
3.6893488e+19 3.1245868 -0
-2.5812325 -2 -1.8815053
-0 2.9354167 3.6893488e+19
-2.2888191 -1.0842022e-19 -1.8009301
-2 2.9351456 3.6893488e+19
-2.2886393 -1.0842022e-19 -1.8500535
0 2.8773355 -2
-2.333663 -0 -1.843756
3.6893488e+19 2.8057775 2
-2.1556547 -1.0842022e-19 -1.8177637
2 2.7687032 -3.6893488e+19
-2.2252076 3.6893488e+19 -1.8115152
-0 2.7285795 -3.6893488e+19
-2.0674496 -3.6893488e+19 -1.8029497
-0 2.6904871 0
-1.9871485 -3.6893488e+19 -1.8004614
0 2.6427226 2
-2.0472665 -3.6893488e+19 -1.7939618
-3.6893488e+19 2.6200707 0
-1.9492379 1.0842022e-19 -1.7932929
0 2.5909534 -3.6893488e+19
-2.0080802 2 -1.7911044
0 2.5673716 2
-1.9208658 1.0842022e-19 -1.7872522
2 2.5458281 2
-1.9739234 3.6893488e+19 -1.785977
0 2.5318806 3.6893488e+19
-1.9017582 2 -1.7850391
-0 2.5116317 -0
-1.9480389 0 -1.7822937
1.0842022e-19 2.4950442 3.6893488e+19
-1.8832604 -1.0842022e-19 -1.7795377
-0 2.4676473 -0
-1.9269899 3.6893488e+19 -1.7789249
-2 2.4439061 0
-1.8639892 0 -1.7761441
-0 2.3816972 -1.0842022e-19
-1.8304973 3.6893488e+19 -1.7766234
0 2.323596 3.6893488e+19
-1.8930717 -3.6893488e+19 -1.7741586
2 2.2816455 3.6893488e+19
-1.8740482 2 -1.7711385
3.6893488e+19 2.2469771 -3.6893488e+19
-1.8447287 -3.6893488e+19 -1.7683808
3.6893488e+19 2.20591 -2
-1.8265717 1.0842022e-19 -1.7698377
-2 2.1760333 1.0842022e-19
-1.7293669 -3.6893488e+19 -1.7706497
-0 2.138433 0
-1.7091237 -1.0842022e-19 -1.769065
-2 2.1130962 -0
-1.695483 3.6893488e+19 -1.7702569
2 2.083946 -0
-1.6797891 3.6893488e+19 -1.768388
1.0842022e-19 3.2532642 1.0842022e-19
-2.5914526 -2 2.7074909
-1.0842022e-19 3.2546151 -1.0842022e-19
-2.5932739 2 2.6948395
-2 3.2131765 -1.0842022e-19
-2.66467 2 2.6519358
3.6893488e+19 3.2376873 1.0842022e-19
-2.5787518 2 2.6616104
-2 3.244324 0
-2.6925557 -0 2.664227
1.0842022e-19 3.2357242 3.6893488e+19
-2.5774283 1.0842022e-19 2.6456456
-3.6893488e+19 3.2453156 -0
-2.6934433 3.6893488e+19 2.6503353
-1.0842022e-19 3.2539513 2
-2.5923791 -1.0842022e-19 2.6487889
-0 3.2562721 -0
-2.5955079 2 2.6374183
0 3.2560377 -0
-2.5951917 -1.0842022e-19 2.6220984
0 3.2456708 -1.0842022e-19
-2.5221555 -1.0842022e-19 2.601306
-3.6893488e+19 3.2451966 0
-2.5218954 -3.6893488e+19 2.5866187
-3.6893488e+19 3.2183011 0
-2.6095676 0 2.5643044
0 3.2436569 -2
-2.5210497 3.6893488e+19 2.5713017
-3.6893488e+19 3.2409275 0
-2.6269405 -2 2.5651901
1.0842022e-19 3.2483611 3.6893488e+19
-2.5236328 -3.6893488e+19 2.5599866
1.0842022e-19 3.2737236 0
-2.670337 -1.0842022e-19 2.5855629
2 3.2486391 -1.0842022e-19
-2.5237854 2 2.5458086
3.6893488e+19 3.252526 -0
-2.6377854 -3.6893488e+19 2.5449252
3.6893488e+19 3.2483099 -0
-2.5236046 1.0842022e-19 2.5312982
2 3.2553723 -0
-2.6421561 -3.6893488e+19 2.5334654
-0 3.2482309 -3.6893488e+19
-2.5235612 -1.0842022e-19 2.5169713
-1.0842022e-19 3.2503996 -2
-2.5249715 1.0842022e-19 2.5040157
2 3.238513 -3.6893488e+19
-2.6250863 -1.0842022e-19 2.4858449
-0 3.2405612 -0
-2.6891868 -1.0842022e-19 2.4767702
2 3.2700582 -1.0842022e-19
-2.6140943 -0 2.5019977
2 3.2357116 -0
-2.684845 -2 2.443929
-2 3.2413018 -2
-2.5811882 -2 2.4303172
-2 3.1805723 1.0842022e-19
-2.6354804 0 2.3686373
-2 3.2445416 1.0842022e-19
-2.5833724 3.6893488e+19 2.4048781
-1.0842022e-19 3.2446628 -0
-2.5834539 -0 2.3767388
-1.0842022e-19 3.1621447 2
-2.6189826 2 2.3053057
-1.0842022e-19 3.2701898 2
-2.6142719 2 2.3807433
-1.0842022e-19 3.2283409 -0
-2.6782463 2 2.326802
0 3.2533293 0
-2.5915403 1.0842022e-19 2.3281333
2 3.2890234 0
-2.6396635 1.0842022e-19 2.3414822
-2 3.1623161 1.0842022e-19
-2.6191361 -1.0842022e-19 2.2185843
3.6893488e+19 3.3060288 -0
-2.6625903 0 2.3267894
0 3.2355897 -0
-2.5166204 2 2.2386715
3.6893488e+19 3.2870512 -2
-2.6908031 -0 2.2750552
1.0842022e-19 3.1958809 3.6893488e+19
-2.4896355 -3.6893488e+19 2.1483428
0 3.2827179 3.6893488e+19
-2.6841488 -0 2.2273843
3.6893488e+19 3.1947432 3.6893488e+19
-2.4883862 -2 2.0971162
-2 3.1933973 -3.6893488e+19
-2.4869082 -3.6893488e+19 2.0460413
1.0842022e-19 3.1634934 -1.0842022e-19
-2.5674853 -1.0842022e-19 2.0049884
3.6893488e+19 3.1643286 -0
-2.5681267 -1.0842022e-19 1.9583956
2 3.1889367 -0
-2.4820099 -3.6893488e+19 1.9441109
-2 3.3084662 -3.6893488e+19
-2.7236886 -2 1.9901727
2 3.2984047 -2
-2.5776873 0 1.9467041
-1.0842022e-19 3.2999949 2
-2.71068 0 1.9154119
-0 3.2969384 -0
-2.5760772 -3.6893488e+19 1.8788509
2 3.1708887 -2
-2.5731635 -0 1.7614397
0 3.2503324 1.0842022e-19
-2.6982322 -2 1.7122232
3.6893488e+19 3.2456646 -3.6893488e+19
-2.5841291 -2 1.5665144
-1.0842022e-19 3.251054 2
-2.6995246 2 -1.2589855
2 3.182584 2
-2.5416064 1.0842022e-19 -1.5992595
1.0842022e-19 3.1539626 -3.6893488e+19
-2.6116571 -1.0842022e-19 -1.6981469
-1.0842022e-19 3.1757824 -1.0842022e-19
-2.5370214 1.0842022e-19 -1.7765193
-1.0842022e-19 3.1530778 -3.6893488e+19
-2.6108651 1.0842022e-19 -1.8160182
2 3.1689613 2
-2.5324233 -0 -1.8688804
0 3.1263196 -3.6893488e+19
-2.5869091 -0 -1.8821907
-0 3.1351354 3.6893488e+19
-2.5096211 -3.6893488e+19 -1.9056822
3.6893488e+19 2.8226588 2
-2.1850109 -0 -1.7919495
-0 2.8792486 -3.6893488e+19
-2.3395314 3.6893488e+19 -1.8449935
1.0842022e-19 2.8010247 -1.0842022e-19
-2.1558435 3.6893488e+19 -1.8148507
-2 2.728739 -3.6893488e+19
-2.0727196 -1.0842022e-19 -1.8030871
-0 2.6904538 1.0842022e-19
-1.991838 2 -1.8005108
-1.0842022e-19 2.6404421 -3.6893488e+19
-2.0497863 -3.6893488e+19 -1.7930647
-0 2.6211753 -2
-1.9537995 -0 -1.7938553
3.6893488e+19 2.5904152 1.0842022e-19
-2.0113752 1.0842022e-19 -1.7909253
1.0842022e-19 2.5681236 -2
-1.9246706 -1.0842022e-19 -1.7876946
0 2.5456803 1.0842022e-19
-1.9770271 3.6893488e+19 -1.785977
3.6893488e+19 2.53178 3.6893488e+19
-1.9047157 2 -1.7850391
3.6893488e+19 2.5118682 -0
-1.9510658 2 -1.7825146
-1.0842022e-19 2.4951146 0
-1.8859252 -0 -1.7796148
3.6893488e+19 2.4676583 -1.0842022e-19
-1.9295369 -0 -1.7790055
1.0842022e-19 3.2532642 1.0842022e-19
-2.5914526 -2 2.7074909
0 3.2204297 -0
-2.5671182 2 2.6609449
-2 3.2131765 -1.0842022e-19
-2.66467 2 2.6519358
-0 3.2234776 -1.0842022e-19
-2.5691729 -0 2.6496172
-2 3.244324 0
-2.6925557 -0 2.664227
1.0842022e-19 3.2357242 3.6893488e+19
-2.5774283 1.0842022e-19 2.6456456
-3.6893488e+19 3.2453156 -0
-2.6934433 3.6893488e+19 2.6503353
-1.0842022e-19 3.2539513 2
-2.5923791 -1.0842022e-19 2.6487889
2 3.2325532 -3.6893488e+19
-2.5752907 -2 2.6147487
0 3.2560377 -0
-2.5951917 -1.0842022e-19 2.6220984
0 3.2456708 -1.0842022e-19
-2.5221555 -1.0842022e-19 2.601306
-3.6893488e+19 3.2451966 0
-2.5218954 -3.6893488e+19 2.5866187
-3.6893488e+19 3.2183011 0
-2.6095676 0 2.5643044
