# .PCD v0.7 - Point Cloud Data file format
VERSION 0.7
FIELDS x y z
SIZE 4 4 4
TYPE F F F
COUNT 1 1 1
WIDTH 1735
HEIGHT 1
VIEWPOINT 0 0 0 1 0 0 0
POINTS 1735
DATA ascii
1.9184138 -0 -1.8886122
2 2.800163 1.0842022e-19
1.9638883 -2 -1.8730562
-0 2.7727902 1.0842022e-19
1.7804676 -0 -1.864953
1.0842022e-19 2.7451913 3.6893488e+19
1.9264301 -2 -1.8574208
-0 2.7032185 -1.0842022e-19
1.7541482 -3.6893488e+19 -1.8497114
0 2.6624813 -2
1.8969616 2 -1.841786
3.6893488e+19 2.6252458 2
1.7138587 -2 -1.8320795
-1.0842022e-19 2.5998197 1.0842022e-19
1.8742723 -2 -1.8285307
-3.6893488e+19 2.5837016 1.0842022e-19
1.6901821 3.6893488e+19 -1.827875
3.6893488e+19 2.5548286 1.0842022e-19
1.8422129 0 -1.8195217
-0 2.5409403 1.0842022e-19
1.6658117 -2 -1.8182147
2 2.5257502 2
1.8214923 -3.6893488e+19 -1.8165095
-3.6893488e+19 2.5115266 3.6893488e+19
1.6490483 -3.6893488e+19 -1.8133858
3.6893488e+19 2.4819813 0
1.7967236 -2 -1.8059725
-2 2.4595494 3.6893488e+19
1.6309524 0 -1.8034472
-1.0842022e-19 3.2513573 -2
2.2194159 2 2.7088149
-3.6893488e+19 3.297796 -1.0842022e-19
1.6929337 1.0842022e-19 2.7582607
2 3.2447124 0
2.2119436 0 2.6725311
-3.6893488e+19 3.2994928 -0
1.694033 2 2.7510023
1.0842022e-19 3.2267964 2
2.1952143 0 2.6433253
1.0842022e-19 3.1981857 0
2.1684988 3.6893488e+19 2.6066937
-0 3.2022884 -0
2.1723297 -1.0842022e-19 2.596844
0 3.2470868 2
1.6610242 -0 2.6233766
-3.6893488e+19 3.199199 1.0842022e-19
2.169445 -1.0842022e-19 2.5814867
1.0842022e-19 3.244158 -2
1.6600754 -1.0842022e-19 2.6069312
-3.6893488e+19 3.2382565 1.0842022e-19
2.2059155 3.6893488e+19 2.5962253
-0 3.199641 1.0842022e-19
2.3204024 2 2.5630751
-1.0842022e-19 3.2083018 -3.6893488e+19
2.0111935 3.6893488e+19 2.5614672
2 3.2049637 1.0842022e-19
2.3241951 -1.0842022e-19 2.5536759
0 3.2285614 2
2.0227399 1.0842022e-19 2.5615127
0 3.2049572 -1.0842022e-19
2.3241904 2 2.5405996
2 3.2306969 1.0842022e-19
2.023957 0 2.5491524
3.6893488e+19 3.1921256 2
2.315047 2 2.5197258
3.6893488e+19 3.2314534 -0
2.0243881 1.0842022e-19 2.5358782
-1.0842022e-19 3.2309191 -0
2.0240836 1.0842022e-19 2.5218596
0 3.236212 3.6893488e+19
2.3464618 2 2.5049725
-1.0842022e-19 3.2204802 3.6893488e+19
2.0181344 0 2.4784622
-3.6893488e+19 3.2185287 -1.0842022e-19
2.0170221 -1.0842022e-19 2.4499354
-2 3.2443106 -3.6893488e+19
1.6601249 -1.0842022e-19 2.4604244
3.6893488e+19 3.2400167 -1.0842022e-19
2.2075589 1.0842022e-19 2.4433246
0 3.2436128 0
1.6598989 0 2.4318922
0 3.2158818 -0
2.1850226 0 2.3951547
-0 3.1949213 -0
1.6441259 -2 2.3641953
0 3.2222061 -0
2.190928 0 2.3738608
3.6893488e+19 3.1978409 2
1.6450717 -3.6893488e+19 2.341368
3.6893488e+19 3.2338901 -2
2.201838 -1.0842022e-19 2.3558366
1.0842022e-19 3.1967268 -0
1.6447108 3.6893488e+19 2.3153927
-2 3.1965432 -3.6893488e+19
2.166965 2 2.3032308
-0 3.2285426 1.0842022e-19
1.6550171 -2 2.3109777
-2 3.2142761 2
2.1835234 3.6893488e+19 2.2891676
0 3.2317626 -3.6893488e+19
1.6560601 0 2.2860377
0 3.2038426 2
2.1737809 -3.6893488e+19 2.2571735
-1.0842022e-19 3.1837969 -0
1.6405224 3.6893488e+19 2.2164953
2 3.2165711 2
2.1856663 -2 2.2264032
2 3.2232969 -0
2.3372588 -3.6893488e+19 2.207761
0 3.195127 -1.0842022e-19
2.003685 -3.6893488e+19 2.1541677
1.0842022e-19 3.2015085 3.6893488e+19
2.321733 -0 2.1359706
0 3.1961343 -0
2.0042591 -0 2.105144
-0 3.1994884 0
2.3202937 1.0842022e-19 2.083781
-0 3.1973701 -1.0842022e-19
2.0049634 -1.0842022e-19 2.0560956
1.0842022e-19 3.2169778 2
2.332756 1.0842022e-19 2.0443757
-0 3.1963689 -1.0842022e-19
2.0043929 -2 2.0055103
2 3.2146676 -0
2.3311098 0 1.9908247
-2 3.2006836 -0
2.0068519 2 1.9576327
2 3.202812 1.0842022e-19
2.3226619 0 1.9339277
-2 3.2011065 -0
2.007093 -2 1.9074429
-0 3.2026317 -1.0842022e-19
2.3225334 -3.6893488e+19 1.8831497
3.6893488e+19 3.2031939 0
2.0082827 -1.0842022e-19 1.8401582
2 3.2016826 -1.0842022e-19
2.321857 -2 1.7895507
0 3.1924245 -1.0842022e-19
2.0021448 3.6893488e+19 1.7225324
-3.6893488e+19 3.1842713 0
1.6406761 3.6893488e+19 1.6178508
-1.0842022e-19 3.1952109 -3.6893488e+19
2.1657209 -0 1.3264401
3.6893488e+19 3.1910865 0
1.6428838 2 -1.5219649
1.0842022e-19 3.1938927 -1.0842022e-19
2.16449 3.6893488e+19 -1.6732569
-1.0842022e-19 3.1890366 -2
1.6422197 -1.0842022e-19 -1.7595042
-2 3.1940813 -3.6893488e+19
2.1646662 -0 -1.8109164
1.0842022e-19 3.1914339 -3.6893488e+19
1.6429962 -1.0842022e-19 -1.8587395
-2 3.1942484 3.6893488e+19
2.1648223 3.6893488e+19 -1.8926368
-0 3.1849053 3.6893488e+19
1.6408814 -2 -1.9136651
-0 3.1959844 0
2.1664433 3.6893488e+19 -1.9430554
-1.0842022e-19 3.1895711 2
1.6423929 -0 -1.964491
-1.0842022e-19 3.1569159 1.0842022e-19
2.1299627 -2 -1.9716452
-0 3.1436248 -3.6893488e+19
1.6275091 2 -1.9860309
-2 2.8607209 2
1.9184138 -0 -1.8886122
2 2.800163 1.0842022e-19
1.9638883 -2 -1.8730562
-0 2.7727902 1.0842022e-19
1.7804676 -0 -1.864953
1.0842022e-19 2.7451913 3.6893488e+19
1.9264301 -2 -1.8574208
-0 2.7032185 -1.0842022e-19
1.7541482 -3.6893488e+19 -1.8497114
0 2.6624813 -2
1.8969616 2 -1.841786
3.6893488e+19 2.6252458 2
1.7138587 -2 -1.8320795
-1.0842022e-19 2.5998197 1.0842022e-19
1.8742723 -2 -1.8285307
-3.6893488e+19 2.5837016 1.0842022e-19
1.6901821 3.6893488e+19 -1.827875
3.6893488e+19 2.5548286 1.0842022e-19
1.8422129 0 -1.8195217
-0 2.5409403 1.0842022e-19
1.6658117 -2 -1.8182147
2 2.5257502 2
1.8214923 -3.6893488e+19 -1.8165095
-3.6893488e+19 2.5115266 3.6893488e+19
1.6490483 -3.6893488e+19 -1.8133858
3.6893488e+19 2.4819813 0
1.7967236 -2 -1.8059725
-2 2.4595494 3.6893488e+19
1.6309524 0 -1.8034472
2 3.2461002 3.6893488e+19
2.1918809 -3.6893488e+19 2.6736515
0 3.2995572 -2
1.5574665 2 2.7510536
-2 3.2467337 3.6893488e+19
2.1924453 0 2.6597097
-1.0842022e-19 3.2501249 0
2.1955774 -1.0842022e-19 2.6480689
-2 3.2903118 -2
1.5518351 3.6893488e+19 2.7029047
-3.6893488e+19 3.2435143 2
2.1895778 -3.6893488e+19 2.6284008
-2 3.289993 -3.6893488e+19
1.5516409 -3.6893488e+19 2.6856406
-3.6893488e+19 3.2421968 2
2.1884043 2 2.6131616
-0 3.2448394 3.6893488e+19
1.5257086 3.6893488e+19 2.60742
-1.0842022e-19 3.23913 -2
2.1856725 -3.6893488e+19 2.5967915
1.0842022e-19 3.2510557 3.6893488e+19
2.3469348 0 2.5995269
0 3.2056959 -1.0842022e-19
1.9901301 -0 2.5596676
2 3.2482221 -3.6893488e+19
2.3442473 2 2.5824716
-1.0842022e-19 3.2278962 3.6893488e+19
2.0018287 3.6893488e+19 2.5610511
-2 3.2008517 -2
2.3115168 -0 2.5379095
1.0842022e-19 3.230772 1.0842022e-19
2.0033441 -1.0842022e-19 2.5491714
-2 3.1928144 0
2.3059635 3.6893488e+19 2.5200825
2 3.231096 3.6893488e+19
2.0035148 0 2.5356398
1.0842022e-19 3.2296646 -0
2.0027604 -2 2.5211253
0 3.240375 3.6893488e+19
2.3388255 0 2.5210655
1.0842022e-19 3.2343197 -1.0842022e-19
2.3346415 -0 2.5039203
2 3.2251391 -3.6893488e+19
2.3282981 1.0842022e-19 2.4711859
-3.6893488e+19 3.2450294 1.0842022e-19
1.5257665 -1.0842022e-19 2.4610894
-0 3.2605791 3.6893488e+19
2.2142005 1.0842022e-19 2.4714267
-0 3.2430584 1.0842022e-19
1.5251662 0 2.4314029
0 3.2258201 -0
2.1738172 0 2.4035225
2 3.2253916 2
1.5197855 0 2.3891335
-3.6893488e+19 3.2232096 -3.6893488e+19
2.1714921 -3.6893488e+19 2.374598
-1.0842022e-19 3.2253768 -1.0842022e-19
1.519781 -0 2.3623538
-2 3.2492199 -2
2.1946597 0 2.3670537
-1.0842022e-19 3.2286072 -1.0842022e-19
1.5207648 1.0842022e-19 2.3378973
1.0842022e-19 3.1958344 0
2.1471088 -3.6893488e+19 2.3027029
-1.0842022e-19 3.2277687 3.6893488e+19
1.5205095 -0 2.3104718
-0 3.2225907 2
2.1709409 2 2.2943013
3.6893488e+19 3.2446382 1.0842022e-19
1.5256473 -2 2.2936792
0 3.2192562 3.6893488e+19
2.1679707 1.0842022e-19 2.2658672
-2 3.1821175 0
1.506606 1.0842022e-19 2.2146847
-0 3.2151477 0
2.1643114 -0 2.2248774
-3.6893488e+19 3.2216678 0
2.3258998 -1.0842022e-19 2.2060783
-3.6893488e+19 3.2449045 1.0842022e-19
2.0107913 -3.6893488e+19 2.1993237
0 3.2248702 3.6893488e+19
2.3281124 -3.6893488e+19 2.1558456
1.0842022e-19 3.244714 -2
2.0106907 -3.6893488e+19 2.1437795
-2 3.2263098 -3.6893488e+19
2.329107 2 2.1036148
0 3.2479939 0
2.0124192 -3.6893488e+19 2.0907016
-3.6893488e+19 3.2174609 2
2.322993 0 2.044611
-0 3.1971903 0
1.9856482 0 2.0059571
3.6893488e+19 3.2140923 -0
2.3206654 2 1.9904699
1.0842022e-19 3.198009 -2
1.9860795 2 1.9563814
-2 3.2037587 -0
2.3135254 -1.0842022e-19 1.9342688
-0 3.1980255 -3.6893488e+19
1.9860882 -0 1.9063532
0 3.2058201 0
2.3149498 -2 1.8840561
-3.6893488e+19 3.1971457 2
1.9856247 -3.6893488e+19 1.8372673
2 3.2061162 2
2.3151543 1.0842022e-19 1.7911268
-0 3.1940267 -3.6893488e+19
1.983981 -2 1.7233177
-3.6893488e+19 3.2931993 1.0842022e-19
1.553594 -1.0842022e-19 1.6639596
-3.6893488e+19 3.1924708 -0
2.1441128 -2 1.3251697
1.0842022e-19 3.2921076 -2
1.5529288 3.6893488e+19 -1.5696517
-0 3.2851312 -0
2.253969 -2 -1.7225466
-1.0842022e-19 3.1864161 3.6893488e+19
1.5079151 -3.6893488e+19 -1.7587
2 3.1939933 0
2.145469 -2 -1.8108511
3.6893488e+19 3.1918445 -2
1.5095683 -3.6893488e+19 -1.8589545
-1.0842022e-19 3.1955018 -3.6893488e+19
2.1468124 -1.0842022e-19 -1.8930173
1.0842022e-19 3.1870341 -3.6893488e+19
1.5081033 1.0842022e-19 -1.9144646
0 3.1956472 -1.0842022e-19
2.1469419 3.6893488e+19 -1.9428799
2 3.1498129 -1.0842022e-19
1.4935344 0 -1.9450889
0 3.2142627 2
2.163523 -3.6893488e+19 -2.0028429
-0 3.1428792 0
1.4893111 3.6893488e+19 -1.9855815
3.6893488e+19 2.854543 1.0842022e-19
1.9078974 3.6893488e+19 -1.8862174
-0 2.8002336 0
1.9574471 -2 -1.8730562
0 2.7726283 -3.6893488e+19
1.7686621 0 -1.8647885
-2 2.7414536 -2
1.9197854 0 -1.8556124
1.0842022e-19 2.7028861 -0
1.7386495 1.0842022e-19 -1.849526
-1.0842022e-19 2.6628268 1.0842022e-19
1.8926218 -2 -1.8419166
-0 2.625031 1.0842022e-19
1.6976236 -3.6893488e+19 -1.831942
-2 2.6001503 0
1.8669372 0 -1.8286753
-0 2.5842307 3.6893488e+19
1.6761237 3.6893488e+19 -1.8281779
0 2.555397 1.0842022e-19
1.8360146 -1.0842022e-19 -1.8198384
1.0842022e-19 2.5400956 2
1.6528666 0 -1.817636
2 2.5248225 -1.0842022e-19
1.8148891 -1.0842022e-19 -1.8158203
0 2.511302 1.0842022e-19
1.6376938 3.6893488e+19 -1.8132067
-0 2.4848225 1.0842022e-19
1.7924945 -2 -1.8069965
-3.6893488e+19 2.4613326 -3.6893488e+19
1.6181004 2 -1.8041232
2 2.4398866 -2
1.7769701 0 -1.8025569
3.6893488e+19 2.3819969 3.6893488e+19
1.1076823 -0 -1.8001691
1.0842022e-19 2.3322549 -0
1.0773834 -2 -1.7961636
-3.6893488e+19 2.2900488 1.0842022e-19
1.051675 -0 -1.7908956
1.0842022e-19 2.2598069 -0
1.0332538 3.6893488e+19 -1.7884142
-3.6893488e+19 2.2110226 -3.6893488e+19
1.6592722 -0 -1.7837794
-2 2.1731439 -2
1.646186 -1.0842022e-19 -1.7829553
3.6893488e+19 2.1407461 -2
1.6349933 -3.6893488e+19 -1.7822061
2 2.1084471 1.0842022e-19
1.6226697 -3.6893488e+19 -1.7796766
2 3.2461002 3.6893488e+19
2.1918809 -3.6893488e+19 2.6736515
-1.0842022e-19 3.2917118 0
1.5526879 -1.0842022e-19 2.7389572
3.6893488e+19 3.2271137 -2
2.1749694 -1.0842022e-19 2.6435268
-1.0842022e-19 3.2501249 0
2.1955774 -1.0842022e-19 2.6480689
-2 3.2903118 -2
1.5518351 3.6893488e+19 2.7029047
-3.6893488e+19 3.2435143 2
2.1895778 -3.6893488e+19 2.6284008
-3.6893488e+19 3.2463851 -0
1.5261793 0 2.6228461
-3.6893488e+19 3.2421968 2
2.1884043 2 2.6131616
-0 3.2448394 3.6893488e+19
1.5257086 3.6893488e+19 2.60742
-1.0842022e-19 3.23913 -2
2.1856725 -3.6893488e+19 2.5967915
2 3.1984584 -1.0842022e-19
2.3098631 -0 2.5621781
0 3.2056959 -1.0842022e-19
1.9901301 -0 2.5596676
-3.6893488e+19 3.2026136 -3.6893488e+19
2.3127341 -1.0842022e-19 2.5520363
-1.0842022e-19 3.2278962 3.6893488e+19
2.0018287 3.6893488e+19 2.5610511
-2 3.2008517 -2
2.3115168 -0 2.5379095
1.0842022e-19 3.230772 1.0842022e-19
2.0033441 -1.0842022e-19 2.5491714
-2 3.1928144 0
2.3059635 3.6893488e+19 2.5200825
2 3.231096 3.6893488e+19
2.0035148 0 2.5356398
1.0842022e-19 3.2296646 -0
2.0027604 -2 2.5211253
-0 3.199662 -1.0842022e-19
2.3106947 -1.0842022e-19 2.4971209
-0 3.1981068 -1.0842022e-19
2.3096201 -3.6893488e+19 2.4698691
1.0842022e-19 3.1939926 2
2.3067775 -3.6893488e+19 2.4402983
2 3.1919508 2
1.5096008 -3.6893488e+19 2.4116497
2 3.2406187 0
2.1869986 -3.6893488e+19 2.4438012
3.6893488e+19 3.1908698 -0
1.5092715 1.0842022e-19 2.3857403
0 3.2258201 -0
2.1738172 0 2.4035225
0 3.1961071 -3.6893488e+19
1.5108665 -0 2.3651624
-3.6893488e+19 3.2232096 -3.6893488e+19
2.1714921 -3.6893488e+19 2.374598
-0 3.1990275 3.6893488e+19
1.5117561 2 2.3422692
-2 3.2324104 1.0842022e-19
2.1796875 -0 2.3546944
-0 3.1972604 -0
1.5112178 -0 2.3157663
1.0842022e-19 3.1958344 0
2.1471088 -3.6893488e+19 2.3027029
-3.6893488e+19 3.1814525 2
1.5064034 -1.0842022e-19 2.2803738
-1.0842022e-19 3.1948113 3.6893488e+19
2.1461976 -1.0842022e-19 2.2770019
-2 3.1823409 -2
1.5066739 0 2.2566919
-1.0842022e-19 3.1989009 -2
2.1498401 -3.6893488e+19 2.2543344
-2 3.1821175 0
1.506606 1.0842022e-19 2.2146847
-0 3.2151477 0
2.1643114 -0 2.2248774
0 3.1924548 -0
2.3057148 -0 2.1778307
-3.6893488e+19 3.2449045 1.0842022e-19
2.0107913 -3.6893488e+19 2.1993237
0 3.2248702 3.6893488e+19
2.3281124 -3.6893488e+19 2.1558456
-2 3.1956449 -3.6893488e+19
1.9848337 0 2.104722
-0 3.1962664 1.0842022e-19
2.3083487 -3.6893488e+19 2.0813103
0 3.1974113 -0
1.9857645 -1.0842022e-19 2.0560956
-3.6893488e+19 3.2174609 2
2.322993 0 2.044611
-0 3.1971903 0
1.9856482 0 2.0059571
3.6893488e+19 3.2140923 -0
2.3206654 2 1.9904699
1.0842022e-19 3.198009 -2
1.9860795 2 1.9563814
-2 3.2037587 -0
2.3135254 -1.0842022e-19 1.9342688
-0 3.1980255 -3.6893488e+19
1.9860882 -0 1.9063532
0 3.2058201 0
2.3149498 -2 1.8840561
-3.6893488e+19 3.1971457 2
1.9856247 -3.6893488e+19 1.8372673
2 3.2061162 2
2.3151543 1.0842022e-19 1.7911268
-0 3.1940267 -3.6893488e+19
1.983981 -2 1.7233177
0 3.1841822 -0
1.5072347 -2 1.6177983
-3.6893488e+19 3.1924708 -0
2.1441128 -2 1.3251697
1.0842022e-19 3.1885598 -1.0842022e-19
1.5085679 -1.0842022e-19 -1.5211215
-3.6893488e+19 3.1948652 0
2.1462457 -0 -1.67361
-1.0842022e-19 3.1864161 3.6893488e+19
1.5079151 -3.6893488e+19 -1.7587
2 3.1939933 0
2.145469 -2 -1.8108511
3.6893488e+19 3.1918445 -2
1.5095683 -3.6893488e+19 -1.8589545
-1.0842022e-19 3.1955018 -3.6893488e+19
2.1468124 -1.0842022e-19 -1.8930173
1.0842022e-19 3.1870341 -3.6893488e+19
1.5081033 1.0842022e-19 -1.9144646
0 3.1956472 -1.0842022e-19
2.1469419 3.6893488e+19 -1.9428799
2 3.1498129 -1.0842022e-19
1.4935344 0 -1.9450889
-3.6893488e+19 3.1548264 -1.0842022e-19
2.1105826 -1.0842022e-19 -1.9704734
-0 3.1428792 0
1.4893111 3.6893488e+19 -1.9855815
3.6893488e+19 2.854543 1.0842022e-19
1.9078974 3.6893488e+19 -1.8862174
-0 2.8002336 0
1.9574471 -2 -1.8730562
0 2.7726283 -3.6893488e+19
1.7686621 0 -1.8647885
-2 2.7414536 -2
1.9197854 0 -1.8556124
1.0842022e-19 2.7028861 -0
1.7386495 1.0842022e-19 -1.849526
-1.0842022e-19 2.6628268 1.0842022e-19
1.8926218 -2 -1.8419166
-0 2.625031 1.0842022e-19
1.6976236 -3.6893488e+19 -1.831942
-2 2.6001503 0
1.8669372 0 -1.8286753
-0 2.5842307 3.6893488e+19
1.6761237 3.6893488e+19 -1.8281779
0 2.555397 1.0842022e-19
1.8360146 -1.0842022e-19 -1.8198384
1.0842022e-19 2.5400956 2
1.6528666 0 -1.817636
2 2.5248225 -1.0842022e-19
1.8148891 -1.0842022e-19 -1.8158203
0 2.511302 1.0842022e-19
1.6376938 3.6893488e+19 -1.8132067
-0 2.4848225 1.0842022e-19
1.7924945 -2 -1.8069965
-3.6893488e+19 2.4613326 -3.6893488e+19
1.6181004 2 -1.8041232
2 2.4398866 -2
1.7769701 0 -1.8025569
3.6893488e+19 2.3819969 3.6893488e+19
1.1076823 -0 -1.8001691
1.0842022e-19 2.3322549 -0
1.0773834 -2 -1.7961636
-3.6893488e+19 2.2900488 1.0842022e-19
1.051675 -0 -1.7908956
1.0842022e-19 2.2598069 -0
1.0332538 3.6893488e+19 -1.7884142
-3.6893488e+19 2.2110226 -3.6893488e+19
1.6592722 -0 -1.7837794
-2 2.1731439 -2
1.646186 -1.0842022e-19 -1.7829553
3.6893488e+19 2.1407461 -2
1.6349933 -3.6893488e+19 -1.7822061
2 2.1084471 1.0842022e-19
1.6226697 -3.6893488e+19 -1.7796766
3.6893488e+19 3.2459877 -1.0842022e-19
2.1709542 2 2.6734953
1.0842022e-19 3.2912998 -0
-1.1415424 -1.0842022e-19 2.738265
-2 3.2499831 -1.0842022e-19
2.1743453 3.6893488e+19 2.6623311
1.0842022e-19 3.2906768 2
-1.1412398 1.0842022e-19 2.7203214
-1.0842022e-19 3.2486377 2
2.1732035 -2 2.6467295
1.0842022e-19 3.2902668 -2
-1.1410404 2 2.7028329
2 3.2435234 1.0842022e-19
2.1688628 -3.6893488e+19 2.6283538
1.0842022e-19 3.2907465 0
-1.1412736 1.0842022e-19 2.6867712
-2 3.2421441 -2
2.1676922 3.6893488e+19 2.613071
3.6893488e+19 3.2446563 2
-1.1153533 2 2.6072867
-0 3.2391689 2
2.1651671 -0 2.5967698
-2 3.2493696 0
2.3345115 -0 2.5975409
0 3.2058876 -2
1.9711257 3.6893488e+19 2.5597723
-1.0842022e-19 3.2479029 -3.6893488e+19
2.3335288 -2 2.5821846
-3.6893488e+19 3.227689 -0
1.9817005 1.0842022e-19 2.5608907
-2 3.2312746 -0
1.9834397 -3.6893488e+19 2.5494595
0 3.1935596 2
2.2971261 0 2.5204768
-3.6893488e+19 3.2289927 -3.6893488e+19
1.9823328 3.6893488e+19 2.5207233
1.0842022e-19 3.240515 3.6893488e+19
2.3285799 -0 2.5210824
0 3.2275953 3.6893488e+19
1.981655 1.0842022e-19 2.5063586
2 3.2369905 -2
2.3262188 2 2.5052638
2 3.2291768 2
1.9824221 3.6893488e+19 2.487221
-3.6893488e+19 3.2252448 2
2.318351 1.0842022e-19 2.4711859
-2 3.2459931 -0
-1.1160029 -3.6893488e+19 2.4619856
2 3.2612984 -2
2.193538 1.0842022e-19 2.4726608
-1.0842022e-19 3.2356353 -1.0842022e-19
-1.11097 -0 2.4249067
-1.0842022e-19 3.2256083 -2
2.1536579 -2 2.4032855
-0 3.2246468 2
-1.1056308 -0 2.3885226
-0 3.224426 -3.6893488e+19
2.1526544 3.6893488e+19 2.3755076
3.6893488e+19 3.2259693 -1.0842022e-19
-1.1062733 1.0842022e-19 2.3628044
1.0842022e-19 3.2492599 0
2.1737316 1.0842022e-19 2.3670309
0 3.2282662 -1.0842022e-19
-1.1073893 1.0842022e-19 2.3376555
2 3.1967995 1.0842022e-19
2.1292074 3.6893488e+19 2.3033152
-1.0842022e-19 3.2268667 -2
-1.1067094 -0 2.3098848
-0 3.1947813 0
2.1274946 -3.6893488e+19 2.2769437
2 3.2447331 1.0842022e-19
-1.1153907 -0 2.2937348
-0 3.2017353 -0
2.1333964 -1.0842022e-19 2.255904
-2 3.2465982 0
-1.116297 -3.6893488e+19 2.2670116
-3.6893488e+19 3.2199388 3.6893488e+19
2.3147967 1.0842022e-19 2.2043054
3.6893488e+19 3.2451639 -1.0842022e-19
1.9901766 2 2.199522
1.0842022e-19 3.2225814 -1.0842022e-19
2.3165667 3.6893488e+19 2.1537998
-2 3.2425086 1.0842022e-19
1.9888887 3.6893488e+19 2.1419919
-2 3.2191677 -3.6893488e+19
2.31428 -1.0842022e-19 2.0982349
0 3.2169428 1.0842022e-19
2.3127897 2 2.0442188
2 3.1987882 -1.0842022e-19
1.9676822 -1.0842022e-19 2.0068502
-3.6893488e+19 3.211581 1.0842022e-19
2.3091981 -3.6893488e+19 1.9891155
-2 3.2083495 -0
1.97232 0 1.9611275
-3.6893488e+19 3.2082803 -0
2.306987 3.6893488e+19 1.9360636
-2 3.1971257 -1.0842022e-19
1.9668759 1.0842022e-19 1.9060264
2 3.2042713 2
2.3043015 -1.0842022e-19 1.8835709
1.0842022e-19 3.1980886 1.0842022e-19
1.967343 3.6893488e+19 1.8376973
2 3.2046919 -3.6893488e+19
2.3045831 2 1.7905712
-1.0842022e-19 3.1942508 1.0842022e-19
1.9654815 3.6893488e+19 1.723412
3.6893488e+19 3.2918565 -3.6893488e+19
-1.1418129 2 1.6632082
-3.6893488e+19 3.1925025 2
2.1255605 2 1.3251556
-3.6893488e+19 3.2924988 3.6893488e+19
-1.1421251 -3.6893488e+19 -1.569912
-1.0842022e-19 3.1945853 -0
2.1273282 -3.6893488e+19 -1.673476
-3.6893488e+19 3.1879485 3.6893488e+19
-1.0877991 -3.6893488e+19 -1.7591691
0 3.1933076 -1.0842022e-19
2.1262436 -0 -1.8105377
1.0842022e-19 3.1921895 0
-1.0898597 -0 -1.8591366
-1.0842022e-19 3.1957211 -2
2.1282921 -1.0842022e-19 -1.8930674
2 3.1870353 -2
-1.0873553 1.0842022e-19 -1.9144646
-1.0842022e-19 3.1910625 -2
2.1243382 3.6893488e+19 -1.9408685
1.0842022e-19 3.1528752 1.0842022e-19
-1.0707569 -2 -1.9465824
3.6893488e+19 3.2180712 0
2.1472611 -2 -2.0048809
-1.0842022e-19 3.1422558 -2
-1.0655969 -3.6893488e+19 -1.985207
-1.0842022e-19 2.8014822 0
1.9519532 -2 -1.8740324
-1.0842022e-19 2.7726507 2
1.7572478 0 -1.8647885
2 2.7442989 -3.6893488e+19
1.9155573 3.6893488e+19 -1.8568958
-2 2.7039211 1.0842022e-19
1.720172 -1.0842022e-19 -1.8500205
-2 2.6606812 -2
1.887551 1.0842022e-19 -1.8407413
3.6893488e+19 2.6245635 -1.0842022e-19
1.68168 2 -1.8316669
1.0842022e-19 2.6022162 -2
1.8609381 2 -1.8298312
0 2.584383 1.0842022e-19
1.6621907 -0 -1.8282536
0 2.558321 1.0842022e-19
1.8315341 -2 -1.82166
-3.6893488e+19 2.5396214 -0
1.6404793 -3.6893488e+19 -1.8173052
3.6893488e+19 2.5250077 -3.6893488e+19
1.8092186 2 -1.8159065
-2 2.5113235 3.6893488e+19
1.6267536 3.6893488e+19 -1.8132067
2 2.4849305 1.0842022e-19
1.7874196 -2 -1.8069965
-3.6893488e+19 2.4663451 -1.0842022e-19
1.6011982 -2 -1.8060544
3.6893488e+19 3.2459877 -1.0842022e-19
2.1709542 2 2.6734953
1.0842022e-19 3.2912998 -0
-1.1415424 -1.0842022e-19 2.738265
-2 3.2499831 -1.0842022e-19
2.1743453 3.6893488e+19 2.6623311
1.0842022e-19 3.2906768 2
-1.1412398 1.0842022e-19 2.7203214
-1.0842022e-19 3.2486377 2
2.1732035 -2 2.6467295
1.0842022e-19 3.2902668 -2
-1.1410404 2 2.7028329
2 3.2435234 1.0842022e-19
2.1688628 -3.6893488e+19 2.6283538
2 3.2454345 1.0842022e-19
-1.1157315 -0 2.6221309
-2 3.2421441 -2
2.1676922 3.6893488e+19 2.613071
3.6893488e+19 3.2446563 2
-1.1153533 2 2.6072867
-0 3.2391689 2
2.1651671 -0 2.5967698
-2 3.2493696 0
2.3345115 -0 2.5975409
0 3.2058876 -2
1.9711257 3.6893488e+19 2.5597723
-1.0842022e-19 3.2026837 -3.6893488e+19
2.3032379 -2 2.5520158
-3.6893488e+19 3.227689 -0
1.9817005 1.0842022e-19 2.5608907
-2 3.2312746 -0
1.9834397 -3.6893488e+19 2.5494595
0 3.1935596 2
2.2971261 0 2.5204768
-3.6893488e+19 3.2289927 -3.6893488e+19
1.9823328 3.6893488e+19 2.5207233
-0 3.1995461 2
2.3011363 -0 2.4968822
0 3.2275953 3.6893488e+19
1.981655 1.0842022e-19 2.5063586
2 3.1980522 -2
2.3001354 0 2.4697075
2 3.2291768 2
1.9824221 3.6893488e+19 2.487221
2 3.1948023 -2
2.2979584 0 2.4410033
1.0842022e-19 3.1915796 1.0842022e-19
-1.0895634 -1.0842022e-19 2.4113028
-0 3.2394171 -3.6893488e+19
2.1653776 0 2.4426515
-0 3.1917098 0
-1.0896267 2 2.3864741
-0 3.1885862 -3.6893488e+19
2.1222365 3.6893488e+19 2.3718932
-0 3.195642 0
-1.0915374 -1.0842022e-19 2.3647807
-0 3.224426 -3.6893488e+19
2.1526544 3.6893488e+19 2.3755076
-1.0842022e-19 3.1901004 -0
-1.0888447 -1.0842022e-19 2.3354635
1.0842022e-19 3.2492599 0
2.1737316 1.0842022e-19 2.3670309
3.6893488e+19 3.1927168 -3.6893488e+19
-1.0901159 3.6893488e+19 2.3125577
2 3.1967995 1.0842022e-19
2.1292074 3.6893488e+19 2.3033152
3.6893488e+19 3.1919506 -0
-1.0897436 -0 2.287195
-0 3.1947813 0
2.1274946 -3.6893488e+19 2.2769437
-0 3.1780415 -2
-1.0829852 2 2.2541385
-0 3.2017353 -0
2.1333964 -1.0842022e-19 2.255904
-2 3.1794996 -0
-1.0836937 0 2.2118683
-0 3.1925843 1.0842022e-19
2.2964728 -1.0842022e-19 2.1778607
-1.0842022e-19 3.2240512 -1.0842022e-19
1.979936 -3.6893488e+19 2.1803553
3.6893488e+19 3.1939099 -0
2.2973607 3.6893488e+19 2.1293013
-2 3.2425086 1.0842022e-19
1.9888887 3.6893488e+19 2.1419919
0 3.1964903 2
2.2990892 2 2.0814028
0 3.2169428 1.0842022e-19
2.3127897 2 2.0442188
2 3.1987882 -1.0842022e-19
1.9676822 -1.0842022e-19 2.0068502
-3.6893488e+19 3.211581 1.0842022e-19
2.3091981 -3.6893488e+19 1.9891155
-2 3.2083495 -0
1.97232 0 1.9611275
-3.6893488e+19 3.2082803 -0
2.306987 3.6893488e+19 1.9360636
-2 3.1971257 -1.0842022e-19
1.9668759 1.0842022e-19 1.9060264
2 3.2042713 2
2.3043015 -1.0842022e-19 1.8835709
1.0842022e-19 3.1980886 1.0842022e-19
1.967343 3.6893488e+19 1.8376973
2 3.2046919 -3.6893488e+19
2.3045831 2 1.7905712
-1.0842022e-19 3.1942508 1.0842022e-19
1.9654815 3.6893488e+19 1.723412
1.0842022e-19 3.1837771 0
-1.0857722 0 1.6175712
-3.6893488e+19 3.1925025 2
2.1255605 2 1.3251556
-2 3.1883109 3.6893488e+19
-1.0879751 -3.6893488e+19 -1.5210382
-1.0842022e-19 3.1945853 -0
2.1273282 -3.6893488e+19 -1.673476
-3.6893488e+19 3.1879485 3.6893488e+19
-1.0877991 -3.6893488e+19 -1.7591691
0 3.1933076 -1.0842022e-19
2.1262436 -0 -1.8105377
1.0842022e-19 3.1921895 0
-1.0898597 -0 -1.8591366
-1.0842022e-19 3.1957211 -2
2.1282921 -1.0842022e-19 -1.8930674
2 3.1870353 -2
-1.0873553 1.0842022e-19 -1.9144646
-1.0842022e-19 3.1910625 -2
2.1243382 3.6893488e+19 -1.9408685
1.0842022e-19 3.1528752 1.0842022e-19
-1.0707569 -2 -1.9465824
0 3.1556327 0
2.0942683 -3.6893488e+19 -1.970881
-1.0842022e-19 3.1422558 -2
-1.0655969 -3.6893488e+19 -1.985207
-1.0842022e-19 2.8014822 0
1.9519532 -2 -1.8740324
-1.0842022e-19 2.7726507 2
1.7572478 0 -1.8647885
2 2.7442989 -3.6893488e+19
1.9155573 3.6893488e+19 -1.8568958
-2 2.7039211 1.0842022e-19
1.720172 -1.0842022e-19 -1.8500205
-2 2.6606812 -2
1.887551 1.0842022e-19 -1.8407413
3.6893488e+19 2.6245635 -1.0842022e-19
1.68168 2 -1.8316669
1.0842022e-19 2.6022162 -2
1.8609381 2 -1.8298312
0 2.584383 1.0842022e-19
1.6621907 -0 -1.8282536
0 2.558321 1.0842022e-19
1.8315341 -2 -1.82166
-3.6893488e+19 2.5396214 -0
1.6404793 -3.6893488e+19 -1.8173052
3.6893488e+19 2.5250077 -3.6893488e+19
1.8092186 2 -1.8159065
-2 2.5113235 3.6893488e+19
1.6267536 3.6893488e+19 -1.8132067
2 2.4849305 1.0842022e-19
1.7874196 -2 -1.8069965
-3.6893488e+19 2.4663451 -1.0842022e-19
1.6011982 -2 -1.8060544
-2 3.2503347 1.0842022e-19
2.1539218 0 2.6920724
-2 3.2721753 2
-1.5737555 -2 2.7220786
2 3.2494431 1.0842022e-19
2.1529322 -2 2.6763878
-3.6893488e+19 3.2906256 3.6893488e+19
-1.5872288 1.0842022e-19 2.7371373
1.0842022e-19 3.2491643 -3.6893488e+19
2.1527071 1.0842022e-19 2.6616001
3.6893488e+19 3.2899711 -0
-1.5867507 0 2.7191815
2 3.2472053 -3.6893488e+19
2.1511266 -3.6893488e+19 2.6455362
3.6893488e+19 3.2902195 2
-1.5869322 3.6893488e+19 2.7027612
0 3.2436209 -2
2.1482348 3.6893488e+19 2.6283774
2 3.287674 -0
-1.5850732 2 2.6821573
2 3.2399395 -2
2.1452649 1.0842022e-19 2.6113956
2 3.246192 1.0842022e-19
-1.5561715 -0 2.6083972
-1.0842022e-19 3.239696 3.6893488e+19
2.1450686 0 2.5970967
0 3.2493854 1.0842022e-19
2.3240027 -2 2.5974767
0 3.2044747 1.0842022e-19
1.9514073 3.6893488e+19 2.5587888
-1.0842022e-19 3.2439237 -1.0842022e-19
2.3204591 -2 2.5794587
2 3.2333987 3.6893488e+19
1.9642254 -0 2.5645826
-0 3.2459605 2
2.3217807 -2 2.5665767
-2 3.247299 -3.6893488e+19
2.322649 -2 2.5531809
-3.6893488e+19 3.2311943 -3.6893488e+19
1.9632485 -2 2.5219469
3.6893488e+19 3.2446938 1.0842022e-19
2.3209589 -2 2.5233328
-1.0842022e-19 3.2274766 2
1.961601 -1.0842022e-19 2.5062754
-0 3.2374969 -0
2.3162894 -2 2.5054741
0 3.2289033 3.6893488e+19
1.9622332 -3.6893488e+19 2.4869058
-1.0842022e-19 3.2253473 1.0842022e-19
2.3084068 1.0842022e-19 2.4711859
3.6893488e+19 3.2455256 1.0842022e-19
-1.5559282 -3.6893488e+19 2.4615519
-3.6893488e+19 3.2586975 -0
2.1674154 3.6893488e+19 2.4678929
1.0842022e-19 3.2331793 -3.6893488e+19
-1.5514202 -0 2.4227595
0 3.1899803 2
2.1049597 2 2.3730247
-3.6893488e+19 3.2256396 1.0842022e-19
-1.5486674 -3.6893488e+19 2.3893368
1.0842022e-19 3.2230306 2
2.1316235 -3.6893488e+19 2.3743522
-1.0842022e-19 3.227025 3.6893488e+19
-1.5491732 -2 2.3636105
-1.0842022e-19 3.2506893 2
2.1544938 2 2.3685386
2 3.227953 1.0842022e-19
-1.549512 3.6893488e+19 2.3374357
-3.6893488e+19 3.1955225 0
2.1094313 2 2.3024075
3.6893488e+19 3.2295747 3.6893488e+19
-1.5501041 3.6893488e+19 2.3116457
-2 3.1955571 -3.6893488e+19
2.1094589 -1.0842022e-19 2.2773893
-0 3.2432663 3.6893488e+19
-1.5551033 0 2.2928653
0 3.2004578 2
2.1134126 1.0842022e-19 2.2551458
-0 3.2455986 -1.0842022e-19
-1.5559548 -2 2.2664752
1.0842022e-19 3.2431848 3.6893488e+19
2.1478832 0 2.2516806
-3.6893488e+19 3.2303624 -3.6893488e+19
2.3116605 -3.6893488e+19 2.214282
-0 3.2270501 3.6893488e+19
1.961412 -1.0842022e-19 2.1830449
-0 3.222621 0
2.306638 -0 2.1537466
-1.0842022e-19 3.2641034 3.6893488e+19
1.9840829 -2 2.1703725
-2 3.2259274 -2
2.3087831 2 2.1031761
-1.0842022e-19 3.263736 -1.0842022e-19
1.9837573 -2 2.1108119
-2 3.2159851 0
2.3023326 2 2.0435522
-0 3.2637458 0
1.983766 2 2.0518711
1.0842022e-19 3.2143269 2
2.3012567 -1.0842022e-19 1.990486
0 3.2107887 -3.6893488e+19
1.9542054 -2 1.9622349
-0 3.205857 -2
2.2957613 2 1.9350399
-3.6893488e+19 3.1905074 0
1.9452176 2 1.9037052
3.6893488e+19 3.2047429 -2
2.2950385 1.0842022e-19 1.8836808
-0 3.189533 2
1.9447857 -0 1.8336203
0 3.2059424 -2
2.2958167 -1.0842022e-19 1.7909907
3.6893488e+19 3.1911609 0
1.9455072 -2 1.7218412
-3.6893488e+19 3.2930114 -0
-1.588971 0 1.6638548
-2 3.1906898 -2
2.1055322 -3.6893488e+19 1.3243086
0 3.292326 3.6893488e+19
-1.5884703 1.0842022e-19 -1.5697975
-2 3.193085 -0
2.1074646 -2 -1.6728672
-0 3.1894155 -1.0842022e-19
-1.535441 2 -1.7596191
0 3.193274 -2
2.1076169 -2 -1.8104985
-3.6893488e+19 3.1911564 1.0842022e-19
-1.5360768 -1.0842022e-19 -1.8585906
2 3.1948767 -3.6893488e+19
2.1089098 -0 -1.892777
2 3.1847529 -1.0842022e-19
-1.5337386 -1.0842022e-19 -1.9136063
-0 3.2151766 2
2.1252873 -0 -1.9512765
0 3.1872637 -1.0842022e-19
-1.5346553 3.6893488e+19 -1.9633632
-0 3.2151089 1.0842022e-19
2.1252327 2 -2.0032337
-2 3.1409738 -2
-1.5177538 -1.0842022e-19 -1.9844393
2 2.7993698 0
1.9442321 -3.6893488e+19 -1.8722341
3.6893488e+19 2.77211 3.6893488e+19
1.7411793 1.0842022e-19 -1.8642948
1.0842022e-19 2.7424154 0
1.9097403 2 -1.8559624
-1.0842022e-19 2.7047038 -0
1.7015089 1.0842022e-19 -1.8503915
-3.6893488e+19 2.6601481 3.6893488e+19
1.8830527 -0 -1.8404148
3.6893488e+19 2.6247165 3.6893488e+19
1.6660613 1.0842022e-19 -1.8317357
1.0842022e-19 2.6025407 3.6893488e+19
1.8537295 -0 -1.8299757
1.0842022e-19 2.5847821 -0
1.6483637 2 -1.8284808
0 2.5580149 -2
1.8248409 -0 -1.8214225
-0 2.5393944 1.0842022e-19
1.6282495 -2 -1.8171399
-0 2.5255635 0
1.8037865 -3.6893488e+19 -1.816251
-2 2.5114677 -2
1.6067468 1.0842022e-19 -1.8132963
-0 2.4845388 -2
1.7821851 0 -1.8068104
1.0842022e-19 2.4653857 2
1.5812427 -1.0842022e-19 -1.8056681
-0 2.4408231 1.0842022e-19
1.7680037 -0 -1.8028569
-2 2.3827415 0
-1.1397481 -2 -1.8005108
-1.0842022e-19 2.3292789 3.6893488e+19
-1.1154553 -1.0842022e-19 -1.7946308
3.6893488e+19 2.2900486 1.0842022e-19
-1.0868074 -0 -1.7908956
-2 2.2595594 0
-1.0645428 2 -1.7882589
-1.0842022e-19 2.2122071 0
1.6499407 3.6893488e+19 -1.7841176
2 2.1703897 0
1.6363751 0 -1.7818584
-2 2.1418946 3.6893488e+19
1.6271312 -2 -1.7825991
-0 2.1081169 1.0842022e-19
1.6073474 -3.6893488e+19 -1.7794664
-2 3.2503347 1.0842022e-19
2.1539218 0 2.6920724
-2 3.2721753 2
-1.5737555 -2 2.7220786
2 3.2494431 1.0842022e-19
2.1529322 -2 2.6763878
-3.6893488e+19 3.2906256 3.6893488e+19
-1.5872288 1.0842022e-19 2.7371373
1.0842022e-19 3.2491643 -3.6893488e+19
2.1527071 1.0842022e-19 2.6616001
3.6893488e+19 3.2899711 -0
-1.5867507 0 2.7191815
2 3.2472053 -3.6893488e+19
2.1511266 -3.6893488e+19 2.6455362
3.6893488e+19 3.2902195 2
-1.5869322 3.6893488e+19 2.7027612
-2 3.2105451 1.0842022e-19
2.1215508 -1.0842022e-19 2.6030238
3.6893488e+19 3.2455246 2
-1.5559279 -2 2.6222
2 3.2399395 -2
2.1452649 1.0842022e-19 2.6113956
2 3.246192 1.0842022e-19
-1.5561715 -0 2.6083972
3.6893488e+19 3.1974692 -2
2.1110015 -3.6893488e+19 2.5671661
0 3.2493854 1.0842022e-19
2.3240027 -2 2.5974767
0 3.2044747 1.0842022e-19
1.9514073 3.6893488e+19 2.5587888
3.6893488e+19 3.2029042 2
2.2938457 -0 2.5520978
2 3.2333987 3.6893488e+19
1.9642254 -0 2.5645826
-0 3.2459605 2
2.3217807 -2 2.5665767
1.0842022e-19 3.1925159 3.6893488e+19
2.2871056 -0 2.5197821
-3.6893488e+19 3.2311943 -3.6893488e+19
1.9632485 -2 2.5219469
3.6893488e+19 3.2446938 1.0842022e-19
2.3209589 -2 2.5233328
-1.0842022e-19 3.2274766 2
1.961601 -1.0842022e-19 2.5062754
0 3.19784 -2
2.2905598 2 2.4693837
0 3.2289033 3.6893488e+19
1.9622332 -3.6893488e+19 2.4869058
-1.0842022e-19 3.2253473 1.0842022e-19
2.3084068 1.0842022e-19 2.4711859
3.6893488e+19 3.2455256 1.0842022e-19
-1.5559282 -3.6893488e+19 2.4615519
-3.6893488e+19 3.2586975 -0
2.1674154 3.6893488e+19 2.4678929
-0 3.1910245 0
-1.5360286 1.0842022e-19 2.3858762
0 3.1899803 2
2.1049597 2 2.3730247
0 3.2000237 -3.6893488e+19
-1.5393143 -3.6893488e+19 2.3683686
-1.0842022e-19 3.1896729 -2
2.1047118 1.0842022e-19 2.3479536
-3.6893488e+19 3.1883254 2
-1.5350431 -1.0842022e-19 2.3341119
2 3.1829722 -0
2.0993059 1.0842022e-19 2.3182564
1.0842022e-19 3.1911898 -2
-1.5360888 -1.0842022e-19 2.3114808
-3.6893488e+19 3.1955225 0
2.1094313 2 2.3024075
-1.0842022e-19 3.1913569 1.0842022e-19
-1.53615 -0 2.2868104
-2 3.1955571 -3.6893488e+19
2.1094589 -1.0842022e-19 2.2773893
-0 3.2432663 3.6893488e+19
-1.5551033 0 2.2928653
0 3.2004578 2
2.1134126 1.0842022e-19 2.2551458
-0 3.2455986 -1.0842022e-19
-1.5559548 -2 2.2664752
2 3.1917608 3.6893488e+19
2.1063962 3.6893488e+19 2.200876
0 3.1924 0
2.2870305 2 2.1775904
-0 3.2270501 3.6893488e+19
1.961412 -1.0842022e-19 2.1830449
2 3.1951253 -1.0842022e-19
2.2887986 -0 2.1302578
0 3.2315016 -1.0842022e-19
1.9633846 1.0842022e-19 2.1332021
1.0842022e-19 3.1968665 -2
2.2899282 -3.6893488e+19 2.0816104
-2 3.1990426 -1.0842022e-19
1.949 -2 2.057163
-2 3.2159851 0
2.3023326 2 2.0435522
-0 3.196512 -3.6893488e+19
1.9478785 -1.0842022e-19 2.0055282
1.0842022e-19 3.2143269 2
2.3012567 -1.0842022e-19 1.990486
0 3.2107887 -3.6893488e+19
1.9542054 -2 1.9622349
-0 3.205857 -2
2.2957613 2 1.9350399
-3.6893488e+19 3.1905074 0
1.9452176 2 1.9037052
3.6893488e+19 3.2047429 -2
2.2950385 1.0842022e-19 1.8836808
-0 3.189533 2
1.9447857 -0 1.8336203
0 3.2059424 -2
2.2958167 -1.0842022e-19 1.7909907
3.6893488e+19 3.1911609 0
1.9455072 -2 1.7218412
-2 3.1855252 2
-1.5340207 0 1.6185498
-2 3.1906898 -2
2.1055322 -3.6893488e+19 1.3243086
3.6893488e+19 3.1884029 1.0842022e-19
-1.5350714 -3.6893488e+19 -1.5210694
-2 3.193085 -0
2.1074646 -2 -1.6728672
-0 3.1894155 -1.0842022e-19
-1.535441 2 -1.7596191
0 3.193274 -2
2.1076169 -2 -1.8104985
-3.6893488e+19 3.1911564 1.0842022e-19
-1.5360768 -1.0842022e-19 -1.8585906
2 3.1948767 -3.6893488e+19
2.1089098 -0 -1.892777
2 3.1847529 -1.0842022e-19
-1.5337386 -1.0842022e-19 -1.9136063
3.6893488e+19 3.191715 -0
2.1063592 -3.6893488e+19 -1.9411249
3.6893488e+19 3.1529672 -3.6893488e+19
-1.5221329 3.6893488e+19 -1.9466282
0 3.1571848 -3.6893488e+19
2.0785015 1.0842022e-19 -1.9716963
-2 3.1409738 -2
-1.5177538 -1.0842022e-19 -1.9844393
2 2.7993698 0
1.9442321 -3.6893488e+19 -1.8722341
3.6893488e+19 2.77211 3.6893488e+19
1.7411793 1.0842022e-19 -1.8642948
1.0842022e-19 2.7424154 0
1.9097403 2 -1.8559624
-1.0842022e-19 2.7047038 -0
1.7015089 1.0842022e-19 -1.8503915
-3.6893488e+19 2.6601481 3.6893488e+19
1.8830527 -0 -1.8404148
3.6893488e+19 2.6247165 3.6893488e+19
1.6660613 1.0842022e-19 -1.8317357
1.0842022e-19 2.6025407 3.6893488e+19
1.8537295 -0 -1.8299757
1.0842022e-19 2.5847821 -0
1.6483637 2 -1.8284808
0 2.5580149 -2
1.8248409 -0 -1.8214225
-0 2.5393944 1.0842022e-19
1.6282495 -2 -1.8171399
-0 2.5255635 0
1.8037865 -3.6893488e+19 -1.816251
-2 2.5114677 -2
1.6067468 1.0842022e-19 -1.8132963
-0 2.4845388 -2
1.7821851 0 -1.8068104
1.0842022e-19 2.4653857 2
1.5812427 -1.0842022e-19 -1.8056681
-0 2.4408231 1.0842022e-19
1.7680037 -0 -1.8028569
-2 2.3827415 0
-1.1397481 -2 -1.8005108
-1.0842022e-19 2.3292789 3.6893488e+19
-1.1154553 -1.0842022e-19 -1.7946308
3.6893488e+19 2.2900486 1.0842022e-19
-1.0868074 -0 -1.7908956
-2 2.2595594 0
-1.0645428 2 -1.7882589
-1.0842022e-19 2.2122071 0
1.6499407 3.6893488e+19 -1.7841176
2 2.1703897 0
1.6363751 0 -1.7818584
-2 2.1418946 3.6893488e+19
1.6271312 -2 -1.7825991
-0 2.1081169 1.0842022e-19
1.6073474 -3.6893488e+19 -1.7794664
-1.0842022e-19 3.2503669 3.6893488e+19
2.1329594 0 2.6920724
1.0842022e-19 3.2494462 -3.6893488e+19
2.1319742 1.0842022e-19 2.6763358
-3.6893488e+19 3.2905459 1.0842022e-19
-1.7033993 -0 2.737009
3.6893488e+19 3.2488616 -2
2.1315272 -1.0842022e-19 2.6612976
-1.0842022e-19 3.2901363 -0
-1.7031125 -0 2.7194541
-2 3.2495959 -0
2.1320889 -1.0842022e-19 2.647387
1.0842022e-19 3.2430711 -3.6893488e+19
2.1270986 2 2.6279075
0 3.2874405 3.6893488e+19
-1.7012252 -2 2.6818111
2 3.2408926 1.0842022e-19
2.1254327 1.0842022e-19 2.6120522
1.0842022e-19 3.2431421 -3.6893488e+19
-1.6726141 2 2.6061983
3.6893488e+19 3.2364395 2
2.1220269 -0 2.594744
1.0842022e-19 3.2489064 1.0842022e-19
2.3131819 -3.6893488e+19 2.5970709
-3.6893488e+19 3.2434735 3.6893488e+19
2.3097715 -0 2.5790899
3.6893488e+19 3.233247 0
1.9439125 -1.0842022e-19 2.5644622
-0 3.2485869 2
2.3129814 -2 2.5681868
0 3.2392471 3.6893488e+19
1.9463201 -3.6893488e+19 2.5543759
2 3.2470641 -2
2.3120253 -0 2.5529745
3.6893488e+19 3.2412796 3.6893488e+19
1.9471357 3.6893488e+19 2.5416195
2 3.232898 -3.6893488e+19
1.9437723 0 2.522891
-0 3.2273858 3.6893488e+19
1.9415605 -3.6893488e+19 2.5062089
-2 3.2372897 -2
2.3058896 -3.6893488e+19 2.5053122
-2 3.2289362 -0
1.9421827 -3.6893488e+19 2.4869058
3.6893488e+19 3.2395148 1.0842022e-19
2.3072865 0 2.4851282
-0 3.233443 -2
1.9439911 -2 2.4641094
-0 3.2477551 -3.6893488e+19
-1.6742288 1.0842022e-19 2.4636338
2 3.2314966 -1.0842022e-19
-1.6685379 3.6893488e+19 2.4212918
-1.0842022e-19 3.2285585 1.0842022e-19
2.1159997 2 2.4056802
3.6893488e+19 3.2283702 -2
-1.6674435 2 2.3915763
2 3.1899159 -0
2.0864458 -1.0842022e-19 2.3481009
-0 3.2273309 3.6893488e+19
-1.6670798 2 2.3638477
-1.0842022e-19 3.2507992 -0
2.1336205 3.6893488e+19 2.3686528
-3.6893488e+19 3.2279787 -1.0842022e-19
-1.6673065 -0 2.3374577
1.0842022e-19 3.2114425 1.0842022e-19
2.1029093 3.6893488e+19 2.3131731
-0 3.2466068 2
-1.6738269 3.6893488e+19 2.3227174
3.6893488e+19 3.1982286 0
2.0928035 0 2.2790167
1.0842022e-19 3.2422638 -2
-1.6723067 -0 2.292273
-2 3.2263589 2
2.1143174 -2 2.2697818
-1.0842022e-19 3.2454684 -1.0842022e-19
-1.6734284 -0 2.2664082
3.6893488e+19 3.2551439 -3.6893488e+19
2.1402659 -0 2.260375
1.0842022e-19 3.2313025 -1.0842022e-19
2.3021312 1.0842022e-19 2.2150936
3.6893488e+19 3.2269583 3.6893488e+19
1.941389 -1.0842022e-19 2.1829317
3.6893488e+19 3.2249596 3.6893488e+19
2.2981496 -2 2.1556597
-2 3.2300057 -2
1.9426118 0 2.1319854
-1.0842022e-19 3.2252176 -3.6893488e+19
2.2983115 2 2.1025758
-3.6893488e+19 3.2567627 1.0842022e-19
1.9560624 -2 2.1012478
1.0842022e-19 3.2167051 -2
2.2929678 -3.6893488e+19 2.0439441
-2 3.2567706 -3.6893488e+19
1.9560686 3.6893488e+19 2.0438673
0 3.2119639 -0
2.2899916 2 1.9892123
0 3.254627 -0
1.9543482 -2 1.9845413
-3.6893488e+19 3.2068553 -0
2.2867849 0 1.9354064
3.6893488e+19 3.2073724 -0
1.9335297 -1.0842022e-19 1.9095788
2 3.2052116 -1.0842022e-19
2.285753 -1.0842022e-19 1.8837906
2 3.1847217 0
1.9244407 3.6893488e+19 1.8313224
3.6893488e+19 3.2069409 -1.0842022e-19
2.2868385 0 1.7913196
0 3.1922536 -2
1.9274629 -2 1.7223753
0 3.296649 1.0842022e-19
-1.7076716 -3.6893488e+19 1.6658906
-0 3.1914957 2
2.0876541 -1.0842022e-19 1.3246474
-3.6893488e+19 3.1881793 1.0842022e-19
-1.6533756 -0 -1.5209966
3.6893488e+19 3.1924553 -0
2.088388 -2 -1.6725993
-1.0842022e-19 3.1923792 2
-1.6548457 3.6893488e+19 -1.7605286
-1.0842022e-19 3.1944544 -0
2.0899169 -1.0842022e-19 -1.8109686
2 3.2578983 -1.0842022e-19
-1.6805439 -1.0842022e-19 -1.8865576
2 3.1954644 -2
2.0906892 -1.0842022e-19 -1.8929472
-1.0842022e-19 3.1849668 3.6893488e+19
-1.6522511 0 -1.9136887
2 3.1952665 1.0842022e-19
2.090538 -3.6893488e+19 -1.9426368
-0 3.1857283 2
-1.6525177 -0 -1.9626163
-2 3.1581728 0
2.0621691 0 -1.9722058
-0 3.1415317 -1.0842022e-19
-1.6370475 1.0842022e-19 -1.9847764
3.6893488e+19 2.800739 -1.0842022e-19
1.938785 -2 -1.8733131
2 2.7691343 -2
1.7159909 1.0842022e-19 -1.8616616
-2 2.745877 -0
1.9056401 -1.0842022e-19 -1.8575375
0 2.705359 -2
1.6827217 0 -1.8507006
3.6893488e+19 2.6589904 -2
1.8783691 0 -1.8397619
-3.6893488e+19 2.624867 -1.0842022e-19
1.6504228 1.0842022e-19 -1.8318045
-1.0842022e-19 2.6013713 0
1.8455688 -1.0842022e-19 -1.8292532
1.0842022e-19 2.5841823 -0
1.6340972 1.0842022e-19 -1.8281022
-1.0842022e-19 2.5578306 -2
1.8182366 -3.6893488e+19 -1.821264
-2 2.5411577 -0
1.6086657 2 -1.8182974
-2 2.5266142 -0
1.798641 3.6893488e+19 -1.8169403
-0 2.5114858 2
1.5848528 1.0842022e-19 -1.8132963
-2 2.4848881 -0
1.777191 -3.6893488e+19 -1.8069034
-3.6893488e+19 2.4654176 -3.6893488e+19
1.561758 -1.0842022e-19 -1.8056681
-1.0842022e-19 3.2503669 3.6893488e+19
2.1329594 0 2.6920724
1.0842022e-19 3.2494462 -3.6893488e+19
2.1319742 1.0842022e-19 2.6763358
-3.6893488e+19 3.2905459 1.0842022e-19
-1.7033993 -0 2.737009
1.0842022e-19 3.2123573 -1.0842022e-19
2.1036088 -0 2.6312008
-1.0842022e-19 3.2901363 -0
-1.7031125 -0 2.7194541
0 3.2144179 -1.0842022e-19
2.1051848 -3.6893488e+19 2.6194057
-1.0842022e-19 3.2060056 0
2.0987513 2 2.5994992
3.6893488e+19 3.2458878 -3.6893488e+19
-1.6735752 -2 2.6224768
2 3.2408926 1.0842022e-19
2.1254327 1.0842022e-19 2.6120522
1.0842022e-19 3.2431421 -3.6893488e+19
-1.6726141 2 2.6061983
3.6893488e+19 3.2364395 2
2.1220269 -0 2.594744
-1.0842022e-19 3.1894169 -0
2.2758381 3.6893488e+19 2.5556865
3.6893488e+19 3.2031832 -3.6893488e+19
2.2844796 2 2.5522208
3.6893488e+19 3.233247 0
1.9439125 -1.0842022e-19 2.5644622
-0 3.2485869 2
2.3129814 -2 2.5681868
0 3.2392471 3.6893488e+19
1.9463201 -3.6893488e+19 2.5543759
1.0842022e-19 3.1892509 2
2.2757339 -0 2.5177357
3.6893488e+19 3.2412796 3.6893488e+19
1.9471357 3.6893488e+19 2.5416195
2 3.232898 -3.6893488e+19
1.9437723 0 2.522891
-0 3.2273858 3.6893488e+19
1.9415605 -3.6893488e+19 2.5062089
1.0842022e-19 3.1979334 -1.0842022e-19
2.2811842 2 2.4693837
-2 3.2289362 -0
1.9421827 -3.6893488e+19 2.4869058
-0 3.22489 2
2.298106 -2 2.4706342
-0 3.233443 -2
1.9439911 -2 2.4641094
-0 3.2477551 -3.6893488e+19
-1.6742288 1.0842022e-19 2.4636338
2 3.1908956 -0
-1.6543263 1.0842022e-19 2.3857675
-2 3.1888571 3.6893488e+19
2.0856361 2 2.3720248
-1.0842022e-19 3.1891692 -1.0842022e-19
-1.653722 3.6893488e+19 2.3594878
2 3.1899159 -0
2.0864458 -1.0842022e-19 2.3481009
-3.6893488e+19 3.1917114 -0
-1.6546119 -0 2.3366966
3.6893488e+19 3.1873174 1.0842022e-19
2.0844586 2 2.321409
2 3.1903756 -1.0842022e-19
-1.6541443 -3.6893488e+19 2.3109093
-3.6893488e+19 3.1872132 2
2.084379 -2 2.2967291
0 3.2304728 2
-1.6681795 3.6893488e+19 2.3122327
3.6893488e+19 3.1982286 0
2.0928035 0 2.2790167
1.0842022e-19 3.2422638 -2
-1.6723067 -0 2.292273
3.6893488e+19 3.1978378 -0
2.0925045 3.6893488e+19 2.2536292
-1.0842022e-19 3.2454684 -1.0842022e-19
-1.6734284 -0 2.2664082
3.6893488e+19 3.1913502 -1.0842022e-19
2.0875428 3.6893488e+19 2.2003992
0 3.1910307 2
2.2768512 3.6893488e+19 2.176178
0 3.1880956 3.6893488e+19
1.9257945 -0 2.1476562
-1.0842022e-19 3.1938493 -2
2.2786205 -2 2.1290886
-2 3.2300057 -2
1.9426118 0 2.1319854
-1.0842022e-19 3.1944389 1.0842022e-19
2.2789907 -0 2.0797403
-3.6893488e+19 3.2567627 1.0842022e-19
1.9560624 -2 2.1012478
1.0842022e-19 3.2167051 -2
2.2929678 -3.6893488e+19 2.0439441
-2 3.2567706 -3.6893488e+19
1.9560686 3.6893488e+19 2.0438673
0 3.2119639 -0
2.2899916 2 1.9892123
-2 3.2091966 0
1.9342618 2 1.9614871
-3.6893488e+19 3.2068553 -0
2.2867849 0 1.9354064
3.6893488e+19 3.1883829 -3.6893488e+19
1.9259098 -2 1.9029533
2 3.2052116 -1.0842022e-19
2.285753 -1.0842022e-19 1.8837906
2 3.1847217 0
1.9244407 3.6893488e+19 1.8313224
3.6893488e+19 3.2069409 -1.0842022e-19
2.2868385 0 1.7913196
0 3.1922536 -2
1.9274629 -2 1.7223753
-1.0842022e-19 3.1859267 -3.6893488e+19
-1.6525871 -2 1.6187769
-0 3.1914957 2
2.0876541 -1.0842022e-19 1.3246474
-3.6893488e+19 3.1881793 1.0842022e-19
-1.6533756 -0 -1.5209966
3.6893488e+19 3.1924553 -0
2.088388 -2 -1.6725993
-1.0842022e-19 3.1923792 2
-1.6548457 3.6893488e+19 -1.7605286
-1.0842022e-19 3.1944544 -0
2.0899169 -1.0842022e-19 -1.8109686
-3.6893488e+19 3.1912141 1.0842022e-19
-1.6544379 1.0842022e-19 -1.8586237
2 3.1954644 -2
2.0906892 -1.0842022e-19 -1.8929472
-1.0842022e-19 3.1849668 3.6893488e+19
-1.6522511 0 -1.9136887
2 3.1952665 1.0842022e-19
2.090538 -3.6893488e+19 -1.9426368
-0 3.1857283 2
-1.6525177 -0 -1.9626163
-2 3.1581728 0
2.0621691 0 -1.9722058
-0 3.1415317 -1.0842022e-19
-1.6370475 1.0842022e-19 -1.9847764
3.6893488e+19 2.800739 -1.0842022e-19
1.938785 -2 -1.8733131
2 2.7691343 -2
1.7159909 1.0842022e-19 -1.8616616
-2 2.745877 -0
1.9056401 -1.0842022e-19 -1.8575375
0 2.705359 -2
1.6827217 0 -1.8507006
3.6893488e+19 2.6589904 -2
1.8783691 0 -1.8397619
-3.6893488e+19 2.624867 -1.0842022e-19
1.6504228 1.0842022e-19 -1.8318045
-1.0842022e-19 2.6013713 0
1.8455688 -1.0842022e-19 -1.8292532
1.0842022e-19 2.5841823 -0
1.6340972 1.0842022e-19 -1.8281022
-1.0842022e-19 2.5578306 -2
1.8182366 -3.6893488e+19 -1.821264
-2 2.5411577 -0
1.6086657 2 -1.8182974
-2 2.5266142 -0
1.798641 3.6893488e+19 -1.8169403
-0 2.5114858 2
1.5848528 1.0842022e-19 -1.8132963
-2 2.4848881 -0
1.777191 -3.6893488e+19 -1.8069034
-3.6893488e+19 2.4654176 -3.6893488e+19
1.561758 -1.0842022e-19 -1.8056681
-3.6893488e+19 3.2511899 -0
2.1131401 3.6893488e+19 2.6934717
-0 3.2956371 -1.0842022e-19
-1.7779926 2 2.7563934
-3.6893488e+19 3.2499647 -0
2.1113942 -0 2.6767266
-0 3.2942264 -0
-1.7772626 -0 2.7431867
2 3.2482495 0
2.1101544 -0 2.660743
0 3.2505939 1.0842022e-19
2.1122782 -2 2.6486046
3.6893488e+19 3.2855952 2
-1.7727959 1.0842022e-19 2.6955597
2 3.2063065 -1.0842022e-19
2.0798361 -2 2.5996871
2 3.28742 0
-1.7737403 0 2.6817882
0 3.24172 3.6893488e+19
2.1054344 1.0842022e-19 2.6126182
-2 3.2427335 0
-1.7524952 0 2.6059096
0 3.2391117 -0
2.103549 -1.0842022e-19 2.5965955
2 3.2475333 -2
2.3018429 -2 2.596046
0 3.2418346 2
1.9267555 2 2.5841289
0 3.2400692 3.6893488e+19
2.2973146 -2 2.5767534
1.0842022e-19 3.231612 0
1.9230818 0 2.5633788
-0 3.2411296 2
1.9265022 -2 2.5555282
-3.6893488e+19 3.1887233 -0
2.2661643 -1.0842022e-19 2.5173602
3.6893488e+19 3.2418046 0
1.9267448 3.6893488e+19 2.541913
-0 3.2303913 2
1.9226431 -2 2.5214574
-3.6893488e+19 3.2269199 -0
1.9213955 -1.0842022e-19 2.5059431
-3.6893488e+19 3.2359667 -2
2.2948258 0 2.5045679
-1.0842022e-19 3.228935 2
1.9221197 -3.6893488e+19 2.4868743
-2 3.2380364 2
2.2960815 3.6893488e+19 2.4835653
-3.6893488e+19 3.2346828 2
1.9241854 -1.0842022e-19 2.4652708
-1.0842022e-19 3.2312953 -2
-1.749071 0 2.4483104
-3.6893488e+19 3.1852567 3.6893488e+19
2.0646207 -0 2.3935146
-0 3.231488 -3.6893488e+19
-1.7491707 3.6893488e+19 2.4212918
0 3.2184963 -2
2.0886474 1.0842022e-19 2.3971019
0 3.2313461 -1.0842022e-19
-1.7490972 -1.0842022e-19 2.3940191
2 3.2530243 -2
2.1157918 3.6893488e+19 2.4003825
0 3.2335753 3.6893488e+19
-1.7501254 -0 2.368614
-3.6893488e+19 3.2504411 -1.0842022e-19
2.1120574 0 2.3680818
0 3.2290599 -3.6893488e+19
-1.7479141 -2 2.3382268
2 3.2179377 3.6893488e+19
2.0882437 -2 2.3175426
-0 3.2444489 3.6893488e+19
-1.752939 -0 2.3213208
2 3.2168021 3.6893488e+19
2.0874228 2 2.2905431
-2 3.2446856 3.6893488e+19
-1.7530003 -3.6893488e+19 2.2937162
2 3.2266972 -0
2.0945754 -0 2.2699406
-3.6893488e+19 3.2453349 -1.0842022e-19
-1.7531682 2 2.2663412
1.0842022e-19 3.1921206 -1.0842022e-19
2.069582 1.0842022e-19 2.2011304
-3.6893488e+19 3.2171538 -0
2.2834125 1.0842022e-19 2.2013304
-3.6893488e+19 3.2293584 -3.6893488e+19
1.9222718 3.6893488e+19 2.1850834
-2 3.2244642 -0
2.2878475 2 2.1551549
2 3.2276642 0
1.921663 0 2.1300983
0 3.2250335 -2
2.2881927 -2 2.1023679
-1.0842022e-19 3.2569036 0
1.9346522 1.0842022e-19 2.1014187
-2 3.216083 -3.6893488e+19
2.2827628 -0 2.0434933
2 3.256412 3.6893488e+19
1.9342988 0 2.0434387
2 3.2016549 -2
2.2740095 -3.6893488e+19 1.9838269
-2 3.255033 -1.0842022e-19
1.9333076 -3.6893488e+19 1.9849008
3.6893488e+19 3.2100558 0
1.9153349 -2 1.9105051
0 3.1852174 3.6893488e+19
1.9064084 -3.6893488e+19 1.8315448
2 3.2066593 -3.6893488e+19
2.2770455 -2 1.7911835
-1.0842022e-19 3.1916561 -1.0842022e-19
1.9087224 -0 1.7220612
0 3.2968156 1.0842022e-19
-1.7786025 2 1.6659868
-1.0842022e-19 3.1905503 3.6893488e+19
2.0684471 -0 1.3241957
0 3.1907654 -2
-1.7280966 -3.6893488e+19 -1.5218607
3.6893488e+19 3.1928213 2
2.0700886 1.0842022e-19 -1.6727211
-0 3.2622137 -1.0842022e-19
-1.7606959 -2 -1.7856679
-2 3.1956947 1.0842022e-19
2.0721657 -1.0842022e-19 -1.8114649
-0 3.2569876 -0
-1.7579914 -3.6893488e+19 -1.8860778
-2 3.1972039 -2
2.0732565 0 -1.893488
-3.6893488e+19 3.1854901 1.0842022e-19
-1.7253668 -1.0842022e-19 -1.9138885
-3.6893488e+19 3.1937602 1.0842022e-19
2.0707674 -3.6893488e+19 -1.9419619
0 3.1849711 1.0842022e-19
-1.7250981 0 -1.9622506
1.0842022e-19 3.1580043 -1.0842022e-19
2.0449214 -2 -1.9720868
-2 3.1409626 0
-1.7023238 -1.0842022e-19 -1.9844393
-1.0842022e-19 2.8577859 -1.0842022e-19
1.8793108 1.0842022e-19 -1.8873909
-3.6893488e+19 2.8017955 -1.0842022e-19
1.9330931 -3.6893488e+19 -1.8741351
-2 2.7689013 2
1.6932757 -0 -1.8614421
-1.0842022e-19 2.743613 -0
1.8997324 3.6893488e+19 -1.8564291
0 2.7023938 -3.6893488e+19
1.6625812 1.0842022e-19 -1.8492169
2 2.6588242 -3.6893488e+19
1.8730251 3.6893488e+19 -1.8396312
2 2.6256385 0
1.634997 -1.0842022e-19 -1.8322171
-1.0842022e-19 2.6006963 1.0842022e-19
1.8377602 1.0842022e-19 -1.8288198
-2 2.5822091 -3.6893488e+19
1.6137787 1.0842022e-19 -1.8268906
0 2.5575202 -0
1.811566 -1.0842022e-19 -1.8210264
