# .PCD v0.7 - Point Cloud Data file format
VERSION 0.7
FIELDS x y z
SIZE 4 4 4
TYPE F F F
COUNT 1 1 1
WIDTH 1675
HEIGHT 1
VIEWPOINT 0 0 0 1 0 0 0
POINTS 1675
DATA ascii
2.6291833 0 2.5566022
0 3.2278037 0
2.5286298 1.0842022e-19 2.5503047
3.6893488e+19 3.2203119 0
2.6274312 3.6893488e+19 2.5414848
-1.0842022e-19 3.2302933 -1.0842022e-19
2.5300815 -3.6893488e+19 2.5242019
-0 3.2148368 2
2.6230373 3.6893488e+19 2.4952807
-3.6893488e+19 3.1310027 -0
2.4443612 -1.0842022e-19 2.3913143
0 3.2137892 -1.0842022e-19
2.6221964 -2 2.4673555
1.0842022e-19 3.1324055 1.0842022e-19
2.4459972 -3.6893488e+19 2.3708766
3.6893488e+19 3.1293387 3.6893488e+19
2.348151 -1.0842022e-19 2.3556471
-1.0842022e-19 3.1390674 1.0842022e-19
2.5130706 2 2.3563817
-1.0842022e-19 3.1302238 -0
2.3489633 0 2.3348591
0 3.1288235 0
2.506144 -2 2.3253176
3.6893488e+19 3.2426484 -2
2.4521446 3.6893488e+19 2.4059029
2 3.1294618 2
2.5065756 -1.0842022e-19 2.3041766
-2 3.2455838 -3.6893488e+19
2.4548388 -3.6893488e+19 2.380233
-1.0842022e-19 3.1291001 -2
2.506331 2 2.2822523
0 3.2412622 -0
2.4508724 2 2.3491056
0 3.2088232 -1.0842022e-19
2.5602362 -0 2.3154528
3.6893488e+19 3.1258202 -2
2.3449216 -3.6893488e+19 2.2416461
0 3.1251247 1.0842022e-19
2.503643 -0 2.2231059
-3.6893488e+19 3.1250949 3.6893488e+19
2.3442562 3.6893488e+19 2.1983273
-3.6893488e+19 3.1247346 -0
2.5033793 3.6893488e+19 2.1799865
2 3.1171641 -0
2.3369772 -3.6893488e+19 2.1474245
-3.6893488e+19 3.1258943 3.6893488e+19
2.5041635 2 2.1385996
2 3.1296704 3.6893488e+19
2.5546901 0 2.1230485
-3.6893488e+19 3.1220255 0
2.4338913 -0 2.0911474
-3.6893488e+19 3.1303711 -0
2.5552526 -0 2.0803308
-0 3.1210518 -0
2.4327555 2 2.0483081
0 3.1318192 2
2.5564146 -3.6893488e+19 2.0380406
-3.6893488e+19 3.1230249 2
2.4350569 -1.0842022e-19 2.0077624
2 3.1340148 -2
2.5581765 -1.0842022e-19 1.9959273
1.0842022e-19 3.1245797 -2
2.4368699 -0 1.9665461
3.6893488e+19 3.1307726 -0
2.5555747 3.6893488e+19 1.950483
3.6893488e+19 3.1244166 2
2.4366798 -3.6893488e+19 1.9242089
2 3.1257951 3.6893488e+19
2.5515802 -1.0842022e-19 1.905072
-2 3.1157334 2
2.4265528 -3.6893488e+19 1.878914
3.6893488e+19 3.1283336 -3.6893488e+19
2.5536172 -1.0842022e-19 1.8511276
3.6893488e+19 3.1183465 3.6893488e+19
2.4296002 0 1.8016127
2 3.1208053 -1.0842022e-19
2.5475757 -0 1.7622352
2 3.1153452 0
2.4261 3.6893488e+19 1.6855876
-2 3.1095133 2
2.3299556 2 1.5773611
-0 3.1247151 -2
2.503366 2 1.2966567
-1.0842022e-19 3.1171839 1.0842022e-19
2.3369956 -3.6893488e+19 -1.4962846
-0 3.1275122 -0
2.5052574 -3.6893488e+19 -1.6491842
-2 3.1235325 0
2.3428223 0 -1.7303709
3.6893488e+19 3.1294589 1.0842022e-19
2.5065737 -3.6893488e+19 -1.7858419
-1.0842022e-19 3.0680263 -1.0842022e-19
2.2918794 -3.6893488e+19 -1.7944975
1.0842022e-19 3.1338205 -1.0842022e-19
2.5095227 -0 -1.8745418
-1.0842022e-19 3.0695648 0
2.2932916 0 -1.8670942
-0 3.0669911 -0
2.2909293 -3.6893488e+19 -1.90569
2 3.0555797 1.0842022e-19
2.4132395 -2 -1.9185224
1.0842022e-19 3.0506282 -1.0842022e-19
2.2759116 1.0842022e-19 -1.931447
-0 3.0427539 -3.6893488e+19
2.395895 -2 -1.9446154
-1.0842022e-19 2.8860836 -2
2.1043413 1.0842022e-19 -1.8882192
-3.6893488e+19 2.8263645 -3.6893488e+19
2.1913471 0 -1.8769734
-2 2.7838359 3.6893488e+19
2.2055638 -1.0842022e-19 -1.8632942
2 2.7457538 1.0842022e-19
2.0390973 1.0842022e-19 -1.8452039
-1.0842022e-19 2.6911905 1.0842022e-19
2.1040609 3.6893488e+19 -1.8353689
1.0842022e-19 2.6533303 -3.6893488e+19
1.9852008 -1.0842022e-19 -1.8269621
-3.6893488e+19 2.6137087 2
2.0418808 3.6893488e+19 -1.8191932
-3.6893488e+19 2.5952718 -1.0842022e-19
1.9513443 -0 -1.8174306
-0 2.5646391 -0
2.0025017 2 -1.8109738
-1.0842022e-19 2.5542729 2
1.9274359 -3.6893488e+19 -1.8118206
2 2.5344181 2
1.9782491 -2 -1.8093836
3.6893488e+19 2.5248897 -1.0842022e-19
1.9103011 -3.6893488e+19 -1.8093683
-2 2.5077574 2
1.9568536 -2 -1.8068608
0 2.4910541 0
1.8931783 1.0842022e-19 -1.8036171
-0 2.4624767 1.0842022e-19
1.9355717 -1.0842022e-19 -1.8014109
-2 2.4533072 3.6893488e+19
1.8821723 -3.6893488e+19 -1.8027712
-0 3.2797043 -1.0842022e-19
2.5007777 3.6893488e+19 2.7523167
-0 3.2799888 2
2.5010328 2 2.7222443
-3.6893488e+19 3.2686431 -1.0842022e-19
2.6075082 3.6893488e+19 2.6985531
2 3.2684176 -3.6893488e+19
2.6072078 -1.0842022e-19 2.6823819
3.6893488e+19 3.2532053 -3.6893488e+19
2.5869634 1.0842022e-19 2.6430163
0 3.247541 -1.0842022e-19
2.4460859 -1.0842022e-19 2.6260526
3.6893488e+19 3.2689226 -1.0842022e-19
2.6078799 -2 2.6516738
-3.6893488e+19 3.2435346 2
2.4424942 -3.6893488e+19 2.6087081
-1.0842022e-19 3.2692006 -1.0842022e-19
2.6082499 3.6893488e+19 2.6363721
2 3.2524343 -3.6893488e+19
2.5390179 -3.6893488e+19 2.5963907
-3.6893488e+19 3.2198353 -1.0842022e-19
2.6219358 -3.6893488e+19 2.5547171
2 3.2348008 -1.0842022e-19
2.52753 -3.6893488e+19 2.5545871
2 3.2200723 0
2.6221235 -0 2.5411844
2 3.2326829 -0
2.5263176 2 2.539345
-2 3.2321901 -0
2.5260355 -2 2.5251808
0 3.1318731 -3.6893488e+19
2.4372156 -1.0842022e-19 2.4139426
-2 3.2155352 -1.0842022e-19
2.6185317 -3.6893488e+19 2.4957662
0 3.1312389 2
2.4364896 0 2.3914089
3.6893488e+19 3.2099237 -0
2.6140895 1.0842022e-19 2.4632189
-3.6893488e+19 3.1310449 3.6893488e+19
2.4362676 -3.6893488e+19 2.3694174
3.6893488e+19 3.2402236 0
2.4395256 -2 2.4594703
1.0842022e-19 3.1408617 3.6893488e+19
2.5100777 -2 2.357868
-3.6893488e+19 3.2396216 -0
2.4389858 0 2.4310768
-3.6893488e+19 3.2081106 -1.0842022e-19
2.5548248 0 2.3932338
3.6893488e+19 3.2428873 -1.0842022e-19
2.4419136 -0 2.4059792
-2 3.2092044 -0
2.5555527 -3.6893488e+19 2.3679368
-0 3.2458546 -1.0842022e-19
2.4445741 -3.6893488e+19 2.3803279
-1.0842022e-19 3.1282842 3.6893488e+19
2.5017087 1.0842022e-19 2.2815213
2 3.2414389 -2
2.4406149 3.6893488e+19 2.3491275
-3.6893488e+19 3.207335 1.0842022e-19
2.5543089 0 2.314292
3.6893488e+19 3.2442365 3.6893488e+19
2.4431233 -3.6893488e+19 2.3231828
1.0842022e-19 3.2086391 3.6893488e+19
2.5551765 2 2.2890902
-2 3.2273157 3.6893488e+19
2.4279525 3.6893488e+19 2.2851679
-2 3.1272669 2
2.5010319 -2 2.1827021
2 3.2305877 -2
2.430886 0 2.260021
0 3.126121 -3.6893488e+19
2.5002692 0 2.1386633
1.0842022e-19 3.1306028 1.0842022e-19
2.5512967 0 2.1237698
-3.6893488e+19 3.2152541 -2
2.5163403 -3.6893488e+19 2.1764767
-2 3.2154262 -3.6893488e+19
2.6184454 -0 2.1539857
-1.0842022e-19 3.2159829 -0
2.5167575 3.6893488e+19 2.1244867
-3.6893488e+19 3.1329675 1.0842022e-19
2.5531688 1.0842022e-19 2.0387566
-3.6893488e+19 3.2182038 1.0842022e-19
2.518029 -0 2.0734093
-1.0842022e-19 3.1279049 -0
2.549161 2 1.9918884
-3.6893488e+19 3.2220726 -0
2.5202436 -1.0842022e-19 2.022804
1.0842022e-19 3.1307874 -3.6893488e+19
2.5514426 -3.6893488e+19 1.9503862
0 3.2203546 -3.6893488e+19
2.5192599 3.6893488e+19 1.9687643
-1.0842022e-19 3.158077 0
2.5730462 2 1.9183054
1.0842022e-19 3.1597636 -1.0842022e-19
2.5743811 -2 1.8697854
-1.0842022e-19 3.117403 -3.6893488e+19
2.4206486 3.6893488e+19 1.8010938
-3.6893488e+19 3.1594379 -3.6893488e+19
2.5741234 3.6893488e+19 1.7764542
0 3.1187315 -1.0842022e-19
2.4221694 -3.6893488e+19 1.6872369
0 3.1099617 1.0842022e-19
2.3227351 -2 1.5775533
3.6893488e+19 3.1603916 -2
2.5230727 -0 1.3129176
-1.0842022e-19 3.1153364 3.6893488e+19
2.327554 -3.6893488e+19 -1.4949727
3.6893488e+19 3.1262908 -3.6893488e+19
2.5003822 3.6893488e+19 -1.6486363
-0 3.1223702 1.0842022e-19
2.3338604 -3.6893488e+19 -1.7295858
-2 3.1292863 1.0842022e-19
2.5023756 -2 -1.7856983
2 3.1240132 3.6893488e+19
2.3353333 3.6893488e+19 -1.8242775
3.6893488e+19 3.1497381 1.0842022e-19
2.5159841 2 -1.8798883
1.0842022e-19 3.1277797 3.6893488e+19
2.3387103 -1.0842022e-19 -1.8930556
-3.6893488e+19 3.1534319 -0
2.5184419 -0 -1.9267346
0 3.0667439 -1.0842022e-19
2.2839866 -0 -1.9055223
2 3.054389 0
2.4050784 -2 -1.9177921
-2 3.0498483 1.0842022e-19
2.2688386 0 -1.9309227
-0 3.04356 -3.6893488e+19
2.3906672 -2 -1.9450656
-1.0842022e-19 2.8875012 -3.6893488e+19
2.0974264 1.0842022e-19 -1.8886856
-1.0842022e-19 2.8271236 -0
2.1853335 0 -1.8772129
-1.0842022e-19 2.7809837 -1.0842022e-19
2.1948705 -3.6893488e+19 -1.8607767
3.6893488e+19 2.7426052 -1.0842022e-19
2.0319977 -3.6893488e+19 -1.8437226
0 2.6924 -0
2.1002171 3.6893488e+19 -1.8358356
-1.0842022e-19 2.6531122 -2
1.9807664 -3.6893488e+19 -1.8267766
2 2.614388 -0
2.0384605 3.6893488e+19 -1.8194544
-0 2.595279 -0
1.9476591 -1.0842022e-19 -1.8173618
-3.6893488e+19 2.5646808 -1.0842022e-19
1.9991109 2 -1.8109015
1.0842022e-19 2.554388 1.0842022e-19
1.9242506 -3.6893488e+19 -1.8118206
-0 2.5349331 1.0842022e-19
1.9755617 0 -1.8096213
2 2.5249937 -3.6893488e+19
1.9074234 -3.6893488e+19 -1.8093683
0 2.5049601 1.0842022e-19
1.9518341 -1.0842022e-19 -1.8047932
-3.6893488e+19 2.4922254 0
1.8908902 2 -1.8039756
-1.0842022e-19 2.4634504 -1.0842022e-19
1.9334407 3.6893488e+19 -1.8016902
-2 2.4539711 3.6893488e+19
1.8799406 -3.6893488e+19 -1.8029643
-0 2.425071 -2
1.9182495 -2 -1.7992557
1.0842022e-19 2.3655522 2
1.7888737 -3.6893488e+19 -1.7936771
0 2.3264925 0
1.7713636 1.0842022e-19 -1.7942476
1.0842022e-19 2.2872615 2
1.7537767 -3.6893488e+19 -1.7903293
2 2.2594182 -3.6893488e+19
1.7325896 -1.0842022e-19 -1.7891909
-1.0842022e-19 2.2092524 -0
1.806779 -1.0842022e-19 -1.7856394
-1.0842022e-19 2.1719427 -3.6893488e+19
1.7920113 1.0842022e-19 -1.7849663
-0 2.1395478 -2
1.7791889 1.0842022e-19 -1.7841712
-3.6893488e+19 2.1048541 2
1.7654567 -1.0842022e-19 -1.7805172
-0 3.2797043 -1.0842022e-19
2.5007777 3.6893488e+19 2.7523167
-0 3.2799888 2
2.5010328 2 2.7222443
-3.6893488e+19 3.2686431 -1.0842022e-19
2.6075082 3.6893488e+19 2.6985531
2 3.2684176 -3.6893488e+19
2.6072078 -1.0842022e-19 2.6823819
3.6893488e+19 3.2532053 -3.6893488e+19
2.5869634 1.0842022e-19 2.6430163
0 3.247541 -1.0842022e-19
2.4460859 -1.0842022e-19 2.6260526
-3.6893488e+19 3.2139637 1.0842022e-19
2.5587196 2 2.5964978
-0 3.2303016 -3.6893488e+19
2.4306295 1.0842022e-19 2.5990903
0 3.2189195 -0
2.562017 1.0842022e-19 2.5865099
2 3.2270846 -0
2.5231128 -0 2.5773282
-3.6893488e+19 3.2198353 -1.0842022e-19
2.6219358 -3.6893488e+19 2.5547171
2 3.2348008 -1.0842022e-19
2.52753 -3.6893488e+19 2.5545871
2 3.2200723 0
2.6221235 -0 2.5411844
2 3.2326829 -0
2.5263176 2 2.539345
-2 3.2321901 -0
2.5260355 -2 2.5251808
0 3.1318731 -3.6893488e+19
2.4372156 -1.0842022e-19 2.4139426
-2 3.2155352 -1.0842022e-19
2.6185317 -3.6893488e+19 2.4957662
0 3.1312389 2
2.4364896 0 2.3914089
3.6893488e+19 3.2099237 -0
2.6140895 1.0842022e-19 2.4632189
-3.6893488e+19 3.1310449 3.6893488e+19
2.4362676 -3.6893488e+19 2.3694174
-1.0842022e-19 3.1261506 -0
2.3372498 1.0842022e-19 2.3525536
1.0842022e-19 3.1408617 3.6893488e+19
2.5100777 -2 2.357868
0 3.129318 0
2.3400896 -3.6893488e+19 2.333962
-1.0842022e-19 3.1386154 3.6893488e+19
2.5085831 3.6893488e+19 2.3335803
1.0842022e-19 3.1298451 -0
2.3405621 -1.0842022e-19 2.3128691
3.6893488e+19 3.1285546 -2
2.5018885 1.0842022e-19 2.3033164
-0 3.1323636 3.6893488e+19
2.3428202 3.6893488e+19 2.2932787
-1.0842022e-19 3.1282842 3.6893488e+19
2.5017087 1.0842022e-19 2.2815213
-1.0842022e-19 3.1285248 -1.0842022e-19
2.3393784 -3.6893488e+19 2.2689111
-3.6893488e+19 3.1287012 3.6893488e+19
2.5019863 -2 2.2602527
2 3.127727 3.6893488e+19
2.3386631 -3.6893488e+19 2.243994
-2 3.1262112 -2
2.5003293 -1.0842022e-19 2.2242682
-0 3.1314623 2
2.3420122 -0 2.2058024
-2 3.1272669 2
2.5010319 -2 2.1827021
0 3.1158478 -3.6893488e+19
2.3280122 -2 2.1458821
0 3.126121 -3.6893488e+19
2.5002692 0 2.1386633
1.0842022e-19 3.1306028 1.0842022e-19
2.5512967 0 2.1237698
-3.6893488e+19 3.1214867 3.6893488e+19
2.4253242 2 2.0905247
-2 3.1307225 0
2.5513916 -2 2.0804636
3.6893488e+19 3.1224279 0
2.4264019 0 2.0493014
-3.6893488e+19 3.1329675 1.0842022e-19
2.5531688 1.0842022e-19 2.0387566
-3.6893488e+19 3.1243095 2
2.4285562 -2 2.0085523
-1.0842022e-19 3.1279049 -0
2.549161 2 1.9918884
-3.6893488e+19 3.2220726 -0
2.5202436 -1.0842022e-19 2.022804
1.0842022e-19 3.1307874 -3.6893488e+19
2.5514426 -3.6893488e+19 1.9503862
-3.6893488e+19 3.1247745 -3.6893488e+19
2.4290884 3.6893488e+19 1.9243096
-1.0842022e-19 3.1271555 3.6893488e+19
2.5485678 -0 1.9055523
2 3.1267838 -3.6893488e+19
2.5482733 -1.0842022e-19 1.8500839
-1.0842022e-19 3.117403 -3.6893488e+19
2.4206486 3.6893488e+19 1.8010938
-2 3.1229603 -3.6893488e+19
2.5452466 1.0842022e-19 1.7629609
0 3.1187315 -1.0842022e-19
2.4221694 -3.6893488e+19 1.6872369
0 3.1099617 1.0842022e-19
2.3227351 -2 1.5775533
0 3.124109 1.0842022e-19
2.4978611 1.0842022e-19 1.2963039
-1.0842022e-19 3.1153364 3.6893488e+19
2.327554 -3.6893488e+19 -1.4949727
3.6893488e+19 3.1262908 -3.6893488e+19
2.5003822 3.6893488e+19 -1.6486363
-0 3.1223702 1.0842022e-19
2.3338604 -3.6893488e+19 -1.7295858
-2 3.1292863 1.0842022e-19
2.5023756 -2 -1.7856983
2 3.1240132 3.6893488e+19
2.3353333 3.6893488e+19 -1.8242775
1.0842022e-19 3.1325405 -2
2.5045407 -2 -1.8736004
0 3.0682006 -2
2.2852926 -0 -1.865989
-3.6893488e+19 3.1534319 -0
2.5184419 -0 -1.9267346
0 3.0667439 -1.0842022e-19
2.2839866 -0 -1.9055223
2 3.054389 0
2.4050784 -2 -1.9177921
-2 3.0498483 1.0842022e-19
2.2688386 0 -1.9309227
-0 3.04356 -3.6893488e+19
2.3906672 -2 -1.9450656
-1.0842022e-19 2.8875012 -3.6893488e+19
2.0974264 1.0842022e-19 -1.8886856
-1.0842022e-19 2.8271236 -0
2.1853335 0 -1.8772129
-1.0842022e-19 2.7809837 -1.0842022e-19
2.1948705 -3.6893488e+19 -1.8607767
3.6893488e+19 2.7426052 -1.0842022e-19
2.0319977 -3.6893488e+19 -1.8437226
0 2.6924 -0
2.1002171 3.6893488e+19 -1.8358356
-1.0842022e-19 2.6531122 -2
1.9807664 -3.6893488e+19 -1.8267766
2 2.614388 -0
2.0384605 3.6893488e+19 -1.8194544
-0 2.595279 -0
1.9476591 -1.0842022e-19 -1.8173618
-3.6893488e+19 2.5646808 -1.0842022e-19
1.9991109 2 -1.8109015
1.0842022e-19 2.554388 1.0842022e-19
1.9242506 -3.6893488e+19 -1.8118206
-0 2.5349331 1.0842022e-19
1.9755617 0 -1.8096213
2 2.5249937 -3.6893488e+19
1.9074234 -3.6893488e+19 -1.8093683
0 2.5049601 1.0842022e-19
1.9518341 -1.0842022e-19 -1.8047932
-3.6893488e+19 2.4922254 0
1.8908902 2 -1.8039756
-1.0842022e-19 2.4634504 -1.0842022e-19
1.9334407 3.6893488e+19 -1.8016902
-2 2.4539711 3.6893488e+19
1.8799406 -3.6893488e+19 -1.8029643
-0 2.425071 -2
1.9182495 -2 -1.7992557
1.0842022e-19 2.3655522 2
1.7888737 -3.6893488e+19 -1.7936771
0 2.3264925 0
1.7713636 1.0842022e-19 -1.7942476
1.0842022e-19 2.2872615 2
1.7537767 -3.6893488e+19 -1.7903293
2 2.2594182 -3.6893488e+19
1.7325896 -1.0842022e-19 -1.7891909
-1.0842022e-19 2.2092524 -0
1.806779 -1.0842022e-19 -1.7856394
-1.0842022e-19 2.1719427 -3.6893488e+19
1.7920113 1.0842022e-19 -1.7849663
-0 2.1395478 -2
1.7791889 1.0842022e-19 -1.7841712
-3.6893488e+19 2.1048541 2
1.7654567 -1.0842022e-19 -1.7805172
3.6893488e+19 3.2042298 -3.6893488e+19
2.5473614 -1.0842022e-19 2.6693656
1.0842022e-19 3.2797551 1.0842022e-19
2.4897969 -2 2.7522893
-1.0842022e-19 3.2780328 1.0842022e-19
2.4867816 3.6893488e+19 2.7188094
-3.6893488e+19 3.2686081 -3.6893488e+19
2.6016886 2 2.6983011
-1.0842022e-19 3.2685485 1.0842022e-19
2.6016107 -1.0842022e-19 2.6824062
-2 3.2798545 3.6893488e+19
2.4899712 0 2.6891956
1.0842022e-19 3.2682779 3.6893488e+19
2.6012561 3.6893488e+19 2.6662316
-0 3.247685 2
2.4356749 -1.0842022e-19 2.6260526
3.6893488e+19 3.2689931 -2
2.6021926 -2 2.6516058
0 3.2441363 2
2.4325683 3.6893488e+19 2.6090415
0 3.2693169 1.0842022e-19
2.6026165 3.6893488e+19 2.6363721
1.0842022e-19 3.2294278 -3.6893488e+19
2.5193379 -3.6893488e+19 2.5788138
-0 3.2108014 1.0842022e-19
2.5088739 0 2.5527041
3.6893488e+19 3.220289 -1.0842022e-19
2.6171851 3.6893488e+19 2.5548546
-3.6893488e+19 3.2355003 0
2.5227497 2 2.5549138
2 3.2198894 0
2.6168733 0 2.5409217
-3.6893488e+19 3.238678 -1.0842022e-19
2.5245347 2 2.5428302
-1.0842022e-19 3.2072623 3.6893488e+19
2.6070144 -0 2.5198281
0 3.2344222 1.0842022e-19
2.5221438 2 2.5263522
0 3.2150052 1.0842022e-19
2.6130598 -2 2.510921
3.6893488e+19 3.1305118 -3.6893488e+19
2.4275358 0 2.4123142
0 3.2158964 -0
2.6137555 1.0842022e-19 2.4958959
2 3.1314723 -2
2.4286151 -0 2.3915033
0 3.1311557 2
2.4282594 1.0842022e-19 2.3693879
-1.0842022e-19 3.1291909 0
2.3319449 -0 2.3553002
-1.0842022e-19 3.2268977 -0
2.562201 -2 2.4364531
-2 3.241184 -3.6893488e+19
2.4299839 1.0842022e-19 2.432327
-2 3.2298682 0
2.5641458 -3.6893488e+19 2.4117322
3.6893488e+19 3.2450387 0
2.4333584 1.0842022e-19 2.4076333
-1.0842022e-19 3.2299345 -3.6893488e+19
2.564189 -3.6893488e+19 2.3843808
-2 3.2455962 0
2.4338465 -3.6893488e+19 2.3800197
-2 3.2327409 -2
2.5660262 -2 2.3591034
0 3.2425096 3.6893488e+19
2.4311442 -1.0842022e-19 2.3497868
-0 3.2286744 0
2.5633643 -2 2.3288147
-2 3.2436984 -2
2.4321849 1.0842022e-19 2.3227377
3.6893488e+19 3.2186761 3.6893488e+19
2.5568187 1.0842022e-19 2.2952893
-1.0842022e-19 3.2299633 -1.0842022e-19
2.4201612 -1.0842022e-19 2.2866666
-3.6893488e+19 3.2267015 0
2.5620728 3.6893488e+19 2.2732558
1.0842022e-19 3.2332375 1.0842022e-19
2.4230275 -0 2.2613788
3.6893488e+19 3.2270174 0
2.5622795 2 2.2427115
2 3.2163389 -2
2.6141009 -3.6893488e+19 2.207731
3.6893488e+19 3.2160447 -3.6893488e+19
2.5118194 -2 2.177043
-0 3.216125 -2
2.613934 2 2.1543844
-1.0842022e-19 3.216063 3.6893488e+19
2.5118299 -3.6893488e+19 2.1244121
-0 3.2194905 -1.0842022e-19
2.5137553 0 2.074178
-3.6893488e+19 3.2244744 3.6893488e+19
2.5165553 -2 2.0240903
-0 3.1178298 -1.0842022e-19
2.4132867 -1.0842022e-19 1.9210161
-3.6893488e+19 3.1200213 0
2.5388999 2 1.9025315
0 3.1159766 3.6893488e+19
2.4112043 3.6893488e+19 1.8789032
3.6893488e+19 3.1221323 -0
2.5405478 -1.0842022e-19 1.847191
-3.6893488e+19 3.1161468 -2
2.4113958 0 1.8004267
-2 3.161274 -0
2.5711083 -2 1.7770551
-1.0842022e-19 3.1187134 -2
2.4142795 1.0842022e-19 1.6871585
0 3.1137316 -0
2.3184116 -0 1.5796154
1.0842022e-19 3.1619565 -2
2.5196872 -3.6893488e+19 1.3135527
3.6893488e+19 3.1139512 1.0842022e-19
2.318604 0 -1.4939733
1.0842022e-19 3.1249113 -2
2.4908712 2 -1.6480275
0 3.1194651 1.0842022e-19
2.3234308 -0 -1.7277286
-0 3.1325338 -3.6893488e+19
2.5004256 0 -1.7870044
-2 3.123904 0
2.3273168 -2 -1.8241616
2 3.146889 2
2.5098233 -0 -1.8789068
3.6893488e+19 3.0670505 2
2.2775469 -2 -1.8650484
0 3.1536987 1.0842022e-19
2.5142813 1.0842022e-19 -1.9267751
-1.0842022e-19 3.1279111 -3.6893488e+19
2.3308244 2 -1.9355021
-1.0842022e-19 3.0542121 -0
2.3983049 2 -1.9176223
3.6893488e+19 3.0486004 2
2.2613957 -1.0842022e-19 -1.9301175
2 3.0429473 1.0842022e-19
2.3835559 -0 -1.9445745
-2 2.8837652 -2
2.0859492 1.0842022e-19 -1.8873087
3.6893488e+19 2.8278193 -3.6893488e+19
2.1792138 -3.6893488e+19 -1.8774283
1.0842022e-19 2.7829661 -3.6893488e+19
2.19186 -3.6893488e+19 -1.862318
1.0842022e-19 2.7485971 -3.6893488e+19
2.030107 -3.6893488e+19 -1.846301
-1.0842022e-19 2.6944644 -0
2.0970223 1.0842022e-19 -1.8367107
1.0842022e-19 2.6553621 -1.0842022e-19
1.9777286 -1.0842022e-19 -1.8278276
1.0842022e-19 2.6145754 1.0842022e-19
2.0346477 3.6893488e+19 -1.8194544
-0 2.595654 0
1.9441853 3.6893488e+19 -1.8174994
-2 2.5644755 -2
1.9955316 0 -1.8106848
2 2.5542541 -1.0842022e-19
1.920927 -0 -1.8116692
-0 2.5363026 -1.0842022e-19
1.9735351 0 -1.8104134
0 2.5253425 3.6893488e+19
1.9046848 1.0842022e-19 -1.8095337
0 2.5060689 -2
1.9499296 0 -1.8054825
0 2.4926548 -2
1.8883843 1.0842022e-19 -1.8040652
1.0842022e-19 2.4644217 -1.0842022e-19
1.9313021 2 -1.8019695
0 2.4546325 1.0842022e-19
1.8777041 0 -1.8031576
3.6893488e+19 3.2042298 -3.6893488e+19
2.5473614 -1.0842022e-19 2.6693656
1.0842022e-19 3.2797551 1.0842022e-19
2.4897969 -2 2.7522893
-1.0842022e-19 3.2780328 1.0842022e-19
2.4867816 3.6893488e+19 2.7188094
-3.6893488e+19 3.2686081 -3.6893488e+19
2.6016886 2 2.6983011
-1.0842022e-19 3.2685485 1.0842022e-19
2.6016107 -1.0842022e-19 2.6824062
3.6893488e+19 3.2264709 -0
2.417104 2 2.6238797
1.0842022e-19 3.2682779 3.6893488e+19
2.6012561 3.6893488e+19 2.6662316
-0 3.247685 2
2.4356749 -1.0842022e-19 2.6260526
3.6893488e+19 3.2689931 -2
2.6021926 -2 2.6516058
0 3.2441363 2
2.4325683 3.6893488e+19 2.6090415
0 3.2693169 1.0842022e-19
2.6026165 3.6893488e+19 2.6363721
1.0842022e-19 3.2294278 -3.6893488e+19
2.5193379 -3.6893488e+19 2.5788138
-0 3.2108014 1.0842022e-19
2.5088739 0 2.5527041
3.6893488e+19 3.220289 -1.0842022e-19
2.6171851 3.6893488e+19 2.5548546
-3.6893488e+19 3.2355003 0
2.5227497 2 2.5549138
2 3.2198894 0
2.6168733 0 2.5409217
-3.6893488e+19 3.238678 -1.0842022e-19
2.5245347 2 2.5428302
-1.0842022e-19 3.2072623 3.6893488e+19
2.6070144 -0 2.5198281
0 3.2344222 1.0842022e-19
2.5221438 2 2.5263522
0 3.2150052 1.0842022e-19
2.6130598 -2 2.510921
3.6893488e+19 3.1305118 -3.6893488e+19
2.4275358 0 2.4123142
0 3.2158964 -0
2.6137555 1.0842022e-19 2.4958959
2 3.1314723 -2
2.4286151 -0 2.3915033
0 3.1311557 2
2.4282594 1.0842022e-19 2.3693879
-1.0842022e-19 3.1291909 0
2.3319449 -0 2.3553002
0 3.1410918 2
2.5060282 1.0842022e-19 2.3579242
-2 3.1283469 2
2.3312061 -3.6893488e+19 2.3330107
0 3.13955 -1.0842022e-19
2.5050187 -1.0842022e-19 2.3342381
0 3.1304805 -1.0842022e-19
2.3330736 0 2.3133018
-1.0842022e-19 3.1287179 -2
2.4958553 1.0842022e-19 2.3033164
-1.0842022e-19 3.131361 0
2.3338447 -3.6893488e+19 2.2924249
2 3.1271577 1.0842022e-19
2.4938126 -1.0842022e-19 2.2805617
0 3.1316361 -1.0842022e-19
2.3340852 1.0842022e-19 2.2710431
-1.0842022e-19 3.1283116 -1.0842022e-19
2.4953234 1.0842022e-19 2.2598729
-0 3.1307778 -1.0842022e-19
2.333334 -3.6893488e+19 2.2478397
0 3.1294484 -1.0842022e-19
2.4968116 2 2.2281427
-0 3.1322234 2
2.3345995 0 2.2065797
-3.6893488e+19 3.128691 0
2.4958203 -0 2.1841481
1.0842022e-19 3.2332375 1.0842022e-19
2.4230275 -0 2.2613788
0 3.1263449 3.6893488e+19
2.4927483 -1.0842022e-19 2.1387267
1.0842022e-19 3.1354215 3.6893488e+19
2.5509236 2 2.1283073
-0 3.1242816 -2
2.4205358 2 2.0929594
-1.0842022e-19 3.124609 2
2.5424817 -2 2.07499
2 3.1205571 0
2.4163511 -0 2.0476873
-1.0842022e-19 3.1230571 2
2.4191601 3.6893488e+19 2.0075917
-2 3.1187057 -3.6893488e+19
2.4142709 3.6893488e+19 1.9629909
-0 3.1178298 -1.0842022e-19
2.4132867 -1.0842022e-19 1.9210161
-3.6893488e+19 3.1200213 0
2.5388999 2 1.9025315
0 3.1159766 3.6893488e+19
2.4112043 3.6893488e+19 1.8789032
3.6893488e+19 3.1221323 -0
2.5405478 -1.0842022e-19 1.847191
-3.6893488e+19 3.1161468 -2
2.4113958 0 1.8004267
-1.0842022e-19 3.1306968 2
2.5472348 1.0842022e-19 1.7657503
-1.0842022e-19 3.1187134 -2
2.4142795 1.0842022e-19 1.6871585
0 3.1137316 -0
2.3184116 -0 1.5796154
2 3.1266451 1.0842022e-19
2.4931414 -0 1.2973907
3.6893488e+19 3.1139512 1.0842022e-19
2.318604 0 -1.4939733
1.0842022e-19 3.1249113 -2
2.4908712 2 -1.6480275
0 3.1194651 1.0842022e-19
2.3234308 -0 -1.7277286
-0 3.1325338 -3.6893488e+19
2.5004256 0 -1.7870044
-2 3.123904 0
2.3273168 -2 -1.8241616
2 3.146889 2
2.5098233 -0 -1.8789068
3.6893488e+19 3.0670505 2
2.2775469 -2 -1.8650484
0 3.1536987 1.0842022e-19
2.5142813 1.0842022e-19 -1.9267751
-1.0842022e-19 3.1279111 -3.6893488e+19
2.3308244 2 -1.9355021
-1.0842022e-19 3.0542121 -0
2.3983049 2 -1.9176223
3.6893488e+19 3.0486004 2
2.2613957 -1.0842022e-19 -1.9301175
2 3.0429473 1.0842022e-19
2.3835559 -0 -1.9445745
-2 2.8837652 -2
2.0859492 1.0842022e-19 -1.8873087
3.6893488e+19 2.8278193 -3.6893488e+19
2.1792138 -3.6893488e+19 -1.8774283
1.0842022e-19 2.7829661 -3.6893488e+19
2.19186 -3.6893488e+19 -1.862318
1.0842022e-19 2.7485971 -3.6893488e+19
2.030107 -3.6893488e+19 -1.846301
-1.0842022e-19 2.6944644 -0
2.0970223 1.0842022e-19 -1.8367107
1.0842022e-19 2.6553621 -1.0842022e-19
1.9777286 -1.0842022e-19 -1.8278276
1.0842022e-19 2.6145754 1.0842022e-19
2.0346477 3.6893488e+19 -1.8194544
-0 2.595654 0
1.9441853 3.6893488e+19 -1.8174994
-2 2.5644755 -2
1.9955316 0 -1.8106848
2 2.5542541 -1.0842022e-19
1.920927 -0 -1.8116692
-0 2.5363026 -1.0842022e-19
1.9735351 0 -1.8104134
0 2.5253425 3.6893488e+19
1.9046848 1.0842022e-19 -1.8095337
0 2.5060689 -2
1.9499296 0 -1.8054825
0 2.4926548 -2
1.8883843 1.0842022e-19 -1.8040652
1.0842022e-19 2.4644217 -1.0842022e-19
1.9313021 2 -1.8019695
0 2.4546325 1.0842022e-19
1.8777041 0 -1.8031576
1.0842022e-19 3.203975 1.0842022e-19
2.5422316 0 2.6689494
2 3.2105 1.0842022e-19
2.393198 2 2.6516271
-0 3.2103331 -1.0842022e-19
2.3930554 -2 2.6379871
-2 3.2692077 -2
2.5965874 3.6893488e+19 2.6991076
-0 3.2684073 -0
2.595557 2 2.6819923
1.0842022e-19 3.279737 3.6893488e+19
2.4777069 -0 2.6888845
-0 3.2680907 -2
2.5951493 2 2.6657617
3.6893488e+19 3.2472174 -1.0842022e-19
2.4245491 3.6893488e+19 2.6255913
0 3.267911 3.6893488e+19
2.5949178 -1.0842022e-19 2.6498172
-3.6893488e+19 3.241251 3.6893488e+19
2.4194548 0 2.6068425
1.0842022e-19 3.2299716 -0
2.514432 1.0842022e-19 2.5790651
3.6893488e+19 3.2373421 2
2.5184927 -2 2.5700202
2 3.2198348 -1.0842022e-19
2.6116378 2 2.5544031
0 3.2383723 -0
2.5190601 -2 2.5566037
-0 3.2198589 -1.0842022e-19
2.6116564 3.6893488e+19 2.5407526
-0 3.2379098 0
2.5188055 1.0842022e-19 2.5422616
3.6893488e+19 3.207468 -2
2.602119 2 2.5198102
-3.6893488e+19 3.2391381 -1.0842022e-19
2.5194821 -0 2.5289392
3.6893488e+19 3.2152755 -0
2.6081285 2 2.5109382
2 3.1310823 2
2.4199014 -2 2.4127793
0 3.2161977 -0
2.6088383 -1.0842022e-19 2.4959605
1.0842022e-19 3.1317673 -2
2.420656 2 2.3916609
0 3.131758 -1.0842022e-19
2.4206457 -0 2.3698344
-3.6893488e+19 3.2394264 -3.6893488e+19
2.4178967 3.6893488e+19 2.4584584
1.0842022e-19 3.2265215 -0
2.5567451 -3.6893488e+19 2.4359202
-1.0842022e-19 3.2399354 -1.0842022e-19
2.4183314 0 2.4311039
0 3.2293701 -1.0842022e-19
2.5585787 3.6893488e+19 2.4111271
2 3.247036 -1.0842022e-19
2.4243941 0 2.4091601
1.0842022e-19 3.2446253 2
2.4223359 3.6893488e+19 2.3791661
0 3.2313521 -2
2.5598545 1.0842022e-19 2.3579156
-1.0842022e-19 3.2444465 3.6893488e+19
2.4221833 1.0842022e-19 2.3510616
-2 3.2297728 2
2.5588381 3.6893488e+19 2.329427
3.6893488e+19 3.2443051 -2
2.4220624 -1.0842022e-19 2.3230412
-3.6893488e+19 3.2324131 -3.6893488e+19
2.5605376 2 2.303813
1.0842022e-19 3.2347808 0
2.4139302 2 2.2894607
-2 3.2245071 1.0842022e-19
2.5554485 3.6893488e+19 2.2718804
1.0842022e-19 3.2354538 3.6893488e+19
2.4145048 -2 2.262502
-0 3.2228205 2
2.5543628 1.0842022e-19 2.2381656
-1.0842022e-19 3.2184787 -3.6893488e+19
2.610594 3.6893488e+19 2.2095942
-1.0842022e-19 3.221997 2
2.5100386 0 2.1823373
-1.0842022e-19 3.2197671 3.6893488e+19
2.6115859 -3.6893488e+19 2.1573336
-3.6893488e+19 3.2182763 -0
2.5079887 3.6893488e+19 2.1260509
3.6893488e+19 3.124963 -3.6893488e+19
2.5386138 -2 2.0324299
-2 3.2319744 -1.0842022e-19
2.5155354 -3.6893488e+19 2.0826745
-2 3.1244001 -2
2.5381806 1.0842022e-19 1.9893984
1.0842022e-19 3.2261972 -1.0842022e-19
2.5123525 -0 2.0249836
-1.0842022e-19 3.1254749 -1.0842022e-19
2.5390079 2 1.9473872
-0 3.1206419 -1.0842022e-19
2.5352879 -1.0842022e-19 1.9027084
-0 3.1154311 -0
2.4026558 2 1.8786634
3.6893488e+19 3.1226926 -3.6893488e+19
2.5368662 -2 1.8474107
2 3.1354961 -3.6893488e+19
2.5467212 -2 1.767451
3.6893488e+19 3.1163116 -0
2.403626 1.0842022e-19 1.6858704
2 3.1223192 -1.0842022e-19
2.3179047 -3.6893488e+19 1.584386
-0 3.1473868 3.6893488e+19
2.5058048 -2 1.3068056
3.6893488e+19 3.114491 -0
2.3112206 -1.0842022e-19 -1.4942647
-1.0842022e-19 3.1495392 -3.6893488e+19
2.5071902 2 -1.6576834
-2 3.1167748 -2
2.3131707 3.6893488e+19 -1.7260054
3.6893488e+19 3.1304779 3.6893488e+19
2.4898405 2 -1.786064
1.0842022e-19 3.1170833 1.0842022e-19
2.3134341 -2 -1.8204722
-1.0842022e-19 3.1485102 -1.0842022e-19
2.5065279 -3.6893488e+19 -1.8793775
3.6893488e+19 3.1143293 -0
2.3110826 -3.6893488e+19 -1.8878826
-3.6893488e+19 3.1514673 -2
2.5084314 3.6893488e+19 -1.9257221
3.6893488e+19 3.057081 -1.0842022e-19
2.2622011 0 -1.9006909
-1.0842022e-19 3.0549295 2
2.3925769 1.0842022e-19 -1.917945
1.0842022e-19 3.0487175 1.0842022e-19
2.25506 -2 -1.9301362
-1.0842022e-19 3.0433204 -1.0842022e-19
2.3776309 -3.6893488e+19 -1.9447381
-1.0842022e-19 2.8885322 -0
2.0817482 -3.6893488e+19 -1.8889742
2 2.8258655 0
2.1695306 -1.0842022e-19 -1.8766141
3.6893488e+19 2.7827444 -0
2.1852641 -3.6893488e+19 -1.8620098
-2 2.7459378 1.0842022e-19
2.0232284 3.6893488e+19 -1.8450392
-2 2.6886895 1.0842022e-19
2.0876651 -0 -1.8338521
-0 2.6566246 -0
1.9740227 -2 -1.8283839
0 2.6150086 -0
2.0309517 -3.6893488e+19 -1.819585
-3.6893488e+19 2.596029 2
1.9406388 3.6893488e+19 -1.817637
-2 2.564393 -0
1.9919925 -2 -1.8105402
2 2.5539963 0
1.9174815 -2 -1.811442
3.6893488e+19 2.5363281 -1.0842022e-19
1.9703904 -1.0842022e-19 -1.8103341
1.0842022e-19 2.524704 -1.0842022e-19
1.9013433 -2 -1.8090376
-1.0842022e-19 2.5060787 3.6893488e+19
1.9471072 3.6893488e+19 -1.8053963
2 2.4933305 -3.6893488e+19
1.8858958 -1.0842022e-19 -1.8042444
-3.6893488e+19 2.4649057 1.0842022e-19
1.9289221 0 -1.8020626
3.6893488e+19 2.4548008 -0
1.8752823 0 -1.8031576
3.6893488e+19 2.4289289 -0
1.915076 -0 -1.8006562
3.6893488e+19 2.3699617 -3.6893488e+19
1.7829459 -3.6893488e+19 -1.7956133
3.6893488e+19 2.3232293 -2
1.7629946 0 -1.7924594
-3.6893488e+19 2.2886577 0
1.7464706 -3.6893488e+19 -1.7910371
-3.6893488e+19 2.257849 1.0842022e-19
1.7201645 2 -1.7881036
-3.6893488e+19 2.2131131 -1.0842022e-19
1.8032321 -2 -1.786823
3.6893488e+19 2.1699641 -1.0842022e-19
1.7866259 2 -1.7840523
-3.6893488e+19 2.138505 1.0842022e-19
1.7745187 -3.6893488e+19 -1.7835816
3.6893488e+19 2.1032999 1.0842022e-19
1.7609698 -3.6893488e+19 -1.7796766
1.0842022e-19 3.203975 1.0842022e-19
2.5422316 0 2.6689494
2 3.2105 1.0842022e-19
2.393198 2 2.6516271
-0 3.2103331 -1.0842022e-19
2.3930554 -2 2.6379871
1.0842022e-19 3.2121425 -3.6893488e+19
2.5474889 -1.0842022e-19 2.6354859
-0 3.2684073 -0
2.595557 2 2.6819923
1.0842022e-19 3.279737 3.6893488e+19
2.4777069 -0 2.6888845
-0 3.2680907 -2
2.5951493 2 2.6657617
3.6893488e+19 3.2472174 -1.0842022e-19
2.4245491 3.6893488e+19 2.6255913
0 3.267911 3.6893488e+19
2.5949178 -1.0842022e-19 2.6498172
-3.6893488e+19 3.241251 3.6893488e+19
2.4194548 0 2.6068425
1.0842022e-19 3.2299716 -0
2.514432 1.0842022e-19 2.5790651
0 3.2116444 2
2.5043349 -0 2.5531454
2 3.2198348 -1.0842022e-19
2.6116378 2 2.5544031
0 3.2383723 -0
2.5190601 -2 2.5566037
-0 3.2198589 -1.0842022e-19
2.6116564 3.6893488e+19 2.5407526
-0 3.2379098 0
2.5188055 1.0842022e-19 2.5422616
3.6893488e+19 3.207468 -2
2.602119 2 2.5198102
-3.6893488e+19 3.2391381 -1.0842022e-19
2.5194821 -0 2.5289392
3.6893488e+19 3.2152755 -0
2.6081285 2 2.5109382
2 3.1310823 2
2.4199014 -2 2.4127793
0 3.2161977 -0
2.6088383 -1.0842022e-19 2.4959605
1.0842022e-19 3.1317673 -2
2.420656 2 2.3916609
0 3.131758 -1.0842022e-19
2.4206457 -0 2.3698344
3.6893488e+19 3.1289606 -1.0842022e-19
2.3235755 -1.0842022e-19 2.3549821
1.0842022e-19 3.1426711 0
2.5027692 2 2.3592143
-1.0842022e-19 3.1298459 1.0842022e-19
2.3243315 0 2.334234
0 3.2293701 -1.0842022e-19
2.5585787 3.6893488e+19 2.4111271
3.6893488e+19 3.1300645 -3.6893488e+19
2.324518 -1.0842022e-19 2.3128691
-3.6893488e+19 3.1311305 -3.6893488e+19
2.3254282 -3.6893488e+19 2.2921641
0 3.2313521 -2
2.5598545 1.0842022e-19 2.3579156
-0 3.1293006 2
2.3238659 1.0842022e-19 2.2693069
-1.0842022e-19 3.1272762 -1.0842022e-19
2.4857185 1.0842022e-19 2.2590497
3.6893488e+19 3.1318166 -3.6893488e+19
2.326014 -2 2.2490542
0 3.1278284 -1.0842022e-19
2.4864292 0 2.2258956
1.0842022e-19 3.131001 -2
2.3253176 0 2.2049885
-2 3.1293163 3.6893488e+19
2.4883451 3.6893488e+19 2.1846771
1.0842022e-19 3.132057 3.6893488e+19
2.3262193 3.6893488e+19 2.1631835
-0 3.1305718 -1.0842022e-19
2.4899614 0 2.1429231
2 3.1374583 -1.0842022e-19
2.5482316 -1.0842022e-19 2.1301103
2 3.1267076 1.0842022e-19
2.415081 3.6893488e+19 2.0950544
2 3.1247718 3.6893488e+19
2.5384667 2 2.0749636
-3.6893488e+19 3.1171694 -1.0842022e-19
2.4045713 1.0842022e-19 2.0448568
3.6893488e+19 3.124963 -3.6893488e+19
2.5386138 -2 2.0324299
-3.6893488e+19 3.1154938 -1.0842022e-19
2.402725 2 2.0022759
-2 3.1244001 -2
2.5381806 1.0842022e-19 1.9893984
0 3.117605 -2
2.405051 -2 1.9622762
-1.0842022e-19 3.1254749 -1.0842022e-19
2.5390079 2 1.9473872
-0 3.1206419 -1.0842022e-19
2.5352879 -1.0842022e-19 1.9027084
-0 3.1154311 -0
2.4026558 2 1.8786634
3.6893488e+19 3.1226926 -3.6893488e+19
2.5368662 -2 1.8474107
2 3.1354961 -3.6893488e+19
2.5467212 -2 1.767451
3.6893488e+19 3.1163116 -0
2.403626 1.0842022e-19 1.6858704
2 3.1223192 -1.0842022e-19
2.3179047 -3.6893488e+19 1.584386
-0 3.1260056 -2
2.4840827 -3.6893488e+19 1.2970237
3.6893488e+19 3.114491 -0
2.3112206 -1.0842022e-19 -1.4942647
-3.6893488e+19 3.1266775 2
2.4849479 -2 -1.6486607
-2 3.1167748 -2
2.3131707 3.6893488e+19 -1.7260054
3.6893488e+19 3.1304779 3.6893488e+19
2.4898405 2 -1.786064
1.0842022e-19 3.1170833 1.0842022e-19
2.3134341 -2 -1.8204722
-1.0842022e-19 3.1485102 -1.0842022e-19
2.5065279 -3.6893488e+19 -1.8793775
3.6893488e+19 3.1143293 -0
2.3110826 -3.6893488e+19 -1.8878826
-3.6893488e+19 3.1514673 -2
2.5084314 3.6893488e+19 -1.9257221
3.6893488e+19 3.057081 -1.0842022e-19
2.2622011 0 -1.9006909
-1.0842022e-19 3.0549295 2
2.3925769 1.0842022e-19 -1.917945
1.0842022e-19 3.0487175 1.0842022e-19
2.25506 -2 -1.9301362
-1.0842022e-19 3.0433204 -1.0842022e-19
2.3776309 -3.6893488e+19 -1.9447381
-1.0842022e-19 2.8885322 -0
2.0817482 -3.6893488e+19 -1.8889742
2 2.8258655 0
2.1695306 -1.0842022e-19 -1.8766141
3.6893488e+19 2.7827444 -0
2.1852641 -3.6893488e+19 -1.8620098
-2 2.7459378 1.0842022e-19
2.0232284 3.6893488e+19 -1.8450392
-2 2.6886895 1.0842022e-19
2.0876651 -0 -1.8338521
-0 2.6566246 -0
1.9740227 -2 -1.8283839
0 2.6150086 -0
2.0309517 -3.6893488e+19 -1.819585
-3.6893488e+19 2.596029 2
1.9406388 3.6893488e+19 -1.817637
-2 2.564393 -0
1.9919925 -2 -1.8105402
2 2.5539963 0
1.9174815 -2 -1.811442
3.6893488e+19 2.5363281 -1.0842022e-19
1.9703904 -1.0842022e-19 -1.8103341
1.0842022e-19 2.524704 -1.0842022e-19
1.9013433 -2 -1.8090376
-1.0842022e-19 2.5060787 3.6893488e+19
1.9471072 3.6893488e+19 -1.8053963
2 2.4933305 -3.6893488e+19
1.8858958 -1.0842022e-19 -1.8042444
-3.6893488e+19 2.4649057 1.0842022e-19
1.9289221 0 -1.8020626
3.6893488e+19 2.4548008 -0
1.8752823 0 -1.8031576
3.6893488e+19 2.4289289 -0
1.915076 -0 -1.8006562
3.6893488e+19 2.3699617 -3.6893488e+19
1.7829459 -3.6893488e+19 -1.7956133
3.6893488e+19 2.3232293 -2
1.7629946 0 -1.7924594
-3.6893488e+19 2.2886577 0
1.7464706 -3.6893488e+19 -1.7910371
-3.6893488e+19 2.257849 1.0842022e-19
1.7201645 2 -1.7881036
-3.6893488e+19 2.2131131 -1.0842022e-19
1.8032321 -2 -1.786823
3.6893488e+19 2.1699641 -1.0842022e-19
1.7866259 2 -1.7840523
-3.6893488e+19 2.138505 1.0842022e-19
1.7745187 -3.6893488e+19 -1.7835816
3.6893488e+19 2.1032999 1.0842022e-19
1.7609698 -3.6893488e+19 -1.7796766
0 3.203954 3.6893488e+19
2.5373456 -3.6893488e+19 2.6687548
0 3.2021921 -1.0842022e-19
2.5362303 1.0842022e-19 2.6537237
0 3.2133002 -1.0842022e-19
2.3857827 0 2.6539578
3.6893488e+19 3.215358 -3.6893488e+19
2.3874962 -0 2.6421142
-3.6893488e+19 3.2265506 2
2.5516491 -0 2.6333356
-3.6893488e+19 3.2788987 -2
2.4644694 -0 2.687449
1.0842022e-19 3.2680967 1.0842022e-19
2.589402 3.6893488e+19 2.6655972
1.0842022e-19 3.2474768 -1.0842022e-19
2.4142411 3.6893488e+19 2.6256835
0 3.2018399 -1.0842022e-19
2.5360074 -2 2.5870111
0 3.2414479 -0
2.4092209 3.6893488e+19 2.6068869
-2 3.2033207 -1.0842022e-19
2.5369449 -3.6893488e+19 2.5748992
1.0842022e-19 3.2382498 -1.0842022e-19
2.5137873 -1.0842022e-19 2.5705018
-2 3.2212825 2
2.6076396 -0 2.5551884
0 3.2394035 -3.6893488e+19
2.5144105 1.0842022e-19 2.5571415
-0 3.2199421 -1.0842022e-19
2.6066222 -1.0842022e-19 2.5406587
3.6893488e+19 3.2348368 -2
2.5119433 -3.6893488e+19 2.5403171
1.0842022e-19 3.2075753 1.0842022e-19
2.5972376 -2 2.5197384
1.0842022e-19 3.2402022 -3.6893488e+19
2.514842 -2 2.5294461
-3.6893488e+19 3.2156906 -3.6893488e+19
2.6033959 3.6893488e+19 2.5110404
-1.0842022e-19 3.2163699 -1.0842022e-19
2.6039114 1.0842022e-19 2.4958959
-2 3.1319034 -2
2.412663 2 2.3916609
-2 3.1317403 -1.0842022e-19
2.4124868 0 2.3696856
0 3.2381105 -0
2.4064419 -3.6893488e+19 2.4570994
2 3.2272112 -3.6893488e+19
2.552067 0 2.4363692
1.0842022e-19 3.2388656 -2
2.4070706 -3.6893488e+19 2.4300437
0 3.2277901 -0
2.5524335 1.0842022e-19 2.409601
-2 3.244421 -1.0842022e-19
2.4116967 -3.6893488e+19 2.4068952
0 3.2455354 0
2.4126246 -3.6893488e+19 2.3797588
-2 3.232475 2
2.5553992 -1.0842022e-19 2.3586009
1.0842022e-19 3.2444901 -1.0842022e-19
2.4117541 -0 2.3509955
3.6893488e+19 3.2303731 -1.0842022e-19
2.5540686 3.6893488e+19 2.3297014
1.0842022e-19 3.2476015 1.0842022e-19
2.414345 -3.6893488e+19 2.3251057
2 3.2310145 2
2.5544746 1.0842022e-19 2.3028057
-1.0842022e-19 3.2367122 3.6893488e+19
2.4052777 -0 2.2905338
3.6893488e+19 3.2250133 -0
2.5506759 -3.6893488e+19 2.2720566
-0 3.2400844 -2
2.4080856 -1.0842022e-19 2.2649329
-0 3.2234185 -0
2.5496664 -0 2.2385788
0 3.2206132 -0
2.6071315 0 2.2114575
1.0842022e-19 3.2270818 1.0842022e-19
2.5077536 3.6893488e+19 2.1868386
-3.6893488e+19 3.2184997 -2
2.6055276 0 2.1560318
-2 3.2247224 0
2.506479 -2 2.1310914
-3.6893488e+19 3.1242304 3.6893488e+19
2.5339901 -0 2.0317373
-2 3.2324867 -0
2.5106738 -3.6893488e+19 2.0829093
2 3.2087393 -3.6893488e+19
2.5981207 -2 2.0431795
-2 3.2275431 0
2.508003 -3.6893488e+19 2.0256624
-3.6893488e+19 3.2144077 3.6893488e+19
2.6024225 -1.0842022e-19 1.9940171
2 3.1143827 3.6893488e+19
2.3937311 2 1.9192903
-0 3.2123525 -2
2.6008627 -0 1.9403989
3.6893488e+19 3.1138587 -0
2.3931649 -1.0842022e-19 1.878064
-1.0842022e-19 3.1226947 3.6893488e+19
2.5328248 2 1.8473009
0 3.1388633 2
2.4201834 1.0842022e-19 1.811175
1.0842022e-19 3.1361802 -3.6893488e+19
2.5430582 -1.0842022e-19 1.7676325
3.6893488e+19 3.1385534 -3.6893488e+19
2.4198484 -1.0842022e-19 1.6970857
1.0842022e-19 3.126245 -2
2.3132932 -1.0842022e-19 1.5865355
-0 3.1473985 -3.6893488e+19
2.5015469 -2 1.306735
-1.0842022e-19 3.1238539 1.0842022e-19
2.3113024 -2 -1.5002351
0 3.1498606 3.6893488e+19
2.5031054 0 -1.6577443
1.0842022e-19 3.1194558 2
2.3076401 2 -1.7275946
-0 3.1491857 -2
2.5026782 0 -1.7939129
1.0842022e-19 3.1171224 -2
2.305697 2 -1.8204392
3.6893488e+19 3.1517627 -1.0842022e-19
2.5043094 -2 -1.880379
-1.0842022e-19 3.1162941 3.6893488e+19
2.3050075 1.0842022e-19 -1.8885881
-3.6893488e+19 3.1545045 1.0842022e-19
2.5060451 -3.6893488e+19 -1.9269775
2 3.0608628 3.6893488e+19
2.2588506 -0 -1.9025046
-3.6893488e+19 3.1505625 3.6893488e+19
2.5035498 1.0842022e-19 -1.9705244
3.6893488e+19 3.0471847 -0
2.2449222 -1.0842022e-19 -1.9291625
1.0842022e-19 3.0416543 1.0842022e-19
2.3692253 1.0842022e-19 -1.9435512
1.0842022e-19 2.8843544 -3.6893488e+19
2.0700457 -3.6893488e+19 -1.8874419
-3.6893488e+19 2.8268647 0
2.1638007 1.0842022e-19 -1.8769494
-3.6893488e+19 2.7821498 -3.6893488e+19
2.1782269 -3.6893488e+19 -1.8613932
3.6893488e+19 2.746115 -2
2.0180366 3.6893488e+19 -1.8450392
-0 2.6908705 -0
2.0845609 -0 -1.8347855
2 2.6567698 -1.0842022e-19
1.969766 -2 -1.8283839
-1.0842022e-19 2.6137204 0
2.0260146 -3.6893488e+19 -1.8188014
3.6893488e+19 2.5947933 -2
1.9362819 2 -1.8168805
3.6893488e+19 2.5654078 0
1.9893517 2 -1.811046
-0 2.5542283 2
1.9143659 0 -1.8115178
3.6893488e+19 2.5368385 -1.0842022e-19
1.9676715 -3.6893488e+19 -1.8105717
-1.0842022e-19 2.5246785 -3.6893488e+19
1.8984009 3.6893488e+19 -1.808955
-3.6893488e+19 2.5063291 -2
1.944519 0 -1.8054825
1.0842022e-19 2.4925196 2
1.8830471 -0 -1.8038859
1.0842022e-19 2.4651384 -2
1.9264884 0 -1.8020626
2 2.4539769 1.0842022e-19
1.8702707 -3.6893488e+19 -1.8027712
0 3.203954 3.6893488e+19
2.5373456 -3.6893488e+19 2.6687548
0 3.2021921 -1.0842022e-19
2.5362303 1.0842022e-19 2.6537237
0 3.2133002 -1.0842022e-19
2.3857827 0 2.6539578
3.6893488e+19 3.215358 -3.6893488e+19
2.3874962 -0 2.6421142
-3.6893488e+19 3.2265506 2
2.5516491 -0 2.6333356
-3.6893488e+19 3.2788987 -2
2.4644694 -0 2.687449
3.6893488e+19 3.2266231 3.6893488e+19
2.5516949 0 2.6194251
1.0842022e-19 3.2474768 -1.0842022e-19
2.4142411 3.6893488e+19 2.6256835
0 3.2018399 -1.0842022e-19
2.5360074 -2 2.5870111
0 3.2414479 -0
2.4092209 3.6893488e+19 2.6068869
-2 3.2033207 -1.0842022e-19
2.5369449 -3.6893488e+19 2.5748992
-3.6893488e+19 3.2123592 -0
2.499599 3.6893488e+19 2.5535066
-2 3.2212825 2
2.6076396 -0 2.5551884
0 3.2394035 -3.6893488e+19
2.5144105 1.0842022e-19 2.5571415
-0 3.2199421 -1.0842022e-19
2.6066222 -1.0842022e-19 2.5406587
0 3.2143431 -0
2.5008712 1.0842022e-19 2.5280457
1.0842022e-19 3.2075753 1.0842022e-19
2.5972376 -2 2.5197384
3.6893488e+19 3.2240419 -3.6893488e+19
2.5061111 3.6893488e+19 2.5202339
-3.6893488e+19 3.2156906 -3.6893488e+19
2.6033959 3.6893488e+19 2.5110404
-1.0842022e-19 3.2163699 -1.0842022e-19
2.6039114 1.0842022e-19 2.4958959
-2 3.1319034 -2
2.412663 2 2.3916609
-2 3.1317403 -1.0842022e-19
2.4124868 0 2.3696856
-0 3.1328626 0
2.3188038 2 2.3585384
-1.0842022e-19 3.1415775 2
2.4957249 2 2.3580644
3.6893488e+19 3.1302288 2
2.3166106 0 2.3344786
-1.0842022e-19 3.1413543 3.6893488e+19
2.4954424 2 2.3355012
3.6893488e+19 3.1306331 -0
2.3169472 -0 2.3132508
1.0842022e-19 3.1248617 -0
2.3121414 3.6893488e+19 2.2872794
-2 3.232475 2
2.5553992 -1.0842022e-19 2.3586009
1.0842022e-19 3.2444901 -1.0842022e-19
2.4117541 -0 2.3509955
3.6893488e+19 3.2303731 -1.0842022e-19
2.5540686 3.6893488e+19 2.3297014
1.0842022e-19 3.2476015 1.0842022e-19
2.414345 -3.6893488e+19 2.3251057
-2 3.1274629 -3.6893488e+19
2.4778562 3.6893488e+19 2.2252369
-2 3.130548 -1.0842022e-19
2.3168764 0 2.2043223
-1.0842022e-19 3.132215 0
2.4838724 -1.0842022e-19 2.1878159
3.6893488e+19 3.1326585 1.0842022e-19
2.3186338 3.6893488e+19 2.1637199
1.0842022e-19 3.131501 -2
2.4829681 3.6893488e+19 2.1437178
3.6893488e+19 3.1353536 0
2.5424311 -1.0842022e-19 2.1278565
-0 3.1252651 -3.6893488e+19
2.4054899 3.6893488e+19 2.0936105
-3.6893488e+19 3.2184997 -2
2.6055276 0 2.1560318
-1.0842022e-19 3.1207647 -2
2.4006271 2 2.0476377
-3.6893488e+19 3.1242304 3.6893488e+19
2.5339901 -0 2.0317373
2 3.1141083 -1.0842022e-19
2.3934345 -2 2.0012298
1.0842022e-19 3.1260908 2
2.5354018 2 1.9903591
-2 3.1157243 2
2.3951809 3.6893488e+19 1.961115
0 3.123791 1.0842022e-19
2.5336566 -1.0842022e-19 1.9464036
2 3.1143827 3.6893488e+19
2.3937311 2 1.9192903
-2 3.1215332 3.6893488e+19
2.5319433 1.0842022e-19 1.9029992
3.6893488e+19 3.1138587 -0
2.3931649 -1.0842022e-19 1.878064
-1.0842022e-19 3.1226947 3.6893488e+19
2.5328248 2 1.8473009
-0 3.1135645 2
2.3928471 -1.0842022e-19 1.7990627
1.0842022e-19 3.1361802 -3.6893488e+19
2.5430582 -1.0842022e-19 1.7676325
0 3.1122618 -0
2.3914392 -2 1.6837498
1.0842022e-19 3.126245 -2
2.3132932 -1.0842022e-19 1.5865355
-0 3.1473985 -3.6893488e+19
2.5015469 -2 1.306735
-1.0842022e-19 3.1238539 1.0842022e-19
2.3113024 -2 -1.5002351
0 3.1498606 3.6893488e+19
2.5031054 0 -1.6577443
1.0842022e-19 3.1194558 2
2.3076401 2 -1.7275946
-2 3.1292479 1.0842022e-19
2.4801161 3.6893488e+19 -1.7854763
1.0842022e-19 3.1171224 -2
2.305697 2 -1.8204392
3.6893488e+19 3.1517627 -1.0842022e-19
2.5043094 -2 -1.880379
-1.0842022e-19 3.1162941 3.6893488e+19
2.3050075 1.0842022e-19 -1.8885881
-3.6893488e+19 3.1545045 1.0842022e-19
2.5060451 -3.6893488e+19 -1.9269775
2 3.0608628 3.6893488e+19
2.2588506 -0 -1.9025046
2 3.0532677 -1.0842022e-19
2.3839273 1.0842022e-19 -1.91696
3.6893488e+19 3.0471847 -0
2.2449222 -1.0842022e-19 -1.9291625
1.0842022e-19 3.0416543 1.0842022e-19
2.3692253 1.0842022e-19 -1.9435512
1.0842022e-19 2.8843544 -3.6893488e+19
2.0700457 -3.6893488e+19 -1.8874419
-3.6893488e+19 2.8268647 0
2.1638007 1.0842022e-19 -1.8769494
-3.6893488e+19 2.7821498 -3.6893488e+19
2.1782269 -3.6893488e+19 -1.8613932
3.6893488e+19 2.746115 -2
2.0180366 3.6893488e+19 -1.8450392
-0 2.6908705 -0
2.0845609 -0 -1.8347855
2 2.6567698 -1.0842022e-19
1.969766 -2 -1.8283839
-1.0842022e-19 2.6137204 0
2.0260146 -3.6893488e+19 -1.8188014
3.6893488e+19 2.5947933 -2
1.9362819 2 -1.8168805
3.6893488e+19 2.5654078 0
1.9893517 2 -1.811046
-0 2.5542283 2
1.9143659 0 -1.8115178
3.6893488e+19 2.5368385 -1.0842022e-19
1.9676715 -3.6893488e+19 -1.8105717
-1.0842022e-19 2.5246785 -3.6893488e+19
1.8984009 3.6893488e+19 -1.808955
-3.6893488e+19 2.5063291 -2
1.944519 0 -1.8054825
1.0842022e-19 2.4925196 2
1.8830471 -0 -1.8038859
1.0842022e-19 2.4651384 -2
1.9264884 0 -1.8020626
2 2.4539769 1.0842022e-19
1.8702707 -3.6893488e+19 -1.8027712
2 3.2029963 -2
2.5318813 1.0842022e-19 2.6677001
3.6893488e+19 3.2022872 2
2.5314403 -0 2.6536429
-2 3.275769 0
2.4475901 1.0842022e-19 2.6984904
2 3.2255652 -0
2.5459251 -3.6893488e+19 2.6323857
3.6893488e+19 3.2764106 -3.6893488e+19
2.448631 -2 2.6834295
-1.0842022e-19 3.2684493 1.0842022e-19
2.5840907 2 2.6659732
1.0842022e-19 3.2473357 -2
2.4036028 -1.0842022e-19 2.6254759
-0 3.2024505 -0
2.5315418 2 2.5873282
-1.0842022e-19 3.2035069 -3.6893488e+19
2.5321991 -3.6893488e+19 2.5748992
-0 3.2050829 3.6893488e+19
2.4820399 -3.6893488e+19 2.5617809
3.6893488e+19 3.2391851 0
2.5090811 -1.0842022e-19 2.5710034
-1.0842022e-19 3.2216969 0
2.6028419 -0 2.5553062
-0 3.2379522 3.6893488e+19
2.5084281 -3.6893488e+19 2.5561235
-2 3.220933 3.6893488e+19
2.6022704 2 2.5411282
3.6893488e+19 3.2346082 -3.6893488e+19
2.5066569 -2 2.5400786
-2 3.239392 -3.6893488e+19
2.5091906 -0 2.5288868
0 3.2190547 -3.6893488e+19
2.6008651 -2 2.5127964
2 3.2165389 -3.6893488e+19
2.5989833 -0 2.495831
3.6893488e+19 3.2401564 1.0842022e-19
2.3977768 3.6893488e+19 2.4588921
-0 3.2240319 -3.6893488e+19
2.544971 1.0842022e-19 2.433284
1.0842022e-19 3.2402952 1.0842022e-19
2.3978894 -3.6893488e+19 2.4311852
-1.0842022e-19 3.2289073 -1.0842022e-19
2.5480049 1.0842022e-19 2.4103904
-2 3.2339814 -0
2.5511622 -1.0842022e-19 2.3871338
-3.6893488e+19 3.2439971 -0
2.4008937 0 2.3784785
1.0842022e-19 3.2335651 -2
2.5509031 -0 2.3592634
-2 3.2440655 2
2.4009492 3.6893488e+19 2.3506
-0 3.2470315 3.6893488e+19
2.5592828 0 2.3409948
1.0842022e-19 3.2480142 3.6893488e+19
2.4041536 0 2.3252881
-0 3.2304115 3.6893488e+19
2.5489409 -0 2.3023019
-2 3.2383003 -1.0842022e-19
2.3962705 0 2.2914035
1.0842022e-19 3.2253008 3.6893488e+19
2.5457606 -2 2.2721095
2 3.2401853 2
2.3978002 2 2.2649162
-1.0842022e-19 3.2241983 2
2.5450747 -3.6893488e+19 2.2391827
0 3.2213972 2
2.6026175 -2 2.2119982
-1.0842022e-19 3.2256403 0
2.5019076 -1.0842022e-19 2.1853664
-3.6893488e+19 3.2178104 -0
2.5999346 -0 2.1552346
-2 3.227797 0
2.5030499 3.6893488e+19 2.1334255
0 3.2183104 -0
2.6003084 -1.0842022e-19 2.102391
1.0842022e-19 3.2338629 1.0842022e-19
2.5062623 0 2.0837421
-1.0842022e-19 3.2113287 -0
2.5950861 -3.6893488e+19 2.0446892
-0 3.2299705 -3.6893488e+19
2.5042007 0 2.0269668
-1.0842022e-19 3.2108297 -3.6893488e+19
2.5947127 0 1.9920179
-0 3.1133645 -2
2.3848884 3.6893488e+19 1.9187582
2 3.1265376 1.0842022e-19
2.5316601 3.6893488e+19 1.9049835
-2 3.1166186 -0
2.3883355 -2 1.8789903
1.0842022e-19 3.1230628 2
2.5290608 -2 1.8474107
-1.0842022e-19 3.1403933 2
2.4135184 -0 1.8118421
-1.0842022e-19 3.1266029 3.6893488e+19
2.531709 2 1.7640268
2 3.1417253 -2
2.4149292 -1.0842022e-19 1.6986251
-0 3.1292064 1.0842022e-19
2.3077376 1.0842022e-19 1.5881432
3.6893488e+19 3.1421888 0
2.4880869 -1.0842022e-19 1.304279
-3.6893488e+19 3.1153424 -3.6893488e+19
2.2964864 -3.6893488e+19 -1.494702
-1.0842022e-19 3.1306024 3.6893488e+19
2.4736674 3.6893488e+19 -1.6500853
-0 3.1169436 -2
2.2977858 -2 -1.7259862
2 3.1516962 -0
2.4999189 -3.6893488e+19 -1.7949053
0 3.116071 2
2.2970777 2 -1.8198271
-1.0842022e-19 3.1170454 -0
2.2978685 2 -1.888835
-1.0842022e-19 3.1522939 -0
2.5003314 2 -1.9259381
1.0842022e-19 3.0604181 -2
2.2519135 0 -1.9022455
2 3.1476719 3.6893488e+19
2.4949107 1.0842022e-19 -1.9688431
3.6893488e+19 3.0467365 -1.0842022e-19
2.2316213 2 -1.9288442
1.0842022e-19 3.0417433 -1.0842022e-19
2.3630803 3.6893488e+19 -1.9435307
2 2.8883712 1.0842022e-19
2.0651751 2 -1.888841
-1.0842022e-19 2.8277392 3.6893488e+19
2.1578782 -3.6893488e+19 -1.8772367
3.6893488e+19 2.7833934 0
2.1739717 -3.6893488e+19 -1.862318
2 2.7440615 2
2.0116637 0 -1.8440518
1.0842022e-19 2.6934185 -2
2.0816886 -2 -1.8358939
-1.0842022e-19 2.6557989 -3.6893488e+19
1.9649183 -1.0842022e-19 -1.8278276
1.0842022e-19 2.6126738 0
2.0212896 3.6893488e+19 -1.8181485
3.6893488e+19 2.5946667 2
1.9325416 3.6893488e+19 -1.8167429
-1.0842022e-19 2.5654407 -2
1.985958 2 -1.8109738
0 2.5547056 3.6893488e+19
1.9113774 -2 -1.8117449
-3.6893488e+19 2.5372248 3.6893488e+19
1.9648519 -1.0842022e-19 -1.8107301
1.0842022e-19 2.5242808 -0
1.8952639 2 -1.8086243
-3.6893488e+19 2.5067003 1.0842022e-19
1.9420187 3.6893488e+19 -1.8056548
