# .PCD v0.7 - Point Cloud Data file format
VERSION 0.7
FIELDS x y z
SIZE 4 4 4
TYPE F F F
COUNT 1 1 1
WIDTH 1708
HEIGHT 1
VIEWPOINT 0 0 0 1 0 0 0
POINTS 1708
DATA ascii
1.8364904 3.6893488e+19 -1.8367218
-3.6893488e+19 2.4691641 2
1.9005911 -3.6893488e+19 -1.8328242
-2 2.4550307 -2
1.8184733 3.6893488e+19 -1.8315986
1.0842022e-19 3.176578 2
2.3627512 3.6893488e+19 2.6503072
-1.0842022e-19 3.1736021 -3.6893488e+19
2.5219333 -0 2.6440446
-2 3.1881428 0
2.3725858 0 2.6482272
3.6893488e+19 3.1747518 3.6893488e+19
2.5226715 3.6893488e+19 2.6325073
2 3.1804676 -0
2.5263407 2 2.6249154
0 3.1653707 -1.0842022e-19
2.3532207 1.0842022e-19 2.6031203
-3.6893488e+19 3.2024307 -1.0842022e-19
2.5404401 -2 2.6306949
-1.0842022e-19 3.1643283 2
2.3523345 3.6893488e+19 2.5901134
-3.6893488e+19 3.217572 3.6893488e+19
2.5501602 0 2.6159644
1.0842022e-19 3.2926266 1.0842022e-19
2.6257062 1.0842022e-19 2.6909516
-3.6893488e+19 3.1807408 3.6893488e+19
2.3662913 -2 2.5659974
0 3.2043891 1.0842022e-19
2.5416973 0 2.579093
-2 3.246696 -0
2.6314285 -3.6893488e+19 2.6044035
-2 3.1881695 2
2.4812698 0 2.5408838
-1.0842022e-19 3.1723599 -1.0842022e-19
2.4639051 2 2.5181942
-0 3.1222651 -3.6893488e+19
2.4088826 -3.6893488e+19 2.4513161
-3.6893488e+19 3.1219714 1.0842022e-19
2.4085603 -0 2.4295692
-2 3.2432027 -1.0842022e-19
2.520858 -1.0842022e-19 2.5206358
2 3.1861005 -2
2.5848951 -1.0842022e-19 2.470211
1.0842022e-19 3.1241202 -2
2.4109201 2 2.3891521
3.6893488e+19 3.1990967 1.0842022e-19
2.4932718 -3.6893488e+19 2.4414661
-1.0842022e-19 3.127203 1.0842022e-19
2.3207641 0 2.3586891
-1.0842022e-19 3.1952968 3.6893488e+19
2.3786693 0 2.3981361
0 3.195384 -1.0842022e-19
2.5359163 -1.0842022e-19 2.3883228
-1.0842022e-19 3.1263044 1.0842022e-19
2.3199999 -0 2.3150997
1.0842022e-19 3.1946635 -1.0842022e-19
2.5354538 1.0842022e-19 2.3623044
0 3.1930981 -1.0842022e-19
2.3767993 -0 2.3459303
-3.6893488e+19 3.1137683 0
2.467046 -3.6893488e+19 2.2756543
-0 3.150831 -2
2.3408566 -1.0842022e-19 2.2902534
-2 3.1186078 -1.0842022e-19
2.4732592 -3.6893488e+19 2.2583308
0 3.183342 2
2.3685031 -3.6893488e+19 2.2893128
0 3.1822808 2
2.3676007 -0 2.2642052
1.0842022e-19 3.2339284 -1.0842022e-19
2.5606601 -2 2.2841377
0 3.1362143 3.6893488e+19
2.3284268 3.6893488e+19 2.1785564
-0 3.2273567 -3.6893488e+19
2.5564413 -0 2.253186
-3.6893488e+19 3.113955 2
2.5294926 -2 2.1174111
1.0842022e-19 3.1179144 3.6893488e+19
2.404104 0 2.0973852
2 3.1120198 -0
2.5280063 0 2.0742047
-1.0842022e-19 3.1050072 -1.0842022e-19
2.5226212 2 2.027494
1.0842022e-19 3.1172507 -1.0842022e-19
2.4033749 3.6893488e+19 2.013845
3.6893488e+19 3.1059146 1.0842022e-19
2.5233181 -2 1.9876963
-0 3.1034312 3.6893488e+19
2.5214109 2 1.9458444
-3.6893488e+19 3.0973592 -2
2.3815269 0 1.9212291
3.6893488e+19 3.1024327 2
2.5206442 3.6893488e+19 1.9052224
3.6893488e+19 3.0989723 -2
2.3832986 -2 1.8827028
0 3.1035032 0
2.5214663 1.0842022e-19 1.856053
-3.6893488e+19 3.0984948 3.6893488e+19
2.3827744 0 1.8115487
0 3.1052625 -0
2.5228171 3.6893488e+19 1.7764751
-3.6893488e+19 3.0967619 3.6893488e+19
2.3808711 1.0842022e-19 1.7150404
-3.6893488e+19 3.0908544 -2
2.289854 -2 1.6341304
-2 3.1059129 -0
2.4569602 -0 1.492469
-0 3.0910783 -3.6893488e+19
2.2900443 -1.0842022e-19 -1.2756197
-0 3.1027637 1.0842022e-19
2.4529169 -1.0842022e-19 -1.5736074
-2 3.0897317 2
2.2888994 3.6893488e+19 -1.6711669
-1.0842022e-19 3.0900946 -2
2.4366508 -1.0842022e-19 -1.7494372
-0 3.0882757 -2
2.2876611 -3.6893488e+19 -1.7861199
2 3.0909851 -1.0842022e-19
2.437794 -0 -1.8270934
-0 3.0849705 0
2.2848506 -0 -1.8597083
-2 3.0893292 -0
2.4356682 -2 -1.8889103
-0 3.073698 3.6893488e+19
2.2752647 -3.6893488e+19 -1.8997396
2 3.0921602 1.0842022e-19
2.4393029 -0 -1.9287496
1.0842022e-19 3.0703025 0
2.2723773 3.6893488e+19 -1.9341369
2 3.0853846 -1.0842022e-19
2.4306035 -1.0842022e-19 -1.9631487
-2 3.0679173 3.6893488e+19
2.270349 2 -1.9684768
2 3.0396986 -1.0842022e-19
2.3719468 2 -1.9668961
2 3.0335283 -2
2.4354606 0 -1.9795645
-1.0842022e-19 2.7771297 0
2.0543895 3.6893488e+19 -1.8630667
2 2.7775147 3.6893488e+19
2.0548122 1.0842022e-19 -1.8848723
1.0842022e-19 2.7949429 -0
2.2029917 -2 -1.9030093
-2 2.7654061 2
2.0415127 -1.0842022e-19 -1.8939869
-3.6893488e+19 2.7120137 2
2.104795 -2 -1.8830171
-0 2.6774294 -3.6893488e+19
1.9847366 1.0842022e-19 -1.8780353
-1.0842022e-19 2.6396875 -3.6893488e+19
2.0492532 -3.6893488e+19 -1.871641
-3.6893488e+19 2.6211598 2
1.9538344 0 -1.8683773
1.0842022e-19 2.5893159 -1.0842022e-19
2.0105712 1.0842022e-19 -1.8591539
0 2.5493777 0
1.9799016 3.6893488e+19 -1.8487283
1.0842022e-19 2.5169277 3.6893488e+19
1.9549822 -1.0842022e-19 -1.8397752
-0 2.4974051 -0
1.8364904 3.6893488e+19 -1.8367218
-3.6893488e+19 2.4691641 2
1.9005911 -3.6893488e+19 -1.8328242
-2 2.4550307 -2
1.8184733 3.6893488e+19 -1.8315986
1.0842022e-19 3.1711559 3.6893488e+19
2.3492086 -3.6893488e+19 2.6451101
-0 3.1765769 -1.0842022e-19
2.5192556 -0 2.6466463
2 3.1687076 -2
2.3471785 -2 2.6304576
3.6893488e+19 3.1744771 -0
2.5179303 0 2.6321006
-1.0842022e-19 3.1793797 1.0842022e-19
2.5210249 0 2.623812
-3.6893488e+19 3.2069056 -0
2.3788512 3.6893488e+19 2.6383238
1.0842022e-19 3.2023478 -0
2.5355222 2 2.6304662
-2 3.2134762 3.6893488e+19
2.3842993 1.0842022e-19 2.6303532
-3.6893488e+19 3.1963329 0
2.5317259 1.0842022e-19 2.6122842
2 3.217737 -2
2.5452359 -0 2.6159406
1.0842022e-19 3.2129176 1.0842022e-19
2.383836 2 2.6029341
-3.6893488e+19 3.204881 -0
2.5371213 -1.0842022e-19 2.5925813
3.6893488e+19 3.2060676 -1.0842022e-19
2.5378702 1.0842022e-19 2.5801709
1.0842022e-19 3.2164142 2
2.501164 3.6893488e+19 2.5730186
-3.6893488e+19 3.193337 -3.6893488e+19
2.5856335 2 2.5532193
-1.0842022e-19 3.1886008 -0
2.472373 -0 2.5410662
3.6893488e+19 3.1733673 2
2.4559665 0 2.518738
3.6893488e+19 3.2066844 3.6893488e+19
2.4918489 -1.0842022e-19 2.5267322
1.0842022e-19 3.2087762 -2
2.4941018 0 2.5148132
-3.6893488e+19 3.1261792 -3.6893488e+19
2.4051449 0 2.4126959
3.6893488e+19 3.1881144 0
2.5816798 3.6893488e+19 2.4721465
-3.6893488e+19 3.1268337 2
2.4058499 2 2.391835
3.6893488e+19 3.1613317 -0
2.5614035 3.6893488e+19 2.4195468
2 3.200917 -1.0842022e-19
2.4856374 3.6893488e+19 2.4430976
2 3.202472 -2
2.3751748 -1.0842022e-19 2.430145
-0 3.1239238 -1.0842022e-19
2.4720421 -3.6893488e+19 2.3472519
2 3.1961837 -0
2.5316315 -0 2.3888578
1.0842022e-19 3.1280158 3.6893488e+19
2.3134382 2 2.3164456
0 3.2385232 1.0842022e-19
2.5583563 -2 2.3978744
-3.6893488e+19 3.1927867 0
2.3671443 -1.0842022e-19 2.3455923
-1.0842022e-19 3.2078738 -3.6893488e+19
2.5390103 -0 2.3468204
-2 3.1898868 -2
2.3647397 3.6893488e+19 2.3184474
2 3.1604323 -1.0842022e-19
2.5090652 1.0842022e-19 2.2875228
-2 3.1837089 3.6893488e+19
2.3596172 -1.0842022e-19 2.2894783
-0 3.1450996 -1.0842022e-19
2.4987745 3.6893488e+19 2.2543232
0 3.1806641 -0
2.3570924 2 2.2631447
-3.6893488e+19 3.2268782 0
2.5510061 -1.0842022e-19 2.2528267
-1.0842022e-19 3.1126354 0
2.5245376 -1.0842022e-19 2.115896
-1.0842022e-19 3.1211991 3.6893488e+19
2.3997815 -1.0842022e-19 2.1003616
2 3.1132739 1.0842022e-19
2.5250208 -1.0842022e-19 2.075165
-2 3.1203825 -2
2.3989019 -2 2.0577765
-1.0842022e-19 3.264648 -2
2.6507099 -1.0842022e-19 2.1635213
3.6893488e+19 3.2166371 -3.6893488e+19
2.5012839 1.0842022e-19 2.0851281
2 3.2633343 2
2.6487207 2 2.101558
0 3.2144804 3.6893488e+19
2.5001225 1.0842022e-19 2.0312116
2 3.2150857 -3.6893488e+19
2.5004485 -3.6893488e+19 1.97918
0 3.2663291 -3.6893488e+19
2.653255 3.6893488e+19 1.984482
-3.6893488e+19 3.0980439 3.6893488e+19
2.3748434 -2 1.8823026
-1.0842022e-19 3.2608469 1.0842022e-19
2.6449547 3.6893488e+19 1.9204068
-0 3.2171893 1.0842022e-19
2.5015814 -1.0842022e-19 1.8749964
-2 3.2367842 -3.6893488e+19
2.6185257 -3.6893488e+19 1.832449
2 3.2149093 2
2.5003536 -1.0842022e-19 1.7691026
-2 3.1805913 2
2.3570323 -3.6893488e+19 1.6693963
-3.6893488e+19 3.1029747 -1.0842022e-19
2.445596 3.6893488e+19 1.4903669
3.6893488e+19 3.1824644 -3.6893488e+19
2.3585851 2 -1.3159232
2 3.239902 -1.0842022e-19
2.5592265 -1.0842022e-19 -1.6378509
0 3.0952027 -1.0842022e-19
2.2862306 -2 -1.6738753
0 3.2254918 0
2.5501308 -0 -1.7992983
1.0842022e-19 3.0875919 1.0842022e-19
2.2799201 3.6893488e+19 -1.78575
-0 3.2264919 2
2.5507622 2 -1.8911436
2 3.0889783 -3.6893488e+19
2.2810695 1.0842022e-19 -1.8624512
-1.0842022e-19 3.0899646 -0
2.429172 -1.0842022e-19 -1.8891124
1.0842022e-19 3.0942628 1.0842022e-19
2.2854514 2 -1.9092089
-0 3.0907912 1.0842022e-19
2.4302156 3.6893488e+19 -1.9279602
-0 3.0992177 2
2.2895598 2 -1.9507046
-0 3.0845375 3.6893488e+19
2.4223208 -3.6893488e+19 -1.9625217
0 3.1010478 -0
2.2910771 0 -1.9911779
-1.0842022e-19 3.0814469 -3.6893488e+19
2.4184191 0 -1.9980494
1.0842022e-19 3.0327501 2
2.4281187 -0 -1.97882
1.0842022e-19 2.7776616 -3.6893488e+19
2.0490413 3.6893488e+19 -1.8634385
0 2.7775519 3.6893488e+19
2.0489233 2 -1.8848423
-2 2.793987 -0
2.195133 -1.0842022e-19 -1.9024373
-3.6893488e+19 2.7658715 -3.6893488e+19
2.0363436 -0 -1.894188
0 2.7118773 3.6893488e+19
2.0996697 -0 -1.8829113
-1.0842022e-19 2.6371884 -0
2.0431256 1.0842022e-19 -1.8699369
1.0842022e-19 2.5972145 -2
1.9369749 0 -1.8525946
1.0842022e-19 2.5872827 -3.6893488e+19
2.0053437 -0 -1.8576344
-2 2.5496495 -3.6893488e+19
1.9768533 -1.0842022e-19 -1.8488196
0 2.5155945 -3.6893488e+19
1.9510714 -3.6893488e+19 -1.8385956
-2 2.4975419 -0
1.8312727 3.6893488e+19 -1.8367218
-2 2.4696054 -2
1.8982077 -2 -1.8329329
1.0842022e-19 2.4551561 3.6893488e+19
1.8137002 3.6893488e+19 -1.8315986
0 2.3816233 3.6893488e+19
1.7832147 1.0842022e-19 -1.8199264
2 2.3289568 3.6893488e+19
1.7613801 -0 -1.8118011
2 2.2926483 -3.6893488e+19
1.7426543 -2 -1.8079523
3.6893488e+19 2.2598526 -3.6893488e+19
1.8217245 0 -1.804592
0 2.2220421 -3.6893488e+19
1.8036824 -0 -1.8019371
-3.6893488e+19 2.1783798 -1.0842022e-19
1.787155 -1.0842022e-19 -1.7981737
-2 2.1464009 -0
1.77505 1.0842022e-19 -1.7969728
1.0842022e-19 3.1711559 3.6893488e+19
2.3492086 -3.6893488e+19 2.6451101
-0 3.1765769 -1.0842022e-19
2.5192556 -0 2.6466463
2 3.1687076 -2
2.3471785 -2 2.6304576
3.6893488e+19 3.1744771 -0
2.5179303 0 2.6321006
-1.0842022e-19 3.1793797 1.0842022e-19
2.5210249 0 2.623812
-3.6893488e+19 3.2069056 -0
2.3788512 3.6893488e+19 2.6383238
1.0842022e-19 3.2023478 -0
2.5355222 2 2.6304662
-2 3.2134762 3.6893488e+19
2.3842993 1.0842022e-19 2.6303532
-3.6893488e+19 3.1963329 0
2.5317259 1.0842022e-19 2.6122842
1.0842022e-19 3.1978855 0
2.5327058 -0 2.6004095
-1.0842022e-19 3.1223984 -3.6893488e+19
2.3087804 2 2.5339212
-3.6893488e+19 3.204881 -0
2.5371213 -1.0842022e-19 2.5925813
3.6893488e+19 3.2060676 -1.0842022e-19
2.5378702 1.0842022e-19 2.5801709
1.0842022e-19 3.2164142 2
2.501164 3.6893488e+19 2.5730186
-3.6893488e+19 3.193337 -3.6893488e+19
2.5856335 2 2.5532193
-1.0842022e-19 3.1886008 -0
2.472373 -0 2.5410662
3.6893488e+19 3.1733673 2
2.4559665 0 2.518738
3.6893488e+19 3.1219385 -3.6893488e+19
2.4005775 -1.0842022e-19 2.4507594
3.6893488e+19 3.1208165 -0
2.3993692 3.6893488e+19 2.4280827
-3.6893488e+19 3.1261792 -3.6893488e+19
2.4051449 0 2.4126959
3.6893488e+19 3.1881144 0
2.5816798 3.6893488e+19 2.4721465
-3.6893488e+19 3.1268337 2
2.4058499 2 2.391835
3.6893488e+19 3.1613317 -0
2.5614035 3.6893488e+19 2.4195468
0 3.1263945 -0
2.4053767 2 2.3698673
1.0842022e-19 3.1278934 1.0842022e-19
2.3133368 -1.0842022e-19 2.3592465
-0 3.1239238 -1.0842022e-19
2.4720421 -3.6893488e+19 2.3472519
-1.0842022e-19 3.1242442 -0
2.4724467 -3.6893488e+19 2.3261611
1.0842022e-19 3.1280158 3.6893488e+19
2.3134382 2 2.3164456
0 3.1961391 2
2.5316033 -1.0842022e-19 2.3633549
-3.6893488e+19 3.1927867 0
2.3671443 -1.0842022e-19 2.3455923
-1.0842022e-19 3.1129367 -0
2.4581721 3.6893488e+19 2.2749095
-2 3.1489909 -2
2.3308301 -1.0842022e-19 2.2888415
-1.0842022e-19 3.11747 -2
2.4638948 -2 2.257426
-2 3.1837089 3.6893488e+19
2.3596172 -1.0842022e-19 2.2894783
-0 3.1450996 -1.0842022e-19
2.4987745 3.6893488e+19 2.2543232
0 3.1806641 -0
2.3570924 2 2.2631447
-3.6893488e+19 3.2268782 0
2.5510061 -1.0842022e-19 2.2528267
-1.0842022e-19 3.1126354 0
2.5245376 -1.0842022e-19 2.115896
-1.0842022e-19 3.1211991 3.6893488e+19
2.3997815 -1.0842022e-19 2.1003616
2 3.1132739 1.0842022e-19
2.5250208 -1.0842022e-19 2.075165
-2 3.1203825 -2
2.3989019 -2 2.0577765
-0 3.1109812 -0
2.5232852 -3.6893488e+19 2.0320225
2 3.1195784 3.6893488e+19
2.3980358 -0 2.0154226
0 3.1065528 3.6893488e+19
2.5199325 -1.0842022e-19 1.9880035
0 3.2144804 3.6893488e+19
2.5001225 1.0842022e-19 2.0312116
-0 3.0957186 0
2.372339 1.0842022e-19 1.9203596
0 3.2663291 -3.6893488e+19
2.653255 3.6893488e+19 1.984482
-3.6893488e+19 3.0980439 3.6893488e+19
2.3748434 -2 1.8823026
-2 3.1026974 -0
2.5170138 -0 1.8554112
3.6893488e+19 3.0993314 -1.0842022e-19
2.3762298 0 1.8119298
3.6893488e+19 3.1044269 0
2.5183232 3.6893488e+19 1.7760433
-1.0842022e-19 3.0997348 2
2.3766644 -0 1.7168067
0 3.093435 2
2.284765 -3.6893488e+19 1.6351086
-3.6893488e+19 3.1029747 -1.0842022e-19
2.445596 3.6893488e+19 1.4903669
-3.6893488e+19 3.0917315 -1.0842022e-19
2.2833526 -1.0842022e-19 -1.2758667
2 3.239902 -1.0842022e-19
2.5592265 -1.0842022e-19 -1.6378509
0 3.0952027 -1.0842022e-19
2.2862306 -2 -1.6738753
1.0842022e-19 3.0901749 2
2.4294374 0 -1.749392
1.0842022e-19 3.0875919 1.0842022e-19
2.2799201 3.6893488e+19 -1.78575
-0 3.2264919 2
2.5507622 2 -1.8911436
2 3.0889783 -3.6893488e+19
2.2810695 1.0842022e-19 -1.8624512
-1.0842022e-19 3.0899646 -0
2.429172 -1.0842022e-19 -1.8891124
1.0842022e-19 3.0942628 1.0842022e-19
2.2854514 2 -1.9092089
-0 3.0907912 1.0842022e-19
2.4302156 3.6893488e+19 -1.9279602
1.0842022e-19 3.0663524 -2
2.2623088 2 -1.931816
-0 3.0845375 3.6893488e+19
2.4223208 -3.6893488e+19 -1.9625217
1.0842022e-19 3.066328 1.0842022e-19
2.2622888 -1.0842022e-19 -1.9673246
-2 3.0401278 -1.0842022e-19
2.3662579 1.0842022e-19 -1.9671268
1.0842022e-19 3.0327501 2
2.4281187 -0 -1.97882
1.0842022e-19 2.7776616 -3.6893488e+19
2.0490413 3.6893488e+19 -1.8634385
0 2.7775519 3.6893488e+19
2.0489233 2 -1.8848423
-2 2.793987 -0
2.195133 -1.0842022e-19 -1.9024373
-3.6893488e+19 2.7658715 -3.6893488e+19
2.0363436 -0 -1.894188
0 2.7118773 3.6893488e+19
2.0996697 -0 -1.8829113
-1.0842022e-19 2.6371884 -0
2.0431256 1.0842022e-19 -1.8699369
1.0842022e-19 2.5972145 -2
1.9369749 0 -1.8525946
1.0842022e-19 2.5872827 -3.6893488e+19
2.0053437 -0 -1.8576344
-2 2.5496495 -3.6893488e+19
1.9768533 -1.0842022e-19 -1.8488196
0 2.5155945 -3.6893488e+19
1.9510714 -3.6893488e+19 -1.8385956
-2 2.4975419 -0
1.8312727 3.6893488e+19 -1.8367218
-2 2.4696054 -2
1.8982077 -2 -1.8329329
1.0842022e-19 2.4551561 3.6893488e+19
1.8137002 3.6893488e+19 -1.8315986
0 2.3816233 3.6893488e+19
1.7832147 1.0842022e-19 -1.8199264
2 2.3289568 3.6893488e+19
1.7613801 -0 -1.8118011
2 2.2926483 -3.6893488e+19
1.7426543 -2 -1.8079523
3.6893488e+19 2.2598526 -3.6893488e+19
1.8217245 0 -1.804592
0 2.2220421 -3.6893488e+19
1.8036824 -0 -1.8019371
-3.6893488e+19 2.1783798 -1.0842022e-19
1.787155 -1.0842022e-19 -1.7981737
-2 2.1464009 -0
1.77505 1.0842022e-19 -1.7969728
1.0842022e-19 3.1783488 -3.6893488e+19
2.5157282 1.0842022e-19 2.648129
-3.6893488e+19 3.1691241 -0
2.338557 2 2.6307333
3.6893488e+19 3.2078164 -0
2.5340087 2 2.6484034
-0 3.207577 2
2.3696182 -1.0842022e-19 2.6387889
1.0842022e-19 3.1979997 -3.6893488e+19
2.5279188 1.0842022e-19 2.6266532
1.0842022e-19 3.1964877 -1.0842022e-19
2.5269809 1.0842022e-19 2.6122596
-3.6893488e+19 3.1980102 -0
2.5279255 -1.0842022e-19 2.6003621
2 3.2095299 -0
2.3711956 -0 2.6002564
1.0842022e-19 3.1992707 0
2.5287075 -3.6893488e+19 2.5882158
-1.0842022e-19 3.2528811 0
2.408541 -3.6893488e+19 2.6208315
-1.0842022e-19 3.2062564 -1.0842022e-19
2.533041 1.0842022e-19 2.5801709
3.6893488e+19 3.195133 3.6893488e+19
2.5821145 2 2.5542963
-1.0842022e-19 3.1888778 3.6893488e+19
2.4632139 -2 2.5411472
-1.0842022e-19 3.1741593 1.0842022e-19
2.4476793 -0 2.5191457
-0 3.2060795 0
2.4813695 -1.0842022e-19 2.5262682
2 3.2087541 -1.0842022e-19
2.4841921 -2 2.5147069
3.6893488e+19 3.1256673 -3.6893488e+19
2.3964982 -0 2.4119887
0 3.1880279 -0
2.5768132 -0 2.4718184
-3.6893488e+19 3.1266286 -3.6893488e+19
2.3975129 -1.0842022e-19 2.3914835
2 3.2021832 -0
2.477257 0 2.4441853
1.0842022e-19 3.2481689 2
2.4024072 0 2.473459
-1.0842022e-19 3.1224833 -3.6893488e+19
2.4621439 3.6893488e+19 2.3457711
1.0842022e-19 3.2509832 -1.0842022e-19
2.4054747 -3.6893488e+19 2.4485588
1.0842022e-19 3.1954167 -3.6893488e+19
2.5263164 -1.0842022e-19 2.3880286
3.6893488e+19 3.1278088 0
2.3051836 -2 2.3161867
-3.6893488e+19 3.2366974 1.0842022e-19
2.5519254 2 2.3962235
-0 3.1918855 -1.0842022e-19
2.3569429 3.6893488e+19 2.3447955
2 3.2086785 -1.0842022e-19
2.5345435 3.6893488e+19 2.347286
3.6893488e+19 3.190037 -3.6893488e+19
2.3554497 3.6893488e+19 2.3184698
-0 3.1705089 0
2.510865 2 2.2944598
2 3.1830828 -1.0842022e-19
2.3498323 3.6893488e+19 2.2889822
-2 3.1492035 1.0842022e-19
2.4952962 2 2.2568586
-0 3.1783624 -2
2.3460193 -1.0842022e-19 2.2616675
-1.0842022e-19 3.1523719 -2
2.499227 -3.6893488e+19 2.2221115
-2 3.117837 0
2.4563794 -3.6893488e+19 2.1398711
-1.0842022e-19 3.1156366 3.6893488e+19
2.5228021 -1.0842022e-19 2.1187408
2 3.1220725 -1.0842022e-19
2.392704 2 2.1010621
0 3.1136386 -0
2.5213113 2 2.0753298
-2 3.1194303 -1.0842022e-19
2.3899155 -2 2.0568769
0 3.2649639 -3.6893488e+19
2.6453798 -1.0842022e-19 2.1638088
-2 3.215966 -0
2.4918041 -2 2.084528
-0 3.2631736 -1.0842022e-19
2.6427085 1.0842022e-19 2.1011689
-2 3.2158206 -2
2.4916506 -0 2.0319235
1.0842022e-19 3.1109068 -2
2.519273 0 1.9497875
0 3.2153738 0
2.491179 -2 1.979241
-3.6893488e+19 3.2658932 -2
2.6467669 -3.6893488e+19 1.9839821
0 3.2148111 1.0842022e-19
2.4905851 0 1.9266273
1.0842022e-19 3.2612071 3.6893488e+19
2.6397741 0 1.9205573
-3.6893488e+19 3.2061403 3.6893488e+19
2.4814336 -3.6893488e+19 1.8689979
1.0842022e-19 3.23632 0
2.6128442 -0 1.8321481
0 3.2068636 -3.6893488e+19
2.4821968 -3.6893488e+19 1.7665588
-0 3.0953934 3.6893488e+19
2.2789993 3.6893488e+19 1.6358423
1.0842022e-19 3.229454 -2
2.5474317 1.0842022e-19 1.5381805
-1.0842022e-19 3.0916376 -1.0842022e-19
2.2759655 0 -1.2757845
3.6893488e+19 3.2508271 -3.6893488e+19
2.5612037 -1.0842022e-19 -1.6410993
-0 3.0947986 0
2.2785189 3.6893488e+19 -1.6736249
-2 3.2264605 -3.6893488e+19
2.5455747 2 -1.7995812
-3.6893488e+19 3.0875587 -0
2.2726707 -2 -1.7856908
-1.0842022e-19 3.2260408 0
2.5453146 -3.6893488e+19 -1.8909515
3.6893488e+19 3.0895674 -0
2.2742932 -3.6893488e+19 -1.8627994
0 3.0992434 -2
2.4333098 0 -1.89285
-3.6893488e+19 3.0974948 3.6893488e+19
2.2806969 3.6893488e+19 -1.9106601
-3.6893488e+19 3.0924447 -2
2.4248748 -0 -1.9287496
0 3.0994987 0
2.2823155 -2 -1.9508116
-0 3.0787823 -2
2.4079237 1.0842022e-19 -1.9587792
0 3.1004283 -0
2.2830663 3.6893488e+19 -1.9906871
0 3.0792398 -3.6893488e+19
2.4084911 -3.6893488e+19 -1.9962955
1.0842022e-19 3.0329828 2
2.4222679 1.0842022e-19 -1.9788945
-1.0842022e-19 2.7769074 -3.6893488e+19
2.0422621 3.6893488e+19 -1.8844818
-3.6893488e+19 2.7978122 0
2.1943967 -2 -1.904344
2 2.7721479 -0
2.0372386 3.6893488e+19 -1.8975397
3.6893488e+19 2.7128425 0
2.0953276 0 -1.8831229
-2 2.6028392 -3.6893488e+19
1.9362022 1.0842022e-19 -1.8362342
0 2.6377487 1.0842022e-19
2.0393 -1.0842022e-19 -1.8701693
2 2.6024013 -0
1.935971 -3.6893488e+19 -1.8559129
1.0842022e-19 2.5870831 3.6893488e+19
2.0014982 2 -1.8573812
2 2.5489421 -1.0842022e-19
1.9730412 2 -1.8481802
2 2.5156043 3.6893488e+19
1.9481678 3.6893488e+19 -1.8384974
1.0842022e-19 2.4979241 -1.0842022e-19
1.8261046 0 -1.836827
-3.6893488e+19 2.4712734 -0
1.8961785 -0 -1.8335851
0 2.4552794 3.6893488e+19
1.808881 3.6893488e+19 -1.8315986
1.0842022e-19 3.1783488 -3.6893488e+19
2.5157282 1.0842022e-19 2.648129
-3.6893488e+19 3.1691241 -0
2.338557 2 2.6307333
1.0842022e-19 3.1803124 1.0842022e-19
2.5169466 -3.6893488e+19 2.6244686
-0 3.207577 2
2.3696182 -1.0842022e-19 2.6387889
1.0842022e-19 3.1979997 -3.6893488e+19
2.5279188 1.0842022e-19 2.6266532
1.0842022e-19 3.1964877 -1.0842022e-19
2.5269809 1.0842022e-19 2.6122596
-3.6893488e+19 3.1980102 -0
2.5279255 -1.0842022e-19 2.6003621
0 3.1225605 1.0842022e-19
2.3009441 -1.0842022e-19 2.5339677
1.0842022e-19 3.1992707 0
2.5287075 -3.6893488e+19 2.5882158
-1.0842022e-19 3.2528811 0
2.408541 -3.6893488e+19 2.6208315
-1.0842022e-19 3.2062564 -1.0842022e-19
2.533041 1.0842022e-19 2.5801709
3.6893488e+19 3.195133 3.6893488e+19
2.5821145 2 2.5542963
-1.0842022e-19 3.1888778 3.6893488e+19
2.4632139 -2 2.5411472
-1.0842022e-19 3.1741593 1.0842022e-19
2.4476793 -0 2.5191457
-0 3.2060795 0
2.4813695 -1.0842022e-19 2.5262682
-1.0842022e-19 3.1210699 -3.6893488e+19
2.3916459 2 2.4282243
3.6893488e+19 3.1256673 -3.6893488e+19
2.3964982 -0 2.4119887
0 3.1880279 -0
2.5768132 -0 2.4718184
-3.6893488e+19 3.1266286 -3.6893488e+19
2.3975129 -1.0842022e-19 2.3914835
-1.0842022e-19 3.1271422 1.0842022e-19
2.3980551 -0 2.3704715
2 3.201452 3.6893488e+19
2.3646705 -0 2.4290593
-1.0842022e-19 3.1224833 -3.6893488e+19
2.4621439 3.6893488e+19 2.3457711
1.0842022e-19 3.2509832 -1.0842022e-19
2.4054747 -3.6893488e+19 2.4485588
3.6893488e+19 3.1230483 0
2.4628451 -1.0842022e-19 2.3249843
3.6893488e+19 3.1278088 0
2.3051836 -2 2.3161867
-2 3.195832 0
2.5265744 -3.6893488e+19 2.3629546
-0 3.1918855 -1.0842022e-19
2.3569429 3.6893488e+19 2.3447955
0 3.1155162 0
2.4534998 0 2.2767487
0 3.1293423 3.6893488e+19
2.3064222 -2 2.2745428
0 3.1154072 0
2.4533646 -2 2.2558749
-3.6893488e+19 3.1310272 -0
2.3077834 -0 2.2542472
-2 3.1492035 1.0842022e-19
2.4952962 2 2.2568586
-2 3.1440735 -2
2.3183217 3.6893488e+19 2.2314441
-1.0842022e-19 3.1523719 -2
2.499227 -3.6893488e+19 2.2221115
-2 3.117837 0
2.4563794 -3.6893488e+19 2.1398711
-1.0842022e-19 3.1156366 3.6893488e+19
2.5228021 -1.0842022e-19 2.1187408
2 3.1220725 -1.0842022e-19
2.392704 2 2.1010621
0 3.1136386 -0
2.5213113 2 2.0753298
-2 3.1194303 -1.0842022e-19
2.3899155 -2 2.0568769
-0 3.1115904 1.0842022e-19
2.5197833 -3.6893488e+19 2.0323579
-2 3.1184087 0
2.3888373 1.0842022e-19 2.0144894
1.0842022e-19 3.110966 -3.6893488e+19
2.5193172 2 1.9908296
-2 3.1178019 -3.6893488e+19
2.3881967 -1.0842022e-19 1.9726008
1.0842022e-19 3.1109068 -2
2.519273 0 1.9497875
-2 3.0962121 -1.0842022e-19
2.3654099 -2 1.9205426
0 3.1125805 3.6893488e+19
2.5205219 1.0842022e-19 1.9095327
2 3.0983837 1.0842022e-19
2.3677018 -3.6893488e+19 1.882385
2 3.1038251 -0
2.5139894 -2 1.8560328
2 3.0990829 -2
2.3684397 1.0842022e-19 1.811731
-1.0842022e-19 3.106354 -1.0842022e-19
2.5158763 -1.0842022e-19 1.7767891
-0 3.0982163 -0
2.3675251 0 1.7157892
-0 3.0953934 3.6893488e+19
2.2789993 3.6893488e+19 1.6358423
1.0842022e-19 3.1014225 1.0842022e-19
2.4360137 1.0842022e-19 1.4892108
-1.0842022e-19 3.0916376 -1.0842022e-19
2.2759655 0 -1.2757845
3.6893488e+19 3.1000617 -0
2.4343252 -0 -1.5719224
-0 3.0947986 0
2.2785189 3.6893488e+19 -1.6736249
0 3.0964298 2
2.4298191 -1.0842022e-19 -1.7519362
-3.6893488e+19 3.0875587 -0
2.2726707 -2 -1.7856908
-0 3.1029396 1.0842022e-19
2.437896 2 -1.8340048
3.6893488e+19 3.0895674 -0
2.2742932 -3.6893488e+19 -1.8627994
0 3.0992434 -2
2.4333098 0 -1.89285
-3.6893488e+19 3.0974948 3.6893488e+19
2.2806969 3.6893488e+19 -1.9106601
-3.6893488e+19 3.0924447 -2
2.4248748 -0 -1.9287496
0 3.0994987 0
2.2823155 -2 -1.9508116
-0 3.0787823 -2
2.4079237 1.0842022e-19 -1.9587792
-1.0842022e-19 3.0664446 -2
2.2556152 -0 -1.967346
3.6893488e+19 3.0403097 0
2.3601904 2 -1.967173
1.0842022e-19 3.0329828 2
2.4222679 1.0842022e-19 -1.9788945
-1.0842022e-19 2.7769074 -3.6893488e+19
2.0422621 3.6893488e+19 -1.8844818
-3.6893488e+19 2.7978122 0
2.1943967 -2 -1.904344
0 2.6033843 -3.6893488e+19
1.9364897 -1.0842022e-19 -1.8165804
3.6893488e+19 2.7128425 0
2.0953276 0 -1.8831229
-2 2.6028392 -3.6893488e+19
1.9362022 1.0842022e-19 -1.8362342
0 2.6377487 1.0842022e-19
2.0393 -1.0842022e-19 -1.8701693
2 2.6024013 -0
1.935971 -3.6893488e+19 -1.8559129
1.0842022e-19 2.5870831 3.6893488e+19
2.0014982 2 -1.8573812
2 2.5489421 -1.0842022e-19
1.9730412 2 -1.8481802
2 2.5156043 3.6893488e+19
1.9481678 3.6893488e+19 -1.8384974
1.0842022e-19 2.4979241 -1.0842022e-19
1.8261046 0 -1.836827
-3.6893488e+19 2.4712734 -0
1.8961785 -0 -1.8335851
0 2.4552794 3.6893488e+19
1.808881 3.6893488e+19 -1.8315986
-2 3.2019999 0
2.3555326 -1.0842022e-19 2.6738212
-2 3.1803882 -3.6893488e+19
2.5123703 -2 2.6498632
-0 3.1698709 -0
2.3302605 -2 2.6313117
-0 3.1766939 -2
2.5101182 -1.0842022e-19 2.6337821
-2 3.2153056 2
2.3659985 -3.6893488e+19 2.658891
1.0842022e-19 3.2049582 3.6893488e+19
2.3578594 -2 2.6364627
-3.6893488e+19 3.1963956 3.6893488e+19
2.5221288 -0 2.6251533
0 3.1216671 2
2.2923446 -3.6893488e+19 2.5548472
-1.0842022e-19 3.193578 -3.6893488e+19
2.520411 1.0842022e-19 2.6097538
0 3.1212103 2
2.2919853 -0 2.5436549
3.6893488e+19 3.1981304 -1.0842022e-19
2.5231862 -2 2.6003146
-0 3.2094972 -0
2.3614297 1.0842022e-19 2.6001401
-0 3.2011831 2
2.5250473 0 2.5895188
1.0842022e-19 3.2053154 -3.6893488e+19
2.5275662 2 2.5793569
0 3.1910629 -1.0842022e-19
2.5742905 -2 2.5642416
1.0842022e-19 3.1911869 1.0842022e-19
2.5743818 3.6893488e+19 2.5386069
0 3.1744273 -3.6893488e+19
2.4389021 3.6893488e+19 2.5192235
1.0842022e-19 3.189909 2
2.5734422 0 2.5249891
2 3.2054083 0
2.4709401 -3.6893488e+19 2.5257671
2 3.207592 3.6893488e+19
2.4731982 0 2.5139461
-1.0842022e-19 3.1251204 3.6893488e+19
2.3879139 -3.6893488e+19 2.411248
-2 3.1880882 -0
2.5721035 -0 2.4716544
-1.0842022e-19 3.1269729 -0
2.3898296 3.6893488e+19 2.3917072
0 3.2029536 -1.0842022e-19
2.4684014 2 2.4447894
-2 3.2529483 3.6893488e+19
2.3979266 -1.0842022e-19 2.4806778
3.6893488e+19 3.2140656 3.6893488e+19
2.5329006 -0 2.4306118
3.6893488e+19 3.2545261 -3.6893488e+19
2.4004085 3.6893488e+19 2.454772
-3.6893488e+19 3.1964869 -3.6893488e+19
2.5221844 0 2.3888044
-3.6893488e+19 3.2374778 -0
2.547173 -2 2.3966987
-2 3.1928058 2
2.3483007 -1.0842022e-19 2.3454232
1.0842022e-19 3.2086482 -1.0842022e-19
2.529598 -2 2.3471229
-0 3.1881077 -0
2.3446052 3.6893488e+19 2.3169906
0 3.1716328 -0
2.5070329 -0 2.2951276
1.0842022e-19 3.183444 1.0842022e-19
2.3409369 1.0842022e-19 2.2891476
3.6893488e+19 3.1519516 -1.0842022e-19
2.4900701 -2 2.2585223
2 3.1765518 -2
2.3355155 -3.6893488e+19 2.2604933
-2 3.1796837 -1.0842022e-19
2.3379791 1.0842022e-19 2.2264071
-1.0842022e-19 3.1169064 -2
2.4473422 2 2.1387281
-1.0842022e-19 3.1162131 1.0842022e-19
2.5192575 -2 2.1191428
-2 3.1218596 1.0842022e-19
2.384542 -3.6893488e+19 2.1007409
-1.0842022e-19 3.2367544 0
2.6078854 2 2.1852641
3.6893488e+19 3.1206403 3.6893488e+19
2.383281 -2 2.0577765
-1.0842022e-19 3.2652767 0
2.6400886 -1.0842022e-19 2.1640964
-1.0842022e-19 3.2145467 -0
2.4803901 -1.0842022e-19 2.0833948
-0 3.1118169 -3.6893488e+19
2.5160251 -1.0842022e-19 1.9912801
0 3.2160733 2
2.4819686 3.6893488e+19 2.0319798
1.0842022e-19 3.1085327 -0
2.5136104 -1.0842022e-19 1.9483768
0 3.2164006 1.0842022e-19
2.4823072 -1.0842022e-19 1.9796681
-1.0842022e-19 3.2654848 -2
2.6403944 -2 1.9835092
1.0842022e-19 3.2147844 1.0842022e-19
2.4806359 -1.0842022e-19 1.9265566
0 3.2607656 -3.6893488e+19
2.6334546 -1.0842022e-19 1.9201862
2 3.203198 -2
2.4686542 -2 1.8673409
-3.6893488e+19 3.2508228 0
2.6188343 -0 1.8385724
0 3.0963523 -0
2.3581645 0 1.7145605
-0 3.0935245 0
2.2702084 1.0842022e-19 1.635072
-3.6893488e+19 3.2284424 0
2.5416651 -1.0842022e-19 1.5377705
-1.0842022e-19 3.09266 0
2.2695284 3.6893488e+19 -1.2761961
2 3.1049604 0
2.4327774 -2 -1.5745976
-3.6893488e+19 3.0955417 -0
2.271795 3.6893488e+19 -1.6739537
-2 3.2247374 -0
2.5394063 -2 -1.7988796
-0 3.0873051 3.6893488e+19
2.2653162 1.0842022e-19 -1.7855281
-1.0842022e-19 3.1019082 -3.6893488e+19
2.4290559 -3.6893488e+19 -1.8333099
-1.0842022e-19 3.0904024 -3.6893488e+19
2.2677524 -0 -1.8633219
1.0842022e-19 3.2344375 2
2.5453196 -1.0842022e-19 -1.9480681
-3.6893488e+19 3.0986116 -0
2.2742097 1.0842022e-19 -1.9111344
2 3.0888777 -2
2.4131687 -3.6893488e+19 -1.9268162
0 3.0962646 -2
2.2723634 2 -1.9489014
0 3.0819094 2
2.4046729 1.0842022e-19 -1.9606799
2 3.0666828 0
2.2481906 3.6893488e+19 -1.9674526
-3.6893488e+19 3.0792181 -1.0842022e-19
2.4013917 0 -1.9961802
0 3.0324757 -2
2.4153793 1.0842022e-19 -1.9783733
3.6893488e+19 3.0172393 1.0842022e-19
2.2763536 -3.6893488e+19 -1.979329
2 2.6030436 0
1.9325421 1.0842022e-19 -1.796399
3.6893488e+19 2.7993066 3.6893488e+19
2.1901293 2 -1.9050431
1.0842022e-19 2.6033816 2
1.9327168 3.6893488e+19 -1.8165134
-1.0842022e-19 2.7163785 -0
2.0929039 0 -1.8840748
0 2.6032076 2
1.9326268 -0 -1.8363822
-0 2.6383047 -0
2.0355003 0 -1.8704017
2 2.6017807 3.6893488e+19
1.9318891 2 -1.8554274
-0 2.5876143 2
1.9982303 -0 -1.8576344
-1.0842022e-19 2.5473733 -1.0842022e-19
1.9686432 -0 -1.8469012
1.0842022e-19 2.5170791 2
1.9463694 -0 -1.8395786
-2 2.4978068 3.6893488e+19
1.8207816 3.6893488e+19 -1.8367218
2 2.4714637 -1.0842022e-19
1.8937052 -0 -1.8335851
-1.0842022e-19 2.4541621 3.6893488e+19
1.8036166 1.0842022e-19 -1.8310379
-3.6893488e+19 2.3803453 -1.0842022e-19
1.7745854 2 -1.8191704
1.0842022e-19 2.3286393 3.6893488e+19
1.7542499 -2 -1.8115214
-1.0842022e-19 2.2942791 -0
1.7314731 2 -1.808874
-1.0842022e-19 2.2579265 1.0842022e-19
1.81464 -1.0842022e-19 -1.8030856
-3.6893488e+19 2.2191207 -0
1.7974601 1.0842022e-19 -1.8006694
3.6893488e+19 2.1802483 1.0842022e-19
1.7831696 -2 -1.798758
-3.6893488e+19 2.1395764 -0
1.7682177 -3.6893488e+19 -1.7938459
-2 3.2019999 0
2.3555326 -1.0842022e-19 2.6738212
-2 3.1803882 -3.6893488e+19
2.5123703 -2 2.6498632
-0 3.1698709 -0
2.3302605 -2 2.6313117
-0 3.1766939 -2
2.5101182 -1.0842022e-19 2.6337821
-2 3.2153056 2
2.3659985 -3.6893488e+19 2.658891
1.0842022e-19 3.2049582 3.6893488e+19
2.3578594 -2 2.6364627
-3.6893488e+19 3.1963956 3.6893488e+19
2.5221288 -0 2.6251533
0 3.1216671 2
2.2923446 -3.6893488e+19 2.5548472
-1.0842022e-19 3.193578 -3.6893488e+19
2.520411 1.0842022e-19 2.6097538
0 3.1212103 2
2.2919853 -0 2.5436549
3.6893488e+19 3.1981304 -1.0842022e-19
2.5231862 -2 2.6003146
-2 3.1225049 0
2.2930038 3.6893488e+19 2.5338514
-0 3.2011831 2
2.5250473 0 2.5895188
1.0842022e-19 3.2053154 -3.6893488e+19
2.5275662 2 2.5793569
0 3.1910629 -1.0842022e-19
2.5742905 -2 2.5642416
1.0842022e-19 3.1911869 1.0842022e-19
2.5743818 3.6893488e+19 2.5386069
0 3.1744273 -3.6893488e+19
2.4389021 3.6893488e+19 2.5192235
1.0842022e-19 3.189909 2
2.5734422 0 2.5249891
2 3.2054083 0
2.4709401 -3.6893488e+19 2.5257671
2 3.207592 3.6893488e+19
2.4731982 0 2.5139461
-1.0842022e-19 3.1251204 3.6893488e+19
2.3879139 -3.6893488e+19 2.411248
-2 3.1880882 -0
2.5721035 -0 2.4716544
-1.0842022e-19 3.1269729 -0
2.3898296 3.6893488e+19 2.3917072
0 3.1274254 -0
2.3902974 0 2.3706226
-1.0842022e-19 3.2012303 -2
2.3549271 -1.0842022e-19 2.4287364
0 3.1234317 0
2.4552979 1.0842022e-19 2.3465116
0 3.1999531 -1.0842022e-19
2.3539224 2 2.4019744
2 3.1239974 -0
2.4559877 -0 2.3256798
3.6893488e+19 3.1959505 -3.6893488e+19
2.5218573 0 2.3629048
-2 3.1928058 2
2.3483007 -1.0842022e-19 2.3454232
1.0842022e-19 3.2086482 -1.0842022e-19
2.529598 -2 2.3471229
-3.6893488e+19 3.1234941 -1.0842022e-19
2.2937818 -0 2.2702398
-1.0842022e-19 3.1518114 1.0842022e-19
2.4898994 0 2.2812536
-0 3.1330175 2
2.3012726 3.6893488e+19 2.2555084
3.6893488e+19 3.1519516 -1.0842022e-19
2.4900701 -2 2.2585223
2 3.1765518 -2
2.3355155 -3.6893488e+19 2.2604933
-3.6893488e+19 3.1234019 1.0842022e-19
2.2937093 1.0842022e-19 2.1640053
-1.0842022e-19 3.1169064 -2
2.4473422 2 2.1387281
-1.0842022e-19 3.1162131 1.0842022e-19
2.5192575 -2 2.1191428
-2 3.1218596 1.0842022e-19
2.384542 -3.6893488e+19 2.1007409
-3.6893488e+19 3.113631 -1.0842022e-19
2.517359 -1.0842022e-19 2.075165
3.6893488e+19 3.1206403 3.6893488e+19
2.383281 -2 2.0577765
3.6893488e+19 3.1129634 -0
2.5168681 3.6893488e+19 2.0332925
0 3.118566 2
2.3811359 3.6893488e+19 2.0145116
-0 3.1118169 -3.6893488e+19
2.5160251 -1.0842022e-19 1.9912801
-2 3.1067786 -3.6893488e+19
2.3689466 -0 1.9658554
1.0842022e-19 3.1085327 -0
2.5136104 -1.0842022e-19 1.9483768
2 3.0976319 0
2.359488 1.0842022e-19 1.9211833
-1.0842022e-19 3.2654848 -2
2.6403944 -2 1.9835092
1.0842022e-19 3.1011987 0
2.3631763 -1.0842022e-19 1.883409
-2 3.1030443 -1.0842022e-19
2.5095751 -0 1.8554112
2 3.203198 -2
2.4686542 -2 1.8673409
-3.6893488e+19 3.2508228 0
2.6188343 -0 1.8385724
0 3.0963523 -0
2.3581645 0 1.7145605
-0 3.0935245 0
2.2702084 1.0842022e-19 1.635072
-1.0842022e-19 3.1027381 1.0842022e-19
2.430068 -1.0842022e-19 1.4900095
-1.0842022e-19 3.09266 0
2.2695284 3.6893488e+19 -1.2761961
2 3.1049604 0
2.4327774 -2 -1.5745976
-3.6893488e+19 3.0955417 -0
2.271795 3.6893488e+19 -1.6739537
2 3.0977743 2
2.4240158 1.0842022e-19 -1.7523775
-0 3.0873051 3.6893488e+19
2.2653162 1.0842022e-19 -1.7855281
-1.0842022e-19 3.1019082 -3.6893488e+19
2.4290559 -3.6893488e+19 -1.8333099
-1.0842022e-19 3.0904024 -3.6893488e+19
2.2677524 -0 -1.8633219
2 3.0993533 1.0842022e-19
2.425941 0 -1.8928374
-3.6893488e+19 3.0986116 -0
2.2742097 1.0842022e-19 -1.9111344
2 3.0888777 -2
2.4131687 -3.6893488e+19 -1.9268162
0 3.0962646 -2
2.2723634 2 -1.9489014
0 3.0819094 2
2.4046729 1.0842022e-19 -1.9606799
2 3.0666828 0
2.2481906 3.6893488e+19 -1.9674526
-3.6893488e+19 3.0792181 -1.0842022e-19
2.4013917 0 -1.9961802
0 3.0324757 -2
2.4153793 1.0842022e-19 -1.9783733
3.6893488e+19 3.0172393 1.0842022e-19
2.2763536 -3.6893488e+19 -1.979329
2 2.6030436 0
1.9325421 1.0842022e-19 -1.796399
3.6893488e+19 2.7993066 3.6893488e+19
2.1901293 2 -1.9050431
1.0842022e-19 2.6033816 2
1.9327168 3.6893488e+19 -1.8165134
-1.0842022e-19 2.7163785 -0
2.0929039 0 -1.8840748
0 2.6032076 2
1.9326268 -0 -1.8363822
-0 2.6383047 -0
2.0355003 0 -1.8704017
2 2.6017807 3.6893488e+19
1.9318891 2 -1.8554274
-0 2.5876143 2
1.9982303 -0 -1.8576344
-1.0842022e-19 2.5473733 -1.0842022e-19
1.9686432 -0 -1.8469012
1.0842022e-19 2.5170791 2
1.9463694 -0 -1.8395786
-2 2.4978068 3.6893488e+19
1.8207816 3.6893488e+19 -1.8367218
2 2.4714637 -1.0842022e-19
1.8937052 -0 -1.8335851
-1.0842022e-19 2.4541621 3.6893488e+19
1.8036166 1.0842022e-19 -1.8310379
-3.6893488e+19 2.3803453 -1.0842022e-19
1.7745854 2 -1.8191704
1.0842022e-19 2.3286393 3.6893488e+19
1.7542499 -2 -1.8115214
-1.0842022e-19 2.2942791 -0
1.7314731 2 -1.808874
-1.0842022e-19 2.2579265 1.0842022e-19
1.81464 -1.0842022e-19 -1.8030856
-3.6893488e+19 2.2191207 -0
1.7974601 1.0842022e-19 -1.8006694
3.6893488e+19 2.1802483 1.0842022e-19
1.7831696 -2 -1.798758
-3.6893488e+19 2.1395764 -0
1.7682177 -3.6893488e+19 -1.7938459
-0 3.203145 -2
2.3468332 -0 2.6747868
1.0842022e-19 3.1813421 1.0842022e-19
2.5083222 3.6893488e+19 2.6505907
1.0842022e-19 3.1711612 2
2.3223531 3.6893488e+19 2.6323862
2 3.1799705 -3.6893488e+19
2.5075006 -1.0842022e-19 2.6365759
-2 3.2052565 2
2.3484495 2 2.6366179
-2 3.1952109 3.6893488e+19
2.516628 -0 2.6240094
-1.0842022e-19 3.1217921 -2
2.2845664 -2 2.5548723
-2 3.1936023 -2
2.5156646 -3.6893488e+19 2.6096308
1.0842022e-19 3.1198397 -1.0842022e-19
2.283072 -1.0842022e-19 2.5424962
1.0842022e-19 3.1991577 -3.6893488e+19
2.5189915 3.6893488e+19 2.6009786
-0 3.1223247 -1.0842022e-19
2.2849741 3.6893488e+19 2.5336418
0 3.1921828 -3.6893488e+19
2.5703192 -2 2.5648887
0 3.19065 -1.0842022e-19
2.5692089 1.0842022e-19 2.5509412
0 3.1908517 -0
2.569355 -2 2.5382495
-0 3.1901195 2
2.5688248 0 2.5249891
3.6893488e+19 3.2761347 -3.6893488e+19
2.6500666 -3.6893488e+19 2.5790594
3.6893488e+19 3.1881456 -2
2.5673947 -2 2.4714904
-0 3.1278682 0
2.3826952 -0 2.3925056
-2 3.203167 -1.0842022e-19
2.4589558 -1.0842022e-19 2.4448497
1.0842022e-19 3.2012835 2
2.3454084 -0 2.4286778
1.0842022e-19 3.2174735 1.0842022e-19
2.5299606 0 2.4336023
2 3.2268422 1.0842022e-19
2.3649709 0 2.4258881
-2 3.1229165 -3.6893488e+19
2.4466646 0 2.32461
0 3.2262719 1.0842022e-19
2.3645344 -3.6893488e+19 2.3983843
-2 3.2503238 2
2.5498281 -0 2.4072547
0 3.2258627 -2
2.3642211 -1.0842022e-19 2.3711157
2 3.1880333 -2
2.3352668 2 2.3168561
-0 3.172508 1.0842022e-19
2.5030317 -3.6893488e+19 2.2956231
3.6893488e+19 3.1829963 -0
2.3314116 2 2.2887754
-1.0842022e-19 3.1717358 3.6893488e+19
2.5025692 -3.6893488e+19 2.2711394
-2 3.1776528 -2
2.3273218 -1.0842022e-19 2.2610993
-0 3.1768448 -1.0842022e-19
2.3267033 1.0842022e-19 2.223139
-3.6893488e+19 3.1057954 -2
2.4261577 2 2.126807
3.6893488e+19 3.1226034 -2
2.377363 -3.6893488e+19 2.1013246
-0 3.2373252 -2
2.6030207 2 2.1855659
-0 3.1211672 -3.6893488e+19
2.3759084 1.0842022e-19 2.0581107
1.0842022e-19 3.2687516 3.6893488e+19
2.63937 -1.0842022e-19 2.1693199
-3.6893488e+19 3.2169325 1.0842022e-19
2.4728973 0 2.0849948
2 3.1112835 -3.6893488e+19
2.5117154 -1.0842022e-19 1.9908091
3.6893488e+19 3.215579 1.0842022e-19
2.4715264 -3.6893488e+19 2.0315862
-1.0842022e-19 3.2683213 0
2.6387467 0 2.0467834
-2 3.216433 3.6893488e+19
2.4723914 -3.6893488e+19 1.9796071
-0 3.2679942 0
2.6382728 0 1.9856036
-1.0842022e-19 3.2149713 -3.6893488e+19
2.4709108 3.6893488e+19 1.9265684
-0 3.2623813 2
2.6301408 0 1.9211589
-0 3.203939 -2
2.4597375 -2 1.8676558
-2 3.1133392 1.0842022e-19
2.5132048 2 1.7796153
-1.0842022e-19 3.0953214 2
2.3497326 2 1.7138501
2 3.0865817 1.0842022e-19
2.2576168 -2 1.6323084
-3.6893488e+19 3.2275195 0
2.5359771 -2 1.5373921
-3.6893488e+19 3.0920627 2
2.261812 -2 -1.2758942
1.0842022e-19 3.102567 -3.6893488e+19
2.4222906 -1.0842022e-19 -1.5731732
-0 3.0958786 0
2.2647326 0 -1.6740789
-3.6893488e+19 3.225111 0
2.5345347 2 -1.7989476
0 3.0877643 2
2.2585218 -3.6893488e+19 -1.7857056
-3.6893488e+19 3.0971036 1.0842022e-19
2.4157472 -0 -1.8303845
2 3.0926661 -3.6893488e+19
2.2622736 0 -1.8648458
-2 3.2326829 -2
2.5390692 -0 -1.9472727
3.6893488e+19 3.1647775 0
2.3174672 -0 -1.9416685
1.0842022e-19 3.0864482 -3.6893488e+19
2.4029841 -1.0842022e-19 -1.9254791
-1.0842022e-19 3.166363 0
2.3186808 -2 -1.9891065
-2 3.0873525 -2
2.4040675 -2 -1.9640501
2 3.0667634 -1.0842022e-19
2.2348959 3.6893488e+19 -1.9674526
3.6893488e+19 3.0760763 1.0842022e-19
2.3905613 -0 -1.993734
0 3.0311675 3.6893488e+19
2.4073582 3.6893488e+19 -1.9772068
-1.0842022e-19 3.0171123 0
2.2705245 3.6893488e+19 -1.9791431
3.6893488e+19 2.6039047 -3.6893488e+19
1.9292127 -3.6893488e+19 -1.7967594
-1.0842022e-19 2.7976086 -2
2.1811783 2 -1.9040898
-2 2.6032526 2
1.9288826 -1.0842022e-19 -1.8163793
-0 2.7139025 -3.6893488e+19
2.0860531 -1.0842022e-19 -1.8832991
0 2.6029551 -1.0842022e-19
1.9287318 -0 -1.8361602
3.6893488e+19 2.6403301 2
2.032757 0 -1.8715637
-3.6893488e+19 2.6020222 -0
1.9282595 1.0842022e-19 -1.8555083
2 2.5892467 -2
1.995752 -1.0842022e-19 -1.8586473
-1.0842022e-19 2.5489855 -1.0842022e-19
1.9665866 -2 -1.8479974
-0 2.5172069 0
1.9435661 -0 -1.8395786
-2 2.4974384 3.6893488e+19
1.8153676 -2 -1.8365113
1.0842022e-19 2.4714048 0
1.8911575 -2 -1.8334764
-3.6893488e+19 2.453783 2
1.7986609 2 -1.8308135
-0 3.203145 -2
2.3468332 -0 2.6747868
1.0842022e-19 3.1813421 1.0842022e-19
2.5083222 3.6893488e+19 2.6505907
1.0842022e-19 3.1711612 2
2.3223531 3.6893488e+19 2.6323862
2 3.1799705 -3.6893488e+19
2.5075006 -1.0842022e-19 2.6365759
-2 3.2052565 2
2.3484495 2 2.6366179
-2 3.1952109 3.6893488e+19
2.516628 -0 2.6240094
-1.0842022e-19 3.1217921 -2
2.2845664 -2 2.5548723
-2 3.1936023 -2
2.5156646 -3.6893488e+19 2.6096308
1.0842022e-19 3.1198397 -1.0842022e-19
2.283072 -1.0842022e-19 2.5424962
1.0842022e-19 3.1991577 -3.6893488e+19
2.5189915 3.6893488e+19 2.6009786
-0 3.1223247 -1.0842022e-19
2.2849741 3.6893488e+19 2.5336418
0 3.1921828 -3.6893488e+19
2.5703192 -2 2.5648887
0 3.19065 -1.0842022e-19
2.5692089 1.0842022e-19 2.5509412
0 3.1908517 -0
2.569355 -2 2.5382495
-0 3.1901195 2
2.5688248 0 2.5249891
3.6893488e+19 3.2761347 -3.6893488e+19
2.6500666 -3.6893488e+19 2.5790594
3.6893488e+19 3.1881456 -2
2.5673947 -2 2.4714904
-0 3.1278682 0
2.3826952 -0 2.3925056
3.6893488e+19 3.1264441 -0
2.3812528 3.6893488e+19 2.369535
1.0842022e-19 3.2012835 2
2.3454084 -0 2.4286778
2 3.1222286 -3.6893488e+19
2.4458406 1.0842022e-19 2.3452585
-0 3.1996655 -1.0842022e-19
2.3441701 -0 2.4016154
-2 3.1229165 -3.6893488e+19
2.4466646 0 2.32461
0 3.2262719 1.0842022e-19
2.3645344 -3.6893488e+19 2.3983843
-2 3.2503238 2
2.5498281 -0 2.4072547
1.0842022e-19 3.190906 -3.6893488e+19
2.3374655 -0 2.3438537
-0 3.1217613 -3.6893488e+19
2.2845428 3.6893488e+19 2.2689176
-0 3.172508 1.0842022e-19
2.5030317 -3.6893488e+19 2.2956231
-1.0842022e-19 3.1229155 2
2.2854264 2 2.2474124
3.6893488e+19 3.1262627 0
2.4506726 1.0842022e-19 2.2338085
-2 3.1776528 -2
2.3273218 -1.0842022e-19 2.2610993
-3.6893488e+19 3.1213555 -0
2.2842324 3.6893488e+19 2.1616316
-3.6893488e+19 3.1057954 -2
2.4261577 2 2.126807
3.6893488e+19 3.1226034 -2
2.377363 -3.6893488e+19 2.1013246
-0 3.2373252 -2
2.6030207 2 2.1855659
-0 3.1211672 -3.6893488e+19
2.3759084 1.0842022e-19 2.0581107
-3.6893488e+19 3.1084378 -3.6893488e+19
2.509654 -3.6893488e+19 2.0296264
1.0842022e-19 3.1203313 -2
2.3750618 -3.6893488e+19 2.0156891
2 3.1112835 -3.6893488e+19
2.5117154 -1.0842022e-19 1.9908091
-0 3.1065886 -3.6893488e+19
2.3611436 -1.0842022e-19 1.965668
3.6893488e+19 3.110456 -0
2.511116 1.0842022e-19 1.9493456
-3.6893488e+19 3.1070139 0
2.3615746 -3.6893488e+19 1.9257443
-0 3.2679942 0
2.6382728 0 1.9856036
3.6893488e+19 3.1059966 0
2.3605442 0 1.8851863
-2 3.1127131 -2
2.5127511 -0 1.8616081
3.6893488e+19 3.1008077 -3.6893488e+19
2.3552887 1.0842022e-19 1.8125263
-2 3.1133392 1.0842022e-19
2.5132048 2 1.7796153
-1.0842022e-19 3.0953214 2
2.3497326 2 1.7138501
2 3.0865817 1.0842022e-19
2.2576168 -2 1.6323084
-0 3.1021054 -0
2.4217379 -0 1.4894841
-3.6893488e+19 3.0920627 2
2.261812 -2 -1.2758942
1.0842022e-19 3.102567 -3.6893488e+19
2.4222906 -1.0842022e-19 -1.5731732
-0 3.0958786 0
2.2647326 0 -1.6740789
-1.0842022e-19 3.0987155 -3.6893488e+19
2.4176776 -3.6893488e+19 -1.7526716
0 3.0877643 2
2.2585218 -3.6893488e+19 -1.7857056
-3.6893488e+19 3.0971036 1.0842022e-19
2.4157472 -0 -1.8303845
2 3.0926661 -3.6893488e+19
2.2622736 0 -1.8648458
-0 3.0931273 -0
2.4109843 -3.6893488e+19 -1.8902361
0 3.0970836 -3.6893488e+19
2.2656546 1.0842022e-19 -1.9103872
1.0842022e-19 3.0864482 -3.6893488e+19
2.4029841 -1.0842022e-19 -1.9254791
-0 3.105679 1.0842022e-19
2.2722337 0 -1.9542574
-2 3.0873525 -2
2.4040675 -2 -1.9640501
2 3.0667634 -1.0842022e-19
2.2348959 3.6893488e+19 -1.9674526
3.6893488e+19 3.0760763 1.0842022e-19
2.3905613 -0 -1.993734
0 3.0311675 3.6893488e+19
2.4073582 3.6893488e+19 -1.9772068
-1.0842022e-19 3.0171123 0
2.2705245 3.6893488e+19 -1.9791431
3.6893488e+19 2.6039047 -3.6893488e+19
1.9292127 -3.6893488e+19 -1.7967594
-1.0842022e-19 2.7976086 -2
2.1811783 2 -1.9040898
-2 2.6032526 2
1.9288826 -1.0842022e-19 -1.8163793
-0 2.7139025 -3.6893488e+19
2.0860531 -1.0842022e-19 -1.8832991
0 2.6029551 -1.0842022e-19
1.9287318 -0 -1.8361602
3.6893488e+19 2.6403301 2
2.032757 0 -1.8715637
-3.6893488e+19 2.6020222 -0
1.9282595 1.0842022e-19 -1.8555083
2 2.5892467 -2
1.995752 -1.0842022e-19 -1.8586473
-1.0842022e-19 2.5489855 -1.0842022e-19
1.9665866 -2 -1.8479974
-0 2.5172069 0
1.9435661 -0 -1.8395786
-2 2.4974384 3.6893488e+19
1.8153676 -2 -1.8365113
1.0842022e-19 2.4714048 0
1.8911575 -2 -1.8334764
-3.6893488e+19 2.453783 2
1.7986609 2 -1.8308135
2 3.2052572 -3.6893488e+19
2.33881 -3.6893488e+19 2.676661
1.0842022e-19 3.1816306 -1.0842022e-19
2.5038657 -1.0842022e-19 2.6507025
-2 3.1742396 -3.6893488e+19
2.3157263 2 2.6350861
-2 3.2254393 -3.6893488e+19
2.5296321 0 2.6772897
2 3.1950514 -1.0842022e-19
2.5117593 -2 2.6237297
0 3.1188965 2
2.274539 2 2.552423
-2 3.19329 -1.0842022e-19
2.5107234 2 2.6092379
0 3.1193206 2
2.2748547 -1.0842022e-19 2.5420134
0 3.1944757 0
2.5114207 -3.6893488e+19 2.5971847
-0 3.1228755 -3.6893488e+19
2.2775002 2 2.5339911
1.0842022e-19 3.1935132 -2
2.5108545 2 2.5834849
-3.6893488e+19 3.1232672 -3.6893488e+19
2.2777917 -0 2.5234756
2 3.2902255 3.6893488e+19
2.6641936 1.0842022e-19 2.6631582
3.6893488e+19 3.2052808 0
2.4513915 3.6893488e+19 2.5648797
1.0842022e-19 3.2952907 -3.6893488e+19
2.6714222 2 2.6531465
-1.0842022e-19 3.1910291 2
2.5647061 -0 2.5382297
2 3.1903272 2
2.5642052 0 2.5249891
-1.0842022e-19 3.2765388 3.6893488e+19
2.6446609 -0 2.5793858
2 3.1817214 -3.6893488e+19
2.5580642 0 2.4892645
1.0842022e-19 3.1273465 2
2.3741229 2 2.391835
2 3.1265678 2
2.3733509 3.6893488e+19 2.369535
-3.6893488e+19 3.2001898 -2
2.3350389 1.0842022e-19 2.4275334
3.6893488e+19 3.2117887 -2
2.5216033 -1.0842022e-19 2.4281626
-1.0842022e-19 3.2259705 2
2.3542254 -2 2.4250042
2 3.234802 3.6893488e+19
2.5351388 1.0842022e-19 2.4218378
-2 3.2250588 -0
2.3535469 1.0842022e-19 2.3972716
-2 3.2355845 0
2.5355992 -3.6893488e+19 2.3948476
1.0842022e-19 3.2259495 3.6893488e+19
2.3542097 3.6893488e+19 2.3710916
0 3.2408078 -3.6893488e+19
2.538671 0 2.371171
-3.6893488e+19 3.1886995 0
2.3264878 3.6893488e+19 2.3172596
-1.0842022e-19 3.1741202 -3.6893488e+19
2.4988971 -2 2.2966356
0 3.1841888 -0
2.3231306 3.6893488e+19 2.289499
2 3.1713145 -1.0842022e-19
2.4955966 3.6893488e+19 2.2707632
1.0842022e-19 3.1216323 2
2.2765751 -3.6893488e+19 2.2036808
0 3.1150141 1.0842022e-19
2.4293699 -3.6893488e+19 2.1777697
3.6893488e+19 3.1828485 -3.6893488e+19
2.3221331 1.0842022e-19 2.2296751
-2 3.2765067 -2
2.5752578 -3.6893488e+19 2.2927217
2 3.1234999 2
2.3703091 -2 2.1020541
-0 3.2366028 -0
2.5972261 1.0842022e-19 2.1847153
-3.6893488e+19 3.1219704 -1.0842022e-19
2.3687928 -1.0842022e-19 2.058676
2 3.1036596 -1.0842022e-19
2.5023615 2 2.0257688
1.0842022e-19 3.1109929 -1.0842022e-19
2.5075943 -2 1.9905019
-2 3.1054661 -3.6893488e+19
2.3524294 3.6893488e+19 1.9649185
3.6893488e+19 3.1115484 3.6893488e+19
2.5079908 3.6893488e+19 1.9498554
0 3.1069145 2
2.3538654 1.0842022e-19 1.9256376
2 3.1111948 0
2.5077386 -3.6893488e+19 1.9086949
2 3.0934639 3.6893488e+19
2.3405297 -1.0842022e-19 1.8803842
2 3.1124537 -2
2.5086367 2 1.8613274
-1.0842022e-19 3.2052975 -1.0842022e-19
2.4514079 -2 1.868302
1.0842022e-19 3.2341888 2
2.5955036 -3.6893488e+19 1.8309443
1.0842022e-19 3.0957451 -1.0842022e-19
2.3427913 -1.0842022e-19 1.7140421
-2 3.0877228 -3.6893488e+19
2.251339 2 1.6327242
1.0842022e-19 3.2273655 1.0842022e-19
2.5307651 -3.6893488e+19 1.5372765
-3.6893488e+19 3.0915251 -2
2.2541687 -1.0842022e-19 -1.2756197
3.6893488e+19 3.1034153 3.6893488e+19
2.4157262 1.0842022e-19 -1.5735728
3.6893488e+19 3.0939729 2
2.2559905 -2 -1.6730769
2 3.2262855 -3.6893488e+19
2.5301297 -0 -1.7993096
2 3.0960951 -3.6893488e+19
2.4071152 3.6893488e+19 -1.829708
0 3.0934043 0
2.2555673 -2 -1.8653028
1.0842022e-19 3.2340455 1.0842022e-19
2.534694 -0 -1.9477525
-1.0842022e-19 3.1681459 3.6893488e+19
2.3111913 -2 -1.9431772
1.0842022e-19 3.0879698 0
2.3975575 2 -1.9262041
-2 3.1658752 -1.0842022e-19
2.3095014 2 -1.9887674
-3.6893488e+19 3.0800693 -1.0842022e-19
2.3882642 -3.6893488e+19 -1.9593474
0 3.0660336 -0
2.2203951 0 -1.966898
-0 3.0762341 0
2.3837528 2 -1.9937571
-1.0842022e-19 3.0314536 -1.0842022e-19
2.401675 3.6893488e+19 -1.9773309
2 3.0159614 3.6893488e+19
2.2636893 0 -1.9780809
-3.6893488e+19 2.7997139 -0
2.1777351 3.6893488e+19 -1.9051067
0 2.6026263 -3.6893488e+19
1.9248068 -3.6893488e+19 -1.8159771
2 2.7151034 0
2.0818849 -1.0842022e-19 -1.8835812
1.0842022e-19 2.6025763 -2
1.924782 -3.6893488e+19 -1.8358642
3.6893488e+19 2.6435814 1.0842022e-19
2.0308487 1.0842022e-19 -1.8735002
-2 2.6022615 -2
1.9246261 1.0842022e-19 -1.8555893
-2 2.5891614 -0
1.9920162 3.6893488e+19 -1.8584785
-1.0842022e-19 2.5757329 1.0842022e-19
1.9114752 1.0842022e-19 -1.8566617
1.0842022e-19 2.5496168 -0
1.9637982 0 -1.8483629
-1.0842022e-19 2.5172105 -3.6893488e+19
1.9406739 0 -1.8394804
-3.6893488e+19 2.4970665 0
1.8099627 -0 -1.8363008
-1.0842022e-19 2.4713423 -3.6893488e+19
1.8886112 -3.6893488e+19 -1.8333677
-1.0842022e-19 2.4536481 -0
1.7938063 -0 -1.8307014
-0 2.3817711 3.6893488e+19
1.7670603 1.0842022e-19 -1.8198004
1.0842022e-19 2.3288043 1.0842022e-19
1.7447017 -2 -1.8115214
-2 2.2941809 1.0842022e-19
1.7189345 -2 -1.8087204
2 2.2605982 0
1.8109556 -3.6893488e+19 -1.8047593
-2 2.2268281 -1.0842022e-19
1.7951256 1.0842022e-19 -1.803386
0 2.1801746 0
1.7784803 -2 -1.7985632
-0 2.1452425 -1.0842022e-19
1.766017 -1.0842022e-19 -1.7961389
2 3.2052572 -3.6893488e+19
2.33881 -3.6893488e+19 2.676661
1.0842022e-19 3.1816306 -1.0842022e-19
