# .PCD v0.7 - Point Cloud Data file format
VERSION 0.7
FIELDS x y z
SIZE 4 4 4
TYPE F F F
COUNT 1 1 1
WIDTH 1684
HEIGHT 1
VIEWPOINT 0 0 0 1 0 0 0
POINTS 1684
DATA ascii
-2.1356072 3.6893488e+19 -1.8077341
-3.6893488e+19 2.6106677 -1.0842022e-19
-2.1833024 -1.0842022e-19 -1.8042084
0 2.5837193 -2
-2.0746057 3.6893488e+19 -1.7980496
-0 2.5567555 3.6893488e+19
-2.1185329 -3.6893488e+19 -1.795352
-0 2.5439439 0
-2.0359168 1.0842022e-19 -1.7943678
-2 2.5068572 3.6893488e+19
-1.9998429 -2 -1.7878219
-0 2.4849603 -3.6893488e+19
-2.0413129 1.0842022e-19 -1.7880498
1.0842022e-19 2.4640446 2
-1.9756861 1.0842022e-19 -1.7854807
0 2.4364951 -0
-2.0122001 -0 -1.7845546
3.6893488e+19 3.2130129 -3.6893488e+19
-2.7553742 -2 2.6925504
1.0842022e-19 3.2765505 -0
-2.8050623 -1.0842022e-19 2.755919
-1.0842022e-19 3.1832421 -1.0842022e-19
-2.7893751 2 2.6507955
0 3.2154562 -3.6893488e+19
-2.7567217 2 2.6666191
1.0842022e-19 3.1851699 2
-2.7906628 -3.6893488e+19 2.6391914
1.0842022e-19 3.2520208 1.0842022e-19
-2.7780037 1.0842022e-19 2.6859193
-2 3.2505255 -1.0842022e-19
-2.8346667 -1.0842022e-19 2.6827404
2 3.2506974 1.0842022e-19
-2.7765439 -1.0842022e-19 2.6685202
3.6893488e+19 3.2407625 -2
-2.8277946 2 2.6588445
3.6893488e+19 3.2244041 -2
-2.761657 -1.0842022e-19 2.6317315
3.6893488e+19 3.1870921 1.0842022e-19
-2.7919466 1.0842022e-19 2.6007984
1.0842022e-19 3.2235236 -2
-2.7611713 2 2.6168315
-0 3.1876321 1.0842022e-19
-2.7923074 0 2.587919
-1.0842022e-19 3.2209556 3.6893488e+19
-2.7597551 0 2.6007617
1.0842022e-19 3.2545147 -2
-2.7451284 0 2.6185925
0 3.2135954 -2
-2.7784791 -1.0842022e-19 2.5836296
2 3.2539523 0
-2.7440345 2 2.6027684
-3.6893488e+19 3.2372918 2
-2.7927136 1.0842022e-19 2.5860903
3.6893488e+19 3.2431417 -1.0842022e-19
-2.7296746 -0 2.5779784
2 3.2528336 -2
-2.8037515 -3.6893488e+19 2.5836585
3.6893488e+19 3.2503986 2
-2.7371213 0 2.5683386
0 3.2073812 2
-2.7747464 -0 2.538162
3.6893488e+19 3.2503166 -3.6893488e+19
-2.7369616 -2 2.5535419
3.6893488e+19 3.2434971 0
-2.7300205 -1.0842022e-19 2.5347593
-1.0842022e-19 3.2363219 1.0842022e-19
-2.7230413 -2 2.5164039
2 3.238328 -3.6893488e+19
-2.7249923 3.6893488e+19 2.5032527
3.6893488e+19 3.1517363 -3.6893488e+19
-2.7683313 -0 2.4029012
1.0842022e-19 3.1896565 -1.0842022e-19
-2.7349842 -1.0842022e-19 2.4209414
-3.6893488e+19 3.1535912 -2
-2.7695704 -0 2.3807135
2 3.181793 2
-2.72631 -1.0842022e-19 2.388123
-2 3.2065756 -1.0842022e-19
-2.8049603 0 2.4035318
-0 3.179441 -0
-2.7237155 -2 2.3608902
-1.0842022e-19 3.1528833 -0
-2.7690976 -1.0842022e-19 2.3321483
-1.0842022e-19 3.1805434 3.6893488e+19
-2.7249317 2 2.336674
-3.6893488e+19 3.2193308 2
-2.8134799 2 2.3590868
-3.6893488e+19 3.1843271 -2
-2.7291055 0 2.3142974
-2 3.1479287 3.6893488e+19
-2.7657883 1.0842022e-19 2.2808843
0 3.18383 -3.6893488e+19
-2.7285569 -1.0842022e-19 2.2886667
1.0842022e-19 3.1466146 3.6893488e+19
-2.7649105 -1.0842022e-19 2.2564845
-2 3.160897 0
-2.7032599 -2 2.2489893
3.6893488e+19 3.1487684 -0
-2.7663491 2 2.218616
-1.0842022e-19 3.1632309 0
-2.7058344 -1.0842022e-19 2.2037754
-2 3.1926746 -1.0842022e-19
-2.6805859 -2 2.2067616
3.6893488e+19 3.2744248 -1.0842022e-19
-2.7669306 1.0842022e-19 2.2515497
-1.0842022e-19 3.1676626 -1.0842022e-19
-2.7508876 2 2.1140254
-1.0842022e-19 3.1855271 2
-2.6736336 -0 2.0990887
1.0842022e-19 3.1675055 -0
-2.7507932 -1.0842022e-19 2.065155
1.0842022e-19 3.2752028 2
-2.7676873 -0 2.127852
2 3.1622734 -2
-2.7453008 -3.6893488e+19 2.013104
1.0842022e-19 3.1814408 -2
-2.6696587 -3.6893488e+19 1.9965912
2 3.1659629 2
-2.7497334 2 1.966962
-2 3.1814132 -0
-2.669632 2 1.9470012
1.0842022e-19 3.165415 3.6893488e+19
-2.7490752 1.0842022e-19 1.918255
0 3.2991989 -1.0842022e-19
-2.791028 1.0842022e-19 1.9545305
-0 3.1625724 -0
-2.7456601 0 1.8630788
-2 3.2978988 2
-2.7897637 -0 1.8852241
1.0842022e-19 3.1675801 -1.0842022e-19
-2.750838 -2 1.7686776
1.0842022e-19 3.1411893 -1.0842022e-19
-2.7612867 0 1.6798145
1.0842022e-19 3.1660602 0
-2.7089553 2 1.558723
-1.0842022e-19 3.1390345 1.0842022e-19
-2.7598476 3.6893488e+19 -1.0090085
1.0842022e-19 3.1741333 0
-2.7178607 3.6893488e+19 -1.5802566
2 3.1380169 2
-2.7591679 0 -1.6866746
0 3.1705878 -1.0842022e-19
-2.7139494 -3.6893488e+19 -1.7732248
3.6893488e+19 3.1393812 1.0842022e-19
-2.7600791 -3.6893488e+19 -1.8102621
-3.6893488e+19 3.1678052 3.6893488e+19
-2.7108803 1.0842022e-19 -1.8689356
-2 3.1191821 -1.0842022e-19
-2.7431753 -1.0842022e-19 -1.8812485
0 3.1297975 -3.6893488e+19
-2.6689537 0 -1.9048393
2 3.1097562 -2
-2.7305834 1.0842022e-19 -1.9202322
1.0842022e-19 3.013557 -2
-2.540729 0 -1.8879642
-2 2.8848381 -0
-2.4245143 1.0842022e-19 -1.8710368
-1.0842022e-19 2.7808056 0
-2.3751168 2 -1.8239975
2 2.7604361 3.6893488e+19
-2.2872865 -0 -1.8216864
-3.6893488e+19 2.7276165 3.6893488e+19
-2.2145736 -2 -1.81767
-0 2.679312 1.0842022e-19
-2.2578855 -3.6893488e+19 -1.8132366
-2 2.6464331 1.0842022e-19
-2.1356072 3.6893488e+19 -1.8077341
-3.6893488e+19 2.6106677 -1.0842022e-19
-2.1833024 -1.0842022e-19 -1.8042084
0 2.5837193 -2
-2.0746057 3.6893488e+19 -1.7980496
-0 2.5567555 3.6893488e+19
-2.1185329 -3.6893488e+19 -1.795352
-0 2.5439439 0
-2.0359168 1.0842022e-19 -1.7943678
-2 2.5068572 3.6893488e+19
-1.9998429 -2 -1.7878219
-0 2.4849603 -3.6893488e+19
-2.0413129 1.0842022e-19 -1.7880498
1.0842022e-19 2.4640446 2
-1.9756861 1.0842022e-19 -1.7854807
0 2.4364951 -0
-2.0122001 -0 -1.7845546
-0 3.2701192 -1.0842022e-19
-2.8010235 -3.6893488e+19 2.7583694
0 3.2765844 -1.0842022e-19
-2.8082283 -2 2.7561367
0 3.2659531 -2
-2.8583837 0 2.7425039
2 3.2581158 3.6893488e+19
-2.7876468 -2 2.7124033
-3.6893488e+19 3.1855688 2
-2.7934744 -1.0842022e-19 2.6398916
-3.6893488e+19 3.2522056 0
-2.7810607 -0 2.6865568
-1.0842022e-19 3.250479 -2
-2.8375318 -2 2.6830413
-0 3.2429161 0
-2.8321135 3.6893488e+19 2.6610005
3.6893488e+19 3.1871436 2
-2.7945354 -0 2.6011488
3.6893488e+19 3.2230606 1.0842022e-19
-2.7635918 3.6893488e+19 2.6167397
0 3.1873634 1.0842022e-19
-2.7946835 -1.0842022e-19 2.5880089
-0 3.2231908 3.6893488e+19
-2.7636642 -1.0842022e-19 2.6026828
-1.0842022e-19 3.2543511 1.0842022e-19
-2.750237 0 2.6185925
3.6893488e+19 3.2534816 -3.6893488e+19
-2.8074353 -0 2.615129
1.0842022e-19 3.2533853 3.6893488e+19
-2.7485733 0 2.6022069
-1.0842022e-19 3.2507408 2
-2.8041112 -0 2.5961514
0 3.247139 -0
-2.7390974 0 2.5808494
-3.6893488e+19 3.2526922 -2
-2.806478 1.0842022e-19 2.5837367
-0 3.2500429 -0
-2.7419968 -2 2.5680904
-2 3.250366 1.0842022e-19
-2.7426326 2 2.553797
-3.6893488e+19 3.2435107 -0
-2.735528 2 2.5349503
-2 3.2352576 3.6893488e+19
-2.7274084 -1.0842022e-19 2.5159917
-1.0842022e-19 3.237653 -1.0842022e-19
-2.7297649 -3.6893488e+19 2.5030651
-1.0842022e-19 3.1503532 -0
-2.769747 0 2.4018681
-1.0842022e-19 3.2324297 -2
-2.7688122 0 2.4622304
-0 3.2249889 -1.0842022e-19
-2.8200345 3.6893488e+19 2.4484589
-1.0842022e-19 3.1812093 2
-2.7305441 3.6893488e+19 2.3878808
-1.0842022e-19 3.2047009 -2
-2.806365 0 2.4022291
-1.0842022e-19 3.2337279 -1.0842022e-19
-2.7695355 -3.6893488e+19 2.4068074
-1.0842022e-19 3.2176075 -2
-2.8150611 -1.0842022e-19 2.3858485
0 3.229712 -2
-2.7672977 -0 2.3753955
0 3.2182689 3.6893488e+19
-2.8155067 1.0842022e-19 2.3585899
0 3.2280362 1.0842022e-19
-2.7663641 -0 2.3461788
2 3.1464865 1.0842022e-19
-2.7671418 3.6893488e+19 2.2801127
3.6893488e+19 3.2823229 -2
-2.8146234 3.6893488e+19 2.3759842
0 3.1455567 2
-2.7665153 -2 2.2560258
3.6893488e+19 3.1750693 3.6893488e+19
-2.7237015 -0 2.2582879
0 3.2437823 3.6893488e+19
-2.8326969 -1.0842022e-19 2.2903917
2 3.2226455 -3.6893488e+19
-2.7633603 -1.0842022e-19 2.2596986
-3.6893488e+19 3.1843948 2
-2.6773684 -1.0842022e-19 2.1985064
-0 3.2726579 0
-2.7682476 -1.0842022e-19 2.2500906
-1.0842022e-19 3.2224026 -1.0842022e-19
-2.7864769 2 2.1620619
0 3.2733331 -1.0842022e-19
-2.7689116 3.6893488e+19 2.1884515
3.6893488e+19 3.1672344 -0
-2.7530215 0 2.0652003
-1.0842022e-19 3.2738738 -1.0842022e-19
-2.7694438 3.6893488e+19 2.1262691
1.0842022e-19 3.1610503 -2
-2.7485425 2 2.0125315
3.6893488e+19 3.3002095 -2
-2.8641093 1.0842022e-19 2.0634208
-1.0842022e-19 3.2921309 -3.6893488e+19
-2.7874055 3.6893488e+19 2.0169697
-3.6893488e+19 3.1657734 -1.0842022e-19
-2.7521355 2 1.9185337
2 3.2919073 -2
-2.7871854 -0 1.9496742
-1.0842022e-19 3.1621857 0
-2.7499199 3.6893488e+19 1.8630443
-3.6893488e+19 3.1884825 -3.6893488e+19
-2.6813898 -1.0842022e-19 1.8241667
-1.0842022e-19 3.1414371 3.6893488e+19
-2.7637396 -2 1.6800869
3.6893488e+19 3.1692193 2
-2.7171822 1.0842022e-19 1.5602528
2 3.1391659 -3.6893488e+19
-2.7622092 -2 -1.0091718
1.0842022e-19 3.1727109 3.6893488e+19
-2.7210732 -0 -1.5797172
0 3.1376457 -2
-2.7611849 2 -1.6866603
-1.0842022e-19 3.1678433 1.0842022e-19
-2.7156489 3.6893488e+19 -1.772365
0 3.1403117 -3.6893488e+19
-2.7629812 3.6893488e+19 -1.8108685
3.6893488e+19 3.1660867 -3.6893488e+19
-2.713691 -0 -1.868109
-3.6893488e+19 3.1504488 -3.6893488e+19
-2.7698114 2 -1.8924897
-1.0842022e-19 3.1289492 0
-2.6723049 1.0842022e-19 -1.904606
-3.6893488e+19 3.1089361 2
-2.7336829 -2 -1.9199938
-3.6893488e+19 3.0130942 0
-2.543195 0 -1.8878224
-0 2.7862394 0
-2.3857207 0 -1.828027
-0 2.7607276 0
-2.2905576 -3.6893488e+19 -1.82205
3.6893488e+19 2.7280374 -3.6893488e+19
-2.2203047 -2 -1.8179636
-0 2.6439972 -1.0842022e-19
-2.137624 0 -1.806728
2 2.6096656 -1.0842022e-19
-2.1862206 -3.6893488e+19 -1.8038521
3.6893488e+19 2.5833838 -3.6893488e+19
-2.077991 1.0842022e-19 -1.7979867
1.0842022e-19 2.5435131 -2
-2.0387652 -2 -1.7942281
0 2.4607377 2
-2.029403 0 -1.7665254
3.6893488e+19 2.5069344 -1.0842022e-19
-2.0027783 -2 -1.7879754
-3.6893488e+19 2.4654982 2
-2.03229 2 -1.7816305
-3.6893488e+19 2.4635046 2
-1.9780036 0 -1.7853971
1.0842022e-19 2.4371026 -1.0842022e-19
-2.01507 1.0842022e-19 -1.7849034
0 2.3935759 -2
-1.9436047 -1.0842022e-19 -1.7839912
2 2.331265 0
-1.9731973 3.6893488e+19 -1.7818329
-0 2.2872305 -1.0842022e-19
-1.9435281 1.0842022e-19 -1.7781291
2 2.2564318 -2
-1.9227767 0 -1.777069
-1.0842022e-19 2.2121735 1.0842022e-19
-1.9057 -1.0842022e-19 -1.7759345
-2 2.1784697 1.0842022e-19
-1.8357695 2 -1.7741834
0 2.1497197 0
-1.821627 -2 -1.776008
3.6893488e+19 2.1181757 3.6893488e+19
-1.8061101 1.0842022e-19 -1.775048
1.0842022e-19 2.0919528 2
-1.7932107 -1.0842022e-19 -1.7745936
-1.0842022e-19 3.2122066 3.6893488e+19
-2.7575438 -2 2.6921015
2 3.2201655 -3.6893488e+19
-2.7619784 2 2.6854067
-1.0842022e-19 3.1829474 0
-2.7917082 3.6893488e+19 2.6508758
1.0842022e-19 3.2152352 2
-2.7592313 3.6893488e+19 2.6667244
-3.6893488e+19 3.1855688 2
-2.7934744 -1.0842022e-19 2.6398916
2 3.2120924 2
-2.7574801 -1.0842022e-19 2.6499305
-1.0842022e-19 3.250479 -2
-2.8375318 -2 2.6830413
-0 3.2429161 0
-2.8321135 3.6893488e+19 2.6610005
3.6893488e+19 3.1871436 2
-2.7945354 -0 2.6011488
3.6893488e+19 3.2230606 1.0842022e-19
-2.7635918 3.6893488e+19 2.6167397
0 3.1873634 1.0842022e-19
-2.7946835 -1.0842022e-19 2.5880089
-0 3.2231908 3.6893488e+19
-2.7636642 -1.0842022e-19 2.6026828
-1.0842022e-19 3.2543511 1.0842022e-19
-2.750237 0 2.6185925
0 3.2186508 -0
-2.7842016 -2 2.5875351
1.0842022e-19 3.2533853 3.6893488e+19
-2.7485733 0 2.6022069
-3.6893488e+19 3.2342207 -2
-2.7936437 -1.0842022e-19 2.5842369
0 3.247139 -0
-2.7390974 0 2.5808494
-3.6893488e+19 3.2526922 -2
-2.806478 1.0842022e-19 2.5837367
-0 3.2500429 -0
-2.7419968 -2 2.5680904
-2 3.250366 1.0842022e-19
-2.7426326 2 2.553797
-3.6893488e+19 3.2435107 -0
-2.735528 2 2.5349503
-2 3.2352576 3.6893488e+19
-2.7274084 -1.0842022e-19 2.5159917
-1.0842022e-19 3.237653 -1.0842022e-19
-2.7297649 -3.6893488e+19 2.5030651
-1.0842022e-19 3.1503532 -0
-2.769747 0 2.4018681
-3.6893488e+19 3.1779425 -2
-2.7269034 1.0842022e-19 2.4100246
3.6893488e+19 3.1516466 -1.0842022e-19
-2.7706184 0 2.3792131
-1.0842022e-19 3.1812093 2
-2.7305441 3.6893488e+19 2.3878808
-1.0842022e-19 3.2047009 -2
-2.806365 0 2.4022291
1.0842022e-19 3.1793382 -2
-2.7284586 2 2.3610666
-1.0842022e-19 3.2176075 -2
-2.8150611 -1.0842022e-19 2.3858485
-2 3.1836767 3.6893488e+19
-2.7332938 -3.6893488e+19 2.339371
0 3.2182689 3.6893488e+19
-2.8155067 1.0842022e-19 2.3585899
-2 3.1819718 1.0842022e-19
-2.7313938 -2 2.3128204
2 3.1464865 1.0842022e-19
-2.7671418 3.6893488e+19 2.2801127
-3.6893488e+19 3.1863048 -1.0842022e-19
-2.7362225 -1.0842022e-19 2.290525
0 3.1455567 2
-2.7665153 -2 2.2560258
3.6893488e+19 3.1750693 3.6893488e+19
-2.7237015 -0 2.2582879
-3.6893488e+19 3.147649 -2
-2.767925 -3.6893488e+19 2.2177124
-1.0842022e-19 3.1623895 1.0842022e-19
-2.7095711 -1.0842022e-19 2.2031813
-3.6893488e+19 3.1843948 2
-2.6773684 -1.0842022e-19 2.1985064
-0 3.2726579 0
-2.7682476 -1.0842022e-19 2.2500906
-3.6893488e+19 3.1663163 3.6893488e+19
-2.7524648 3.6893488e+19 2.1131396
0 3.1824591 -2
-2.6754637 -3.6893488e+19 2.0968521
3.6893488e+19 3.1672344 -0
-2.7530215 0 2.0652003
2 3.1874161 -1.0842022e-19
-2.6803405 1.0842022e-19 2.050478
1.0842022e-19 3.1610503 -2
-2.7485425 2 2.0125315
-2 3.166261 -2
-2.7524312 -3.6893488e+19 1.9672896
-1.0842022e-19 3.2921309 -3.6893488e+19
-2.7874055 3.6893488e+19 2.0169697
-3.6893488e+19 3.1657734 -1.0842022e-19
-2.7521355 2 1.9185337
2 3.2919073 -2
-2.7871854 -0 1.9496742
-1.0842022e-19 3.1621857 0
-2.7499199 3.6893488e+19 1.8630443
-3.6893488e+19 3.1884825 -3.6893488e+19
-2.6813898 -1.0842022e-19 1.8241667
-1.0842022e-19 3.1414371 3.6893488e+19
-2.7637396 -2 1.6800869
3.6893488e+19 3.1692193 2
-2.7171822 1.0842022e-19 1.5602528
2 3.1391659 -3.6893488e+19
-2.7622092 -2 -1.0091718
1.0842022e-19 3.1727109 3.6893488e+19
-2.7210732 -0 -1.5797172
0 3.1376457 -2
-2.7611849 2 -1.6866603
-1.0842022e-19 3.1678433 1.0842022e-19
-2.7156489 3.6893488e+19 -1.772365
0 3.1403117 -3.6893488e+19
-2.7629812 3.6893488e+19 -1.8108685
3.6893488e+19 3.1660867 -3.6893488e+19
-2.713691 -0 -1.868109
-2 3.1179688 2
-2.7458549 3.6893488e+19 -1.8809325
-1.0842022e-19 3.1289492 0
-2.6723049 1.0842022e-19 -1.904606
-3.6893488e+19 3.1089361 2
-2.7336829 -2 -1.9199938
-3.6893488e+19 3.0130942 0
-2.543195 0 -1.8878224
-0 2.7862394 0
-2.3857207 0 -1.828027
-0 2.7607276 0
-2.2905576 -3.6893488e+19 -1.82205
3.6893488e+19 2.7280374 -3.6893488e+19
-2.2203047 -2 -1.8179636
-0 2.6439972 -1.0842022e-19
-2.137624 0 -1.806728
2 2.6096656 -1.0842022e-19
-2.1862206 -3.6893488e+19 -1.8038521
3.6893488e+19 2.5833838 -3.6893488e+19
-2.077991 1.0842022e-19 -1.7979867
1.0842022e-19 2.5435131 -2
-2.0387652 -2 -1.7942281
0 2.4607377 2
-2.029403 0 -1.7665254
3.6893488e+19 2.5069344 -1.0842022e-19
-2.0027783 -2 -1.7879754
-3.6893488e+19 2.4654982 2
-2.03229 2 -1.7816305
-3.6893488e+19 2.4635046 2
-1.9780036 0 -1.7853971
1.0842022e-19 2.4371026 -1.0842022e-19
-2.01507 1.0842022e-19 -1.7849034
0 2.3935759 -2
-1.9436047 -1.0842022e-19 -1.7839912
2 2.331265 0
-1.9731973 3.6893488e+19 -1.7818329
-0 2.2872305 -1.0842022e-19
-1.9435281 1.0842022e-19 -1.7781291
2 2.2564318 -2
-1.9227767 0 -1.777069
-1.0842022e-19 2.2121735 1.0842022e-19
-1.9057 -1.0842022e-19 -1.7759345
-2 2.1784697 1.0842022e-19
-1.8357695 2 -1.7741834
0 2.1497197 0
-1.821627 -2 -1.776008
3.6893488e+19 2.1181757 3.6893488e+19
-1.8061101 1.0842022e-19 -1.775048
1.0842022e-19 2.0919528 2
-1.7932107 -1.0842022e-19 -1.7745936
-2 3.2702415 -3.6893488e+19
-2.8040192 -1.0842022e-19 2.7586641
-3.6893488e+19 3.2769082 -3.6893488e+19
-2.8115191 -3.6893488e+19 2.7566128
-1.0842022e-19 3.2655878 -3.6893488e+19
-2.8607957 -1.0842022e-19 2.7422359
0 3.2578504 -3.6893488e+19
-2.7900791 3.6893488e+19 2.7122452
-3.6893488e+19 3.1857865 -2
-2.7960036 -3.6893488e+19 2.6404102
0 3.2503004 1.0842022e-19
-2.840028 2 2.6830916
0 3.2402141 1.0842022e-19
-2.832973 3.6893488e+19 2.6590867
-0 3.1898332 2
-2.7987523 3.6893488e+19 2.6036026
-1.0842022e-19 3.2255452 0
-2.7674921 -0 2.6189191
3.6893488e+19 3.2431173 -0
-2.834945 1.0842022e-19 2.6314139
0 3.2247019 1.0842022e-19
-2.7670176 -1.0842022e-19 2.6040521
-3.6893488e+19 3.2554812 -2
-2.7540088 2 2.6204548
-3.6893488e+19 3.252394 2
-2.8088226 -2 2.6138341
-0 3.253082 -0
-2.7516234 -2 2.6019988
-0 3.2352154 0
-2.7968483 0 2.5851738
0 3.2484841 -0
-2.8049657 -1.0842022e-19 2.5794256
3.6893488e+19 3.249543 2
-2.7466638 -2 2.5679379
2 3.2503343 1.0842022e-19
-2.7477829 3.6893488e+19 2.5539427
-0 3.2455242 -0
-2.7426682 1.0842022e-19 2.5362864
1.0842022e-19 3.1747582 3.6893488e+19
-2.7598612 -1.0842022e-19 2.4854743
-3.6893488e+19 3.2374175 -3.6893488e+19
-2.7346082 0 2.5030966
3.6893488e+19 3.2360549 1.0842022e-19
-2.830148 -0 2.4882989
1.0842022e-19 3.2323079 -3.6893488e+19
-2.7712958 3.6893488e+19 2.462431
2 3.2270653 2
-2.8240418 -1.0842022e-19 2.450793
1.0842022e-19 3.1805844 -3.6893488e+19
-2.7344034 2 2.3875847
2 3.2061779 3.6893488e+19
-2.8098543 -1.0842022e-19 2.4038703
-1.0842022e-19 3.2345033 -1.0842022e-19
-2.7725308 -3.6893488e+19 2.4077394
-3.6893488e+19 3.2168663 1.0842022e-19
-2.8171144 -0 2.3855567
-0 3.2336056 -2
-2.7720258 -3.6893488e+19 2.3787024
1.0842022e-19 3.2136664 -1.0842022e-19
-2.8149407 -2 2.35536
-0 3.2311244 -3.6893488e+19
-2.7706301 -3.6893488e+19 2.3486545
-3.6893488e+19 3.2115302 1.0842022e-19
-2.8134899 0 2.3263361
-3.6893488e+19 3.2847228 -2
-2.8203106 -3.6893488e+19 2.3794408
3.6893488e+19 3.2522252 -3.6893488e+19
-2.8426428 -1.0842022e-19 2.3267789
-3.6893488e+19 3.2943408 0
-2.831131 0 2.3579509
0 3.2305322 0
-2.8263967 1.0842022e-19 2.2828341
3.6893488e+19 3.2214506 -0
-2.7651887 1.0842022e-19 2.2592201
1.0842022e-19 3.3059776 2
-2.804214 -0 2.3161089
-3.6893488e+19 3.2191818 -1.0842022e-19
-2.787039 -1.0842022e-19 2.2144585
-2 3.307981 -0
-2.806206 2 2.2826617
-2 3.2202592 2
-2.7876983 3.6893488e+19 2.1604989
1.0842022e-19 3.181591 -2
-2.6791034 -2 2.0963659
-1.0842022e-19 3.1871204 -0
-2.6846011 -2 2.050457
0 3.1587427 1.0842022e-19
-2.7500632 -1.0842022e-19 2.0112526
3.6893488e+19 3.2450664 -0
-2.742213 -0 2.0333102
-2 3.1661294 0
-2.7545824 2 1.9673833
2 3.244386 -2
-2.7415364 0 1.9760393
-1.0842022e-19 3.2602506 1.0842022e-19
-2.8184357 1.0842022e-19 1.9611428
-0 3.2923367 3.6893488e+19
-2.7906518 3.6893488e+19 1.9500893
-0 3.2603779 -0
-2.8185914 -0 1.900485
0 3.1887324 -3.6893488e+19
-2.6862035 1.0842022e-19 1.824401
-0 3.2609408 3.6893488e+19
-2.8192801 1.0842022e-19 1.8048416
-3.6893488e+19 3.1419408 1.0842022e-19
-2.766222 -3.6893488e+19 1.6804683
3.6893488e+19 3.171639 3.6893488e+19
-2.72434 3.6893488e+19 1.56145
-3.6893488e+19 3.1373339 2
-2.7630928 -1.0842022e-19 -1.0086511
2 3.171428 -1.0842022e-19
-2.7241025 -2 -1.579236
-0 3.1369691 -2
-2.7628448 0 -1.6864892
0 3.1695721 3.6893488e+19
-2.7220147 1.0842022e-19 -1.7730763
1.0842022e-19 3.1408756 -3.6893488e+19
-2.7654982 1.0842022e-19 -1.8112916
0 3.1621015 0
-2.7136104 2 -1.8659459
-3.6893488e+19 3.1461229 -2
-2.7690625 3.6893488e+19 -1.8910674
1.0842022e-19 3.1279674 2
-2.6752098 1.0842022e-19 -1.9043113
1.0842022e-19 3.1085498 -0
-2.7370827 -3.6893488e+19 -1.9199517
2 3.0154996 2
-2.5486846 1.0842022e-19 -1.8891779
-2 2.7842281 0
-2.3861184 -3.6893488e+19 -1.8267677
2 2.7621114 0
-2.294873 -3.6893488e+19 -1.8232318
2 2.728111 2
-2.2253554 3.6893488e+19 -1.8181105
1.0842022e-19 2.4581356 -0
-2.0302811 -0 -1.7011842
3.6893488e+19 2.6436372 3.6893488e+19
-2.1413684 1.0842022e-19 -1.8066721
-1.0842022e-19 2.4608204 1.0842022e-19
-2.0319238 2 -1.7293251
-2 2.5841501 0
-2.0822244 -1.0842022e-19 -1.7984896
2 2.459187 -0
-2.0309243 2 -1.7526977
-3.6893488e+19 2.5429718 -0
-2.0412834 -3.6893488e+19 -1.7940186
-2 2.4587245 0
-2.0306416 2 -1.7660123
-3.6893488e+19 2.5067785 -0
-2.0052986 -2 -1.7879754
1.0842022e-19 2.4603848 1.0842022e-19
-2.0316572 0 -1.7800257
-2 2.4627399 3.6893488e+19
-1.9800365 3.6893488e+19 -1.7852296
0 2.4367762 -1.0842022e-19
-2.0172136 1.0842022e-19 -1.7849034
2 3.2123291 -0
-2.7600579 1.0842022e-19 2.6925225
-3.6893488e+19 3.2769082 -3.6893488e+19
-2.8115191 -3.6893488e+19 2.7566128
0 3.1826463 -3.6893488e+19
-2.7938704 0 2.6509295
0 3.2578504 -3.6893488e+19
-2.7900791 3.6893488e+19 2.7122452
-3.6893488e+19 3.1857865 -2
-2.7960036 -3.6893488e+19 2.6404102
0 3.2503004 1.0842022e-19
-2.840028 2 2.6830916
0 3.2402141 1.0842022e-19
-2.832973 3.6893488e+19 2.6590867
-0 3.1898332 2
-2.7987523 3.6893488e+19 2.6036026
-1.0842022e-19 3.2255452 0
-2.7674921 -0 2.6189191
0 3.1879029 -3.6893488e+19
-2.797441 -3.6893488e+19 2.5887067
0 3.2247019 1.0842022e-19
-2.7670176 -1.0842022e-19 2.6040521
1.0842022e-19 3.2282567 -1.0842022e-19
-2.7255001 2 2.5967424
-3.6893488e+19 3.252394 2
-2.8088226 -2 2.6138341
-0 3.253082 -0
-2.7516234 -2 2.6019988
-0 3.2352154 0
-2.7968483 0 2.5851738
0 3.2484841 -0
-2.8049657 -1.0842022e-19 2.5794256
3.6893488e+19 3.249543 2
-2.7466638 -2 2.5679379
2 3.2503343 1.0842022e-19
-2.7477829 3.6893488e+19 2.5539427
-0 3.2455242 -0
-2.7426682 1.0842022e-19 2.5362864
1.0842022e-19 3.1747582 3.6893488e+19
-2.7598612 -1.0842022e-19 2.4854743
-3.6893488e+19 3.2374175 -3.6893488e+19
-2.7346082 0 2.5030966
-3.6893488e+19 3.1503737 -3.6893488e+19
-2.7719498 -2 2.4022222
-1.0842022e-19 3.1810856 1.0842022e-19
-2.7349675 -3.6893488e+19 2.4133196
-3.6893488e+19 3.1508429 -1.0842022e-19
-2.7722685 2 2.3787684
1.0842022e-19 3.1805844 -3.6893488e+19
-2.7344034 2 2.3875847
1.0842022e-19 3.1530588 0
-2.7737737 -0 2.356842
-1.0842022e-19 3.1799712 -3.6893488e+19
-2.7337136 3.6893488e+19 2.3618474
0 3.1564062 -0
-2.7760472 -3.6893488e+19 2.3356261
-0 3.1825705 3.6893488e+19
-2.7366378 0 2.338738
1.0842022e-19 3.2136664 -1.0842022e-19
-2.8149407 -2 2.35536
-0 3.2311244 -3.6893488e+19
-2.7706301 -3.6893488e+19 2.3486545
-3.6893488e+19 3.2115302 1.0842022e-19
-2.8134899 0 2.3263361
-3.6893488e+19 3.2847228 -2
-2.8203106 -3.6893488e+19 2.3794408
0 3.1460547 -3.6893488e+19
-2.769016 2 2.256561
-1.0842022e-19 3.1758876 0
-2.7291198 -1.0842022e-19 2.2589629
2 3.1492381 2
-2.7711785 2 2.2199712
1.0842022e-19 3.1642978 -0
-2.7160811 -0 2.205591
-1.0842022e-19 3.1876729 1.0842022e-19
-2.6851504 -3.6893488e+19 2.2021649
-3.6893488e+19 3.2191818 -1.0842022e-19
-2.787039 -1.0842022e-19 2.2144585
-2 3.307981 -0
-2.806206 2 2.2826617
2 3.166095 -1.0842022e-19
-2.7545612 1.0842022e-19 2.1132178
1.0842022e-19 3.181591 -2
-2.6791034 -2 2.0963659
-1.0842022e-19 3.1871204 -0
-2.6846011 -2 2.050457
0 3.1587427 1.0842022e-19
-2.7500632 -1.0842022e-19 2.0112526
3.6893488e+19 3.2450664 -0
-2.742213 -0 2.0333102
-2 3.1661294 0
-2.7545824 2 1.9673833
2 3.244386 -2
-2.7415364 0 1.9760393
3.6893488e+19 3.1632822 -3.6893488e+19
-2.7528403 2 1.917649
0 3.2441664 -3.6893488e+19
-2.741318 -1.0842022e-19 1.9191155
2 3.1611011 1.0842022e-19
-2.7515061 0 1.8625953
0 3.1887324 -3.6893488e+19
-2.6862035 1.0842022e-19 1.824401
-0 3.2609408 3.6893488e+19
-2.8192801 1.0842022e-19 1.8048416
-3.6893488e+19 3.1419408 1.0842022e-19
-2.766222 -3.6893488e+19 1.6804683
3.6893488e+19 3.171639 3.6893488e+19
-2.72434 3.6893488e+19 1.56145
-3.6893488e+19 3.1373339 2
-2.7630928 -1.0842022e-19 -1.0086511
2 3.171428 -1.0842022e-19
-2.7241025 -2 -1.579236
-0 3.1369691 -2
-2.7628448 0 -1.6864892
0 3.1695721 3.6893488e+19
-2.7220147 1.0842022e-19 -1.7730763
1.0842022e-19 3.1408756 -3.6893488e+19
-2.7654982 1.0842022e-19 -1.8112916
0 3.1621015 0
-2.7136104 2 -1.8659459
-1.0842022e-19 3.1176045 -0
-2.7493834 -1.0842022e-19 -1.8809114
1.0842022e-19 3.1279674 2
-2.6752098 1.0842022e-19 -1.9043113
1.0842022e-19 3.1085498 -0
-2.7370827 -3.6893488e+19 -1.9199517
2 3.0154996 2
-2.5486846 1.0842022e-19 -1.8891779
-2 2.7842281 0
-2.3861184 -3.6893488e+19 -1.8267677
2 2.7621114 0
-2.294873 -3.6893488e+19 -1.8232318
2 2.728111 2
-2.2253554 3.6893488e+19 -1.8181105
1.0842022e-19 2.4581356 -0
-2.0302811 -0 -1.7011842
3.6893488e+19 2.6436372 3.6893488e+19
-2.1413684 1.0842022e-19 -1.8066721
-1.0842022e-19 2.4608204 1.0842022e-19
-2.0319238 2 -1.7293251
-2 2.5841501 0
-2.0822244 -1.0842022e-19 -1.7984896
2 2.459187 -0
-2.0309243 2 -1.7526977
-3.6893488e+19 2.5429718 -0
-2.0412834 -3.6893488e+19 -1.7940186
-2 2.4587245 0
-2.0306416 2 -1.7660123
-3.6893488e+19 2.5067785 -0
-2.0052986 -2 -1.7879754
1.0842022e-19 2.4603848 1.0842022e-19
-2.0316572 0 -1.7800257
-2 2.4627399 3.6893488e+19
-1.9800365 3.6893488e+19 -1.7852296
0 2.4367762 -1.0842022e-19
-2.0172136 1.0842022e-19 -1.7849034
0 3.2133629 -2
-2.7632675 -0 2.6938412
-3.6893488e+19 3.2771428 3.6893488e+19
-2.8149271 -2 2.757021
-0 3.26561 2
-2.8639407 -3.6893488e+19 2.742718
0 3.2667038 2
-2.8654394 1.0842022e-19 2.7282948
3.6893488e+19 3.2461267 1.0842022e-19
-2.8398981 -3.6893488e+19 2.6796055
1.0842022e-19 3.1937613 0
-2.7521307 2 2.6212127
3.6893488e+19 3.239485 2
-2.8353479 2 2.6588445
-3.6893488e+19 3.1982682 -0
-2.7546914 -3.6893488e+19 2.61148
3.6893488e+19 3.2248673 -2
-2.769804 1.0842022e-19 2.6186669
-2 3.2402911 -3.6893488e+19
-2.8359001 1.0842022e-19 2.6295679
-0 3.2198818 -3.6893488e+19
-2.7669713 -2 2.6007173
1.0842022e-19 3.2556272 1.0842022e-19
-2.7570069 -1.0842022e-19 2.6209095
1.0842022e-19 3.2530954 -2
-2.7544613 -1.0842022e-19 2.6022484
2 3.2384477 -0
-2.8016334 1.0842022e-19 2.5876789
-2 3.252923 -0
-2.7542882 -1.0842022e-19 2.5870695
-1.0842022e-19 3.2462533 2
-2.8064537 0 2.5782163
-3.6893488e+19 3.2447801 -1.0842022e-19
-2.8055439 1.0842022e-19 2.5624568
-3.6893488e+19 3.2509794 -1.0842022e-19
-2.7523341 -3.6893488e+19 2.5549262
-2 3.2622149 -1.0842022e-19
-2.8238537 2 2.5655427
-1.0842022e-19 3.2454391 -1.0842022e-19
-2.7481132 2 2.5364251
3.6893488e+19 3.1728771 3.6893488e+19
-2.7611413 -3.6893488e+19 2.4837146
-2 3.242276 1.0842022e-19
-2.7449331 -3.6893488e+19 2.5201797
3.6893488e+19 3.2416134 2
-2.8035884 1.0842022e-19 2.5165675
-0 3.2371578 0
-2.7397873 0 2.5031278
0 3.2349739 1.0842022e-19
-2.8322573 -0 2.4876494
-0 3.2329354 -1.0842022e-19
-2.7743881 3.6893488e+19 2.4633765
1.0842022e-19 3.2378321 2
-2.8342154 3.6893488e+19 2.46138
-1.0842022e-19 3.1793683 1.0842022e-19
-2.7379062 -2 2.3867769
3.6893488e+19 3.2139728 0
-2.8178694 -3.6893488e+19 2.4111395
-1.0842022e-19 3.2846303 -1.0842022e-19
-2.8234353 -2 2.4794238
-1.0842022e-19 3.2157421 3.6893488e+19
-2.8190815 3.6893488e+19 2.384973
0 3.182519 1.0842022e-19
-2.7414863 2 2.338949
-3.6893488e+19 3.2310069 -3.6893488e+19
-2.7732923 -0 2.3488283
0 3.1489553 0
-2.7733257 -0 2.2823436
2 3.2274523 -2
-2.7712727 3.6893488e+19 2.3183787
1.0842022e-19 3.242768 0
-2.8375971 -3.6893488e+19 2.3194971
3.6893488e+19 3.3078237 0
-2.8497908 2 2.3746252
0 3.2280965 -1.0842022e-19
-2.8275454 -2 2.2816525
1.0842022e-19 3.2209508 3.6893488e+19
-2.7675788 0 2.2591376
0 3.3062305 -1.0842022e-19
-2.8078833 -3.6893488e+19 2.3165779
-3.6893488e+19 3.2135572 -0
-2.7862628 1.0842022e-19 2.2092612
-3.6893488e+19 3.3075066 3.6893488e+19
-2.8091664 2 2.2824116
-0 3.2171962 -2
-2.7885098 -3.6893488e+19 2.1581542
-0 3.1810353 3.6893488e+19
-2.6833618 0 2.0961473
2 3.2603292 -3.6893488e+19
-2.8215246 -2 2.1439438
-1.0842022e-19 3.1874392 -1.0842022e-19
-2.6898003 -3.6893488e+19 2.0508735
-3.6893488e+19 3.2602258 -1.0842022e-19
-2.8213971 -3.6893488e+19 2.0829215
-3.6893488e+19 3.3144457 3.6893488e+19
-2.816143 -2 2.1101303
-3.6893488e+19 3.260035 -1.0842022e-19
-2.8211615 3.6893488e+19 2.0219007
-0 3.3050923 2
-2.8067391 -2 2.0291669
-0 3.2599511 3.6893488e+19
-2.8210578 3.6893488e+19 1.9610701
-0 3.295887 0
-2.7974842 2 1.9526523
-3.6893488e+19 3.2602274 3.6893488e+19
-2.8213992 1.0842022e-19 1.9005196
1.0842022e-19 3.2289312 3.6893488e+19
-2.7315161 -3.6893488e+19 1.842814
-3.6893488e+19 3.2594762 -0
-2.8204713 2 1.8039767
-0 3.1452262 -1.0842022e-19
-2.7707708 -0 1.6821442
2 3.1655545 -1.0842022e-19
-2.722209 -3.6893488e+19 1.5588958
2 3.1371055 2
-2.7652073 2 -1.008692
1.0842022e-19 3.1684098 2
-2.7254536 0 -1.577924
0 3.1371548 -3.6893488e+19
-2.7652409 1.0842022e-19 -1.6867459
2 3.1720562 3.6893488e+19
-2.7295971 3.6893488e+19 -1.7740636
-3.6893488e+19 3.1412349 -1.0842022e-19
-2.7680364 0 -1.81163
-3.6893488e+19 3.1614649 -2
-2.717562 -1.0842022e-19 -1.8657525
-2 3.1453249 3.6893488e+19
-2.7708385 -2 -1.8909093
-3.6893488e+19 3.1271157 -3.6893488e+19
-2.6785297 2 -1.904078
-0 3.1077559 -2
-2.7401996 2 -1.9197274
2 3.0085123 2
-2.5437565 1.0842022e-19 -1.8856157
1.0842022e-19 2.7824378 3.6893488e+19
-2.3869982 2 -1.8256764
-1.0842022e-19 2.7612562 -1.0842022e-19
-2.2968745 -1.0842022e-19 -1.8227319
3.6893488e+19 2.7261021 -0
-2.2286718 0 -1.8174254
-1.0842022e-19 2.4599128 -2
-2.0340121 3.6893488e+19 -1.7021277
-2 2.6449523 -3.6893488e+19
-2.147084 0 -1.8073988
1.0842022e-19 2.4599719 -1.0842022e-19
-2.0340486 -3.6893488e+19 -1.7290875
3.6893488e+19 2.5847778 2
-2.0865848 -1.0842022e-19 -1.7989296
-0 2.4588165 2
-2.0333352 2 -1.7526977
-0 2.5426588 -2
-2.0442383 2 -1.7939489
-1.0842022e-19 2.4585927 -0
-2.0331969 0 -1.7660856
0 2.5069728 -0
-2.0083597 -2 -1.7882057
1.0842022e-19 2.458823 -1.0842022e-19
-2.033339 -0 -1.7796245
-0 2.4619532 3.6893488e+19
-1.9822233 -3.6893488e+19 -1.7850621
-1.0842022e-19 2.4380894 2
-2.0205355 -3.6893488e+19 -1.7855136
2 2.3928378 -0
-1.947479 -3.6893488e+19 -1.7838936
0 2.3304589 -0
-1.9763985 2 -1.7817215
2 2.2860315 -1.0842022e-19
-1.9459611 -2 -1.7777531
0 2.257395 -2
-1.9263421 -2 -1.7779037
-0 2.2104418 -2
-1.9077251 0 -1.7756287
0 2.1817541 2
-1.8420422 3.6893488e+19 -1.7755169
3.6893488e+19 2.1487381 2
-1.8254452 2 -1.7758276
-3.6893488e+19 2.119138 -0
-1.8105652 1.0842022e-19 -1.7756304
-2 2.0905724 -3.6893488e+19
-1.7962053 -3.6893488e+19 -1.774178
0 3.2133629 -2
-2.7632675 -0 2.6938412
-3.6893488e+19 3.2771428 3.6893488e+19
-2.8149271 -2 2.757021
3.6893488e+19 3.1859839 0
-2.7986941 -3.6893488e+19 2.6543844
-3.6893488e+19 3.1858301 -0
-2.7985888 -0 2.6407993
3.6893488e+19 3.2461267 1.0842022e-19
-2.8398981 -3.6893488e+19 2.6796055
1.0842022e-19 3.1937613 0
-2.7521307 2 2.6212127
3.6893488e+19 3.239485 2
-2.8353479 2 2.6588445
-3.6893488e+19 3.1982682 -0
-2.7546914 -3.6893488e+19 2.61148
3.6893488e+19 3.2248673 -2
-2.769804 1.0842022e-19 2.6186669
-0 3.1875689 -1.0842022e-19
-2.7997799 -2 2.5887518
-0 3.2198818 -3.6893488e+19
-2.7669713 -2 2.6007173
-1.0842022e-19 3.228092 -3.6893488e+19
-2.7306724 3.6893488e+19 2.5968506
1.0842022e-19 3.2530954 -2
-2.7544613 -1.0842022e-19 2.6022484
2 3.2384477 -0
-2.8016334 1.0842022e-19 2.5876789
-2 3.252923 -0
-2.7542882 -1.0842022e-19 2.5870695
1.0842022e-19 3.2157574 -2
-2.7876213 1.0842022e-19 2.5580466
-3.6893488e+19 3.2447801 -1.0842022e-19
-2.8055439 1.0842022e-19 2.5624568
-3.6893488e+19 3.2509794 -1.0842022e-19
-2.7523341 -3.6893488e+19 2.5549262
-2 3.2622149 -1.0842022e-19
-2.8238537 2 2.5655427
-1.0842022e-19 3.2454391 -1.0842022e-19
-2.7481132 2 2.5364251
3.6893488e+19 3.1728771 3.6893488e+19
-2.7611413 -3.6893488e+19 2.4837146
-2 3.242276 1.0842022e-19
-2.7449331 -3.6893488e+19 2.5201797
3.6893488e+19 3.2416134 2
-2.8035884 1.0842022e-19 2.5165675
-0 3.2371578 0
-2.7397873 0 2.5031278
3.6893488e+19 3.149164 -2
-2.7734685 3.6893488e+19 2.4013662
-1.0842022e-19 3.1770627 -2
-2.7352862 -0 2.4097667
3.6893488e+19 3.1513655 0
-2.774977 -1.0842022e-19 2.379602
-1.0842022e-19 3.1793683 1.0842022e-19
-2.7379062 -2 2.3867769
-1.0842022e-19 3.150816 0
-2.7746005 -1.0842022e-19 2.3551745
1.0842022e-19 3.1780074 3.6893488e+19
-2.7363596 -2 2.360462
-3.6893488e+19 3.1507459 -2
-2.7745523 3.6893488e+19 2.3312485
0 3.182519 1.0842022e-19
-2.7414863 2 2.338949
-1.0842022e-19 3.16728 -1.0842022e-19
-2.7241697 3.6893488e+19 2.3026133
0 3.1489553 0
-2.7733257 -0 2.2823436
2 3.2274523 -2
-2.7712727 3.6893488e+19 2.3183787
-0 3.1467612 3.6893488e+19
-2.7718225 1.0842022e-19 2.2572491
1.0842022e-19 3.1761713 -0
-2.7342732 0 2.2593279
1.0842022e-19 3.1458135 -2
-2.771173 -2 2.2163572
1.0842022e-19 3.1634505 2
-2.7198181 2 2.2049968
-1.0842022e-19 3.1844516 0
-2.6867967 -2 2.1991317
1.0842022e-19 3.1706057 -3.6893488e+19
-2.7597384 0 2.1667075
3.6893488e+19 3.1830573 1.0842022e-19
-2.6853948 -3.6893488e+19 2.147716
1.0842022e-19 3.1678467 -3.6893488e+19
-2.7580347 -0 2.1150413
-0 3.1810353 3.6893488e+19
-2.6833618 0 2.0961473
2 3.2603292 -3.6893488e+19
-2.8215246 -2 2.1439438
-1.0842022e-19 3.1874392 -1.0842022e-19
-2.6898003 -3.6893488e+19 2.0508735
-3.6893488e+19 3.2602258 -1.0842022e-19
-2.8213971 -3.6893488e+19 2.0829215
1.0842022e-19 3.184648 -3.6893488e+19
-2.6869938 1.0842022e-19 1.9988981
-3.6893488e+19 3.1649878 3.6893488e+19
-2.7562695 2 1.966962
2 3.2430315 -1.0842022e-19
-2.7456925 -2 1.9755679
2 3.1660831 0
-2.7569458 3.6893488e+19 1.9189215
-1.0842022e-19 3.244751 0
-2.7474215 0 1.9194269
3.6893488e+19 3.1583512 -0
-2.752171 -0 1.8611965
0 3.1828685 3.6893488e+19
-2.6852047 1.0842022e-19 1.8218651
-1.0842022e-19 3.1502094 -3.6893488e+19
-2.7442865 2 1.7630244
-0 3.1452262 -1.0842022e-19
-2.7707708 -0 1.6821442
2 3.1655545 -1.0842022e-19
-2.722209 -3.6893488e+19 1.5588958
2 3.1371055 2
-2.7652073 2 -1.008692
1.0842022e-19 3.1684098 2
-2.7254536 0 -1.577924
0 3.1371548 -3.6893488e+19
-2.7652409 1.0842022e-19 -1.6867459
2 3.1720562 3.6893488e+19
-2.7295971 3.6893488e+19 -1.7740636
-3.6893488e+19 3.1412349 -1.0842022e-19
-2.7680364 0 -1.81163
-3.6893488e+19 3.1614649 -2
-2.717562 -1.0842022e-19 -1.8657525
2 3.1150291 0
-2.7500827 0 -1.8801107
-3.6893488e+19 3.1271157 -3.6893488e+19
-2.6785297 2 -1.904078
-0 3.1077559 -2
-2.7401996 2 -1.9197274
2 3.0085123 2
-2.5437565 1.0842022e-19 -1.8856157
1.0842022e-19 2.7824378 3.6893488e+19
-2.3869982 2 -1.8256764
-1.0842022e-19 2.7612562 -1.0842022e-19
-2.2968745 -1.0842022e-19 -1.8227319
3.6893488e+19 2.7261021 -0
-2.2286718 0 -1.8174254
-1.0842022e-19 2.4599128 -2
-2.0340121 3.6893488e+19 -1.7021277
-2 2.6449523 -3.6893488e+19
-2.147084 0 -1.8073988
1.0842022e-19 2.4599719 -1.0842022e-19
-2.0340486 -3.6893488e+19 -1.7290875
3.6893488e+19 2.5847778 2
-2.0865848 -1.0842022e-19 -1.7989296
-0 2.4588165 2
-2.0333352 2 -1.7526977
-0 2.5426588 -2
-2.0442383 2 -1.7939489
-1.0842022e-19 2.4585927 -0
-2.0331969 0 -1.7660856
0 2.5069728 -0
-2.0083597 -2 -1.7882057
1.0842022e-19 2.458823 -1.0842022e-19
-2.033339 -0 -1.7796245
-0 2.4619532 3.6893488e+19
-1.9822233 -3.6893488e+19 -1.7850621
-1.0842022e-19 2.4380894 2
-2.0205355 -3.6893488e+19 -1.7855136
2 2.3928378 -0
-1.947479 -3.6893488e+19 -1.7838936
0 2.3304589 -0
-1.9763985 2 -1.7817215
2 2.2860315 -1.0842022e-19
-1.9459611 -2 -1.7777531
0 2.257395 -2
-1.9263421 -2 -1.7779037
-0 2.2104418 -2
-1.9077251 0 -1.7756287
0 2.1817541 2
-1.8420422 3.6893488e+19 -1.7755169
3.6893488e+19 2.1487381 2
-1.8254452 2 -1.7758276
-3.6893488e+19 2.119138 -0
-1.8105652 1.0842022e-19 -1.7756304
-2 2.0905724 -3.6893488e+19
-1.7962053 -3.6893488e+19 -1.774178
3.6893488e+19 3.2595716 -2
-2.8587177 1.0842022e-19 2.7570789
1.0842022e-19 3.2132204 3.6893488e+19
-2.7658193 3.6893488e+19 2.6940377
1.0842022e-19 3.2523839 -0
-2.8487847 1.0842022e-19 2.7342403
-2 3.2774041 2
-2.8183773 -2 2.7574563
-0 3.2641006 -1.0842022e-19
-2.8649766 -2 2.740361
-1.0842022e-19 3.2661304 0
-2.8677821 -1.0842022e-19 2.7276983
1.0842022e-19 3.2458231 -3.6893488e+19
-2.8426039 -2 2.6797309
1.0842022e-19 3.1938114 -3.6893488e+19
-2.7546813 -0 2.6215332
0 3.2370145 -2
-2.8365173 -2 2.6571486
0 3.1979322 2
-2.7570462 -3.6893488e+19 2.61148
-3.6893488e+19 3.2378182 -2
-2.8370728 3.6893488e+19 2.6428866
3.6893488e+19 3.2245703 -1.0842022e-19
-2.7723324 -0 2.6187127
-3.6893488e+19 3.2400515 1.0842022e-19
-2.8386161 0 2.6297255
-2 3.2540703 0
-2.7582827 -2 2.6188955
-1.0842022e-19 3.2529123 3.6893488e+19
-2.7571054 2 2.6022277
-1.0842022e-19 3.2366955 2
-2.8033552 -1.0842022e-19 2.5867419
-3.6893488e+19 3.2527251 -2
-2.7569151 2 2.5870297
-2 3.2458489 -3.6893488e+19
-2.8090603 0 2.5782163
2 3.254246 -3.6893488e+19
-2.758461 0 2.5740614
-1.0842022e-19 3.2419579 -1.0842022e-19
-2.8066351 2 2.5609279
1.0842022e-19 3.247431 -0
-2.7528389 3.6893488e+19 2.5523763
-3.6893488e+19 3.2456501 0
-2.7519338 3.6893488e+19 2.5367374
-2 3.1734488 0
-2.7639339 0 2.4847639
-2 3.2400577 0
-2.7481825 -2 2.519141
0 3.2416272 -2
-2.8064289 0 2.5167923
-3.6893488e+19 3.2375855 2
-2.7456694 3.6893488e+19 2.5035183
-3.6893488e+19 3.1489205 0
-2.7756464 -0 2.4014843
-3.6893488e+19 3.2331998 -0
-2.7772846 1.0842022e-19 2.4639783
1.0842022e-19 3.2372739 -1.0842022e-19
-2.8366966 1.0842022e-19 2.4612689
2 3.2353985 1.0842022e-19
-2.7785463 -3.6893488e+19 2.4375772
1.0842022e-19 3.2242172 -3.6893488e+19
-2.8276746 -2 2.4205973
-1.0842022e-19 3.1817806 1.0842022e-19
-2.7455554 2 2.3639128
1.0842022e-19 3.2142632 3.6893488e+19
-2.8207967 1.0842022e-19 2.3840976
-3.6893488e+19 3.2733064 -3.6893488e+19
-2.8136742 1.0842022e-19 2.4286819
-0 3.15503 1.0842022e-19
-2.7798679 3.6893488e+19 2.3109796
1.0842022e-19 3.2298384 3.6893488e+19
-2.7753556 0 2.348242
1.0842022e-19 3.1463284 1.0842022e-19
-2.7738552 -3.6893488e+19 2.2807381
-3.6893488e+19 3.2293696 -1.0842022e-19
-2.7750866 -1.0842022e-19 2.3198972
3.6893488e+19 3.2417338 3.6893488e+19
-2.8397784 -1.0842022e-19 2.3191149
-2 3.2752831 2
-2.815943 3.6893488e+19 2.3352745
0 3.2284601 3.6893488e+19
-2.8306065 3.6893488e+19 2.2821217
2 3.2257829 1.0842022e-19
-2.7730284 -3.6893488e+19 2.2619927
2 3.3059516 2
-2.811024 -3.6893488e+19 2.3164997
1.0842022e-19 3.2173493 2
-2.7912967 -1.0842022e-19 2.2133954
-0 3.1820138 -0
-2.6891761 -2 2.1470213
3.6893488e+19 3.2610419 -1.0842022e-19
-2.8254125 -1.0842022e-19 2.2064774
-1.0842022e-19 3.1788735 2
-2.6859839 3.6893488e+19 2.09464
-2 3.2604151 -1.0842022e-19
-2.8246312 0 2.1443954
0 3.2858293 -2
-2.7905679 -2 2.1434517
-2 3.2597306 -1.0842022e-19
-2.8237779 0 2.0825591
2 3.313889 2
-2.819093 -1.0842022e-19 2.1097314
3.6893488e+19 3.2597935 2
-2.8238564 -1.0842022e-19 2.0218694
2 3.3041027 -2
-2.8091443 -2 2.0284462
-1.0842022e-19 3.2597542 0
-2.8238075 0 1.9610822
-1.0842022e-19 3.2957814 -0
-2.8006852 -0 1.9527146
-3.6893488e+19 3.2594337 -3.6893488e+19
-2.8234079 -0 1.9001828
2 3.1848826 -2
-2.6920924 -3.6893488e+19 1.8229125
2 3.2589219 -1.0842022e-19
-2.8227696 -1.0842022e-19 1.8037398
0 3.1427722 3.6893488e+19
-2.7713978 -3.6893488e+19 1.6811768
-3.6893488e+19 3.1660538 -1.0842022e-19
-2.7275057 -3.6893488e+19 1.559255
0 3.1363127 -1.0842022e-19
-2.7669344 -0 -1.0085388
-2 3.1691473 -3.6893488e+19
-2.731056 3.6893488e+19 -1.5784342
0 3.1352987 -3.6893488e+19
-2.7662337 -0 -1.6860186
1.0842022e-19 3.172791 -0
-2.7352378 2 -1.7744352
-1.0842022e-19 3.139641 1.0842022e-19
-2.7692344 -3.6893488e+19 -1.8110377
-3.6893488e+19 3.1735001 -1.0842022e-19
-2.7360518 2 -1.8729804
3.6893488e+19 3.1450269 2
-2.7729559 -0 -1.8909304
-2 3.1262324 -3.6893488e+19
-2.6818025 2 -1.9038324
-3.6893488e+19 3.1075802 1.0842022e-19
-2.7441621 2 -1.9197975
2 3.014353 -0
-2.5533984 -0 -1.8887838
-0 2.7802348 -2
-2.3872736 -3.6893488e+19 -1.8242912
-3.6893488e+19 2.7614803 -0
-2.3001015 -2 -1.82305
3.6893488e+19 2.7263911 2
-2.2342892 -2 -1.81767
2 2.4609683 -0
-2.0373194 1.0842022e-19 -1.7027568
-1.0842022e-19 2.644932 1.0842022e-19
-2.1514797 -2 -1.8075105
-3.6893488e+19 2.4593587 0
-2.0363164 -1.0842022e-19 -1.7289687
-3.6893488e+19 2.5841928 -1.0842022e-19
-2.0897334 -2 -1.798741
-2 2.4579663 -3.6893488e+19
-2.0354483 2 -1.752565
2 2.5427063 2
-2.047559 -1.0842022e-19 -1.7940885
-0 2.4582191 3.6893488e+19
-2.0356059 0 -1.7660856
-2 2.5066812 -2
-2.0109367 -1.0842022e-19 -1.788129
1.0842022e-19 2.4584491 -1.0842022e-19
-2.0357492 -0 -1.7796245
2 2.4616466 -2
-1.98465 -3.6893488e+19 -1.7850621
0 2.4382081 -1.0842022e-19
-2.023133 -1.0842022e-19 -1.785688
3.6893488e+19 3.2595716 -2
-2.8587177 1.0842022e-19 2.7570789
1.0842022e-19 3.2132204 3.6893488e+19
-2.7658193 3.6893488e+19 2.6940377
1.0842022e-19 3.2523839 -0
-2.8487847 1.0842022e-19 2.7342403
-2 3.2774041 2
-2.8183773 -2 2.7574563
-0 3.1862535 -0
-2.8014426 -1.0842022e-19 2.6550004
-2 3.184454 2
-2.8001993 3.6893488e+19 2.6399176
1.0842022e-19 3.2458231 -3.6893488e+19
-2.8426039 -2 2.6797309
1.0842022e-19 3.1938114 -3.6893488e+19
-2.7546813 -0 2.6215332
0 3.2370145 -2
-2.8365173 -2 2.6571486
0 3.1979322 2
-2.7570462 -3.6893488e+19 2.61148
-3.6893488e+19 3.2378182 -2
-2.8370728 3.6893488e+19 2.6428866
3.6893488e+19 3.2245703 -1.0842022e-19
-2.7723324 -0 2.6187127
0 3.1876385 1.0842022e-19
-2.8023996 -0 2.589112
-3.6893488e+19 3.230489 -2
-2.7384551 -3.6893488e+19 2.5988212
-1.0842022e-19 3.2529123 3.6893488e+19
-2.7571054 2 2.6022277
-1.0842022e-19 3.2366955 2
-2.8033552 -1.0842022e-19 2.5867419
-3.6893488e+19 3.2527251 -2
-2.7569151 2 2.5870297
-2 3.2458489 -3.6893488e+19
-2.8090603 0 2.5782163
2 3.254246 -3.6893488e+19
-2.758461 0 2.5740614
-3.6893488e+19 3.1921012 0
-2.7755599 0 2.5294175
1.0842022e-19 3.247431 -0
-2.7528389 3.6893488e+19 2.5523763
-3.6893488e+19 3.2456501 0
-2.7519338 3.6893488e+19 2.5367374
-2 3.1734488 0
-2.7639339 0 2.4847639
-2 3.2400577 0
-2.7481825 -2 2.519141
0 3.2416272 -2
-2.8064289 0 2.5167923
-3.6893488e+19 3.2375855 2
-2.7456694 3.6893488e+19 2.5035183
-3.6893488e+19 3.1489205 0
-2.7756464 -0 2.4014843
-0 3.1820242 -3.6893488e+19
-2.7458348 2 2.4148383
-3.6893488e+19 3.1508853 3.6893488e+19
-2.777004 -0 2.3794909
-3.6893488e+19 3.1813457 1.0842022e-19
-2.7450564 2 2.38885
-0 3.1504245 -0
-2.7766855 2 2.3551486
-1.0842022e-19 3.1817806 1.0842022e-19
-2.7455554 2 2.3639128
-2 3.1503251 3.6893488e+19
-2.7766168 3.6893488e+19 2.3311999
0 3.1831217 2
-2.7470944 -2 2.3396759
-0 3.15503 1.0842022e-19
-2.7798679 3.6893488e+19 2.3109796
-3.6893488e+19 3.1675355 -0
-2.7292063 1.0842022e-19 2.303026
1.0842022e-19 3.1463284 1.0842022e-19
-2.7738552 -3.6893488e+19 2.2807381
-3.6893488e+19 3.2293696 -1.0842022e-19
-2.7750866 -1.0842022e-19 2.3198972
1.0842022e-19 3.1453426 -3.6893488e+19
-2.7731738 2 2.256561
-3.6893488e+19 3.173425 1.0842022e-19
-2.7359657 0 2.2578502
0 3.1458979 1.0842022e-19
-2.7735577 0 2.2168787
3.6893488e+19 3.1630805 0
-2.7240932 3.6893488e+19 2.2049308
2 3.3059516 2
-2.811024 -3.6893488e+19 2.3164997
1.0842022e-19 3.2173493 2
-2.7912967 -1.0842022e-19 2.2133954
-0 3.1820138 -0
-2.6891761 -2 2.1470213
-1.0842022e-19 3.1680126 1.0842022e-19
-2.7605455 0 2.1154842
-1.0842022e-19 3.1788735 2
-2.6859839 3.6893488e+19 2.09464
-0 3.1677372 1.0842022e-19
-2.7603738 0 2.0663288
-2 3.1867251 3.6893488e+19
-2.6939657 0 2.0505822
-2 3.2597306 -1.0842022e-19
-2.8237779 0 2.0825591
1.0842022e-19 3.1892631 2
-2.6965456 0 2.001708
3.6893488e+19 3.1633675 3.6893488e+19
-2.7576501 0 1.9662911
2 3.1912055 3.6893488e+19
-2.6985202 1.0842022e-19 1.9519911
-2 3.1668177 2
-2.7598007 0 1.9193578
-1.0842022e-19 3.2957814 -0
-2.8006852 -0 1.9527146
2 3.1567955 1.0842022e-19
-2.7535539 -0 1.8604885
2 3.1848826 -2
-2.6920924 -3.6893488e+19 1.8229125
1.0842022e-19 3.1491973 -0
-2.7476358 -0 1.7627876
0 3.1427722 3.6893488e+19
-2.7713978 -3.6893488e+19 1.6811768
-3.6893488e+19 3.1660538 -1.0842022e-19
-2.7275057 -3.6893488e+19 1.559255
0 3.1363127 -1.0842022e-19
-2.7669344 -0 -1.0085388
-2 3.1691473 -3.6893488e+19
-2.731056 3.6893488e+19 -1.5784342
0 3.1352987 -3.6893488e+19
-2.7662337 -0 -1.6860186
1.0842022e-19 3.172791 -0
-2.7352378 2 -1.7744352
-1.0842022e-19 3.139641 1.0842022e-19
-2.7692344 -3.6893488e+19 -1.8110377
-3.6893488e+19 3.1735001 -1.0842022e-19
-2.7360518 2 -1.8729804
-0 3.1156442 -3.6893488e+19
-2.7526529 1.0842022e-19 -1.8804479
-2 3.1262324 -3.6893488e+19
-2.6818025 2 -1.9038324
-3.6893488e+19 3.1075802 1.0842022e-19
-2.7441621 2 -1.9197975
2 3.014353 -0
-2.5533984 -0 -1.8887838
-0 2.7802348 -2
-2.3872736 -3.6893488e+19 -1.8242912
-3.6893488e+19 2.7614803 -0
-2.3001015 -2 -1.82305
3.6893488e+19 2.7263911 2
-2.2342892 -2 -1.81767
2 2.4609683 -0
-2.0373194 1.0842022e-19 -1.7027568
-1.0842022e-19 2.644932 1.0842022e-19
-2.1514797 -2 -1.8075105
-3.6893488e+19 2.4593587 0
-2.0363164 -1.0842022e-19 -1.7289687
-3.6893488e+19 2.5841928 -1.0842022e-19
-2.0897334 -2 -1.798741
-2 2.4579663 -3.6893488e+19
-2.0354483 2 -1.752565
2 2.5427063 2
-2.047559 -1.0842022e-19 -1.7940885
-0 2.4582191 3.6893488e+19
-2.0356059 0 -1.7660856
-2 2.5066812 -2
-2.0109367 -1.0842022e-19 -1.788129
1.0842022e-19 2.4584491 -1.0842022e-19
-2.0357492 -0 -1.7796245
2 2.4616466 -2
-1.98465 -3.6893488e+19 -1.7850621
0 2.4382081 -1.0842022e-19
-2.023133 -1.0842022e-19 -1.785688
-2 3.2521827 -2
-2.8514748 1.0842022e-19 2.7342956
3.6893488e+19 3.2771795 -2
-2.8212731 -1.0842022e-19 2.7574427
-3.6893488e+19 3.2637734 0
-2.8676293 -2 2.7402003
-2 3.2658014 0
-2.8704557 0 2.7275429
1.0842022e-19 3.2414687 2
-2.8424873 1.0842022e-19 2.6763453
3.6893488e+19 3.1938579 2
-2.7572334 -1.0842022e-19 2.6218536
-0 3.2365708 -2
-2.8390741 -2 2.6571486
2 3.1974163 -3.6893488e+19
-2.7592955 0 2.6113374
-0 3.2367363 -0
-2.8391895 0 2.6423726
3.6893488e+19 3.2238865 -2
-2.774636 0 2.6184604
2 3.2338579 0
-2.8371837 -2 2.6252677
0 3.2534976 -3.6893488e+19
-2.7605369 3.6893488e+19 2.6183109
-0 3.2530859 -0
-2.760114 -0 2.602706
-0 3.2515099 0
-2.7584944 -3.6893488e+19 2.585634
0 3.243881 -1.0842022e-19
-2.8106821 -3.6893488e+19 2.5771823
-2 3.2531929 1.0842022e-19
-2.7602241 3.6893488e+19 2.5729358
-1.0842022e-19 3.2402565 0
-2.8084023 2 2.5601075
3.6893488e+19 3.2470973 2
-2.7554507 3.6893488e+19 2.5523763
-1.0842022e-19 3.2470157 -3.6893488e+19
-2.812654 2 2.5495379
-1.0842022e-19 3.2439687 1.0842022e-19
-2.7538431 3.6893488e+19 2.5359566
-1.0842022e-19 3.2371187 -2
-2.7503228 1.0842022e-19 2.5177066
0 3.2427309 0
-2.8099587 -1.0842022e-19 2.517611
0 3.2379193 0
-2.7507343 1.0842022e-19 2.5038621
3.6893488e+19 3.241684 -2
-2.8426373 -1.0842022e-19 2.4952948
0 3.2357862 -3.6893488e+19
-2.7815323 0 2.466815
-2 3.2378564 -0
-2.8399701 3.6893488e+19 2.4622414
1.0842022e-19 3.2369707 1.0842022e-19
-2.7822189 2 2.4393272
-1.0842022e-19 3.2234917 2
-2.8299599 0 2.420337
-0 3.1838129 1.0842022e-19
-2.7514119 1.0842022e-19 2.3659027
1.0842022e-19 3.2128417 -1.0842022e-19
-2.8225381 -2 2.3832705
-3.6893488e+19 3.1846464 3.6893488e+19
-2.751895 -2 2.34113
1.0842022e-19 3.153662 1.0842022e-19
-2.7812979 -0 2.3102117
-0 3.2278903 0
-2.7769566 2 2.347091
3.6893488e+19 3.1511431 -3.6893488e+19
-2.7795424 0 2.2844079
-1.0842022e-19 3.2283785 0
-2.7772396 -1.0842022e-19 2.3194776
-2 3.2425511 3.6893488e+19
-2.8432417 -1.0842022e-19 2.3199368
1.0842022e-19 3.2761974 1.0842022e-19
-2.8201349 2 2.3366427
0 3.2277005 -1.0842022e-19
-2.8328927 -2 2.2819304
-3.6893488e+19 3.2260215 -3.6893488e+19
-2.7758734 -0 2.2623229
-1.0842022e-19 3.3041604 -0
-2.8126068 2 2.3148582
3.6893488e+19 3.215626 -0
-2.792908 -3.6893488e+19 2.2120664
-0 3.1728694 0
-2.6846125 -1.0842022e-19 2.1388786
-0 3.2608273 3.6893488e+19
-2.8281536 -1.0842022e-19 2.2064774
1.0842022e-19 3.1794021 -0
-2.6913264 2 2.0952964
1.0842022e-19 3.2601714 -3.6893488e+19
-2.8273282 -2 2.1443501
3.6893488e+19 3.2680526 -1.0842022e-19
-2.7754962 -2 2.1192293
-2 3.2595022 0
-2.8264866 -2 2.0825398
1.0842022e-19 3.3134062 -3.6893488e+19
-2.8221092 0 2.1094193
0 3.2596247 -3.6893488e+19
-2.8266404 -2 2.0219162
1.0842022e-19 3.1940863 -2
-2.7064183 -0 1.9534464
1.0842022e-19 3.259809 3.6893488e+19
-2.8268723 -2 1.9613003
-2 3.2977011 2
-2.8059683 -1.0842022e-19 1.9541672
1.0842022e-19 3.2594144 2
-2.826376 1.0842022e-19 1.9002951
-2 3.2977219 -2
-2.8059895 -0 1.8855824
2 3.2589624 0
-2.8258073 -3.6893488e+19 1.8039148
-3.6893488e+19 3.1404371 2
-2.7720821 -1.0842022e-19 1.680264
2 3.16787 -0
-2.7343447 -3.6893488e+19 1.5601995
1.0842022e-19 3.1382036 -0
-2.7705255 -2 -1.0093148
0 3.1738126 2
-2.7412326 -1.0842022e-19 -1.5808543
3.6893488e+19 3.1372199 3.6893488e+19
-2.76984 1.0842022e-19 -1.6871166
1.0842022e-19 3.1739416 -0
-2.7413821 1.0842022e-19 -1.7749554
-3.6893488e+19 3.1380763 -3.6893488e+19
-2.7704368 0 -1.8104596
0 3.1739299 -1.0842022e-19
-2.7413685 2 -1.87342
3.6893488e+19 3.1449916 1.0842022e-19
-2.7752559 -1.0842022e-19 -1.8910463
-3.6893488e+19 3.1260076 3.6893488e+19
-2.685823 2 -1.903857
3.6893488e+19 3.1065466 3.6893488e+19
-2.7469299 -1.0842022e-19 -1.919461
1.0842022e-19 3.011483 2
-2.5530796 -3.6893488e+19 -1.887381
2 2.7805693 3.6893488e+19
-2.3910379 0 -1.8247111
1.0842022e-19 2.7635014 0
-2.3054192 1.0842022e-19 -1.8247319
-3.6893488e+19 2.7248621 2
-2.238049 -0 -1.8171806
3.6893488e+19 2.4579697 -0
-2.0380917 1.0842022e-19 -1.7016035
-0 2.6445463 0
-2.1555028 -3.6893488e+19 -1.8074546
-2 2.458267 1.0842022e-19
-2.0382788 -3.6893488e+19 -1.7286124
2 2.5840895 1.0842022e-19
-2.0933671 0 -1.7988039
1.0842022e-19 2.4585419 1.0842022e-19
-2.0384517 1.0842022e-19 -1.7528304
2 2.5437176 -2
-2.0518739 0 -1.7947867
3.6893488e+19 2.4580803 3.6893488e+19
