# .PCD v0.7 - Point Cloud Data file format
VERSION 0.7
FIELDS x y z
SIZE 4 4 4
TYPE F F F
COUNT 1 1 1
WIDTH 1682
HEIGHT 1
VIEWPOINT 0 0 0 1 0 0 0
POINTS 1682
DATA ascii
-1.0842022e-19 3.0943556 2
2.4135387 -1.0842022e-19 2.4286647
3.6893488e+19 3.1134131 -1.0842022e-19
2.2792814 1.0842022e-19 2.4390204
3.6893488e+19 3.1051126 3.6893488e+19
2.4264567 3.6893488e+19 2.4215786
0 3.1024373 -0
2.4232438 1.0842022e-19 2.3981178
2 3.1088071 0
2.2757418 -0 2.3924263
0 3.0667133 -0
2.3803427 3.6893488e+19 2.3395739
0 3.1003771 3.6893488e+19
2.2692633 1.0842022e-19 2.3632295
1.0842022e-19 3.0661397 2
2.3796539 -2 2.320832
-1.0842022e-19 3.0982132 -3.6893488e+19
2.2676003 0 2.3411725
2 3.1172106 -0
2.1337645 -1.0842022e-19 2.3484917
-3.6893488e+19 3.1175046 -2
2.1340718 -2 2.3279588
0 3.0969033 2
2.3302925 2 2.3012388
3.6893488e+19 3.1144934 -3.6893488e+19
2.1309247 1.0842022e-19 2.3046622
-1.0842022e-19 3.0979891 -2
2.3313262 -2 2.2824233
-1.0842022e-19 3.1105282 -0
2.126781 -0 2.2809963
2 3.0769379 2
2.3112831 -1.0842022e-19 2.2436101
-2 3.0437417 -0
2.0569837 -1.0842022e-19 2.1747611
-2 3.0780709 1.0842022e-19
2.312362 -3.6893488e+19 2.2081668
-0 3.0445719 3.6893488e+19
2.0578513 1.0842022e-19 2.1427915
-1.0842022e-19 3.0693834 -2
2.3040903 -1.0842022e-19 2.159915
3.6893488e+19 3.0421548 1.0842022e-19
2.0553253 -2 2.1067021
3.6893488e+19 3.073267 -0
2.3077879 1.0842022e-19 2.1283743
-1.0842022e-19 3.0420227 3.6893488e+19
2.0551872 3.6893488e+19 2.0737309
2 3.0691807 1.0842022e-19
2.3038974 -0 2.0875645
2 3.0446243 2
2.353816 1.0842022e-19 2.0461957
-1.0842022e-19 3.0462499 -0
2.2053337 -0 2.0292294
3.6893488e+19 3.0429859 -3.6893488e+19
2.3518484 1.0842022e-19 2.0113931
-1.0842022e-19 3.0467987 -2
2.2061772 0 1.9963857
3.6893488e+19 3.0426593 -1.0842022e-19
2.3514562 -2 1.978002
-0 3.0480793 -1.0842022e-19
2.2081454 -2 1.9639742
3.6893488e+19 3.0435224 -3.6893488e+19
2.3524926 3.6893488e+19 1.9454994
2 3.0417614 -1.0842022e-19
2.1984348 1.0842022e-19 1.9266882
-1.0842022e-19 3.0425184 1.0842022e-19
2.3512871 -3.6893488e+19 1.9117947
2 3.0426083 -3.6893488e+19
2.1997364 -3.6893488e+19 1.8943787
-1.0842022e-19 3.0419014 2
2.3505461 -1.0842022e-19 1.8784963
-2 3.205462 -1.0842022e-19
2.3500206 -1.0842022e-19 1.9236561
-3.6893488e+19 3.0437107 1.0842022e-19
2.3527191 2 1.817301
-0 3.0474014 0
2.2071037 3.6893488e+19 1.785114
3.6893488e+19 3.0455065 -2
2.3548753 1.0842022e-19 1.7517926
0 3.0465581 -2
2.2058072 3.6893488e+19 1.6863647
-1.0842022e-19 3.0422463 -1.0842022e-19
2.0554209 0 1.610747
3.6893488e+19 3.0410671 -0
2.0541885 -0 -1.2040435
-3.6893488e+19 3.0722539 -0
2.3068235 1.0842022e-19 -1.5481522
-1.0842022e-19 3.0404973 0
2.0535932 3.6893488e+19 -1.6425993
-1.0842022e-19 2.9565406 -0
1.9885608 -3.6893488e+19 -1.7141361
1.0842022e-19 3.0259445 3.6893488e+19
2.2627313 -2 -1.7860661
-2 2.9561088 0
1.9883353 2 -1.7829604
-3.6893488e+19 2.9942303 3.6893488e+19
2.2205651 -1.0842022e-19 -1.8247845
-1.0842022e-19 2.9502313 -0
1.9852639 -1.0842022e-19 -1.8312863
-1.0842022e-19 2.9561074 -1.0842022e-19
2.1842675 1.0842022e-19 -1.8606431
0 2.9513774 -0
1.9858627 3.6893488e+19 -1.8786606
-2 2.9571726 -2
2.1852818 3.6893488e+19 -1.8938076
-0 2.864954 1.0842022e-19
1.9407032 -3.6893488e+19 -1.8739041
3.6893488e+19 2.8708622 -1.0842022e-19
2.1031041 -2 -1.8875221
-2 2.8526912 -3.6893488e+19
2.0210416 -2 -1.9002755
-1.0842022e-19 2.7714579 3.6893488e+19
2.0759954 1.0842022e-19 -1.8731998
1.0842022e-19 2.7456973 -2
1.9404706 3.6893488e+19 -1.864071
2 2.6881976 -3.6893488e+19
2.0131168 1.0842022e-19 -1.8501297
0 2.6543527 1.0842022e-19
1.9053717 3.6893488e+19 -1.8427595
-3.6893488e+19 2.6190631 -1.0842022e-19
1.9716051 1.0842022e-19 -1.8355154
2 2.6011684 1.0842022e-19
1.8849357 -3.6893488e+19 -1.8338919
0 2.5784485 2
1.9472178 -0 -1.8309742
3.6893488e+19 2.5645165 2
1.8667047 -1.0842022e-19 -1.8298148
-0 2.5409408 -1.0842022e-19
1.9246962 -2 -1.823966
-3.6893488e+19 2.5282624 -0
1.8388436 -3.6893488e+19 -1.8219087
-1.0842022e-19 2.5149112 -2
1.9090667 -0 -1.8212218
3.6893488e+19 2.5055408 0
1.8213822 0 -1.8202657
-3.6893488e+19 2.4795258 -0
1.8939663 -0 -1.816239
-3.6893488e+19 2.4575036 3.6893488e+19
1.8007948 1.0842022e-19 -1.8127372
3.6893488e+19 3.159008 -0
2.3807204 1.0842022e-19 2.6284988
-3.6893488e+19 3.1237786 3.6893488e+19
2.1248751 -1.0842022e-19 2.5887613
-2 3.1632285 -1.0842022e-19
2.384649 3.6893488e+19 2.6202121
2 3.1265831 2
2.1276877 1.0842022e-19 2.5802598
-2 3.1257751 -2
2.1268773 -2 2.5685673
2 3.1566598 -1.0842022e-19
2.3785346 -2 2.5904353
1.0842022e-19 3.128551 2
2.1296613 2 2.559886
-3.6893488e+19 3.1262653 0
2.1273692 -3.6893488e+19 2.5470803
-0 3.1580427 -2
2.3798218 -0 2.5677609
3.6893488e+19 3.1604137 -3.6893488e+19
2.3820288 -0 2.5576723
0 3.1177204 -3.6893488e+19
2.1187987 -2 2.5190456
-3.6893488e+19 3.096138 1.0842022e-19
2.4082539 -1.0842022e-19 2.4908428
0 3.1531584 -1.0842022e-19
2.3012881 3.6893488e+19 2.5282097
2 3.0946627 0
2.4065137 -3.6893488e+19 2.4687459
0 3.1113863 -0
2.270071 -2 2.477951
-0 3.0945699 3.6893488e+19
2.4064043 -2 2.4486716
-0 3.1127756 -0
2.2711093 -2 2.4589441
-3.6893488e+19 3.0945511 -1.0842022e-19
2.4063821 -1.0842022e-19 2.4287407
3.6893488e+19 3.1139958 1.0842022e-19
2.2720213 0 2.439615
1.0842022e-19 3.1080654 -2
2.4223213 3.6893488e+19 2.4249182
0 3.1603534 3.6893488e+19
2.3066652 3.6893488e+19 2.4721212
-2 3.1008294 1.0842022e-19
2.4137871 2 2.396147
0 3.1090505 0
2.2683256 -0 2.3925948
1.0842022e-19 3.0675418 3.6893488e+19
2.3745258 0 2.3403294
3.6893488e+19 3.1004641 3.6893488e+19
2.2619088 1.0842022e-19 2.3632295
-1.0842022e-19 3.1114478 2
2.426311 -1.0842022e-19 2.3666697
3.6893488e+19 3.1174271 -2
2.1185048 0 2.3486388
-2 3.0910978 -1.0842022e-19
2.317507 1.0842022e-19 2.3154926
1.0842022e-19 3.1715949 -3.6893488e+19
2.1728313 3.6893488e+19 2.3761654
-2 3.1025963 0
2.3282104 2 2.306088
1.0842022e-19 3.1492977 -1.0842022e-19
2.1504688 -1.0842022e-19 2.3336973
-1.0842022e-19 3.0984054 -2
2.3243091 -2 2.2826738
2 3.0511737 3.6893488e+19
2.052057 0 2.2193918
1.0842022e-19 3.0989816 1.0842022e-19
2.3248456 0 2.2633646
0 3.1149559 -3.6893488e+19
2.1160262 -0 2.2638252
-1.0842022e-19 3.1013348 0
2.3270361 -3.6893488e+19 2.2405045
-3.6893488e+19 3.0515835 1.0842022e-19
2.0524683 1.0842022e-19 2.1520736
-0 3.1010435 3.6893488e+19
2.3267648 -3.6893488e+19 2.2004101
3.6893488e+19 3.0426393 -0
2.0434976 -3.6893488e+19 2.1072335
-0 3.1808565 -2
2.4010577 0 2.2520745
-3.6893488e+19 3.0421028 -0
2.0429597 0 2.0737655
1.0842022e-19 3.1777191 -1.0842022e-19
2.3981373 0 2.2022147
-1.0842022e-19 3.1566551 0
2.4796309 -0 2.1586645
3.6893488e+19 3.044522 3.6893488e+19
2.1902044 0 2.0275319
2 3.1027391 -3.6893488e+19
2.4160392 -3.6893488e+19 2.06458
2 3.042403 0
2.3448758 0 1.9777135
2 3.0484021 0
2.1960037 -3.6893488e+19 1.9641527
-3.6893488e+19 3.1058486 0
2.4197071 2 1.9869192
-0 3.2078366 1.0842022e-19
2.3421504 -3.6893488e+19 2.0271928
2 3.044332 -3.6893488e+19
2.3471508 -0 1.9127343
-2 3.2084744 3.6893488e+19
2.342627 3.6893488e+19 1.9761642
2 3.0446732 -2
2.3475533 2 1.8796659
0 3.2070684 -3.6893488e+19
2.3415761 -2 1.9242252
0 3.1225212 1.0842022e-19
2.4393713 -0 1.8688052
0 3.0458267 -0
2.1921542 -3.6893488e+19 1.7842265
3.6893488e+19 3.1266451 -1.0842022e-19
2.4442353 2 1.7865435
-0 3.0480318 1.0842022e-19
2.1954503 2 1.6872443
2 3.0433247 -3.6893488e+19
2.0441849 2 1.611577
0 3.1790724 -3.6893488e+19
2.3993969 3.6893488e+19 1.5299319
-1.0842022e-19 3.0400555 0
2.0409064 -1.0842022e-19 -1.2033002
3.6893488e+19 3.1800325 -2
2.4002907 -1.0842022e-19 -1.6059918
-0 3.039361 3.6893488e+19
2.0402098 1.0842022e-19 -1.6420177
0 3.1428564 -1.0842022e-19
2.3656857 3.6893488e+19 -1.7659974
0 3.0404613 -0
2.0413132 -3.6893488e+19 -1.7612152
-2 3.0249743 0
2.2559569 -2 -1.7854503
-1.0842022e-19 3.0445404 2
2.0454044 0 -1.8289773
-0 3.0457048 3.6893488e+19
2.0465722 3.6893488e+19 -1.8854629
1.0842022e-19 3.0248163 2
2.2558095 -3.6893488e+19 -1.891937
2 2.9504557 1.0842022e-19
1.9758885 -3.6893488e+19 -1.8783762
1.0842022e-19 2.9550807 3.6893488e+19
2.1736066 3.6893488e+19 -1.8931054
-0 2.9467807 1.0842022e-19
1.9740456 1.0842022e-19 -1.90233
-3.6893488e+19 2.8777363 -0
2.1016116 2 -1.890028
-1.0842022e-19 2.8529968 3.6893488e+19
2.1663435 -3.6893488e+19 -1.8913602
-0 2.8512254 -1.0842022e-19
2.0124776 3.6893488e+19 -1.8996137
-1.0842022e-19 2.7668104 2
2.0646906 -3.6893488e+19 -1.8688552
2 2.7447023 1.0842022e-19
1.9348505 -3.6893488e+19 -1.8635318
2 2.6892326 0
2.0090272 -2 -1.8505733
-0 2.6529629 2
1.9005711 1.0842022e-19 -1.8419572
0 2.6110659 1.0842022e-19
1.9629302 -3.6893488e+19 -1.8308731
-0 2.6015038 -0
1.8813429 2 -1.8340396
0 2.5788233 -1.0842022e-19
1.9439158 1.0842022e-19 -1.8311288
2 2.5645947 -0
1.8601029 -1.0842022e-19 -1.8298148
3.6893488e+19 2.5406847 -3.6893488e+19
1.9214245 -3.6893488e+19 -1.8237133
0 2.5282078 1.0842022e-19
1.8329102 1.0842022e-19 -1.8218211
3.6893488e+19 2.5152609 -2
1.9064314 1.0842022e-19 -1.8214042
3.6893488e+19 2.5053566 0
1.8158331 -3.6893488e+19 -1.8200762
1.0842022e-19 2.4797132 -0
1.8914498 -0 -1.816239
2 2.4581127 3.6893488e+19
1.7961783 -0 -1.8129404
-2 2.4081104 -1.0842022e-19
1.7046537 -3.6893488e+19 -1.8093297
1.0842022e-19 2.3542113 -2
1.6776251 1.0842022e-19 -1.8050623
-3.6893488e+19 2.302902 3.6893488e+19
1.6518953 -0 -1.7962089
2 2.2697318 -1.0842022e-19
1.6352614 3.6893488e+19 -1.7928632
-1.0842022e-19 2.227448 -3.6893488e+19
1.7657819 -1.0842022e-19 -1.7886903
1.0842022e-19 2.1858943 -1.0842022e-19
1.7535292 2 -1.787114
-3.6893488e+19 2.1531961 -2
1.7377756 2 -1.7867333
-3.6893488e+19 2.118659 3.6893488e+19
1.7174082 -3.6893488e+19 -1.7837101
3.6893488e+19 3.159008 -0
2.3807204 1.0842022e-19 2.6284988
-3.6893488e+19 3.1237786 3.6893488e+19
2.1248751 -1.0842022e-19 2.5887613
-2 3.1632285 -1.0842022e-19
2.384649 3.6893488e+19 2.6202121
2 3.1265831 2
2.1276877 1.0842022e-19 2.5802598
-2 3.1257751 -2
2.1268773 -2 2.5685673
2 3.1566598 -1.0842022e-19
2.3785346 -2 2.5904353
1.0842022e-19 3.128551 2
2.1296613 2 2.559886
-3.6893488e+19 3.1262653 0
2.1273692 -3.6893488e+19 2.5470803
-0 3.1580427 -2
2.3798218 -0 2.5677609
3.6893488e+19 3.1604137 -3.6893488e+19
2.3820288 -0 2.5576723
0 3.1177204 -3.6893488e+19
2.1187987 -2 2.5190456
-3.6893488e+19 3.096138 1.0842022e-19
2.4082539 -1.0842022e-19 2.4908428
0 3.1531584 -1.0842022e-19
2.3012881 3.6893488e+19 2.5282097
2 3.0946627 0
2.4065137 -3.6893488e+19 2.4687459
0 3.1113863 -0
2.270071 -2 2.477951
-0 3.0945699 3.6893488e+19
2.4064043 -2 2.4486716
-0 3.1127756 -0
2.2711093 -2 2.4589441
-3.6893488e+19 3.0945511 -1.0842022e-19
2.4063821 -1.0842022e-19 2.4287407
3.6893488e+19 3.1139958 1.0842022e-19
2.2720213 0 2.439615
1.0842022e-19 3.1080654 -2
2.4223213 3.6893488e+19 2.4249182
-3.6893488e+19 3.126596 -2
2.2814376 -3.6893488e+19 2.4332826
-2 3.1008294 1.0842022e-19
2.4137871 2 2.396147
0 3.1090505 0
2.2683256 -0 2.3925948
1.0842022e-19 3.0675418 3.6893488e+19
2.3745258 0 2.3403294
3.6893488e+19 3.1004641 3.6893488e+19
2.2619088 1.0842022e-19 2.3632295
-2 3.0712323 0
2.3788788 0 2.3258734
3.6893488e+19 3.1174271 -2
2.1185048 0 2.3486388
-2 3.0910978 -1.0842022e-19
2.317507 1.0842022e-19 2.3154926
2 3.1163266 0
2.1174011 -1.0842022e-19 2.3268526
-2 3.1025963 0
2.3282104 2 2.306088
1.0842022e-19 3.1492977 -1.0842022e-19
2.1504688 -1.0842022e-19 2.3336973
-0 3.0767555 -3.6893488e+19
2.3041565 -0 2.2651086
2 3.0511737 3.6893488e+19
2.052057 0 2.2193918
3.6893488e+19 3.076328 -2
2.3037586 -2 2.2425373
-3.6893488e+19 3.0511839 2
2.0520675 0 2.1854498
-2 3.0765951 -1.0842022e-19
2.3040073 -0 2.205965
-3.6893488e+19 3.0515835 1.0842022e-19
2.0524683 1.0842022e-19 2.1520736
-3.6893488e+19 3.0720811 2
2.2998056 1.0842022e-19 2.16325
3.6893488e+19 3.0426393 -0
2.0434976 -3.6893488e+19 2.1072335
-2 3.0738311 -0
2.3014345 1.0842022e-19 2.1289177
-3.6893488e+19 3.0421028 -0
2.0429597 0 2.0737655
-1.0842022e-19 3.0678544 1.0842022e-19
2.2958713 1.0842022e-19 2.0860581
-1.0842022e-19 3.043937 0
2.3466852 -0 2.0453894
3.6893488e+19 3.044522 3.6893488e+19
2.1902044 0 2.0275319
3.6893488e+19 3.0444894 -1.0842022e-19
2.3473365 1.0842022e-19 2.0126319
2 3.042403 0
2.3448758 0 1.9777135
2 3.0484021 0
2.1960037 -3.6893488e+19 1.9641527
0 3.0431428 -0
2.3457482 1.0842022e-19 1.9451704
-0 3.0407767 2
2.1846066 0 1.9260482
2 3.044332 -3.6893488e+19
2.3471508 -0 1.9127343
1.0842022e-19 3.0424633 -3.6893488e+19
2.1871271 0 1.8942714
2 3.0446732 -2
2.3475533 2 1.8796659
2 3.0450072 -2
2.1909294 1.0842022e-19 1.8499017
-3.6893488e+19 3.0439181 1.0842022e-19
2.346663 3.6893488e+19 1.8173617
0 3.0458267 -0
2.1921542 -3.6893488e+19 1.7842265
-1.0842022e-19 3.0466728 1.0842022e-19
2.3499119 -1.0842022e-19 1.7522433
-0 3.0480318 1.0842022e-19
2.1954503 2 1.6872443
2 3.0433247 -3.6893488e+19
2.0441849 2 1.611577
2 3.0746832 -3.6893488e+19
2.3022275 0 1.484477
-1.0842022e-19 3.0400555 0
2.0409064 -1.0842022e-19 -1.2033002
0 3.0737195 0
2.3013306 3.6893488e+19 -1.5488858
-0 3.039361 3.6893488e+19
2.0402098 1.0842022e-19 -1.6420177
0 3.1428564 -1.0842022e-19
2.3656857 3.6893488e+19 -1.7659974
2 2.9566174 -2
1.9789783 -3.6893488e+19 -1.7141361
-2 3.0249743 0
2.2559569 -2 -1.7854503
-2 2.9550629 2
1.9781989 -1.0842022e-19 -1.7825717
-3.6893488e+19 2.9508057 0
1.9760641 -1.0842022e-19 -1.8315148
1.0842022e-19 2.9563725 -1.0842022e-19
2.174809 -3.6893488e+19 -1.8607072
2 2.9504557 1.0842022e-19
1.9758885 -3.6893488e+19 -1.8783762
1.0842022e-19 2.9550807 3.6893488e+19
2.1736066 3.6893488e+19 -1.8931054
-3.6893488e+19 2.8636441 -2
1.9323554 1.0842022e-19 -1.8729693
-3.6893488e+19 2.8777363 -0
2.1016116 2 -1.890028
-1.0842022e-19 2.8529968 3.6893488e+19
2.1663435 -3.6893488e+19 -1.8913602
-0 2.8512254 -1.0842022e-19
2.0124776 3.6893488e+19 -1.8996137
-1.0842022e-19 2.7668104 2
2.0646906 -3.6893488e+19 -1.8688552
2 2.7447023 1.0842022e-19
1.9348505 -3.6893488e+19 -1.8635318
2 2.6892326 0
2.0090272 -2 -1.8505733
-0 2.6529629 2
1.9005711 1.0842022e-19 -1.8419572
0 2.6110659 1.0842022e-19
1.9629302 -3.6893488e+19 -1.8308731
-0 2.6015038 -0
1.8813429 2 -1.8340396
0 2.5788233 -1.0842022e-19
1.9439158 1.0842022e-19 -1.8311288
2 2.5645947 -0
1.8601029 -1.0842022e-19 -1.8298148
3.6893488e+19 2.5406847 -3.6893488e+19
1.9214245 -3.6893488e+19 -1.8237133
0 2.5282078 1.0842022e-19
1.8329102 1.0842022e-19 -1.8218211
3.6893488e+19 2.5152609 -2
1.9064314 1.0842022e-19 -1.8214042
3.6893488e+19 2.5053566 0
1.8158331 -3.6893488e+19 -1.8200762
1.0842022e-19 2.4797132 -0
1.8914498 -0 -1.816239
2 2.4581127 3.6893488e+19
1.7961783 -0 -1.8129404
-2 2.4081104 -1.0842022e-19
1.7046537 -3.6893488e+19 -1.8093297
1.0842022e-19 2.3542113 -2
1.6776251 1.0842022e-19 -1.8050623
-3.6893488e+19 2.302902 3.6893488e+19
1.6518953 -0 -1.7962089
2 2.2697318 -1.0842022e-19
1.6352614 3.6893488e+19 -1.7928632
-1.0842022e-19 2.227448 -3.6893488e+19
1.7657819 -1.0842022e-19 -1.7886903
1.0842022e-19 2.1858943 -1.0842022e-19
1.7535292 2 -1.787114
-3.6893488e+19 2.1531961 -2
1.7377756 2 -1.7867333
-3.6893488e+19 2.118659 3.6893488e+19
1.7174082 -3.6893488e+19 -1.7837101
-3.6893488e+19 3.1531699 -1.0842022e-19
2.3667126 1.0842022e-19 2.6229837
-2 3.1240518 1.0842022e-19
2.1093891 0 2.5889544
-1.0842022e-19 3.1266437 -3.6893488e+19
2.1118791 1.0842022e-19 2.5802598
3.6893488e+19 3.1808922 -2
2.391928 2 2.6232476
2 3.1918778 -3.6893488e+19
2.174556 2 2.6245463
-0 3.1614945 0
2.3742845 -2 2.5943787
-3.6893488e+19 3.1292841 0
2.1144164 -0 2.5604362
-1.0842022e-19 3.1259587 -1.0842022e-19
2.1112211 -2 2.5467904
2 3.1592329 -1.0842022e-19
2.3722272 -0 2.5685916
3.6893488e+19 3.1247804 0
2.1100891 -2 2.5349982
2 3.1188536 3.6893488e+19
2.1043944 1.0842022e-19 2.5198314
-3.6893488e+19 3.0963316 1.0842022e-19
2.4010584 -3.6893488e+19 2.4909291
1.0842022e-19 3.1548815 3.6893488e+19
2.2940063 -1.0842022e-19 2.5293312
3.6893488e+19 3.0952523 1.0842022e-19
2.3998084 -1.0842022e-19 2.469368
-2 3.1115348 -0
2.2625301 3.6893488e+19 2.4780324
3.6893488e+19 3.094641 1.0842022e-19
2.3991005 3.6893488e+19 2.4485922
-0 3.1131706 -0
2.2637179 -1.0842022e-19 2.4593329
3.6893488e+19 3.0948973 -3.6893488e+19
2.3993971 0 2.4290071
-3.6893488e+19 3.1139913 1.0842022e-19
2.2643139 3.6893488e+19 2.4395034
2 3.1067338 -3.6893488e+19
2.4131041 -0 2.4231758
1.0842022e-19 3.0972271 -3.6893488e+19
2.4020951 -2 2.3919289
-0 3.1123443 -1.0842022e-19
2.2631178 3.6893488e+19 2.3961008
-2 3.0962994 -2
2.401021 1.0842022e-19 2.3710086
-2 3.1012278 1.0842022e-19
2.2550457 3.6893488e+19 2.3639331
-3.6893488e+19 3.1173313 2
2.102932 -1.0842022e-19 2.3484917
-1.0842022e-19 3.0933909 2
2.3123393 1.0842022e-19 2.3175178
-3.6893488e+19 3.1717246 1.0842022e-19
2.1551931 3.6893488e+19 2.3762207
1.0842022e-19 3.1032894 -0
2.3213425 2 2.306597
1.0842022e-19 3.1593833 -0
2.1433353 -3.6893488e+19 2.3420708
2 3.1046894 -1.0842022e-19
2.3226159 -0 2.2876854
-1.0842022e-19 3.0522156 1.0842022e-19
2.0403688 -0 2.2209399
2 3.0978503 -0
2.3163953 0 2.2624316
1.0842022e-19 3.1099195 1.0842022e-19
2.0958107 -0 2.2601426
-1.0842022e-19 3.1017501 -2
2.3199425 -1.0842022e-19 2.2409363
-1.0842022e-19 3.108707 0
2.0946457 1.0842022e-19 2.2281539
1.0842022e-19 3.1011186 -2
2.3193679 -0 2.2003706
-1.0842022e-19 3.0420642 2
2.0306153 2 2.1064744
-1.0842022e-19 3.18046 0
2.391535 -0 2.2517664
-2 3.041652 1.0842022e-19
2.0302193 -1.0842022e-19 2.0732136
3.6893488e+19 3.1772594 -1.0842022e-19
2.3886237 2 2.2015924
2 3.157521 3.6893488e+19
2.4719167 -3.6893488e+19 2.1593776
2 3.0436759 -0
2.3400819 0 2.011806
1.0842022e-19 3.2082839 -3.6893488e+19
2.3327847 3.6893488e+19 2.130255
2 3.0424533 2
2.3386662 3.6893488e+19 1.9776653
2 3.2083445 3.6893488e+19
2.3328288 0 2.0788584
-0 3.0433168 -3.6893488e+19
2.3396661 1.0842022e-19 1.9452115
-3.6893488e+19 3.2080405 -3.6893488e+19
2.332608 -2 2.0272493
-3.6893488e+19 3.0425901 -1.0842022e-19
2.3388247 3.6893488e+19 1.9117093
1.0842022e-19 3.2077143 0
2.3323712 -3.6893488e+19 1.9757346
-1.0842022e-19 3.1077933 3.6893488e+19
2.4143312 -0 1.9073805
-2 3.2083299 3.6893488e+19
2.3328183 -3.6893488e+19 1.9246639
2 3.1228185 3.6893488e+19
2.4317305 -3.6893488e+19 1.8689063
2 3.2072122 -3.6893488e+19
2.3320065 -2 1.8710318
-1.0842022e-19 3.1263874 1.0842022e-19
2.4358635 2 1.7863711
-3.6893488e+19 3.0484149 2
2.1833909 1.0842022e-19 1.6874398
-1.0842022e-19 3.0434966 -1.0842022e-19
2.0319915 2 1.6116776
-2 3.1786427 2
2.3898821 -3.6893488e+19 1.5297301
-1.0842022e-19 3.0415995 -1.0842022e-19
2.0301688 -2 -1.2043495
-0 3.1789513 1.0842022e-19
2.3901627 -3.6893488e+19 -1.6053416
-3.6893488e+19 3.0395947 -0
2.0282426 -0 -1.6421095
2 3.142416 -2
2.356931 3.6893488e+19 -1.7657969
-3.6893488e+19 3.0393226 2
2.0279813 0 -1.7606596
0 3.0258336 -1.0842022e-19
2.2508907 -1.0842022e-19 -1.7859031
0 3.0443697 -1.0842022e-19
2.0328302 0 -1.8288262
-0 3.0393255 -3.6893488e+19
2.2631626 0 -1.8587675
1.0842022e-19 2.9530611 1.0842022e-19
1.9676505 -3.6893488e+19 -1.8325145
2 2.9484084 2
1.9654154 -2 -1.8777722
3.6893488e+19 2.9545975 -3.6893488e+19
2.1634896 0 -1.8929104
1.0842022e-19 2.8639522 1.0842022e-19
1.9248426 0 -1.8731393
2 2.8805799 0
2.0961654 -1.0842022e-19 -1.8910395
1.0842022e-19 2.8671563 2
2.1751735 3.6893488e+19 -1.8969741
-3.6893488e+19 2.8499427 2
2.0041125 1.0842022e-19 -1.8990314
0 2.774509 -2
2.0678861 -0 -1.8753976
-3.6893488e+19 2.7424607 1.0842022e-19
1.9288013 -0 -1.8623937
2 2.651073 -3.6893488e+19
1.8956203 3.6893488e+19 -1.8408874
-1.0842022e-19 2.6066382 -2
1.9564967 1.0842022e-19 -1.8282708
1.0842022e-19 2.6028304 -3.6893488e+19
1.8781046 2 -1.8347777
-2 2.5785792 2
1.9402504 1.0842022e-19 -1.830897
-1.0842022e-19 2.5647948 2
1.8535897 2 -1.8298956
-1.0842022e-19 2.5437546 1.0842022e-19
1.9200866 -2 -1.825735
2 2.5305071 -3.6893488e+19
1.8286914 -2 -1.8233998
1.0842022e-19 2.5140076 -3.6893488e+19
1.9028627 -0 -1.8204012
-3.6893488e+19 2.5050464 -2
1.8102031 -3.6893488e+19 -1.8197923
2 2.4801433 2
1.8890036 -1.0842022e-19 -1.8163371
3.6893488e+19 2.4564896 -3.6893488e+19
1.7907408 1.0842022e-19 -1.8122293
-3.6893488e+19 3.1531699 -1.0842022e-19
2.3667126 1.0842022e-19 2.6229837
-2 3.1240518 1.0842022e-19
2.1093891 0 2.5889544
-1.0842022e-19 3.1266437 -3.6893488e+19
2.1118791 1.0842022e-19 2.5802598
3.6893488e+19 3.1808922 -2
2.391928 2 2.6232476
-2 3.1267817 2
2.1120119 2 2.5693693
-0 3.1614945 0
2.3742845 -2 2.5943787
-3.6893488e+19 3.1292841 0
2.1144164 -0 2.5604362
-1.0842022e-19 3.1259587 -1.0842022e-19
2.1112211 -2 2.5467904
2 3.1592329 -1.0842022e-19
2.3722272 -0 2.5685916
3.6893488e+19 3.1247804 0
2.1100891 -2 2.5349982
2 3.1188536 3.6893488e+19
2.1043944 1.0842022e-19 2.5198314
-3.6893488e+19 3.0963316 1.0842022e-19
2.4010584 -3.6893488e+19 2.4909291
-2 3.1132276 1.0842022e-19
2.2637594 -2 2.5005939
3.6893488e+19 3.0952523 1.0842022e-19
2.3998084 -1.0842022e-19 2.469368
-2 3.1115348 -0
2.2625301 3.6893488e+19 2.4780324
3.6893488e+19 3.094641 1.0842022e-19
2.3991005 3.6893488e+19 2.4485922
-0 3.1131706 -0
2.2637179 -1.0842022e-19 2.4593329
3.6893488e+19 3.0948973 -3.6893488e+19
2.3993971 0 2.4290071
-3.6893488e+19 3.1139913 1.0842022e-19
2.2643139 3.6893488e+19 2.4395034
2 3.1067338 -3.6893488e+19
2.4131041 -0 2.4231758
1.0842022e-19 3.0972271 -3.6893488e+19
2.4020951 -2 2.3919289
-0 3.1123443 -1.0842022e-19
2.2631178 3.6893488e+19 2.3961008
-2 3.0962994 -2
2.401021 1.0842022e-19 2.3710086
-2 3.1012278 1.0842022e-19
2.2550457 3.6893488e+19 2.3639331
-3.6893488e+19 3.1173313 2
2.102932 -1.0842022e-19 2.3484917
-1.0842022e-19 3.0933909 2
2.3123393 1.0842022e-19 2.3175178
1.0842022e-19 3.1140604 3.6893488e+19
2.0997891 -0 2.3247783
1.0842022e-19 3.1032894 -0
2.3213425 2 2.306597
1.0842022e-19 3.1593833 -0
2.1433353 -3.6893488e+19 2.3420708
-3.6893488e+19 3.0755565 -1.0842022e-19
2.2961175 2 2.2640562
-1.0842022e-19 3.0522156 1.0842022e-19
2.0403688 -0 2.2209399
-2 3.0766737 -2
2.2971337 -2 2.2429104
-0 3.0516675 1.0842022e-19
2.0398421 1.0842022e-19 2.1860785
-3.6893488e+19 3.0764771 -0
2.2969549 -3.6893488e+19 2.2056627
-1.0842022e-19 3.0517254 -2
2.0398977 -1.0842022e-19 2.1521978
-2 3.0723641 2
2.2932138 3.6893488e+19 2.1634881
-1.0842022e-19 3.0420642 2
2.0306153 2 2.1064744
0 3.0712657 2
2.2922146 3.6893488e+19 2.1258023
-2 3.041652 1.0842022e-19
2.0302193 -1.0842022e-19 2.0732136
-0 3.0735893 3.6893488e+19
2.2943282 -1.0842022e-19 2.0920181
-1.0842022e-19 3.0443275 -2
2.3408365 1.0842022e-19 2.0456686
2 3.0436759 -0
2.3400819 0 2.011806
1.0842022e-19 3.0782425 -0
2.2267094 -0 2.0223548
2 3.0424533 2
2.3386662 3.6893488e+19 1.9776653
-3.6893488e+19 3.0458002 -1.0842022e-19
2.1795933 -3.6893488e+19 1.9622343
-0 3.0433168 -3.6893488e+19
2.3396661 1.0842022e-19 1.9452115
-0 3.0434594 3.6893488e+19
2.1761937 -2 1.9276294
-3.6893488e+19 3.0425901 -1.0842022e-19
2.3388247 3.6893488e+19 1.9117093
1.0842022e-19 3.0419118 0
2.1739461 2 1.8939645
-1.0842022e-19 3.044817 1.0842022e-19
2.3414035 2 1.8796794
2 3.0447052 3.6893488e+19
2.1780028 0 1.8496171
-0 3.0434124 1.0842022e-19
2.339777 3.6893488e+19 1.8169571
2 3.0459292 -0
2.1797805 2 1.7842433
-0 3.0454259 -1.0842022e-19
2.3421085 -3.6893488e+19 1.7516599
-3.6893488e+19 3.0484149 2
2.1833909 1.0842022e-19 1.6874398
-1.0842022e-19 3.0434966 -1.0842022e-19
2.0319915 2 1.6116776
2 3.0745018 1.0842022e-19
2.2951581 -1.0842022e-19 1.4842752
-1.0842022e-19 3.0415995 -1.0842022e-19
2.0301688 -2 -1.2043495
2 3.0472386 -0
2.2703602 2 -1.5346135
-3.6893488e+19 3.0395947 -0
2.0282426 -0 -1.6421095
3.6893488e+19 3.0473158 2
2.2704306 -1.0842022e-19 -1.7133509
2 2.9533846 1.0842022e-19
1.967806 -0 -1.7125859
0 3.0258336 -1.0842022e-19
2.2508907 -1.0842022e-19 -1.7859031
2 2.9533274 3.6893488e+19
1.9677784 3.6893488e+19 -1.7819455
-0 3.0236502 3.6893488e+19
2.2478099 3.6893488e+19 -1.8461022
1.0842022e-19 2.9530611 1.0842022e-19
1.9676505 -3.6893488e+19 -1.8325145
2 2.9484084 2
1.9654154 -2 -1.8777722
3.6893488e+19 2.9545975 -3.6893488e+19
2.1634896 0 -1.8929104
1.0842022e-19 2.8639522 1.0842022e-19
1.9248426 0 -1.8731393
2 2.8805799 0
2.0961654 -1.0842022e-19 -1.8910395
1.0842022e-19 2.8671563 2
2.1751735 3.6893488e+19 -1.8969741
-3.6893488e+19 2.8499427 2
2.0041125 1.0842022e-19 -1.8990314
0 2.774509 -2
2.0678861 -0 -1.8753976
-3.6893488e+19 2.7424607 1.0842022e-19
1.9288013 -0 -1.8623937
2 2.651073 -3.6893488e+19
1.8956203 3.6893488e+19 -1.8408874
-1.0842022e-19 2.6066382 -2
1.9564967 1.0842022e-19 -1.8282708
1.0842022e-19 2.6028304 -3.6893488e+19
1.8781046 2 -1.8347777
-2 2.5785792 2
1.9402504 1.0842022e-19 -1.830897
-1.0842022e-19 2.5647948 2
1.8535897 2 -1.8298956
-1.0842022e-19 2.5437546 1.0842022e-19
1.9200866 -2 -1.825735
2 2.5305071 -3.6893488e+19
1.8286914 -2 -1.8233998
1.0842022e-19 2.5140076 -3.6893488e+19
1.9028627 -0 -1.8204012
-3.6893488e+19 2.5050464 -2
1.8102031 -3.6893488e+19 -1.8197923
2 2.4801433 2
1.8890036 -1.0842022e-19 -1.8163371
3.6893488e+19 2.4564896 -3.6893488e+19
1.7907408 1.0842022e-19 -1.8122293
-3.6893488e+19 3.1537731 -0
2.35868 -3.6893488e+19 2.6234314
1.0842022e-19 3.1256311 3.6893488e+19
2.0950847 0 2.590333
-2 3.1258178 2
2.0952563 0 2.5794849
3.6893488e+19 3.1271756 -3.6893488e+19
2.0965035 -1.0842022e-19 2.5696537
-3.6893488e+19 3.1656601 -0
2.3692396 2 2.5977626
-0 3.176111 0
2.1414597 0 2.5987093
3.6893488e+19 3.1608319 -1.0842022e-19
2.3649504 3.6893488e+19 2.581717
-0 3.1249146 1.0842022e-19
2.0944266 -1.0842022e-19 2.5459206
-1.0842022e-19 3.1592925 -3.6893488e+19
2.3635828 3.6893488e+19 2.5685441
-0 3.1255431 -1.0842022e-19
2.0950038 0 2.5355344
3.6893488e+19 3.1225626 2
2.0922658 -2 2.5225027
-3.6893488e+19 3.0967362 -2
2.3941 -3.6893488e+19 2.4913177
-3.6893488e+19 3.1556206 2
2.2859621 -0 2.5297756
-2 3.1001723 3.6893488e+19
2.3980055 -1.0842022e-19 2.4758778
1.0842022e-19 3.1126335 -2
2.255656 -0 2.4793723
3.6893488e+19 3.0955343 -1.0842022e-19
2.3927338 -3.6893488e+19 2.4495857
-1.0842022e-19 3.0952716 -0
2.3924353 -2 2.429311
1.0842022e-19 3.1138306 -1.0842022e-19
2.2565 3.6893488e+19 2.4392061
0 3.0971127 -0
2.3945277 -1.0842022e-19 2.3916523
-1.0842022e-19 3.1166859 0
2.2585132 -0 2.4007528
-1.0842022e-19 3.0961537 -3.6893488e+19
2.3934379 2 2.370713
-1.0842022e-19 3.1004457 -0
2.2441278 2 2.3630376
-1.0842022e-19 3.1165514 -1.0842022e-19
2.0867434 3.6893488e+19 2.3476982
-3.6893488e+19 3.0903139 -3.6893488e+19
2.3023078 -2 2.3145797
-0 3.168906 -0
2.1348405 1.0842022e-19 2.3736486
2 3.1781237 -2
2.380311 3.6893488e+19 2.3714314
-0 3.1614323 -1.0842022e-19
2.1279745 -3.6893488e+19 2.34373
-0 3.1638949 -1.0842022e-19
2.1302369 2 2.3224347
-2 3.0532365 3.6893488e+19
2.0285773 2 2.1882792
2 3.1778193 3.6893488e+19
2.3800406 1.0842022e-19 2.2984648
-3.6893488e+19 3.053544 -0
2.0288599 -0 2.1545599
2 3.1801727 0
2.3821313 -0 2.2758043
2 3.1279378 -2
2.0972037 -1.0842022e-19 2.2112148
2 3.179131 0
2.381206 0 2.2509153
-3.6893488e+19 3.1302767 -0
2.0993526 -0 2.1713641
-1.0842022e-19 3.1779742 1.0842022e-19
2.3801785 0 2.2022147
3.6893488e+19 3.044744 0
2.3350058 -0 2.0126593
0 3.2091687 2
2.3237133 -0 2.1308997
1.0842022e-19 3.0443249 -1.0842022e-19
2.3345292 1.0842022e-19 1.9790361
-1.0842022e-19 3.2085452 1.0842022e-19
2.3232739 -2 2.0789251
0 3.043551 1.0842022e-19
2.3336496 1.0842022e-19 1.9452938
2 3.0441816 0
2.1647954 0 1.9280248
-3.6893488e+19 3.1251981 -2
2.4264498 -1.0842022e-19 1.9572872
-3.6893488e+19 3.0410156 -1.0842022e-19
2.1603315 -2 1.8934889
-2 3.1200516 0
2.4206004 2 1.9127113
-1.0842022e-19 3.0446186 1.0842022e-19
2.1654117 3.6893488e+19 1.8494985
3.6893488e+19 3.1213193 -3.6893488e+19
2.4220409 0 1.8678342
-3.6893488e+19 3.0445356 -2
2.1652946 3.6893488e+19 1.7834563
2 3.1254463 1.0842022e-19
2.4267318 -1.0842022e-19 1.785907
-2 3.0425746 -3.6893488e+19
2.0187824 -3.6893488e+19 1.6108978
1.0842022e-19 3.1783345 -3.6893488e+19
2.3804982 -1.0842022e-19 1.5295732
0 3.0427678 3.6893488e+19
2.0189598 3.6893488e+19 -1.2051365
-2 3.1792641 0
2.3813243 1.0842022e-19 -1.6054417
-3.6893488e+19 3.0424159 1.0842022e-19
2.0186367 -0 -1.6434718
3.6893488e+19 3.1413515 -1.0842022e-19
2.3476455 2 -1.7653736
3.6893488e+19 3.0392737 -0
2.0157499 0 -1.7606157
-1.0842022e-19 3.0438223 2
2.0199287 2 -1.8284159
1.0842022e-19 3.0416775 3.6893488e+19
2.2591031 0 -1.8605983
-0 2.9522576 -3.6893488e+19
1.9577399 3.6893488e+19 -1.8321147
-2 2.9992359 0
2.1934817 1.0842022e-19 -1.8788458
0 3.0149896 0
1.9934406 -0 -1.9009923
-2 2.8633847 -3.6893488e+19
1.9169171 2 -1.8727143
-0 2.885222 -3.6893488e+19
2.0922005 -0 -1.8927177
0 2.8445539 -2
1.99291 3.6893488e+19 -1.8967019
0 2.6070886 1.0842022e-19
1.9529332 0 -1.7880592
-1.0842022e-19 2.7468023 -1.0842022e-19
1.9251225 3.6893488e+19 -1.8644304
-1.0842022e-19 2.6068156 -0
1.9527781 -1.0842022e-19 -1.808108
-1.0842022e-19 2.6532791 2
1.8921556 -3.6893488e+19 -1.842024
0 2.6065257 -1.0842022e-19
1.9526132 1.0842022e-19 -1.8281301
-2 2.6032856 1.0842022e-19
1.874066 -2 -1.8349991
-2 2.5773456 0
1.9360304 3.6893488e+19 -1.8300468
-3.6893488e+19 2.5647445 -3.6893488e+19
1.8468945 -1.0842022e-19 -1.8298148
3.6893488e+19 2.5428786 2
1.9164428 -1.0842022e-19 -1.8250611
3.6893488e+19 2.5320613 -0
1.8238529 0 -1.8244524
-0 2.5144765 -3.6893488e+19
1.9003018 1.0842022e-19 -1.8206748
-0 2.5056021 1.0842022e-19
1.8051993 -3.6893488e+19 -1.8201709
-0 2.4776144 -1.0842022e-19
1.8857139 -0 -1.8152578
-1.0842022e-19 2.4565966 1.0842022e-19
1.7859501 1.0842022e-19 -1.8122293
-0 2.4112153 -1.0842022e-19
1.6888876 -3.6893488e+19 -1.8106736
-2 2.35358 2
1.6624135 -0 -1.8046848
-1.0842022e-19 2.3027503 0
1.6390654 0 -1.7960693
3.6893488e+19 2.2690768 -1.0842022e-19
1.6221955 -3.6893488e+19 -1.7924029
3.6893488e+19 2.2287869 -0
1.7610471 -3.6893488e+19 -1.7890247
3.6893488e+19 2.187686 -2
1.7487366 -0 -1.7876568
-3.6893488e+19 2.1559303 2
1.73069 3.6893488e+19 -1.7877064
2 2.1218443 -0
1.7113189 0 -1.7849599
-3.6893488e+19 3.1537731 -0
2.35868 -3.6893488e+19 2.6234314
1.0842022e-19 3.1256311 3.6893488e+19
2.0950847 0 2.590333
-2 3.1258178 2
2.0952563 0 2.5794849
3.6893488e+19 3.1271756 -3.6893488e+19
2.0965035 -1.0842022e-19 2.5696537
-3.6893488e+19 3.1656601 -0
2.3692396 2 2.5977626
0 3.1309323 1.0842022e-19
2.0999548 3.6893488e+19 2.5617371
3.6893488e+19 3.1608319 -1.0842022e-19
2.3649504 3.6893488e+19 2.581717
-0 3.1249146 1.0842022e-19
2.0944266 -1.0842022e-19 2.5459206
-1.0842022e-19 3.1592925 -3.6893488e+19
2.3635828 3.6893488e+19 2.5685441
-0 3.1255431 -1.0842022e-19
2.0950038 0 2.5355344
3.6893488e+19 3.1225626 2
2.0922658 -2 2.5225027
-3.6893488e+19 3.0967362 -2
2.3941 -3.6893488e+19 2.4913177
-2 3.1130674 2
2.2559621 -2 2.5004246
-2 3.1001723 3.6893488e+19
2.3980055 -1.0842022e-19 2.4758778
1.0842022e-19 3.1126335 -2
2.255656 -0 2.4793723
3.6893488e+19 3.0955343 -1.0842022e-19
2.3927338 -3.6893488e+19 2.4495857
-1.0842022e-19 3.0952716 -0
2.3924353 -2 2.429311
1.0842022e-19 3.1138306 -1.0842022e-19
2.2565 3.6893488e+19 2.4392061
0 3.0971127 -0
2.3945277 -1.0842022e-19 2.3916523
-1.0842022e-19 3.1166859 0
2.2585132 -0 2.4007528
-1.0842022e-19 3.0961537 -3.6893488e+19
2.3934379 2 2.370713
-1.0842022e-19 3.1004457 -0
2.2441278 2 2.3630376
-1.0842022e-19 3.1165514 -1.0842022e-19
2.0867434 3.6893488e+19 2.3476982
-3.6893488e+19 3.0903139 -3.6893488e+19
2.3023078 -2 2.3145797
-2 3.1143644 -3.6893488e+19
2.0847342 -0 2.3249996
3.6893488e+19 3.0928016 2
2.3045177 3.6893488e+19 2.2974076
-0 3.1614323 -1.0842022e-19
2.1279745 -3.6893488e+19 2.34373
2 3.0510201 -3.6893488e+19
2.026541 -0 2.2190046
-2 3.0532365 3.6893488e+19
2.0285773 2 2.1882792
3.6893488e+19 3.1034939 -2
2.3140159 2 2.2432246
-3.6893488e+19 3.053544 -0
2.0288599 -0 2.1545599
-1.0842022e-19 3.1026771 -1.0842022e-19
2.3132904 -3.6893488e+19 2.2022364
-1.0842022e-19 3.0477087 -2
2.023499 -1.0842022e-19 2.1133077
-3.6893488e+19 3.0733428 -0
2.2872322 -1.0842022e-19 2.1281207
1.0842022e-19 3.042942 0
2.01912 -1.0842022e-19 2.0745931
0 3.0759783 2
2.2895732 -3.6893488e+19 2.0944414
3.6893488e+19 3.044744 0
2.3350058 -0 2.0126593
0 3.2091687 2
2.3237133 -0 2.1308997
1.0842022e-19 3.0443249 -1.0842022e-19
2.3345292 1.0842022e-19 1.9790361
3.6893488e+19 3.0420446 -0
2.1617823 -3.6893488e+19 1.9594904
0 3.043551 1.0842022e-19
2.3336496 1.0842022e-19 1.9452938
2 3.0441816 0
2.1647954 0 1.9280248
1.0842022e-19 3.0437517 2
2.3338778 -1.0842022e-19 1.9122901
-3.6893488e+19 3.0410156 -1.0842022e-19
2.1603315 -2 1.8934889
1.0842022e-19 3.0444641 -0
2.3346875 1.0842022e-19 1.8794755
-1.0842022e-19 3.0446186 1.0842022e-19
2.1654117 3.6893488e+19 1.8494985
-1.0842022e-19 3.0401511 -3.6893488e+19
2.3297853 3.6893488e+19 1.8147521
-3.6893488e+19 3.0445356 -2
2.1652946 3.6893488e+19 1.7834563
0 3.0417938 3.6893488e+19
2.3316524 0 1.7500557
-2 3.0425746 -3.6893488e+19
2.0187824 -3.6893488e+19 1.6108978
3.6893488e+19 3.0740073 -2
2.2878222 -2 1.4838493
-2 3.0143456 -1.0842022e-19
1.9928491 -3.6893488e+19 -1.1852218
-0 3.0475125 -0
2.2642865 3.6893488e+19 -1.5347135
-0 3.0141196 -0
1.9926414 2 -1.6295885
3.6893488e+19 3.1413515 -1.0842022e-19
2.3476455 2 -1.7653736
3.6893488e+19 2.955451 -0
1.9592068 1.0842022e-19 -1.713522
1.0842022e-19 2.9541459 3.6893488e+19
1.9586073 1.0842022e-19 -1.7822046
-2 3.0028036 2
2.1991415 0 -1.8291986
-0 2.9522576 -3.6893488e+19
1.9577399 3.6893488e+19 -1.8321147
-2 2.9992359 0
2.1934817 1.0842022e-19 -1.8788458
-1.0842022e-19 2.9515953 -2
1.9574357 3.6893488e+19 -1.8786606
-2 2.8633847 -3.6893488e+19
1.9169171 2 -1.8727143
-0 2.885222 -3.6893488e+19
2.0922005 -0 -1.8927177
0 2.8445539 -2
1.99291 3.6893488e+19 -1.8967019
0 2.6070886 1.0842022e-19
1.9529332 0 -1.7880592
-1.0842022e-19 2.7468023 -1.0842022e-19
1.9251225 3.6893488e+19 -1.8644304
-1.0842022e-19 2.6068156 -0
1.9527781 -1.0842022e-19 -1.808108
-1.0842022e-19 2.6532791 2
1.8921556 -3.6893488e+19 -1.842024
0 2.6065257 -1.0842022e-19
1.9526132 1.0842022e-19 -1.8281301
-2 2.6032856 1.0842022e-19
1.874066 -2 -1.8349991
-2 2.5773456 0
1.9360304 3.6893488e+19 -1.8300468
-3.6893488e+19 2.5647445 -3.6893488e+19
1.8468945 -1.0842022e-19 -1.8298148
3.6893488e+19 2.5428786 2
1.9164428 -1.0842022e-19 -1.8250611
3.6893488e+19 2.5320613 -0
1.8238529 0 -1.8244524
-0 2.5144765 -3.6893488e+19
1.9003018 1.0842022e-19 -1.8206748
-0 2.5056021 1.0842022e-19
1.8051993 -3.6893488e+19 -1.8201709
-0 2.4776144 -1.0842022e-19
1.8857139 -0 -1.8152578
-1.0842022e-19 2.4565966 1.0842022e-19
1.7859501 1.0842022e-19 -1.8122293
-0 2.4112153 -1.0842022e-19
1.6888876 -3.6893488e+19 -1.8106736
-2 2.35358 2
1.6624135 -0 -1.8046848
-1.0842022e-19 2.3027503 0
1.6390654 0 -1.7960693
3.6893488e+19 2.2690768 -1.0842022e-19
1.6221955 -3.6893488e+19 -1.7924029
3.6893488e+19 2.2287869 -0
1.7610471 -3.6893488e+19 -1.7890247
3.6893488e+19 2.187686 -2
1.7487366 -0 -1.7876568
-3.6893488e+19 2.1559303 2
1.73069 3.6893488e+19 -1.7877064
2 2.1218443 -0
1.7113189 0 -1.7849599
-0 3.1250546 -1.0842022e-19
2.0787625 0 2.6007867
0 3.1831388 -3.6893488e+19
2.375566 0 2.6504753
1.0842022e-19 3.1254125 1.0842022e-19
2.0790763 3.6893488e+19 2.5900848
3.6893488e+19 3.1829729 -2
2.3754222 0 2.6375582
-1.0842022e-19 3.1248977 0
2.0786252 -2 2.5786297
3.6893488e+19 3.1272006 -0
2.0806437 2 2.569628
-1.0842022e-19 3.166662 3.6893488e+19
2.3612795 -3.6893488e+19 2.5985003
-2 3.1638744 -0
2.3588624 -3.6893488e+19 2.5840774
2 3.1252148 -0
2.078903 3.6893488e+19 2.546114
-1.0842022e-19 3.1594408 2
2.3550181 -3.6893488e+19 2.5685678
-3.6893488e+19 3.1254756 0
2.0791318 -3.6893488e+19 2.5354409
-0 3.1763234 0
2.3696568 -1.0842022e-19 2.5693166
-0 3.1301367 3.6893488e+19
2.3296092 -2 2.5237043
0 3.0973217 -1.0842022e-19
2.3873315 -1.0842022e-19 2.4919655
0 3.1561735 3.6893488e+19
2.2777629 -3.6893488e+19 2.530093
1.0842022e-19 3.1003017 -1.0842022e-19
2.3906548 -1.0842022e-19 2.4758778
-1.0842022e-19 3.1135762 0
2.2472656 0 2.4805093
-0 3.0956619 2
2.3854806 -3.6893488e+19 2.4495857
-0 3.0957968 -0
2.3856311 0 2.4298055
-2 3.1143444 -3.6893488e+19
2.248316 -0 2.4397264
-0 3.0973842 -0
2.3874013 0 2.411778
-3.6893488e+19 3.0970874 3.6893488e+19
2.3870704 -1.0842022e-19 2.3914795
-2 3.1169853 0
2.2509642 2 2.4009888
-3.6893488e+19 3.0958827 2
2.3857269 2 2.370286
-2 3.0989578 0
2.3891563 0 2.3536
1.0842022e-19 3.1370251 -0
2.2646682 -1.0842022e-19 2.3788383
1.0842022e-19 3.1162956 -2
2.0710845 -2 2.3474042
0 3.0910294 3.6893488e+19
2.2956998 -0 2.3151503
2 3.1141701 2
2.0692215 -0 2.3247783
-3.6893488e+19 3.0911086 0
2.2957687 -3.6893488e+19 2.2958536
1.0842022e-19 3.107461 3.6893488e+19
2.0633404 3.6893488e+19 2.2985959
-0 3.151047 -2
2.3477399 2 2.3250964
-2 3.0748844 0
2.2817011 2 2.2399251
1.0842022e-19 3.1336155 3.6893488e+19
2.0862668 -3.6893488e+19 2.2771859
0 3.1794901 1.0842022e-19
2.3724024 3.6893488e+19 2.2995441
-1.0842022e-19 3.1327589 2
2.085516 1.0842022e-19 2.2550306
-0 3.1773543 2
2.3705506 -2 2.2739184
-3.6893488e+19 3.1334381 -3.6893488e+19
2.0861113 -2 2.2178583
-2 3.177984 3.6893488e+19
2.3710966 1.0842022e-19 2.2501726
-1.0842022e-19 3.1308308 3.6893488e+19
2.0838258 -3.6893488e+19 2.1719158
-2 3.0752039 -3.6893488e+19
2.2819779 0 2.0935247
1.0842022e-19 3.0436168 -0
2.32744 -3.6893488e+19 2.0115581
-2 3.0441275 -0
2.1522801 3.6893488e+19 1.9939357
-2 3.0437224 1.0842022e-19
2.327558 3.6893488e+19 1.978483
1.0842022e-19 3.218168 -1.0842022e-19
2.320158 -1.0842022e-19 2.0857513
-0 3.0437829 2
2.3276255 1.0842022e-19 1.945376
-0 3.0426617 3.6893488e+19
2.1502752 3.6893488e+19 1.9270647
1.0842022e-19 3.1269763 -3.6893488e+19
2.4204021 -1.0842022e-19 1.9581926
-1.0842022e-19 3.0404906 2
2.147306 -0 1.8931974
-1.0842022e-19 3.1215806 3.6893488e+19
2.4143851 -1.0842022e-19 1.9133232
0 3.043503 3.6893488e+19
2.1514258 3.6893488e+19 1.8485974
1.0842022e-19 3.1212399 1.0842022e-19
2.414005 1.0842022e-19 1.8676926
3.6893488e+19 3.1033802 -1.0842022e-19
2.2333202 -3.6893488e+19 1.8150705
3.6893488e+19 3.1186526 3.6893488e+19
2.4111197 -3.6893488e+19 1.782937
-2 3.0385926 -0
2.0029724 -1.0842022e-19 1.6076529
-0 3.178582 -3.6893488e+19
2.3716149 -2 1.529618
0 3.0404706 -1.0842022e-19
2.0046184 -3.6893488e+19 -1.2034969
1.0842022e-19 3.1800091 -3.6893488e+19
2.3728523 3.6893488e+19 -1.6057751
-2 3.0402124 -3.6893488e+19
2.0043921 -0 -1.6423697
-2 3.1453784 2
2.3428249 -2 -1.7667772
3.6893488e+19 3.0401275 -1.0842022e-19
2.0043178 -2 -1.7609959
-1.0842022e-19 3.0423369 0
2.0062547 1.0842022e-19 -1.8273578
-3.6893488e+19 3.0087774 1.0842022e-19
2.1987619 0 -1.8339638
-2 2.9519498 -2
1.9480834 -2 -1.8319433
2 3.0242209 3.6893488e+19
2.2255433 -0 -1.8915044
1.0842022e-19 3.0147791 2
1.9820981 1.0842022e-19 -1.9008502
0 2.9199686 3.6893488e+19
2.1141465 0 -1.8819473
-3.6893488e+19 2.9502294 -0
1.9473294 -3.6893488e+19 -1.9034349
1.0842022e-19 2.8825397 2
2.0816927 3.6893488e+19 -1.8916832
-3.6893488e+19 2.6077232 2
1.9494658 -3.6893488e+19 -1.7680913
-1.0842022e-19 2.8415852 -3.6893488e+19
1.9835941 -2 -1.8954048
-0 2.6075912 0
1.9493921 -3.6893488e+19 -1.7882284
-1.0842022e-19 2.7445533 -1.0842022e-19
1.9191009 -3.6893488e+19 -1.8632922
1.0842022e-19 2.6068239 -3.6893488e+19
1.9489641 0 -1.8080447
-2 2.653868 0
1.8880932 3.6893488e+19 -1.8422915
2 2.6066573 -0
1.9488713 1.0842022e-19 -1.8281301
-3.6893488e+19 2.6015029 1.0842022e-19
1.8653765 -3.6893488e+19 -1.8338919
-0 2.5788243 -3.6893488e+19
1.9333516 1.0842022e-19 -1.830897
-3.6893488e+19 2.564692 -1.0842022e-19
1.8402032 2 -1.8297341
0 2.5423701 -3.6893488e+19
1.9130248 -1.0842022e-19 -1.8246399
1.0842022e-19 2.5322497 -2
1.8180172 -2 -1.82454
1.0842022e-19 2.5145743 1.0842022e-19
1.897526 1.0842022e-19 -1.8206748
-2 2.5060322 2
1.8000885 -3.6893488e+19 -1.8204548
-2 2.4770515 1.0842022e-19
1.8830014 2 -1.8149635
1.0842022e-19 2.4569485 -3.6893488e+19
1.7812427 3.6893488e+19 -1.8123308
-0 3.1250546 -1.0842022e-19
2.0787625 0 2.6007867
3.6893488e+19 3.1539197 0
2.3502309 3.6893488e+19 2.6234596
1.0842022e-19 3.1254125 1.0842022e-19
2.0790763 3.6893488e+19 2.5900848
-0 3.1531315 -1.0842022e-19
2.3495474 -1.0842022e-19 2.6108468
-1.0842022e-19 3.1248977 0
2.0786252 -2 2.5786297
3.6893488e+19 3.1272006 -0
2.0806437 2 2.569628
-1.0842022e-19 3.166662 3.6893488e+19
2.3612795 -3.6893488e+19 2.5985003
-2 3.1638744 -0
2.3588624 -3.6893488e+19 2.5840774
2 3.1252148 -0
2.078903 3.6893488e+19 2.546114
-1.0842022e-19 3.1594408 2
2.3550181 -3.6893488e+19 2.5685678
-3.6893488e+19 3.1254756 0
2.0791318 -3.6893488e+19 2.5354409
-2 3.128859 -2
2.3285012 -1.0842022e-19 2.5337658
-0 3.1301367 3.6893488e+19
2.3296092 -2 2.5237043
0 3.0973217 -1.0842022e-19
2.3873315 -1.0842022e-19 2.4919655
-1.0842022e-19 3.1127205 2
2.2460952 1.0842022e-19 2.5001285
1.0842022e-19 3.1003017 -1.0842022e-19
2.3906548 -1.0842022e-19 2.4758778
-1.0842022e-19 3.1135762 0
2.2472656 0 2.4805093
-0 3.0956619 2
2.3854806 -3.6893488e+19 2.4495857
-0 3.0957968 -0
2.3856311 0 2.4298055
-2 3.1143444 -3.6893488e+19
2.248316 -0 2.4397264
-0 3.0973842 -0
2.3874013 0 2.411778
-3.6893488e+19 3.0970874 3.6893488e+19
2.3870704 -1.0842022e-19 2.3914795
-2 3.1169853 0
2.2509642 2 2.4009888
-3.6893488e+19 3.0958827 2
2.3857269 2 2.370286
-2 3.0989578 0
2.3891563 0 2.3536
1.0842022e-19 3.1370251 -0
2.2646682 -1.0842022e-19 2.3788383
1.0842022e-19 3.1162956 -2
2.0710845 -2 2.3474042
0 3.0910294 3.6893488e+19
2.2956998 -0 2.3151503
2 3.1141701 2
2.0692215 -0 2.3247783
-3.6893488e+19 3.0911086 0
2.2957687 -3.6893488e+19 2.2958536
1.0842022e-19 3.107461 3.6893488e+19
2.0633404 3.6893488e+19 2.2985959
1.0842022e-19 3.0750046 3.6893488e+19
2.281805 -3.6893488e+19 2.2634547
-2 3.0748844 0
2.2817011 2 2.2399251
-2 3.0526595 2
2.0153031 -3.6893488e+19 2.1873808
3.6893488e+19 3.1023266 3.6893488e+19
2.3054955 -1.0842022e-19 2.2414544
0 3.0512257 -2
2.014046 3.6893488e+19 2.1514106
3.6893488e+19 3.0723352 -3.6893488e+19
2.2794905 -2 2.1632102
-2 3.0506461 -0
2.0135381 -2 2.1168382
-1.0842022e-19 3.0739317 0
2.280875 -1.0842022e-19 2.1287003
0 3.0493977 1.0842022e-19
2.0124438 3.6893488e+19 2.0816975
-2 3.0752039 -3.6893488e+19
2.2819779 0 2.0935247
1.0842022e-19 3.0436168 -0
2.32744 -3.6893488e+19 2.0115581
-2 3.0441275 -0
2.1522801 3.6893488e+19 1.9939357
-2 3.0437224 1.0842022e-19
2.327558 3.6893488e+19 1.978483
0 3.043231 -3.6893488e+19
2.1510537 3.6893488e+19 1.9602935
-0 3.0437829 2
2.3276255 1.0842022e-19 1.945376
-0 3.0426617 3.6893488e+19
2.1502752 3.6893488e+19 1.9270647
1.0842022e-19 3.0448191 3.6893488e+19
2.3287809 0 1.9128197
-1.0842022e-19 3.0404906 2
2.147306 -0 1.8931974
-3.6893488e+19 3.042871 0
2.3266087 0 1.8787276
0 3.043503 3.6893488e+19
2.1514258 3.6893488e+19 1.8485974
2 3.0399489 -0
2.3233497 -1.0842022e-19 1.8145498
2 3.0456302 2
2.1543353 -2 1.7840089
1.0842022e-19 3.0429847 1.0842022e-19
2.3267353 -2 1.7505196
-2 3.0385926 -0
2.0029724 -1.0842022e-19 1.6076529
-3.6893488e+19 3.0670791 -1.0842022e-19
2.2749331 0 1.4787832
3.6893488e+19 3.0147591 3.6893488e+19
1.9820806 3.6893488e+19 -1.1854842
-3.6893488e+19 3.0509534 -2
2.2609508 -3.6893488e+19 -1.5365142
-3.6893488e+19 3.0124111 1.0842022e-19
1.9800225 -1.0842022e-19 -1.6287313
-2 3.1453784 2
2.3428249 -2 -1.7667772
-3.6893488e+19 2.9547691 3.6893488e+19
1.9493191 -3.6893488e+19 -1.7131709
-2 2.9507186 1.0842022e-19
1.9475439 1.0842022e-19 -1.7809954
-3.6893488e+19 3.0087774 1.0842022e-19
2.1987619 0 -1.8339638
-2 2.9519498 -2
1.9480834 -2 -1.8319433
2 3.0062418 3.6893488e+19
2.1943645 -3.6893488e+19 -1.8822267
3.6893488e+19 2.9504144 3.6893488e+19
1.9474105 -2 -1.8783052
0 2.9199686 3.6893488e+19
2.1141465 0 -1.8819473
3.6893488e+19 2.8504071 2
1.9035786 -3.6893488e+19 -1.8638324
1.0842022e-19 2.8825397 2
2.0816927 3.6893488e+19 -1.8916832
-3.6893488e+19 2.6077232 2
1.9494658 -3.6893488e+19 -1.7680913
-1.0842022e-19 2.8415852 -3.6893488e+19
1.9835941 -2 -1.8954048
-0 2.6075912 0
1.9493921 -3.6893488e+19 -1.7882284
-1.0842022e-19 2.7445533 -1.0842022e-19
1.9191009 -3.6893488e+19 -1.8632922
1.0842022e-19 2.6068239 -3.6893488e+19
1.9489641 0 -1.8080447
-2 2.653868 0
1.8880932 3.6893488e+19 -1.8422915
2 2.6066573 -0
1.9488713 1.0842022e-19 -1.8281301
-3.6893488e+19 2.6015029 1.0842022e-19
1.8653765 -3.6893488e+19 -1.8338919
-0 2.5788243 -3.6893488e+19
1.9333516 1.0842022e-19 -1.830897
-3.6893488e+19 2.564692 -1.0842022e-19
1.8402032 2 -1.8297341
0 2.5423701 -3.6893488e+19
1.9130248 -1.0842022e-19 -1.8246399
1.0842022e-19 2.5322497 -2
1.8180172 -2 -1.82454
1.0842022e-19 2.5145743 1.0842022e-19
1.897526 1.0842022e-19 -1.8206748
-2 2.5060322 2
1.8000885 -3.6893488e+19 -1.8204548
-2 2.4770515 1.0842022e-19
1.8830014 2 -1.8149635
1.0842022e-19 2.4569485 -3.6893488e+19
1.7812427 3.6893488e+19 -1.8123308
3.6893488e+19 3.1242833 1.0842022e-19
2.063379 -1.0842022e-19 2.6000192
-3.6893488e+19 3.1824648 -3.6893488e+19
2.3664119 1.0842022e-19 2.6497474
-2 3.1252789 -3.6893488e+19
2.0642126 3.6893488e+19 2.5899193
-2 3.1834505 3.6893488e+19
2.3672471 2 2.6378839
1.0842022e-19 3.1256177 1.0842022e-19
2.0644963 3.6893488e+19 2.5792177
-0 3.1276164 3.6893488e+19
2.0661697 2 2.5699384
-0 3.1667409 -2
2.3530896 1.0842022e-19 2.598475
0 3.16313 -0
2.3500302 2 2.583389
-1.0842022e-19 3.1255395 -3.6893488e+19
2.0644307 3.6893488e+19 2.5463314
1.0842022e-19 3.1597314 -3.6893488e+19
2.3471506 1.0842022e-19 2.5687103
-2 3.108202 0
2.0499146 -3.6893488e+19 2.5222735
0 3.1288059 2
2.3209486 -3.6893488e+19 2.5336514
1.0842022e-19 3.1106935 1.0842022e-19
2.0520005 -3.6893488e+19 2.5137477
2 3.1298695 1.0842022e-19
2.3218498 -0 2.5234401
0 3.0983541 2
2.3815279 0 2.4932611
0 3.1561959 -2
2.2697637 3.6893488e+19 2.5300508
-0 3.0995653 -0
2.3828545 1.0842022e-19 2.4747169
-2 3.1160173 2
2.236161 -0 2.4836357
-3.6893488e+19 3.0956259 -0
2.37854 3.6893488e+19 2.4493871
-2 3.0951793 0
2.378051 -0 2.4288929
-1.0842022e-19 3.118454 -3.6893488e+19
2.2393973 -3.6893488e+19 2.4445944
0 3.0975325 0
2.3806281 1.0842022e-19 2.4118142
-2 3.0971742 -1.0842022e-19
2.3802357 -0 2.3914449
2 3.1178327 0
2.2385721 1.0842022e-19 2.4018316
-3.6893488e+19 3.0960917 -1.0842022e-19
2.3790503 -1.0842022e-19 2.3703845
3.6893488e+19 3.0990145 3.6893488e+19
2.3822513 0 2.3535378
3.6893488e+19 3.1324987 -3.6893488e+19
2.2540259 -0 2.3743305
1.0842022e-19 3.1158168 3.6893488e+19
2.0562901 3.6893488e+19 2.3469048
-0 3.0906248 2
2.2885993 3.6893488e+19 2.3146939
1.0842022e-19 3.1147141 -3.6893488e+19
2.0553668 -0 2.3252208
3.6893488e+19 3.090055 1.0842022e-19
2.2881165 2 2.2948625
1.0842022e-19 3.1105497 2
2.0518801 2 2.3011365
-0 3.073822 -0
2.2743628 -3.6893488e+19 2.2624273
-0 3.0586517 2
2.0084271 1.0842022e-19 2.2307613
-3.6893488e+19 3.0750315 0
2.2753878 -0 2.2400184
-0 3.1332617 -0
2.0708964 3.6893488e+19 2.2768941
1.0842022e-19 3.1024501 3.6893488e+19
2.2986183 -3.6893488e+19 2.2414975
1.0842022e-19 3.1323116 -0
2.0701008 -1.0842022e-19 2.254699
-1.0842022e-19 3.0744643 1.0842022e-19
2.2749071 0 2.1658306
2 3.1322439 -3.6893488e+19
2.070044 -1.0842022e-19 2.2163398
3.6893488e+19 3.0748537 3.6893488e+19
2.2752368 0 2.1296785
0 3.1321573 -2
2.0699716 -1.0842022e-19 2.1733298
3.6893488e+19 3.1030738 0
2.2991469 -0 2.1228666
1.0842022e-19 3.0433798 2
2.3213184 -1.0842022e-19 2.0443971
3.6893488e+19 3.0467489 -2
2.1441553 1.0842022e-19 2.0293758
0 3.2761569 -2
2.5524552 -3.6893488e+19 2.2418427
-2 3.0454633 3.6893488e+19
2.1424479 -3.6893488e+19 1.994993
0 3.0451517 -3.6893488e+19
2.3232589 -3.6893488e+19 1.979517
3.6893488e+19 3.2224336 2
2.3137538 2 2.0887406
-0 3.0441298 2
2.32214 3.6893488e+19 1.9455405
3.6893488e+19 3.0405748 -0
2.1359546 -0 1.9257658
3.6893488e+19 3.0438049 2
2.321784 2 1.9122047
2 3.1019666 2
2.2174981 2 1.9234662
2 3.1229753 -3.6893488e+19
2.4084938 -3.6893488e+19 1.9138807
1.0842022e-19 3.1015975 -3.6893488e+19
2.2170076 -0 1.8838999
-1.0842022e-19 3.0439782 -2
2.3219738 0 1.817119
3.6893488e+19 3.101398 -0
2.2167428 1.0842022e-19 1.8139654
3.6893488e+19 3.1200466 1.0842022e-19
2.4052863 0 1.7834808
0 3.0379441 0
1.9910891 3.6893488e+19 1.6070995
-1.0842022e-19 3.1790984 3.6893488e+19
2.3635597 0 1.5297638
0 3.0401967 1.0842022e-19
1.9929751 2 -1.2032784
1.0842022e-19 3.1800909 1.0842022e-19
2.3644006 -1.0842022e-19 -1.6057584
2 3.0267694 1.0842022e-19
1.9817328 0 -1.6357572
-2 3.0640054 -0
2.2660456 -2 -1.7251369
0 3.0411274 -1.0842022e-19
1.9937544 3.6893488e+19 -1.826494
-3.6893488e+19 3.0077269 2
2.1867259 1.0842022e-19 -1.8330609
-2 3.0371146 -0
1.9903947 3.6893488e+19 -1.8814497
-0 3.0071166 -1.0842022e-19
2.1856914 -2 -1.8826433
