# .PCD v0.7 - Point Cloud Data file format
VERSION 0.7
FIELDS x y z
SIZE 4 4 4
TYPE F F F
COUNT 1 1 1
WIDTH 1742
HEIGHT 1
VIEWPOINT 0 0 0 1 0 0 0
POINTS 1742
DATA ascii
2.3146765 -0 2.5122168
3.6893488e+19 3.2287526 2
1.9758394 0 2.5069735
3.6893488e+19 3.1941304 -3.6893488e+19
2.2945325 -3.6893488e+19 2.4655638
-0 3.2289407 -2
1.9759281 2 2.486969
0 3.1874151 -3.6893488e+19
2.2900791 -0 2.4336491
-0 3.22895 -0
1.9759325 -2 2.4598513
3.6893488e+19 3.1881027 -2
-1.3647891 -2 2.4080646
-0 3.2243674 3.6893488e+19
2.1462743 -3.6893488e+19 2.4290209
2 3.1893797 -1.0842022e-19
-1.3654881 1.0842022e-19 2.3844357
1.0842022e-19 3.2174983 1.0842022e-19
2.1405361 2 2.3963914
-2 3.1912272 -2
-1.3664993 -2 2.3611672
-2 3.2208753 -3.6893488e+19
2.143357 3.6893488e+19 2.3726809
-2 3.1897891 -2
-1.3657122 1.0842022e-19 2.3352265
3.6893488e+19 3.1893344 1.0842022e-19
2.1170087 0 2.3229625
-2 3.1898837 3.6893488e+19
-1.365764 1.0842022e-19 2.3105578
1.0842022e-19 3.1901023 -2
2.11765 2 2.2987556
-2 3.1871223 -3.6893488e+19
-1.3642526 -1.0842022e-19 2.2840576
-1.0842022e-19 3.1919694 0
2.11921 0 2.2751811
-3.6893488e+19 3.1915352 2
-1.366668 1.0842022e-19 2.2621503
2 3.1920426 1.0842022e-19
2.119271 3.6893488e+19 2.2504022
0 3.1938422 2
-1.3679305 0 2.2272918
0 3.1921875 -3.6893488e+19
2.1193919 -0 2.2013528
-1.0842022e-19 3.1870503 -1.0842022e-19
2.2898374 2 2.1724818
-0 3.1867642 -1.0842022e-19
1.9560324 0 2.1464956
-0 3.1896405 -0
1.9573892 0 2.099905
1.0842022e-19 3.1905792 -3.6893488e+19
2.2921774 0 2.0769928
3.6893488e+19 3.2018285 -0
1.9631386 -1.0842022e-19 2.0590844
-2 3.1979611 2
2.2970731 -1.0842022e-19 2.032239
3.6893488e+19 3.1827228 1.0842022e-19
1.954126 -0 1.9976497
-3.6893488e+19 3.2138541 1.0842022e-19
2.3076129 2 1.9902765
-3.6893488e+19 3.2111452 1.0842022e-19
2.3058164 -2 1.9372138
-2 3.1845827 3.6893488e+19
1.9550034 2 1.9016457
1.0842022e-19 3.2012513 -0
2.2992549 3.6893488e+19 1.8826737
3.6893488e+19 3.1844196 -2
1.9549264 3.6893488e+19 1.8312038
-3.6893488e+19 3.1986196 0
2.2975099 2 1.7883488
2 3.1862032 -0
1.9557678 -1.0842022e-19 1.7193594
2 3.1922767 0
-1.3670738 -3.6893488e+19 1.6223243
1.0842022e-19 3.1887147 -3.6893488e+19
2.1164908 -0 1.3234335
2 3.1903107 3.6893488e+19
-1.3659977 -2 -1.5217046
3.6893488e+19 3.1925452 1.0842022e-19
2.1196909 -0 -1.6726724
2 3.1881671 1.0842022e-19
-1.3648244 0 -1.7592362
-3.6893488e+19 3.1947935 2
2.1215692 3.6893488e+19 -1.8111515
-3.6893488e+19 3.1851587 2
-1.3631779 0 -1.8554142
2 3.1950855 0
2.1218131 -0 -1.8928571
-3.6893488e+19 3.1841607 0
-1.3626317 -3.6893488e+19 -1.9133829
-1.0842022e-19 3.192704 -2
2.1198235 -3.6893488e+19 -1.9415704
-0 3.1824548 2
-1.3616979 -3.6893488e+19 -1.9610159
3.6893488e+19 3.1582079 -2
2.0910063 -3.6893488e+19 -1.9722736
-3.6893488e+19 3.1401632 -0
-1.3385502 -0 -1.9839524
2 2.9843338 0
-1.2575465 2 -1.9222633
-1.0842022e-19 2.8153746 2
1.9591461 -3.6893488e+19 -1.8802449
0 2.7779598 3.6893488e+19
1.7561204 1.0842022e-19 -1.8694515
3.6893488e+19 2.7549391 0
1.9190673 -3.6893488e+19 -1.8641881
1.0842022e-19 2.7167773 -0
1.7201903 -3.6893488e+19 -1.8563879
2 2.6715245 0
1.8897706 -1.0842022e-19 -1.8464221
0 2.6421485 -2
1.684986 1.0842022e-19 -1.8413641
3.6893488e+19 2.6068377 3.6893488e+19
1.8616431 -0 -1.8325045
-1.0842022e-19 2.5892501 2
1.6600326 3.6893488e+19 -1.831207
2 2.5620677 -0
1.831953 -2 -1.8240361
0 2.544734 -0
1.6390332 0 -1.820695
2 2.527509 3.6893488e+19
1.8090348 -1.0842022e-19 -1.8176295
-1.0842022e-19 2.5146899 -2
1.6247215 0 -1.8156265
3.6893488e+19 2.4981115 -0
1.7901655 -1.0842022e-19 -1.8119304
-3.6893488e+19 2.4768031 1.0842022e-19
1.5999198 -2 -1.81011
2 2.4474518 3.6893488e+19
1.7733676 -3.6893488e+19 -1.8055577
1.0842022e-19 2.3817494 -2
-0.97947246 0 -1.8000553
1.0842022e-19 2.3342392 -0
-0.96647048 -3.6893488e+19 -1.7971854
0 2.2947519 -2
-0.95566404 1.0842022e-19 -1.7935851
3.6893488e+19 2.2615361 -2
-0.94657397 -2 -1.7895015
3.6893488e+19 2.2150862 -3.6893488e+19
1.6542149 1.0842022e-19 -1.7851322
0 2.1791463 -3.6893488e+19
1.6422977 -2 -1.7851491
1.0842022e-19 2.1433032 -0
1.6304128 0 -1.7831887
-0 2.1090388 2
1.6131028 -3.6893488e+19 -1.7798867
0 3.2499092 0
2.146595 1.0842022e-19 2.7060387
-2 3.2719548 2
-1.6284411 0 2.7376029
0 3.2469113 -0
2.1442165 -2 2.6887352
3.6893488e+19 3.2743583 2
-1.6295762 3.6893488e+19 2.7258661
2 3.2454345 -3.6893488e+19
2.1430449 -3.6893488e+19 2.6729479
-2 3.2468617 1.0842022e-19
2.1441774 1.0842022e-19 2.6596844
0 3.2936919 -0
-1.6387072 1.0842022e-19 2.725203
1.0842022e-19 3.2492466 3.6893488e+19
2.1460693 2 2.6471436
-2 3.2448676 -2
2.1425953 -1.0842022e-19 2.6293173
-0 3.2494447 -3.6893488e+19
2.1462264 -1.0842022e-19 2.6183915
-2 3.2417006 -0
-1.6072245 3.6893488e+19 2.6051543
0 3.2445726 -2
2.1423612 -3.6893488e+19 2.6005383
-2 3.2379708 1.0842022e-19
2.3133075 -0 2.5895116
-0 3.2477252 -3.6893488e+19
1.9639022 1.0842022e-19 2.5881674
0 3.2348001 -3.6893488e+19
2.3112714 -3.6893488e+19 2.5733511
-3.6893488e+19 3.2394838 1.0842022e-19
1.9603605 0 2.5685356
1.0842022e-19 3.2380571 1.0842022e-19
2.3133628 -3.6893488e+19 2.5615108
0 3.2403975 0
1.9607531 -2 2.5551057
2 3.2733035 -0
2.3509555 -3.6893488e+19 2.5832193
1.0842022e-19 3.196888 -0
2.2869296 2 2.509654
-2 3.2270913 -3.6893488e+19
1.9550346 2 2.5196221
3.6893488e+19 3.2233112 -0
2.303895 0 2.5115008
-1.0842022e-19 3.2287879 1.0842022e-19
1.9557638 0 2.5069735
-2 3.2269661 -0
2.3062418 3.6893488e+19 2.4998775
-1.0842022e-19 3.2308974 1.0842022e-19
1.9566704 -0 2.4889224
-2 3.2265232 -1.0842022e-19
2.3059573 3.6893488e+19 2.4723196
-2 3.2323351 1.0842022e-19
1.9572883 3.6893488e+19 2.4630673
0 3.245245 -3.6893488e+19
-1.6088983 -0 2.4612918
3.6893488e+19 3.2245858 1.0842022e-19
2.1265051 1.0842022e-19 2.4291613
-1.0842022e-19 3.2456348 -2
-1.6090825 1.0842022e-19 2.4336588
3.6893488e+19 3.2271204 0
2.128516 -1.0842022e-19 2.404496
-0 3.2360837 0
-1.6045717 -2 2.397887
-0 3.2199442 -0
2.1228228 3.6893488e+19 2.3718944
-3.6893488e+19 3.2375696 -3.6893488e+19
-1.6052734 0 2.3716493
3.6893488e+19 3.2202876 -2
2.123095 -2 2.3456705
2 3.250509 2
-1.611625 -2 2.3537207
-0 3.2158186 -1.0842022e-19
2.1195498 -2 2.3161705
1.0842022e-19 3.2510931 3.6893488e+19
-1.6121767 -1.0842022e-19 2.3263404
2 3.1890411 -2
2.0983062 -1.0842022e-19 2.2733212
0 3.2485318 -2
-1.6104506 -1.0842022e-19 2.2959921
0 3.1942499 -0
2.1024384 -2 2.2516189
1.0842022e-19 3.2426353 -1.0842022e-19
-1.6076658 -1.0842022e-19 2.2648826
2 3.193399 2
2.1017635 -3.6893488e+19 2.202529
1.0842022e-19 3.2203207 0
2.301975 3.6893488e+19 2.2045457
-0 3.2303669 -1.0842022e-19
1.9564424 -1.0842022e-19 2.1860459
-1.0842022e-19 3.187721 1.0842022e-19
2.281044 -1.0842022e-19 2.1239073
1.0842022e-19 3.2326045 -3.6893488e+19
1.9574039 1.0842022e-19 2.1340711
3.6893488e+19 3.1920114 -3.6893488e+19
2.2837985 3.6893488e+19 2.0779855
-3.6893488e+19 3.2329783 2
1.9575647 2 2.080369
-1.0842022e-19 3.1972165 -1.0842022e-19
2.2871406 2 2.0317097
0 3.2558692 -2
1.9699244 1.0842022e-19 2.0428491
-0 3.196394 3.6893488e+19
2.2866125 -2 1.9811826
-0 3.1827896 1.0842022e-19
1.9359956 2 1.9493343
-2 3.2113061 0
2.2961872 -3.6893488e+19 1.9372391
3.6893488e+19 3.1846461 0
1.9367934 -2 1.9016565
-3.6893488e+19 3.2024376 2
2.290493 2 1.8829942
-1.0842022e-19 3.1837957 3.6893488e+19
1.936428 -2 1.8308924
0 3.2012699 -3.6893488e+19
2.2897429 -3.6893488e+19 1.7892785
-2 3.1856105 1.0842022e-19
1.9372079 2 1.7190453
-0 3.2982919 -1.0842022e-19
-1.6408798 1.0842022e-19 1.6668081
1.0842022e-19 3.1917384 -1.0842022e-19
2.100446 2 1.3247745
0 3.2965438 -0
-1.6400541 3.6893488e+19 -1.5726087
-1.0842022e-19 3.193759 -0
2.1020491 -2 -1.6731229
1.0842022e-19 3.2348495 -1.0842022e-19
-1.6039886 -1.0842022e-19 -1.7735386
-2 3.1929803 -1.0842022e-19
2.1014314 2 -1.8103679
3.6893488e+19 3.1844063 -3.6893488e+19
-1.5801649 2 -1.8550171
1.0842022e-19 3.1952074 -1.0842022e-19
2.1031981 -0 -1.8928771
3.6893488e+19 3.1838458 2
-1.5799003 -1.0842022e-19 -1.9132653
-0 3.1911094 1.0842022e-19
2.0999472 0 -1.940855
3.6893488e+19 3.1826708 3.6893488e+19
-1.5793453 -3.6893488e+19 -1.9611226
2 3.194603 -1.0842022e-19
2.1027186 2 -1.9920589
2 3.1392865 -0
-1.5588554 3.6893488e+19 -1.9834281
2 2.9866409 2
-1.4798348 -3.6893488e+19 -1.9230849
-3.6893488e+19 2.8148198 2
1.9521339 0 -1.8799881
1.0842022e-19 2.7797894 2
1.7404845 -1.0842022e-19 -1.8710424
-2 2.7550557 1.0842022e-19
1.9137616 2 -1.8642465
2 2.7178094 -0
1.7010456 3.6893488e+19 -1.8568825
2 2.6716146 -0
1.8853513 -1.0842022e-19 -1.8464221
3.6893488e+19 2.6414294 0
1.6682206 -1.0842022e-19 -1.8409514
-2 2.6076596 2
1.8546396 -3.6893488e+19 -1.832938
1.0842022e-19 2.5897737 3.6893488e+19
1.646021 -0 -1.8315099
1.0842022e-19 2.5620103 1.0842022e-19
1.8253299 3.6893488e+19 -1.823957
-3.6893488e+19 2.5478687 1.0842022e-19
1.6280121 -0 -1.8227619
-0 2.5274441 2
1.8031363 0 -1.8175434
-1.0842022e-19 2.5139627 0
1.6018813 1.0842022e-19 -1.8150887
2 2.4987142 -2
1.7851026 3.6893488e+19 -1.8121166
-0 2.4768384 -2
1.5799259 -2 -1.81011
-1.0842022e-19 2.4477954 -0
1.7687562 1.0842022e-19 -1.8056579
0 3.2499092 0
2.146595 1.0842022e-19 2.7060387
-2 3.2719548 2
-1.6284411 0 2.7376029
0 3.2469113 -0
2.1442165 -2 2.6887352
3.6893488e+19 3.2743583 2
-1.6295762 3.6893488e+19 2.7258661
2 3.2454345 -3.6893488e+19
2.1430449 -3.6893488e+19 2.6729479
-2 3.2468617 1.0842022e-19
2.1441774 1.0842022e-19 2.6596844
0 3.2936919 -0
-1.6387072 1.0842022e-19 2.725203
1.0842022e-19 3.2492466 3.6893488e+19
2.1460693 2 2.6471436
-0 3.2008467 -1.0842022e-19
2.107672 -1.0842022e-19 2.5955751
2 3.2044454 0
2.110527 -1.0842022e-19 2.5851998
-2 3.2417006 -0
-1.6072245 3.6893488e+19 2.6051543
0 3.2044339 -2
2.1105177 -1.0842022e-19 2.5720892
-2 3.2379708 1.0842022e-19
2.3133075 -0 2.5895116
-0 3.2477252 -3.6893488e+19
1.9639022 1.0842022e-19 2.5881674
-2 3.1981411 -1.0842022e-19
2.2877343 3.6893488e+19 2.5489006
-3.6893488e+19 3.2394838 1.0842022e-19
1.9603605 0 2.5685356
3.6893488e+19 3.2137234 -1.0842022e-19
2.297739 -1.0842022e-19 2.5459795
0 3.2403975 0
1.9607531 -2 2.5551057
2 3.2733035 -0
2.3509555 -3.6893488e+19 2.5832193
1.0842022e-19 3.196888 -0
2.2869296 2 2.509654
-2 3.2270913 -3.6893488e+19
1.9550346 2 2.5196221
3.6893488e+19 3.2233112 -0
2.303895 0 2.5115008
-1.0842022e-19 3.2287879 1.0842022e-19
1.9557638 0 2.5069735
2 3.1928663 3.6893488e+19
2.2843475 -1.0842022e-19 2.4641395
-1.0842022e-19 3.2308974 1.0842022e-19
1.9566704 -0 2.4889224
-2 3.189147 -0
2.2819595 2 2.4352732
-2 3.2323351 1.0842022e-19
1.9572883 3.6893488e+19 2.4630673
3.6893488e+19 3.1883173 -2
-1.5820121 -1.0842022e-19 2.408267
3.6893488e+19 3.2245858 1.0842022e-19
2.1265051 1.0842022e-19 2.4291613
2 3.1893148 -2
-1.5824832 0 2.3843813
3.6893488e+19 3.2271204 0
2.128516 -1.0842022e-19 2.404496
-2 3.1903851 3.6893488e+19
-1.5829887 -3.6893488e+19 2.3604801
-0 3.2199442 -0
2.1228228 3.6893488e+19 2.3718944
0 3.1896932 -0
-1.5826619 -2 2.3351552
2 3.1898282 -0
2.0989306 -0 2.3232822
0 3.1894143 3.6893488e+19
-1.5825301 -0 2.3102281
-0 3.185185 -0
2.095247 2 2.2953782
-1.0842022e-19 3.1880541 2
-1.5818878 -1.0842022e-19 2.2846649
2 3.1890411 -2
2.0983062 -1.0842022e-19 2.2733212
1.0842022e-19 3.1913457 -1.0842022e-19
-1.5834423 -0 2.2620392
0 3.1942499 -0
2.1024384 -2 2.2516189
-0 3.1935587 3.6893488e+19
-1.5844876 3.6893488e+19 2.22699
2 3.193399 2
2.1017635 -3.6893488e+19 2.202529
2 3.186522 0
2.2802742 3.6893488e+19 2.1718807
-0 3.2303669 -1.0842022e-19
1.9564424 -1.0842022e-19 2.1860459
-1.0842022e-19 3.187721 1.0842022e-19
2.281044 -1.0842022e-19 2.1239073
0 3.1887059 -0
1.9385381 -0 2.0991352
3.6893488e+19 3.1920114 -3.6893488e+19
2.2837985 3.6893488e+19 2.0779855
-1.0842022e-19 3.1892529 -3.6893488e+19
1.9387732 3.6893488e+19 2.0504596
-1.0842022e-19 3.1972165 -1.0842022e-19
2.2871406 2 2.0317097
3.6893488e+19 3.1816308 -2
1.9354975 2 1.9970065
-0 3.196394 3.6893488e+19
2.2866125 -2 1.9811826
-0 3.1827896 1.0842022e-19
1.9359956 2 1.9493343
-2 3.2113061 0
2.2961872 -3.6893488e+19 1.9372391
3.6893488e+19 3.1846461 0
1.9367934 -2 1.9016565
-3.6893488e+19 3.2024376 2
2.290493 2 1.8829942
-1.0842022e-19 3.1837957 3.6893488e+19
1.936428 -2 1.8308924
0 3.2012699 -3.6893488e+19
2.2897429 -3.6893488e+19 1.7892785
-2 3.1856105 1.0842022e-19
1.9372079 2 1.7190453
-1.0842022e-19 3.1922426 -0
-1.583866 2 1.6223069
1.0842022e-19 3.1917384 -1.0842022e-19
2.100446 2 1.3247745
-3.6893488e+19 3.1916828 -3.6893488e+19
-1.5836016 -2 -1.5221627
-1.0842022e-19 3.193759 -0
2.1020491 -2 -1.6731229
-1.0842022e-19 3.1866019 -3.6893488e+19
-1.5812019 -2 -1.7587575
-2 3.1929803 -1.0842022e-19
2.1014314 2 -1.8103679
3.6893488e+19 3.1844063 -3.6893488e+19
-1.5801649 2 -1.8550171
1.0842022e-19 3.1952074 -1.0842022e-19
2.1031981 -0 -1.8928771
3.6893488e+19 3.1838458 2
-1.5799003 -1.0842022e-19 -1.9132653
-0 3.1911094 1.0842022e-19
2.0999472 0 -1.940855
3.6893488e+19 3.1826708 3.6893488e+19
-1.5793453 -3.6893488e+19 -1.9611226
2 3.157233 -1.0842022e-19
2.0730717 -0 -1.9717132
2 3.1392865 -0
-1.5588554 3.6893488e+19 -1.9834281
2 2.9866409 2
-1.4798348 -3.6893488e+19 -1.9230849
-3.6893488e+19 2.8148198 2
1.9521339 0 -1.8799881
1.0842022e-19 2.7797894 2
1.7404845 -1.0842022e-19 -1.8710424
-2 2.7550557 1.0842022e-19
1.9137616 2 -1.8642465
2 2.7178094 -0
1.7010456 3.6893488e+19 -1.8568825
2 2.6716146 -0
1.8853513 -1.0842022e-19 -1.8464221
3.6893488e+19 2.6414294 0
1.6682206 -1.0842022e-19 -1.8409514
-2 2.6076596 2
1.8546396 -3.6893488e+19 -1.832938
1.0842022e-19 2.5897737 3.6893488e+19
1.646021 -0 -1.8315099
1.0842022e-19 2.5620103 1.0842022e-19
1.8253299 3.6893488e+19 -1.823957
-3.6893488e+19 2.5478687 1.0842022e-19
1.6280121 -0 -1.8227619
-0 2.5274441 2
1.8031363 0 -1.8175434
-1.0842022e-19 2.5139627 0
1.6018813 1.0842022e-19 -1.8150887
2 2.4987142 -2
1.7851026 3.6893488e+19 -1.8121166
-0 2.4768384 -2
1.5799259 -2 -1.81011
-1.0842022e-19 2.4477954 -0
1.7687562 1.0842022e-19 -1.8056579
0 3.2476897 0
2.1239276 2 2.7039566
3.6893488e+19 3.2714634 2
-1.719227 -2 2.736728
1.0842022e-19 3.2477057 -0
2.1239395 -2 2.6893811
0 3.2742479 0
-1.7214756 -2 2.7256806
-2 3.2472067 3.6893488e+19
2.1235647 -2 2.6744072
-0 3.2473221 -2
2.1236513 -0 2.660012
-2 3.2945302 1.0842022e-19
-1.7378552 -0 2.7265658
2 3.2467072 0
2.1231894 2 2.6450737
-1.0842022e-19 3.299263 2
-1.7416773 -2 2.716877
-0 3.2448995 -1.0842022e-19
2.1218312 0 2.6292939
3.6893488e+19 3.2046256 -1.0842022e-19
2.0915723 -0 2.5852904
-0 3.2384346 3.6893488e+19
-1.6972237 -2 2.6027997
2 3.2414384 3.6893488e+19
2.1192307 -2 2.5982728
-1.0842022e-19 3.2384708 -2
2.3033288 -3.6893488e+19 2.5897892
-2 3.2486825 2
1.9434004 0 2.5887952
3.6893488e+19 3.238066 1.0842022e-19
2.3030775 1.0842022e-19 2.5754623
3.6893488e+19 3.2424769 -0
1.9409937 2 2.5704618
-3.6893488e+19 3.2384348 1.0842022e-19
2.3033066 1.0842022e-19 2.5616877
-3.6893488e+19 3.2387013 -3.6893488e+19
1.9395294 -3.6893488e+19 2.5540302
2 3.27336 -0
2.3395002 -3.6893488e+19 2.5832193
-0 3.2737815 -0
2.3400238 -1.0842022e-19 2.5680833
-0 3.227278 1.0842022e-19
1.9350992 -3.6893488e+19 2.5197093
-1.0842022e-19 3.2231929 -1.0842022e-19
2.2938416 -0 2.5113814
0 3.2288201 -0
1.9356972 0 2.5069735
3.6893488e+19 3.2248714 1.0842022e-19
2.294884 2 2.4975791
3.6893488e+19 3.237469 1.0842022e-19
1.9390515 0 2.4955704
1.0842022e-19 3.228539 3.6893488e+19
2.2971613 -3.6893488e+19 2.4742193
-1.0842022e-19 3.2362137 -1.0842022e-19
1.9385647 -0 2.4667597
-2 3.2467282 -3.6893488e+19
-1.7005725 2 2.4626796
-3.6893488e+19 3.2211716 2
2.1040039 0 2.4260201
0 3.2455974 -3.6893488e+19
-1.7001158 1.0842022e-19 2.4336317
1.0842022e-19 3.2274601 -2
2.1087284 -3.6893488e+19 2.4047327
2 3.2359531 0
-1.6962217 -3.6893488e+19 2.3977852
2 3.2173011 -2
2.1010957 0 2.369756
1.0842022e-19 3.249198 0
-1.7015698 -0 2.3805177
-0 3.2177048 0
2.1013992 1.0842022e-19 2.3437288
2 3.2499843 -0
-1.7018872 -2 2.3529954
-0 3.2146022 0
2.0990682 -2 2.315305
1.0842022e-19 3.2504513 2
-1.7022581 -3.6893488e+19 2.3255105
0 3.1857045 2
2.0773563 1.0842022e-19 2.2712097
0 3.2470918 -2
-1.7007192 -2 2.295141
-2 3.1917837 2
2.081924 -2 2.2501905
-3.6893488e+19 3.2451229 -1.0842022e-19
-1.6999243 0 2.2662239
3.6893488e+19 3.1917105 2
2.0818689 1.0842022e-19 2.2007489
-2 3.2224393 -2
2.2933736 2 2.2064991
1.0842022e-19 3.2052283 -2
1.9265478 3.6893488e+19 2.1631989
-2 3.1875315 1.0842022e-19
2.2716968 -1.0842022e-19 2.1236682
-2 3.2068324 -2
1.9271699 -0 2.1135366
3.6893488e+19 3.2182772 1.0842022e-19
2.2907891 2 2.0974038
2 3.2338536 1.0842022e-19
1.9376494 0 2.0809455
3.6893488e+19 3.255012 -2
1.9477988 0 2.0418487
3.6893488e+19 3.1979499 2
2.2781663 -3.6893488e+19 1.9819404
-3.6893488e+19 3.2566307 2
1.9490545 3.6893488e+19 1.9863822
-2 3.2096884 3.6893488e+19
2.2854557 3.6893488e+19 1.9365439
-0 3.186393 3.6893488e+19
1.9192431 -0 1.9022559
0 3.2045562 -2
2.2822685 1.0842022e-19 1.8835893
-2 3.1872609 -3.6893488e+19
1.9195796 -2 1.8325232
-1.0842022e-19 3.2031388 3.6893488e+19
2.2813885 -1.0842022e-19 1.7899249
-2 3.1861708 -0
1.9191569 2 1.7193123
-2 3.2993348 -0
-1.7417352 -3.6893488e+19 1.6673934
-3.6893488e+19 3.191638 2
2.0818145 2 1.3247039
2 3.2964931 -2
-1.7394402 -0 -1.5725775
1.0842022e-19 3.1950326 1.0842022e-19
2.0843649 3.6893488e+19 -1.6735978
-0 3.2343743 3.6893488e+19
-1.6955842 0 -1.7733951
3.6893488e+19 3.1954086 1.0842022e-19
2.0846474 2 -1.8113605
0 3.1841507 0
-1.6753045 -3.6893488e+19 -1.8548846
2 3.1961687 2
2.0852184 -2 -1.8931675
2 3.1837776 3.6893488e+19
-1.6751539 3.6893488e+19 -1.9132419
2 3.1906972 1.0842022e-19
2.0811076 -0 -1.9406525
1.0842022e-19 3.1810722 -1.0842022e-19
-1.6740614 3.6893488e+19 -1.9603454
-3.6893488e+19 3.1934736 -1.0842022e-19
2.0831935 -2 -1.9914135
-2 3.1380947 0
-1.6567078 3.6893488e+19 -1.9827166
3.6893488e+19 2.985698 -3.6893488e+19
-1.5711186 -0 -1.9227518
-2 2.8941746 0
1.898077 0 -1.9013766
-2 2.813827 0
1.9448793 3.6893488e+19 -1.8795513
-2 2.7805567 -2
1.7176125 -3.6893488e+19 -1.8717006
-0 2.7547352 0
1.9081846 -3.6893488e+19 -1.8638964
-0 2.7155957 1.0842022e-19
1.6805686 1.0842022e-19 -1.8557698
-2 2.6751838 -2
1.8820145 -0 -1.8482504
-1.0842022e-19 2.6412063 -1.0842022e-19
1.6517186 -3.6893488e+19 -1.8408139
0 2.6081066 0
1.8473758 1.0842022e-19 -1.8331548
-1.0842022e-19 2.5914161 -3.6893488e+19
1.6324089 -2 -1.8324944
-2 2.5621989 -2
1.8188682 -2 -1.8240361
-0 2.5475152 1.0842022e-19
1.6057663 -3.6893488e+19 -1.8225138
-3.6893488e+19 2.5271289 0
1.7970906 0 -1.8172849
-2 2.5139804 -2
1.5797552 1.0842022e-19 -1.8150887
-0 2.4993136 3.6893488e+19
1.780031 2 -1.8123028
1.0842022e-19 2.4766216 3.6893488e+19
1.5598446 -2 -1.8100134
-1.0842022e-19 2.447392 3.6893488e+19
1.7639099 -3.6893488e+19 -1.8054577
-2 2.3812451 2
-1.278942 2 -1.7998275
1.0842022e-19 2.3339849 0
-1.2598588 -0 -1.7970577
0 2.2937562 0
-1.2372301 3.6893488e+19 -1.7930188
-1.0842022e-19 2.2607901 3.6893488e+19
-1.2106075 -0 -1.7890356
-2 2.2157731 2
1.6446171 -1.0842022e-19 -1.7853012
-1.0842022e-19 2.1773663 0
1.6326922 3.6893488e+19 -1.7844179
-3.6893488e+19 2.1429796 0
1.6190312 -0 -1.7829921
0 2.1096773 0
1.5983511 -2 -1.7800969
0 3.2476897 0
2.1239276 2 2.7039566
3.6893488e+19 3.2714634 2
-1.719227 -2 2.736728
1.0842022e-19 3.2477057 -0
2.1239395 -2 2.6893811
0 3.2742479 0
-1.7214756 -2 2.7256806
-2 3.2472067 3.6893488e+19
2.1235647 -2 2.6744072
-0 3.2473221 -2
2.1236513 -0 2.660012
-2 3.2945302 1.0842022e-19
-1.7378552 -0 2.7265658
2 3.2467072 0
2.1231894 2 2.6450737
-1.0842022e-19 3.299263 2
-1.7416773 -2 2.716877
2 3.2027433 -2
2.090158 0 2.5969851
3.6893488e+19 3.2046256 -1.0842022e-19
2.0915723 -0 2.5852904
-0 3.2384346 3.6893488e+19
-1.6972237 -2 2.6027997
3.6893488e+19 3.2039995 -1.0842022e-19
2.0911019 -2 2.5717406
-1.0842022e-19 3.2384708 -2
2.3033288 -3.6893488e+19 2.5897892
-2 3.2486825 2
1.9434004 0 2.5887952
0 3.1984184 2
2.2784572 1.0842022e-19 2.5490236
3.6893488e+19 3.2424769 -0
1.9409937 2 2.5704618
-3.6893488e+19 3.2384348 1.0842022e-19
2.3033066 1.0842022e-19 2.5616877
-3.6893488e+19 3.2387013 -3.6893488e+19
1.9395294 -3.6893488e+19 2.5540302
2 3.27336 -0
2.3395002 -3.6893488e+19 2.5832193
-0 3.2737815 -0
2.3400238 -1.0842022e-19 2.5680833
-0 3.227278 1.0842022e-19
1.9350992 -3.6893488e+19 2.5197093
-1.0842022e-19 3.2231929 -1.0842022e-19
2.2938416 -0 2.5113814
0 3.2288201 -0
1.9356972 0 2.5069735
3.6893488e+19 3.1921546 2
2.2745676 -0 2.4632978
3.6893488e+19 3.237469 1.0842022e-19
1.9390515 0 2.4955704
1.0842022e-19 3.228539 3.6893488e+19
2.2971613 -3.6893488e+19 2.4742193
-1.0842022e-19 3.2362137 -1.0842022e-19
1.9385647 -0 2.4667597
3.6893488e+19 3.1848972 -3.6893488e+19
-1.6756059 -0 2.4050868
-3.6893488e+19 3.2211716 2
2.1040039 0 2.4260201
-0 3.1881907 -2
-1.6769358 0 2.3834028
1.0842022e-19 3.2274601 -2
2.1087284 -3.6893488e+19 2.4047327
3.6893488e+19 3.1886075 2
-1.6771041 1.0842022e-19 2.3590298
3.6893488e+19 3.1872618 2
2.0785265 3.6893488e+19 2.3459871
-1.0842022e-19 3.1905894 -2
-1.6779044 1.0842022e-19 2.3358431
-0 3.1879876 3.6893488e+19
2.0790718 -0 2.3218887
0 3.1905291 0
-1.67788 -3.6893488e+19 2.3110192
-0 3.2146022 0
2.0990682 -2 2.315305
-2 3.1900105 1.0842022e-19
-1.6776707 0 2.2859402
0 3.1857045 2
2.0773563 1.0842022e-19 2.2712097
-3.6893488e+19 3.1889713 0
-1.6772511 3.6893488e+19 2.260633
-2 3.1917837 2
2.081924 -2 2.2501905
1.0842022e-19 3.1924305 -0
-1.6786478 -1.0842022e-19 2.2257829
3.6893488e+19 3.1917105 2
2.0818689 1.0842022e-19 2.2007489
-2 3.1858969 -1.0842022e-19
2.2706816 3.6893488e+19 2.1711895
1.0842022e-19 3.2052283 -2
1.9265478 3.6893488e+19 2.1631989
-2 3.1875315 1.0842022e-19
2.2716968 -1.0842022e-19 2.1236682
-2 3.2068324 -2
1.9271699 -0 2.1135366
2 3.1909823 -2
2.2738395 -3.6893488e+19 2.0771542
-1.0842022e-19 3.2075415 -0
1.9274449 -2 2.0629485
3.6893488e+19 3.1825027 0
1.9177344 -2 1.9974889
3.6893488e+19 3.1979499 2
2.2781663 -3.6893488e+19 1.9819404
2 3.1826625 -1.0842022e-19
1.9177963 0 1.9492624
-2 3.2096884 3.6893488e+19
2.2854557 3.6893488e+19 1.9365439
-0 3.186393 3.6893488e+19
1.9192431 -0 1.9022559
0 3.2045562 -2
2.2822685 1.0842022e-19 1.8835893
-2 3.1872609 -3.6893488e+19
1.9195796 -2 1.8325232
-1.0842022e-19 3.2031388 3.6893488e+19
2.2813885 -1.0842022e-19 1.7899249
-2 3.1861708 -0
1.9191569 2 1.7193123
0 3.1915495 3.6893488e+19
-1.678292 2 1.6219225
-3.6893488e+19 3.191638 2
2.0818145 2 1.3247039
-1.0842022e-19 3.1907396 -0
-1.677965 -0 -1.5218503
1.0842022e-19 3.1950326 1.0842022e-19
2.0843649 3.6893488e+19 -1.6735978
3.6893488e+19 3.1839714 0
-1.6752322 0 -1.7579534
3.6893488e+19 3.1954086 1.0842022e-19
2.0846474 2 -1.8113605
0 3.1841507 0
-1.6753045 -3.6893488e+19 -1.8548846
2 3.1961687 2
2.0852184 -2 -1.8931675
2 3.1837776 3.6893488e+19
-1.6751539 3.6893488e+19 -1.9132419
2 3.1906972 1.0842022e-19
2.0811076 -0 -1.9406525
1.0842022e-19 3.1810722 -1.0842022e-19
-1.6740614 3.6893488e+19 -1.9603454
2 3.1564422 3.6893488e+19
2.0553708 1.0842022e-19 -1.9712547
-2 3.1380947 0
-1.6567078 3.6893488e+19 -1.9827166
3.6893488e+19 2.985698 -3.6893488e+19
-1.5711186 -0 -1.9227518
-2 2.8941746 0
1.898077 0 -1.9013766
-2 2.813827 0
1.9448793 3.6893488e+19 -1.8795513
-2 2.7805567 -2
1.7176125 -3.6893488e+19 -1.8717006
-0 2.7547352 0
1.9081846 -3.6893488e+19 -1.8638964
-0 2.7155957 1.0842022e-19
1.6805686 1.0842022e-19 -1.8557698
-2 2.6751838 -2
1.8820145 -0 -1.8482504
-1.0842022e-19 2.6412063 -1.0842022e-19
1.6517186 -3.6893488e+19 -1.8408139
0 2.6081066 0
1.8473758 1.0842022e-19 -1.8331548
-1.0842022e-19 2.5914161 -3.6893488e+19
1.6324089 -2 -1.8324944
-2 2.5621989 -2
1.8188682 -2 -1.8240361
-0 2.5475152 1.0842022e-19
1.6057663 -3.6893488e+19 -1.8225138
-3.6893488e+19 2.5271289 0
1.7970906 0 -1.8172849
-2 2.5139804 -2
1.5797552 1.0842022e-19 -1.8150887
-0 2.4993136 3.6893488e+19
1.780031 2 -1.8123028
1.0842022e-19 2.4766216 3.6893488e+19
1.5598446 -2 -1.8100134
-1.0842022e-19 2.447392 3.6893488e+19
1.7639099 -3.6893488e+19 -1.8054577
-2 2.3812451 2
-1.278942 2 -1.7998275
1.0842022e-19 2.3339849 0
-1.2598588 -0 -1.7970577
0 2.2937562 0
-1.2372301 3.6893488e+19 -1.7930188
-1.0842022e-19 2.2607901 3.6893488e+19
-1.2106075 -0 -1.7890356
-2 2.2157731 2
1.6446171 -1.0842022e-19 -1.7853012
-1.0842022e-19 2.1773663 0
1.6326922 3.6893488e+19 -1.7844179
-3.6893488e+19 2.1429796 0
1.6190312 -0 -1.7829921
0 2.1096773 0
1.5983511 -2 -1.7800969
3.6893488e+19 3.2480536 3.6893488e+19
2.1032841 -1.0842022e-19 2.7042341
2 3.2710006 1.0842022e-19
-1.7798595 1.0842022e-19 2.735908
0 3.2479177 -3.6893488e+19
2.1031876 0 2.6895158
0 3.2742271 2
-1.7817032 -1.0842022e-19 2.7256541
2 3.2482128 1.0842022e-19
2.1033971 1.0842022e-19 2.6752152
-0 3.2476873 0
2.1030245 -3.6893488e+19 2.660264
2 3.2463992 2
2.1021106 3.6893488e+19 2.6447814
-1.0842022e-19 3.299119 3.6893488e+19
-1.7959274 -0 2.7166617
2 3.2448361 -3.6893488e+19
2.1010017 -2 2.6291997
1.0842022e-19 3.2359862 3.6893488e+19
-1.763855 2 2.6150486
3.6893488e+19 3.2426288 0
2.0994363 0 2.6132748
-3.6893488e+19 3.2584348 -2
-1.772679 0 2.6233463
2 3.2406671 -1.0842022e-19
2.0980446 -3.6893488e+19 2.5976846
1.0842022e-19 3.2370334 3.6893488e+19
2.292171 -0 2.5887215
-0 3.2945733 -2
1.9537804 2 2.6502306
-1.0842022e-19 3.2376101 -3.6893488e+19
2.2925169 -1.0842022e-19 2.5750933
1.0842022e-19 3.2423832 1.0842022e-19
1.9203109 -1.0842022e-19 2.5703814
-1.0842022e-19 3.2385941 -1.0842022e-19
2.2931073 -2 2.5617268
-0 3.2386382 -3.6893488e+19
1.9190154 2 2.5539727
1.0842022e-19 3.2730296 -3.6893488e+19
2.3275805 2 2.5827501
-0 3.2734816 0
2.3281231 -1.0842022e-19 2.5676713
1.0842022e-19 3.2240286 2
2.2843695 -2 2.5117905
2 3.2251518 -0
2.2850432 0 2.4977734
1.0842022e-19 3.2370644 2
1.9184711 -3.6893488e+19 2.4951291
2 3.229748 3.6893488e+19
2.2878006 -2 2.4753225
-0 3.2357776 -3.6893488e+19
1.918026 0 2.4663131
0 3.243211 -0
-1.7659192 1.0842022e-19 2.4594126
-3.6893488e+19 3.2192736 1.0842022e-19
2.0828698 1.0842022e-19 2.4242532
-3.6893488e+19 3.2450902 0
-1.7664562 1.0842022e-19 2.4331968
-1.0842022e-19 3.2196004 3.6893488e+19
2.0831015 0 2.3980229
0 3.2471657 -3.6893488e+19
-1.7670491 1.0842022e-19 2.4069717
0 3.2158968 2
2.0804744 3.6893488e+19 2.3686006
-0 3.2486901 0
-1.7674848 1.0842022e-19 2.3801384
0 3.2143722 1.0842022e-19
2.0793929 -2 2.3412385
-2 3.2480443 1.0842022e-19
-1.7673002 -1.0842022e-19 2.3516328
1.0842022e-19 3.1877496 3.6893488e+19
2.0605087 -2 2.2970457
-0 3.2449749 2
-1.7664232 -2 2.3216648
0 3.2255971 1.0842022e-19
2.0873551 -0 2.296006
-3.6893488e+19 3.2472374 3.6893488e+19
-1.7670697 -1.0842022e-19 2.2952335
1.0842022e-19 3.222044 0
2.0848348 1.0842022e-19 2.2672956
-0 3.2440219 2
-1.766151 -3.6893488e+19 2.2656369
2 3.2179968 2
2.081964 -0 2.2275159
-3.6893488e+19 3.2251778 2
2.285059 -2 2.2090533
3.6893488e+19 3.1895173 3.6893488e+19
2.2636662 -3.6893488e+19 2.125289
-3.6893488e+19 3.2361605 1.0842022e-19
1.9181585 3.6893488e+19 2.136852
-2 3.2194602 0
2.2816291 -2 2.0982118
-1.0842022e-19 3.2312293 -3.6893488e+19
1.9164528 -3.6893488e+19 2.0791306
-1.0842022e-19 3.1973984 -2
2.268394 2 2.0317097
0 3.183403 3.6893488e+19
1.8999101 0 1.9979892
-1.0842022e-19 3.2013409 -2
2.2707591 1.0842022e-19 1.9836496
3.6893488e+19 3.2583482 2
1.9287206 -0 1.9879498
2 3.1998739 3.6893488e+19
2.2698791 0 1.9325247
-0 3.186794 -3.6893488e+19
1.901083 2 1.9023867
-3.6893488e+19 3.2029955 2
2.2717519 -3.6893488e+19 1.883104
-1.0842022e-19 3.2981474 -3.6893488e+19
1.9562529 3.6893488e+19 1.8914918
1.0842022e-19 3.2032607 -3.6893488e+19
2.2719107 -1.0842022e-19 1.7899362
3.6893488e+19 3.1869781 -3.6893488e+19
1.9011467 3.6893488e+19 1.719705
-3.6893488e+19 3.3008599 0
-1.7969223 -2 1.6682497
0 3.1924403 -1.0842022e-19
2.0638359 0 1.3250427
3.6893488e+19 3.1892309 -0
-1.7504961 1.0842022e-19 -1.5213506
0 3.1968029 -3.6893488e+19
2.0669303 1.0842022e-19 -1.6742675
1.0842022e-19 3.2328961 0
-1.7629721 -1.0842022e-19 -1.772945
0 3.1967106 3.6893488e+19
2.066865 2 -1.8118829
1.0842022e-19 3.1850793 -3.6893488e+19
-1.7486199 3.6893488e+19 -1.855381
1.0842022e-19 3.2003422 0
2.0694411 -2 -1.8944894
-3.6893488e+19 3.1845498 3.6893488e+19
-1.7483175 0 -1.9135358
-3.6893488e+19 3.1983957 -0
2.0680604 -1.0842022e-19 -1.9439598
2 3.1817508 3.6893488e+19
-1.7467179 1.0842022e-19 -1.9606807
-1.0842022e-19 3.1957731 -2
2.0662 0 -1.9926363
-3.6893488e+19 3.1384304 3.6893488e+19
-1.7219632 1.0842022e-19 -1.9829226
2 2.9848766 0
-1.638538 -2 -1.9224631
-1.0842022e-19 2.8929744 -3.6893488e+19
1.8893741 2 -1.9008976
-3.6893488e+19 2.8129561 -3.6893488e+19
1.9377422 0 -1.879166
3.6893488e+19 2.7821958 -3.6893488e+19
1.6952178 -3.6893488e+19 -1.873127
-1.0842022e-19 2.7539151 1.0842022e-19
1.9023236 -1.0842022e-19 -1.8630797
-2 2.7156236 3.6893488e+19
1.661055 1.0842022e-19 -1.8557698
1.0842022e-19 2.6736519 -0
1.8770742 -2 -1.8474015
-3.6893488e+19 2.6399829 -2
1.6348915 -1.0842022e-19 -1.8401262
0 2.6089242 -2
1.8403183 -1.0842022e-19 -1.8335882
-3.6893488e+19 2.5913119 -1.0842022e-19
1.6111134 3.6893488e+19 -1.8324187
-0 2.5628827 -3.6893488e+19
1.8126981 -2 -1.8244321
-2 2.5476575 0
1.5809141 3.6893488e+19 -1.8225965
0 2.5273087 -1.0842022e-19
1.7913573 -1.0842022e-19 -1.817371
2 2.5139964 -3.6893488e+19
1.5576278 1.0842022e-19 -1.8150887
2 2.4996617 3.6893488e+19
1.7748734 1.0842022e-19 -1.8123959
-2 2.4759037 -1.0842022e-19
1.5396107 -1.0842022e-19 -1.8097237
0 2.4477296 -2
1.7592963 -3.6893488e+19 -1.8055577
3.6893488e+19 3.2480536 3.6893488e+19
2.1032841 -1.0842022e-19 2.7042341
2 3.2710006 1.0842022e-19
-1.7798595 1.0842022e-19 2.735908
0 3.2479177 -3.6893488e+19
2.1031876 0 2.6895158
0 3.2742271 2
-1.7817032 -1.0842022e-19 2.7256541
0 3.2102904 3.6893488e+19
2.0764976 -3.6893488e+19 2.642849
-0 3.2476873 0
2.1030245 -3.6893488e+19 2.660264
2 3.2463992 2
2.1021106 3.6893488e+19 2.6447814
-3.6893488e+19 3.2928927 -1.0842022e-19
-1.7923695 -0 2.706948
0 3.2028282 0
2.0712044 -0 2.5970085
1.0842022e-19 3.2359862 3.6893488e+19
-1.763855 2 2.6150486
-0 3.2044036 -1.0842022e-19
2.0723219 -3.6893488e+19 2.5850866
-2 3.238271 -2
-1.7645078 0 2.6026888
2 3.2039309 -3.6893488e+19
2.0719864 2 2.5716536
1.0842022e-19 3.2370334 3.6893488e+19
2.292171 -0 2.5887215
-3.6893488e+19 3.2488048 1.0842022e-19
1.9225321 2 2.5888579
3.6893488e+19 3.194942 -3.6893488e+19
2.2669203 -0 2.5466461
1.0842022e-19 3.2423832 1.0842022e-19
1.9203109 -1.0842022e-19 2.5703814
-1.0842022e-19 3.2385941 -1.0842022e-19
2.2931073 -2 2.5617268
-0 3.2386382 -3.6893488e+19
1.9190154 2 2.5539727
2 3.240911 2
2.2944973 -3.6893488e+19 2.5491445
-0 3.2734816 0
2.3281231 -1.0842022e-19 2.5676713
1.0842022e-19 3.2240286 2
2.2843695 -2 2.5117905
-2 3.1915014 0
2.2648566 0 2.4625211
1.0842022e-19 3.2370644 2
1.9184711 -3.6893488e+19 2.4951291
2 3.229748 3.6893488e+19
2.2878006 -2 2.4753225
-0 3.2357776 -3.6893488e+19
1.918026 0 2.4663131
0 3.243211 -0
-1.7659192 1.0842022e-19 2.4594126
-3.6893488e+19 3.2192736 1.0842022e-19
2.0828698 1.0842022e-19 2.4242532
3.6893488e+19 3.1868463 0
-1.7496297 -3.6893488e+19 2.3822339
-1.0842022e-19 3.2196004 3.6893488e+19
2.0831015 0 2.3980229
-1.0842022e-19 3.1891582 3.6893488e+19
-1.7504754 3.6893488e+19 2.3594878
0 3.2158968 2
2.0804744 3.6893488e+19 2.3686006
-1.0842022e-19 3.1899896 0
-1.750713 3.6893488e+19 2.3353925
0 3.2143722 1.0842022e-19
2.0793929 -2 2.3412385
2 3.1877499 -1.0842022e-19
-1.750073 0 2.3090634
1.0842022e-19 3.1877496 3.6893488e+19
2.0605087 -2 2.2970457
0 3.1909363 -2
-1.7509834 -3.6893488e+19 2.2865472
0 3.1858499 3.6893488e+19
2.0591612 -3.6893488e+19 2.2712677
0 3.1924841 -0
-1.7514256 -3.6893488e+19 2.2627237
-2 3.189532 -2
2.0617731 1.0842022e-19 2.2477715
-0 3.2440219 2
-1.766151 -3.6893488e+19 2.2656369
1.0842022e-19 3.1936951 -3.6893488e+19
2.0647259 0 2.2027199
-3.6893488e+19 3.2251778 2
2.285059 -2 2.2090533
3.6893488e+19 3.1895173 3.6893488e+19
2.2636662 -3.6893488e+19 2.125289
3.6893488e+19 3.2012432 -1.0842022e-19
1.9060808 3.6893488e+19 2.1090672
2 3.1897631 -2
2.2638135 -0 2.0761845
-0 3.2085366 0
1.9086037 -0 2.0636103
-1.0842022e-19 3.1973984 -2
2.268394 2 2.0317097
0 3.183403 3.6893488e+19
1.8999101 0 1.9979892
-1.0842022e-19 3.2013409 -2
2.2707591 1.0842022e-19 1.9836496
1.0842022e-19 3.1828134 -1.0842022e-19
1.8997061 -1.0842022e-19 1.9493198
2 3.1998739 3.6893488e+19
2.2698791 0 1.9325247
-0 3.186794 -3.6893488e+19
1.901083 2 1.9023867
-3.6893488e+19 3.2029955 2
2.2717519 -3.6893488e+19 1.883104
-0 3.187006 -3.6893488e+19
1.9011563 3.6893488e+19 1.8323898
1.0842022e-19 3.2032607 -3.6893488e+19
2.2719107 -1.0842022e-19 1.7899362
3.6893488e+19 3.1869781 -3.6893488e+19
1.9011467 3.6893488e+19 1.719705
2 3.1907282 0
-1.750924 -3.6893488e+19 1.6214681
0 3.1924403 -1.0842022e-19
2.0638359 0 1.3250427
3.6893488e+19 3.1892309 -0
-1.7504961 1.0842022e-19 -1.5213506
0 3.1968029 -3.6893488e+19
2.0669303 1.0842022e-19 -1.6742675
0 3.1844628 2
-1.7482677 -3.6893488e+19 -1.7581065
0 3.1967106 3.6893488e+19
2.066865 2 -1.8118829
1.0842022e-19 3.1850793 -3.6893488e+19
-1.7486199 3.6893488e+19 -1.855381
1.0842022e-19 3.2003422 0
2.0694411 -2 -1.8944894
-3.6893488e+19 3.1845498 3.6893488e+19
-1.7483175 0 -1.9135358
-3.6893488e+19 3.1983957 -0
2.0680604 -1.0842022e-19 -1.9439598
1.0842022e-19 3.1392097 -1.0842022e-19
-1.7224084 -2 -1.939922
2 3.1519666 -1.0842022e-19
2.0351267 -2 -1.9687921
-3.6893488e+19 3.1384304 3.6893488e+19
-1.7219632 1.0842022e-19 -1.9829226
2 2.9848766 0
-1.638538 -2 -1.9224631
-1.0842022e-19 2.8929744 -3.6893488e+19
1.8893741 2 -1.9008976
-3.6893488e+19 2.8129561 -3.6893488e+19
1.9377422 0 -1.879166
3.6893488e+19 2.7821958 -3.6893488e+19
1.6952178 -3.6893488e+19 -1.873127
-1.0842022e-19 2.7539151 1.0842022e-19
1.9023236 -1.0842022e-19 -1.8630797
-2 2.7156236 3.6893488e+19
1.661055 1.0842022e-19 -1.8557698
1.0842022e-19 2.6736519 -0
1.8770742 -2 -1.8474015
-3.6893488e+19 2.6399829 -2
1.6348915 -1.0842022e-19 -1.8401262
0 2.6089242 -2
1.8403183 -1.0842022e-19 -1.8335882
-3.6893488e+19 2.5913119 -1.0842022e-19
1.6111134 3.6893488e+19 -1.8324187
-0 2.5628827 -3.6893488e+19
1.8126981 -2 -1.8244321
-2 2.5476575 0
1.5809141 3.6893488e+19 -1.8225965
0 2.5273087 -1.0842022e-19
1.7913573 -1.0842022e-19 -1.817371
2 2.5139964 -3.6893488e+19
1.5576278 1.0842022e-19 -1.8150887
2 2.4996617 3.6893488e+19
1.7748734 1.0842022e-19 -1.8123959
-2 2.4759037 -1.0842022e-19
1.5396107 -1.0842022e-19 -1.8097237
0 2.4477296 -2
1.7592963 -3.6893488e+19 -1.8055577
-1.0842022e-19 3.2486272 -0
2.0827441 2 2.7047062
0 3.2709324 -3.6893488e+19
-1.8252677 2 2.7357986
2 3.2491934 1.0842022e-19
2.083122 0 2.6905923
3.6893488e+19 3.2750137 1.0842022e-19
-1.8282846 2 2.7270315
0 3.2494905 3.6893488e+19
2.0833201 1.0842022e-19 2.6762576
-2 3.2469482 2
2.0816238 -3.6893488e+19 2.6596086
-0 3.2989883 -1.0842022e-19
-1.8460062 -2 2.7164702
-0 3.2444012 1.0842022e-19
2.0799241 0 2.628824
-1.0842022e-19 3.2367716 1.0842022e-19
-1.8049059 0 2.6156485
-2 3.2428992 2
2.0789218 -2 2.6134331
2 3.2584741 2
-1.8160589 -0 2.6234128
0 3.2403228 -1.0842022e-19
2.0772023 1.0842022e-19 2.5974016
-1.0842022e-19 3.2366359 1.0842022e-19
2.2816746 -0 2.5883799
2 3.294512 -2
1.9290291 -0 2.650126
-2 3.1964421 -3.6893488e+19
2.2584095 -2 2.5475888
0 3.2424095 0
1.8996639 -1.0842022e-19 2.5703814
2 3.2398582 -1.0842022e-19
2.2835395 3.6893488e+19 2.5624731
1.0842022e-19 3.2386951 -3.6893488e+19
1.8985349 -2 2.5539918
-0 3.2415912 2
2.2845428 0 2.5495014
-0 3.2371731 3.6893488e+19
1.8980724 -3.6893488e+19 2.5391431
-0 3.2259727 3.6893488e+19
2.2755024 3.6893488e+19 2.5128136
0 3.237638 3.6893488e+19
1.8982136 -3.6893488e+19 2.5116761
-3.6893488e+19 3.2260778 -2
2.2755632 -3.6893488e+19 2.4986472
0 3.2382371 0
1.8983958 3.6893488e+19 2.496295
-2 3.2256026 1.0842022e-19
2.2752883 0 2.4711246
2 3.2423491 3.6893488e+19
1.8996456 -2 2.4725959
2 3.2424529 -3.6893488e+19
-1.8070055 -3.6893488e+19 2.4587185
-0 3.2185819 2
2.0626943 -3.6893488e+19 2.4235799
-3.6893488e+19 3.244611 3.6893488e+19
-1.8078033 0 2.4327891
2 3.2198708 -2
2.0635543 -1.0842022e-19 2.3982069
-2 3.2472143 3.6893488e+19
-1.8087654 -0 2.4070225
-3.6893488e+19 3.2165706 0
2.0613523 3.6893488e+19 2.3690922
-3.6893488e+19 3.2442284 0
-1.8076619 -1.0842022e-19 2.3767474
-1.0842022e-19 3.2137403 1.0842022e-19
2.0594635 -2 2.3407359
3.6893488e+19 3.2450428 -1.0842022e-19
-1.8079628 -0 2.3495231
0 3.2147415 -2
2.0601313 2 2.3153262
-2 3.2435911 1.0842022e-19
-1.8074263 2 2.3207743
3.6893488e+19 3.2251837 3.6893488e+19
2.0670998 -1.0842022e-19 2.2957153
-0 3.2454791 -0
-1.8081241 -2 2.2941973
3.6893488e+19 3.2230315 -0
2.0656636 0 2.2678246
2 3.2420757 3.6893488e+19
-1.8068662 2 2.2645977
-1.0842022e-19 3.2174263 -3.6893488e+19
2.061923 -1.0842022e-19 2.2268801
-0 3.235661 2
2.2811103 -0 2.2190902
0 3.2400861 -3.6893488e+19
2.2836714 -2 2.1683872
2 3.236249 0
1.8977915 -2 2.1369016
-0 3.2207341 -0
2.2724702 -3.6893488e+19 2.0990891
-3.6893488e+19 3.2081552 0
1.8892527 -0 2.0633328
0 3.2170749 -0
2.2703521 1.0842022e-19 2.0440423
1.0842022e-19 3.1983752 -0
2.2595284 -3.6893488e+19 1.9820694
-3.6893488e+19 3.2596736 -3.6893488e+19
1.9078515 -3.6893488e+19 1.9891579
0 3.2006152 -0
2.2608249 -0 1.93279
-2 3.1882229 -1.0842022e-19
1.8831943 -3.6893488e+19 1.902877
0 3.202086 2
2.2616763 3.6893488e+19 1.8828111
0 3.1934338 0
1.8847781 -2 1.835429
-1.0842022e-19 3.2043142 2
2.2629662 3.6893488e+19 1.7902877
2 3.2958593 0
1.9298482 -3.6893488e+19 1.7737449
1.0842022e-19 3.3008208 -2
-1.8473606 2 1.6682323
-3.6893488e+19 3.1913035 -2
2.0444908 -0 1.3245063
-0 3.2356846 1.0842022e-19
-1.8045042 -1.0842022e-19 -1.5368332
2 3.19064 2
2.0440481 -3.6893488e+19 -1.6718444
-3.6893488e+19 3.2351015 -0
-1.8042886 3.6893488e+19 -1.7736248
-0 3.1884251 -3.6893488e+19
2.0425699 -3.6893488e+19 -1.8083959
0 3.1862862 -1.0842022e-19
-1.7862469 0 -1.8560263
-1.0842022e-19 3.1997685 -2
2.0501397 -1.0842022e-19 -1.8942891
3.6893488e+19 3.1839135 -1.0842022e-19
-1.78537 -0 -1.9133006
1.0842022e-19 3.1983528 -3.6893488e+19
2.0491948 -3.6893488e+19 -1.9439193
-3.6893488e+19 3.1847999 2
-1.7856977 -2 -1.9621743
0 3.1991313 -1.0842022e-19
2.0497143 2 -1.9944365
0 3.1376708 0
-1.7682792 3.6893488e+19 -1.9824731
-1.0842022e-19 2.8941414 -1.0842022e-19
1.8815093 2 -1.9013287
2 2.814573 -1.0842022e-19
1.9320811 -0 -1.8798082
-0 2.784457 2
1.6729169 -3.6893488e+19 -1.8750509
3.6893488e+19 2.7548976 0
1.8975399 2 -1.8639548
0 2.715898 1.0842022e-19
1.641606 2 -1.8558934
1.0842022e-19 2.6718676 -0
1.8691853 -1.0842022e-19 -1.8464221
-1.0842022e-19 2.6405025 2
1.6123803 2 -1.8404013
-2 2.6081228 -3.6893488e+19
1.8322886 1.0842022e-19 -1.8330826
-0 2.5915794 0
1.5826408 0 -1.8325702
1.0842022e-19 2.5630674 0
1.8062097 1.0842022e-19 -1.8245114
-0 2.5474243 -1.0842022e-19
1.5557995 2 -1.8224312
-2 2.5266168 0
1.7851114 -1.0842022e-19 -1.8168541
3.6893488e+19 2.5142593 3.6893488e+19
1.535639 -3.6893488e+19 -1.8152679
-2 2.5000031 2
1.7697068 1.0842022e-19 -1.812489
1.0842022e-19 2.4754317 -1.0842022e-19
1.5195036 -1.0842022e-19 -1.8095306
3.6893488e+19 2.4485602 -3.6893488e+19
1.7548177 3.6893488e+19 -1.8058579
0 2.3812275 -1.0842022e-19
-1.3908978 2 -1.7998275
0 2.3322337 -3.6893488e+19
-1.3705803 -2 -1.7961636
-1.0842022e-19 2.2927525 2
-1.3413968 -3.6893488e+19 -1.7924526
1.0842022e-19 2.2622597 2
-1.3188571 0 -1.7899677
-1.0842022e-19 2.2213628 0
1.6364172 -2 -1.7871612
0 2.178515 -0
1.6230329 -0 -1.7847835
2 2.1406894 -3.6893488e+19
1.6011387 3.6893488e+19 -1.7820096
-3.6893488e+19 2.1107936 -3.6893488e+19
1.5838345 -1.0842022e-19 -1.7805172
-1.0842022e-19 3.2486272 -0
2.0827441 2 2.7047062
0 3.2709324 -3.6893488e+19
-1.8252677 2 2.7357986
2 3.2491934 1.0842022e-19
2.083122 0 2.6905923
3.6893488e+19 3.2750137 1.0842022e-19
-1.8282846 2 2.7270315
0 3.2494905 3.6893488e+19
2.0833201 1.0842022e-19 2.6762576
-1.0842022e-19 3.1982932 3.6893488e+19
2.0491552 1.0842022e-19 2.6195049
3.6893488e+19 3.2940044 -3.6893488e+19
-1.8423221 0 2.7086947
-0 3.2444012 1.0842022e-19
2.0799241 0 2.628824
-1.0842022e-19 3.2367716 1.0842022e-19
-1.8049059 0 2.6156485
-1.0842022e-19 3.2043934 -0
2.053226 -3.6893488e+19 2.5850413
2 3.2375815 -3.6893488e+19
-1.8052051 3.6893488e+19 2.6022
0 3.2039821 -3.6893488e+19
2.0529513 2 2.5716536
-1.0842022e-19 3.2366359 1.0842022e-19
2.2816746 -0 2.5883799
-2 3.2459667 0
1.9007452 0 2.5869119
-2 3.1964421 -3.6893488e+19
2.2584095 -2 2.5475888
0 3.2424095 0
1.8996639 -1.0842022e-19 2.5703814
2 3.2002423 3.6893488e+19
2.2606091 -1.0842022e-19 2.5372026
1.0842022e-19 3.2386951 -3.6893488e+19
1.8985349 -2 2.5539918
-0 3.2415912 2
2.2845428 0 2.5495014
-0 3.2371731 3.6893488e+19
1.8980724 -3.6893488e+19 2.5391431
-2 3.2022588 2
2.2617764 -3.6893488e+19 2.4994395
0 3.237638 3.6893488e+19
1.8982136 -3.6893488e+19 2.5116761
2 3.191494 -2
2.2555454 -1.0842022e-19 2.4624238
0 3.2382371 0
1.8983958 3.6893488e+19 2.496295
-2 3.2256026 1.0842022e-19
2.2752883 0 2.4711246
2 3.2423491 3.6893488e+19
1.8996456 -2 2.4725959
2 3.2424529 -3.6893488e+19
-1.8070055 -3.6893488e+19 2.4587185
-0 3.2185819 2
2.0626943 -3.6893488e+19 2.4235799
-3.6893488e+19 3.1895058 2
-1.787437 1.0842022e-19 2.3845716
2 3.2198708 -2
2.0635543 -1.0842022e-19 2.3982069
-3.6893488e+19 3.1914778 0
-1.7881658 2 2.3613963
-3.6893488e+19 3.2165706 0
2.0613523 3.6893488e+19 2.3690922
-0 3.1902578 2
-1.7877148 -0 2.3356059
-1.0842022e-19 3.2137403 1.0842022e-19
2.0594635 -2 2.3407359
2 3.1861818 1.0842022e-19
-1.7862084 0 2.3079646
2 3.18559 -2
2.040678 -0 2.295547
2 3.1879656 -1.0842022e-19
-1.7868676 -2 2.2846243
0 3.1884205 -3.6893488e+19
2.0425668 3.6893488e+19 2.2728369
-0 3.1895118 -0
-1.7874391 2 2.2609661
3.6893488e+19 3.2230315 -0
2.0656636 0 2.2678246
2 3.1933763 -0
-1.7888674 2 2.2268224
-2 3.1873572 1.0842022e-19
2.0418575 -3.6893488e+19 2.1962028
-0 3.235661 2
2.2811103 -0 2.2190902
0 3.1887307 0
2.2539461 3.6893488e+19 2.1245451
-2 3.2008615 -0
1.8870357 -0 2.1087444
-1.0842022e-19 3.1897545 -3.6893488e+19
2.2545385 -3.6893488e+19 2.0761151
-3.6893488e+19 3.2081552 0
1.8892527 -0 2.0633328
0 3.2170749 -0
2.2703521 1.0842022e-19 2.0440423
1.0842022e-19 3.1983752 -0
2.2595284 -3.6893488e+19 1.9820694
3.6893488e+19 3.1842418 0
1.8819844 -1.0842022e-19 1.949967
0 3.2006152 -0
2.2608249 -0 1.93279
-2 3.1882229 -1.0842022e-19
1.8831943 -3.6893488e+19 1.902877
0 3.202086 2
2.2616763 3.6893488e+19 1.8828111
0 3.1934338 0
1.8847781 -2 1.835429
-1.0842022e-19 3.2043142 2
2.2629662 3.6893488e+19 1.7902877
0 3.1911569 -2
1.884086 3.6893488e+19 1.7217941
1.0842022e-19 3.1899664 -2
-1.7876071 -2 1.6210487
-3.6893488e+19 3.1913035 -2
2.0444908 -0 1.3245063
1.0842022e-19 3.1922815 2
-1.7884628 -1.0842022e-19 -1.5223709
2 3.19064 2
2.0440481 -3.6893488e+19 -1.6718444
-3.6893488e+19 3.2351015 -0
-1.8042886 3.6893488e+19 -1.7736248
-0 3.1884251 -3.6893488e+19
2.0425699 -3.6893488e+19 -1.8083959
0 3.1862862 -1.0842022e-19
-1.7862469 0 -1.8560263
-1.0842022e-19 3.1997685 -2
2.0501397 -1.0842022e-19 -1.8942891
3.6893488e+19 3.1839135 -1.0842022e-19
-1.78537 -0 -1.9133006
1.0842022e-19 3.1983528 -3.6893488e+19
2.0491948 -3.6893488e+19 -1.9439193
3.6893488e+19 3.1395428 3.6893488e+19
-1.7689711 1.0842022e-19 -1.9400897
1.0842022e-19 3.1515439 2
2.0179584 -3.6893488e+19 -1.9685373
0 3.1376708 0
-1.7682792 3.6893488e+19 -1.9824731
-1.0842022e-19 2.8941414 -1.0842022e-19
1.8815093 2 -1.9013287
2 2.814573 -1.0842022e-19
1.9320811 -0 -1.8798082
-0 2.784457 2
1.6729169 -3.6893488e+19 -1.8750509
3.6893488e+19 2.7548976 0
1.8975399 2 -1.8639548
0 2.715898 1.0842022e-19
1.641606 2 -1.8558934
1.0842022e-19 2.6718676 -0
1.8691853 -1.0842022e-19 -1.8464221
-1.0842022e-19 2.6405025 2
1.6123803 2 -1.8404013
-2 2.6081228 -3.6893488e+19
1.8322886 1.0842022e-19 -1.8330826
-0 2.5915794 0
1.5826408 0 -1.8325702
1.0842022e-19 2.5630674 0
1.8062097 1.0842022e-19 -1.8245114
-0 2.5474243 -1.0842022e-19
1.5557995 2 -1.8224312
-2 2.5266168 0
1.7851114 -1.0842022e-19 -1.8168541
3.6893488e+19 2.5142593 3.6893488e+19
1.535639 -3.6893488e+19 -1.8152679
-2 2.5000031 2
1.7697068 1.0842022e-19 -1.812489
1.0842022e-19 2.4754317 -1.0842022e-19
1.5195036 -1.0842022e-19 -1.8095306
3.6893488e+19 2.4485602 -3.6893488e+19
1.7548177 3.6893488e+19 -1.8058579
0 2.3812275 -1.0842022e-19
-1.3908978 2 -1.7998275
0 2.3322337 -3.6893488e+19
-1.3705803 -2 -1.7961636
-1.0842022e-19 2.2927525 2
-1.3413968 -3.6893488e+19 -1.7924526
1.0842022e-19 2.2622597 2
-1.3188571 0 -1.7899677
-1.0842022e-19 2.2213628 0
1.6364172 -2 -1.7871612
0 2.178515 -0
1.6230329 -0 -1.7847835
2 2.1406894 -3.6893488e+19
1.6011387 3.6893488e+19 -1.7820096
-3.6893488e+19 2.1107936 -3.6893488e+19
1.5838345 -1.0842022e-19 -1.7805172
3.6893488e+19 3.270539 -2
-1.8703374 0 2.7504902
-0 3.2489235 -3.6893488e+19
2.0619979 -1.0842022e-19 2.7049282
2 3.2710452 0
-1.8707964 -2 2.7360172
-0 3.2496731 -3.6893488e+19
2.0624666 2 2.690969
-0 3.2753861 -0
-1.874733 -0 2.7276936
0 3.249299 -0
2.0622327 -2 2.676049
3.6893488e+19 3.2470009 0
2.0607958 -3.6893488e+19 2.6596086
1.0842022e-19 3.2469671 0
2.0607746 -0 2.6451466
3.6893488e+19 3.2432268 -3.6893488e+19
2.0584354 -2 2.6278839
-0 3.2556462 -1.0842022e-19
-1.8568319 -3.6893488e+19 2.6340806
-0 3.2426751 -3.6893488e+19
2.0580904 1.0842022e-19 2.6132295
-3.6893488e+19 3.2582192 -2
-1.8591653 -2 2.6230574
-1.0842022e-19 3.2384067 -0
2.0554214 -2 2.5960073
2 3.2371259 3.6893488e+19
2.271699 -3.6893488e+19 2.5886574
1.0842022e-19 3.2945411 -2
1.9043508 2 2.650147
3.6893488e+19 3.2027066 -0
2.2525012 2 2.5517085
2 3.2432649 -0
1.8792448 0 2.5709233
-1.0842022e-19 3.2399185 -0
2.2732565 0 2.5624535
-1.0842022e-19 3.238378 -0
1.8779644 -2 2.5537806
3.6893488e+19 3.2390938 1.0842022e-19
2.2727966 -0 2.5479243
0 3.2396684 2
1.8783025 -3.6893488e+19 2.5406106
-2 3.2383993 2
1.87797 -3.6893488e+19 2.52595
2 3.2291496 -0
2.2672501 2 2.5145185
-3.6893488e+19 3.239085 3.6893488e+19
1.8781496 0 2.5124407
-3.6893488e+19 3.2285466 2
2.2669139 -2 2.5005698
-3.6893488e+19 3.2383525 -1.0842022e-19
1.8779577 -3.6893488e+19 2.4963894
2 3.2252581 -2
2.2650795 -2 2.4706955
-2 3.2451639 -2
1.8797424 3.6893488e+19 2.475276
-0 3.2410395 3.6893488e+19
-1.8476487 -3.6893488e+19 2.4574175
-3.6893488e+19 3.2199657 2
2.0438895 1.0842022e-19 2.4247861
-3.6893488e+19 3.2211936 -2
2.0446572 -2 2.3992858
-3.6893488e+19 3.2421308 3.6893488e+19
-1.8481436 2 2.4028747
1.0842022e-19 3.2185779 -2
2.0430214 3.6893488e+19 2.3706408
-3.6893488e+19 3.2435274 -1.0842022e-19
-1.8487768 -1.0842022e-19 2.3762257
1.0842022e-19 3.2133231 1.0842022e-19
2.0397356 3.6893488e+19 2.3403933
2 3.2430341 -3.6893488e+19
-1.8485531 1.0842022e-19 2.3481166
-1.0842022e-19 3.202718 -1.0842022e-19
2.0331037 -2 2.3071358
-3.6893488e+19 3.243263 -3.6893488e+19
-1.8486569 3.6893488e+19 2.3205719
2 3.2244246 0
2.0466778 1.0842022e-19 2.2952118
-1.0842022e-19 3.2407882 -1.0842022e-19
-1.8475348 -1.0842022e-19 2.2914219
2 3.2178175 -0
2.042546 3.6893488e+19 2.2648444
3.6893488e+19 3.2446156 0
-1.8492702 2 2.2659724
0 3.2178187 -0
2.0425467 -0 2.2272298
-3.6893488e+19 3.2405207 2
1.8785259 -0 2.1951621
3.6893488e+19 3.2398348 -2
2.2732098 -3.6893488e+19 2.1680949
0 3.2367396 0
1.8775351 -3.6893488e+19 2.137274
-3.6893488e+19 3.2228458 -2
2.2637341 -2 2.10059
3.6893488e+19 3.1891963 3.6893488e+19
1.8551557 -2 2.0503528
1.0842022e-19 3.2222393 2
2.2633958 -1.0842022e-19 2.0472381
2 3.2901194 1.0842022e-19
1.9020337 0 2.0819743
3.6893488e+19 3.1974304 -1.0842022e-19
2.2491169 -0 1.9815373
-2 3.2602947 -1.0842022e-19
1.8864044 0 1.9897189
-1.0842022e-19 3.186244 2
1.8536086 -0 1.9021796
3.6893488e+19 3.2028246 -1.0842022e-19
2.2525671 1.0842022e-19 1.8830034
-3.6893488e+19 3.1930792 -3.6893488e+19
1.8571905 -0 1.8352511
-2 3.2010009 -0
2.25155 -0 1.7890518
-2 3.293967 -0
1.90405 1.0842022e-19 1.7727869
3.6893488e+19 3.2991233 -1.0842022e-19
-1.8856294 3.6893488e+19 1.6672887
1.0842022e-19 3.1930366 0
2.0270495 -0 1.3252685
1.0842022e-19 3.2352934 1.0842022e-19
-1.8450433 -0 -1.5367082
-3.6893488e+19 3.1865022 -2
2.0229633 -2 -1.6702127
1.0842022e-19 3.2361789 1.0842022e-19
-1.8454448 1.0842022e-19 -1.7739599
3.6893488e+19 3.1882529 2
2.0240581 0 -1.8083045
0 3.2188263 -3.6893488e+19
-1.8375766 -1.0842022e-19 -1.8732655
-0 3.1802752 -2
-1.8200967 3.6893488e+19 -1.9119369
-0 3.1831613 1.0842022e-19
-1.8214054 3.6893488e+19 -1.9613818
2 3.1992412 0
2.0309296 1.0842022e-19 -1.9944705
1.0842022e-19 3.1367209 -2
-1.8003482 0 -1.9819114
-3.6893488e+19 2.8166239 -2
