# .PCD v0.7 - Point Cloud Data file format
VERSION 0.7
FIELDS x y z
SIZE 4 4 4
TYPE F F F
COUNT 1 1 1
WIDTH 1716
HEIGHT 1
VIEWPOINT 0 0 0 1 0 0 0
POINTS 1716
DATA ascii
2.1102648 2 2.5323265
-3.6893488e+19 3.3071437 0
2.155349 -0 2.5502446
-1.0842022e-19 3.2753992 -1.0842022e-19
1.8131624 0 2.5112097
0 3.2768936 -1.0842022e-19
1.8141834 1.0842022e-19 2.4939563
3.6893488e+19 3.28848 -2
2.2953796 2 2.4993355
2 3.2793553 -3.6893488e+19
1.8158653 -2 2.466821
3.6893488e+19 3.2860372 -1.0842022e-19
2.2928784 -0 2.462786
-1.0842022e-19 3.2948534 -0
1.8264543 0 2.4594989
-1.0842022e-19 3.2596374 -0
2.2658472 3.6893488e+19 2.3907821
-1.0842022e-19 3.2528148 2
1.797732 -3.6893488e+19 2.3655343
0 3.2605002 -0
2.2667305 -2 2.3627248
-0 3.2541823 2
1.7986664 -1.0842022e-19 2.338948
2 3.2604494 -1.0842022e-19
2.2666786 -3.6893488e+19 2.3333454
-3.6893488e+19 3.2557259 2
1.799721 2 2.3122971
-1.0842022e-19 3.2608523 3.6893488e+19
2.2670913 3.6893488e+19 2.3045342
3.6893488e+19 3.2869513 -3.6893488e+19
1.8210552 3.6893488e+19 2.3182557
-0 3.263608 -2
2.2699127 -0 2.2781444
-1.0842022e-19 3.2686021 1.0842022e-19
2.4071271 0 2.2689948
3.6893488e+19 3.254375 -2
2.0857079 1.0842022e-19 2.229156
-3.6893488e+19 3.2701411 -2
2.4094598 -0 2.2303369
-0 3.2532258 -2
2.0841913 -1.0842022e-19 2.1702762
2 3.272181 2
2.4125516 -3.6893488e+19 2.1728051
2 3.2715356 1.0842022e-19
2.4115734 -1.0842022e-19 2.1108301
3.6893488e+19 3.2589848 -2
2.0917916 0 2.0639558
0 3.2670057 1.0842022e-19
2.4047072 3.6893488e+19 2.0449014
-2 3.2858081 1.0842022e-19
2.1271915 2 2.0325923
2 3.2649484 2
2.4015889 -0 1.9831986
-3.6893488e+19 3.2552724 -2
2.0868924 0 1.9453584
0 3.2700315 0
2.4092934 0 1.9271368
-1.0842022e-19 3.2552931 2
2.0869198 3.6893488e+19 1.8883579
-1.0842022e-19 3.2700009 1.0842022e-19
2.4092474 -0 1.8581865
0 3.255645 3.6893488e+19
2.087384 3.6893488e+19 1.7879119
-2 3.2529333 -1.0842022e-19
1.7978129 -0 1.7092631
-2 3.2577059 -3.6893488e+19
2.2638695 -3.6893488e+19 1.571777
2 3.2510169 2
1.7965035 2 -1.2557386
0 3.2598102 2
2.2660241 -3.6893488e+19 -1.6330891
3.6893488e+19 3.2501974 -2
1.7959436 0 -1.7395355
3.6893488e+19 3.2627747 0
2.2690597 -2 -1.8097991
0 3.2471073 2
1.7948205 0 -1.8549039
2 3.2644165 -1.0842022e-19
2.2707405 0 -1.902089
-0 3.2480447 0
1.7951409 0 -1.9207352
-3.6893488e+19 3.264143 -2
2.2704606 2 -1.9610091
-2 3.2275298 -3.6893488e+19
2.238951 1.0842022e-19 -1.9941454
-3.6893488e+19 3.2003486 -2
1.778847 -2 -2.0049441
3.6893488e+19 2.8817427 -0
1.9454365 -1.0842022e-19 -1.862896
-3.6893488e+19 2.8833745 -1.0842022e-19
1.9462719 3.6893488e+19 -1.8909169
-1.0842022e-19 2.8743041 0
2.0336711 1.0842022e-19 -1.8984276
-0 2.8286366 1.0842022e-19
1.841857 2 -1.8890426
1.0842022e-19 2.798687 2
1.9763637 -1.0842022e-19 -1.8852192
-3.6893488e+19 2.7729666 0
1.8051221 -1.0842022e-19 -1.8807751
2 2.748018 0
1.9387146 -0 -1.8767298
3.6893488e+19 2.7130723 -3.6893488e+19
1.7777833 3.6893488e+19 -1.8728006
-1.0842022e-19 2.6754146 2
1.9112029 -3.6893488e+19 -1.8654444
1.0842022e-19 2.6523118 -1.0842022e-19
1.7577363 -0 -1.8628551
2 2.6220927 -0
1.8909975 -1.0842022e-19 -1.8562667
0 2.5995612 -2
1.7306643 -3.6893488e+19 -1.8512938
-1.0842022e-19 2.5771182 -1.0842022e-19
1.8729106 -1.0842022e-19 -1.8467565
-2 2.5601649 -0
1.704668 3.6893488e+19 -1.8432274
0 2.5396161 -2
1.8444891 -0 -1.8376842
-0 2.5246563 -0
1.681237 0 -1.8337009
-3.6893488e+19 2.5069771 3.6893488e+19
1.8197534 1.0842022e-19 -1.8282419
2 2.494266 3.6893488e+19
1.6630752 3.6893488e+19 -1.8267159
-2 2.4728503 -1.0842022e-19
1.411534 -0 -1.8244863
2 2.4491658 0
1.7299544 -2 -1.8212177
-0 2.433738 -0
1.3981725 -2 -1.8202256
1.0842022e-19 2.3680384 2
1.3757284 0 -1.8114743
0 2.3183393 -0
1.3425006 3.6893488e+19 -1.8043655
2 2.2826047 -0
1.3180854 -1.0842022e-19 -1.8003379
-1.0842022e-19 2.2569225 0
1.694712 3.6893488e+19 -1.7998799
1.0842022e-19 2.2170515 3.6893488e+19
1.6769804 -1.0842022e-19 -1.7974442
-2 2.1801655 2
1.6630032 -1.0842022e-19 -1.7963136
-1.0842022e-19 2.1458275 -2
1.6499914 1.0842022e-19 -1.7941937
1.0842022e-19 3.316684 3.6893488e+19
2.3109131 -1.0842022e-19 2.7918782
2 3.302496 0
1.7808821 -1.0842022e-19 2.7738504
-3.6893488e+19 3.3080788 1.0842022e-19
1.7837591 0 2.7698872
-1.0842022e-19 3.3100302 3.6893488e+19
2.3043807 -2 2.7675641
-2 3.2824948 1.0842022e-19
1.7705752 -2 2.7284653
0 3.2805159 -0
2.275404 -0 2.7178073
2 3.3006315 -0
1.7799213 3.6893488e+19 2.7416897
-2 3.3018496 -0
1.780549 2 2.7261705
2 3.316488 -0
2.3107207 -2 2.7410035
-2 3.3204489 2
2.3146095 2 2.7285998
-2 3.2863784 2
2.2811599 -1.0842022e-19 2.6611774
-2 3.3438587 -2
2.5033178 -2 2.7349341
3.6893488e+19 3.3402667 -0
2.5006716 3.6893488e+19 2.7102463
0 3.2835865 1.0842022e-19
2.1004143 1.0842022e-19 2.6241167
-2 3.2851236 2
2.1023138 -3.6893488e+19 2.6098197
-0 3.3024907 -0
2.1237733 0 2.6144521
0 3.2922223 -0
2.4305553 -2 2.5949433
2 3.3031099 2
2.1245384 0 2.5979145
3.6893488e+19 3.3063982 -1.0842022e-19
2.451442 2 2.5941627
-0 3.3063962 0
2.4514394 2 2.576684
-1.0842022e-19 3.2730265 2
2.0873659 3.6893488e+19 2.5323424
-3.6893488e+19 3.2946301 -3.6893488e+19
1.7768286 -0 2.5294428
-0 3.2951305 -2
1.7770865 -3.6893488e+19 2.5132382
-2 3.2878606 0
2.2826152 3.6893488e+19 2.4981816
2 3.2942028 2
1.7766085 -3.6893488e+19 2.4916201
3.6893488e+19 3.28866 -0
2.2833998 2 2.4669528
1.0842022e-19 3.2945187 -2
1.7767712 -3.6893488e+19 2.4589655
-0 3.3030522 -3.6893488e+19
1.7811687 -3.6893488e+19 2.4381597
-2 3.295315 1.0842022e-19
2.2899337 -2 2.4111342
-3.6893488e+19 3.2991717 -1.0842022e-19
1.7791691 2 2.398931
1.0842022e-19 3.2608032 3.6893488e+19
2.2560506 -2 2.3337433
-0 3.2929041 -2
1.7759392 0 2.357691
-3.6893488e+19 3.295815 1.0842022e-19
2.2904246 2 2.345295
3.6893488e+19 3.2933023 -2
1.7761444 -3.6893488e+19 2.3252914
2 3.294682 1.0842022e-19
2.2893121 -3.6893488e+19 2.3108807
-1.0842022e-19 3.2977228 -3.6893488e+19
2.4386599 1.0842022e-19 2.298085
0 3.3391919 2
2.1691232 3.6893488e+19 2.3194275
0 3.2977674 3.6893488e+19
2.4387255 3.6893488e+19 2.2646644
-2 3.2521608 0
2.0615833 -0 2.1684649
-1.0842022e-19 3.2911611 -0
2.428992 -0 2.202178
-0 3.3363018 3.6893488e+19
2.1655521 2 2.2328534
1.0842022e-19 3.2931178 -2
2.4318748 1.0842022e-19 2.1394141
-1.0842022e-19 3.338115 -1.0842022e-19
2.1677926 -3.6893488e+19 2.1598387
0 3.342473 -1.0842022e-19
2.5022969 -3.6893488e+19 2.1281605
-2 3.2523477 -1.0842022e-19
2.0618141 -0 1.9994823
2 3.3421423 0
2.5020535 -0 2.0510683
0 3.254035 -0
2.0638988 3.6893488e+19 1.9443909
2 3.3421993 0
2.5020955 -2 1.9744228
-0 3.2552106 1.0842022e-19
2.0653517 -1.0842022e-19 1.8882986
-2 3.3401082 -3.6893488e+19
2.5005548 -1.0842022e-19 1.8968313
1.0842022e-19 3.2572799 -3.6893488e+19
2.0679083 -3.6893488e+19 1.7889365
-3.6893488e+19 3.2529707 1.0842022e-19
1.7553608 2 1.709289
1.0842022e-19 3.2574365 -2
2.2527452 2 1.5715389
1.0842022e-19 3.3199427 0
1.7898728 -3.6893488e+19 -1.2916335
2 3.2728596 0
2.2678874 -3.6893488e+19 -1.6397507
-2 3.251219 -3.6893488e+19
1.7544581 0 -1.7405077
1.0842022e-19 3.2533832 0
2.2475317 3.6893488e+19 -1.8031651
-1.0842022e-19 3.2490566 -2
1.7535868 -0 -1.8557998
-0 3.2730985 0
2.268122 -0 -1.9070569
0 3.3195257 3.6893488e+19
1.7896578 -1.0842022e-19 -1.9690684
-0 3.2721066 -3.6893488e+19
2.267148 -3.6893488e+19 -1.967335
0 3.3149409 1.0842022e-19
1.7872952 -1.0842022e-19 -2.0362334
0 3.2594736 0
2.2547452 -1.0842022e-19 -2.0152769
3.6893488e+19 3.2002037 1.0842022e-19
1.7319988 0 -2.0048559
3.6893488e+19 2.8791201 0
2.0292947 2 -1.9003005
0 2.8331616 -3.6893488e+19
1.8308358 -0 -1.8909422
0 2.7979524 -3.6893488e+19
1.969499 -1.0842022e-19 -1.8848536
-0 2.7728083 -0
1.7935481 1.0842022e-19 -1.8806856
-0 2.7495065 0
1.9339912 -2 -1.8770775
-3.6893488e+19 2.7122483 0
1.7677946 -1.0842022e-19 -1.8723338
-2 2.675643 -2
1.9067838 -1.0842022e-19 -1.8655146
0 2.6513574 -0
1.747969 -1.0842022e-19 -1.8622659
3.6893488e+19 2.6215634 -0
1.8868638 3.6893488e+19 -1.8558812
-0 2.6002202 2
1.7163752 1.0842022e-19 -1.8516968
0 2.5776947 -0
1.8664099 3.6893488e+19 -1.8470927
0 2.5657969 -1.0842022e-19
1.6951075 2 -1.8471665
0 2.5393152 -1.0842022e-19
1.8381361 1.0842022e-19 -1.8374112
3.6893488e+19 2.5249338 2
1.6698613 1.0842022e-19 -1.8338898
0 2.5070403 2
1.8143594 1.0842022e-19 -1.8282419
2 2.4731107 -3.6893488e+19
1.3688031 3.6893488e+19 -1.8245912
-1.0842022e-19 2.4489915 2
1.7204049 -3.6893488e+19 -1.8211093
1.0842022e-19 3.316684 3.6893488e+19
2.3109131 -1.0842022e-19 2.7918782
2 3.302496 0
1.7808821 -1.0842022e-19 2.7738504
-3.6893488e+19 3.3080788 1.0842022e-19
1.7837591 0 2.7698872
0 3.283746 -1.0842022e-19
2.2785752 -0 2.7397602
-2 3.2824948 1.0842022e-19
1.7705752 -2 2.7284653
0 3.2805159 -0
2.275404 -0 2.7178073
-1.0842022e-19 3.2828896 -3.6893488e+19
1.7707785 3.6893488e+19 2.7126725
-2 3.3018496 -0
1.780549 2 2.7261705
3.6893488e+19 3.2775357 -2
2.2724781 0 2.6805725
-2 3.3204489 2
2.3146095 2 2.7285998
-2 3.2863784 2
2.2811599 -1.0842022e-19 2.6611774
-2 3.3438587 -2
2.5033178 -2 2.7349341
3.6893488e+19 3.3402667 -0
2.5006716 3.6893488e+19 2.7102463
0 3.2835865 1.0842022e-19
2.1004143 1.0842022e-19 2.6241167
-2 3.2851236 2
2.1023138 -3.6893488e+19 2.6098197
-0 3.3024907 -0
2.1237733 0 2.6144521
0 3.2922223 -0
2.4305553 -2 2.5949433
2 3.3031099 2
2.1245384 0 2.5979145
-1.0842022e-19 3.2905111 -3.6893488e+19
2.4280343 -0 2.5763175
-0 3.3063962 0
2.4514394 2 2.576684
-1.0842022e-19 3.2730265 2
2.0873659 3.6893488e+19 2.5323424
-2 3.2761197 -3.6893488e+19
1.7672899 3.6893488e+19 2.5118866
0 3.277211 -0
1.7678522 -2 2.4945102
-2 3.2878606 0
2.2826152 3.6893488e+19 2.4981816
0 3.2799838 -2
1.769281 3.6893488e+19 2.4678597
3.6893488e+19 3.28866 -0
2.2833998 2 2.4669528
1.0842022e-19 3.2945187 -2
1.7767712 -3.6893488e+19 2.4589655
0 3.2536614 1.0842022e-19
1.7557167 -1.0842022e-19 2.3667493
-2 3.2602787 1.0842022e-19
2.2555358 3.6893488e+19 2.3623571
-3.6893488e+19 3.2549047 -2
1.7563574 3.6893488e+19 2.3399031
1.0842022e-19 3.2608032 3.6893488e+19
2.2560506 -2 2.3337433
0 3.2555454 1.0842022e-19
1.7566875 -1.0842022e-19 2.3120687
-3.6893488e+19 3.2597597 0
2.2550263 2 2.3032088
1.0842022e-19 3.2562518 1.0842022e-19
1.7570516 -1.0842022e-19 2.2842
-3.6893488e+19 3.2618461 3.6893488e+19
2.2570746 -2 2.2762399
-1.0842022e-19 3.2977228 -3.6893488e+19
2.4386599 1.0842022e-19 2.298085
0 3.3391919 2
2.1691232 3.6893488e+19 2.3194275
0 3.2977674 3.6893488e+19
2.4387255 3.6893488e+19 2.2646644
-2 3.2521608 0
2.0615833 -0 2.1684649
-1.0842022e-19 3.2911611 -0
2.428992 -0 2.202178
0 3.2537589 -1.0842022e-19
2.0635576 3.6893488e+19 2.1143403
1.0842022e-19 3.2931178 -2
2.4318748 1.0842022e-19 2.1394141
-2 3.2584345 -3.6893488e+19
2.0693352 0 2.063256
1.0842022e-19 3.2618463 -3.6893488e+19
2.3857999 3.6893488e+19 2.0391321
-2 3.2523477 -1.0842022e-19
2.0618141 -0 1.9994823
-0 3.2651377 3.6893488e+19
2.3906496 -3.6893488e+19 1.9833081
0 3.254035 -0
2.0638988 3.6893488e+19 1.9443909
-2 3.2662551 -1.0842022e-19
2.3922961 -2 1.9246168
-0 3.2552106 1.0842022e-19
2.0653517 -1.0842022e-19 1.8882986
-1.0842022e-19 3.2703938 -2
2.3983939 -3.6893488e+19 1.8584685
1.0842022e-19 3.2572799 -3.6893488e+19
2.0679083 -3.6893488e+19 1.7889365
-3.6893488e+19 3.2529707 1.0842022e-19
1.7553608 2 1.709289
1.0842022e-19 3.2574365 -2
2.2527452 2 1.5715389
-3.6893488e+19 3.2511322 -3.6893488e+19
1.7544134 1.0842022e-19 -1.2557956
2 3.2728596 0
2.2678874 -3.6893488e+19 -1.6397507
-2 3.251219 -3.6893488e+19
1.7544581 0 -1.7405077
1.0842022e-19 3.2533832 0
2.2475317 3.6893488e+19 -1.8031651
-1.0842022e-19 3.2490566 -2
1.7535868 -0 -1.8557998
0 3.2533576 -3.6893488e+19
2.2474813 -3.6893488e+19 -1.895704
-3.6893488e+19 3.2489629 3.6893488e+19
1.7535627 -0 -1.9210458
-2 3.2627833 -1.0842022e-19
2.2579947 -3.6893488e+19 -1.9598883
0 3.3149409 1.0842022e-19
1.7872952 -1.0842022e-19 -2.0362334
2 3.2286372 0
2.2199152 -2 -1.9946712
3.6893488e+19 3.2002037 1.0842022e-19
1.7319988 0 -2.0048559
3.6893488e+19 2.8791201 0
2.0292947 2 -1.9003005
0 2.8331616 -3.6893488e+19
1.8308358 -0 -1.8909422
0 2.7979524 -3.6893488e+19
1.969499 -1.0842022e-19 -1.8848536
-0 2.7728083 -0
1.7935481 1.0842022e-19 -1.8806856
-0 2.7495065 0
1.9339912 -2 -1.8770775
-3.6893488e+19 2.7122483 0
1.7677946 -1.0842022e-19 -1.8723338
-2 2.675643 -2
1.9067838 -1.0842022e-19 -1.8655146
0 2.6513574 -0
1.747969 -1.0842022e-19 -1.8622659
3.6893488e+19 2.6215634 -0
1.8868638 3.6893488e+19 -1.8558812
-0 2.6002202 2
1.7163752 1.0842022e-19 -1.8516968
0 2.5776947 -0
1.8664099 3.6893488e+19 -1.8470927
0 2.5657969 -1.0842022e-19
1.6951075 2 -1.8471665
0 2.5393152 -1.0842022e-19
1.8381361 1.0842022e-19 -1.8374112
3.6893488e+19 2.5249338 2
1.6698613 1.0842022e-19 -1.8338898
0 2.5070403 2
1.8143594 1.0842022e-19 -1.8282419
2 2.4731107 -3.6893488e+19
1.3688031 3.6893488e+19 -1.8245912
-1.0842022e-19 2.4489915 2
1.7204049 -3.6893488e+19 -1.8211093
-2 3.3172657 -0
2.298126 0 2.7923687
2 3.3022118 0
1.7100363 2 2.7735884
2 3.3068328 0
1.7132479 3.6893488e+19 2.7687907
-2 3.3077765 -1.0842022e-19
2.2892091 2 2.7655773
2 3.2817664 -0
2.2647681 -0 2.7198188
-0 3.3007133 3.6893488e+19
1.7089949 2 2.7418149
0 3.2740784 -1.0842022e-19
2.2575438 -3.6893488e+19 2.6910498
3.6893488e+19 3.3015025 0
1.7095433 -1.0842022e-19 2.7256143
3.6893488e+19 3.3160019 -3.6893488e+19
2.2969382 -1.0842022e-19 2.7401721
-1.0842022e-19 3.259819 -0
1.6805735 2 2.6448252
3.6893488e+19 3.3209288 2
2.301568 3.6893488e+19 2.7292409
-3.6893488e+19 3.3321161 0
2.3120806 -1.0842022e-19 2.7267718
2 3.344002 3.6893488e+19
2.492296 2 2.7350206
0 3.3410077 0
2.4880109 3.6893488e+19 2.7111387
-1.0842022e-19 3.2850316 1.0842022e-19
2.0782506 3.6893488e+19 2.6259863
-0 3.2846117 0
2.0777671 -1.0842022e-19 2.6091385
-3.6893488e+19 3.3071656 3.6893488e+19
2.4395802 -3.6893488e+19 2.6124966
-3.6893488e+19 3.3064864 2
2.4386082 -3.6893488e+19 2.5941799
-2 3.3051269 0
2.4366627 3.6893488e+19 2.5752532
2 3.2728519 -3.6893488e+19
2.064224 3.6893488e+19 2.5321343
-3.6893488e+19 3.3012326 -3.6893488e+19
2.4310894 -0 2.5539525
-3.6893488e+19 3.2958145 -1.0842022e-19
1.7055902 -0 2.5305612
1.0842022e-19 3.3225794 3.6893488e+19
2.3031189 2 2.5473325
-3.6893488e+19 3.2968593 -1.0842022e-19
1.7063164 1.0842022e-19 2.5147758
-1.0842022e-19 3.2902012 -1.0842022e-19
2.2726941 -0 2.5010765
2 3.2941303 -2
1.7044196 2 2.4914904
0 3.3041162 0
2.2857697 2 2.491878
-2 3.2948503 3.6893488e+19
1.7049202 3.6893488e+19 2.4594746
-3.6893488e+19 3.2802358 3.6893488e+19
2.26333 -2 2.4216492
-1.0842022e-19 3.310667 2
1.7159127 -3.6893488e+19 2.4491615
-3.6893488e+19 3.2947555 3.6893488e+19
2.2769737 3.6893488e+19 2.4102907
-3.6893488e+19 3.3006251 -1.0842022e-19
1.7089336 1.0842022e-19 2.400862
1.0842022e-19 3.340951 -2
2.3203821 -1.0842022e-19 2.4362378
-0 3.2930963 -3.6893488e+19
1.703701 -2 2.3579192
0 3.2595208 1.0842022e-19
2.2377291 -0 2.302882
3.6893488e+19 3.2926996 -2
1.7034253 0 2.3246174
3.6893488e+19 3.2958024 1.0842022e-19
2.2779574 2 2.3120136
-2 3.2959142 -0
2.4234784 3.6893488e+19 2.2962036
1.0842022e-19 3.3392251 -0
2.1406612 3.6893488e+19 2.3194275
-1.0842022e-19 3.2575762 -1.0842022e-19
2.3686135 0 2.2077742
-2 3.2901256 0
2.0841172 3.6893488e+19 2.231421
1.0842022e-19 3.2916813 1.0842022e-19
2.4174206 1.0842022e-19 2.202878
-1.0842022e-19 3.2524889 -3.6893488e+19
2.0407734 1.0842022e-19 2.1124816
3.6893488e+19 3.3183622 3.6893488e+19
2.4556034 -0 2.1728513
-1.0842022e-19 3.2866089 3.6893488e+19
2.0800672 -3.6893488e+19 2.0973728
-3.6893488e+19 3.2599642 -0
2.372031 1.0842022e-19 2.0369859
-1.0842022e-19 3.2866776 0
2.0801463 2 2.0333946
-2 3.2656674 3.6893488e+19
2.3801928 2 1.9837188
1.0842022e-19 3.2879813 -1.0842022e-19
2.0816474 2 1.9703455
1.0842022e-19 3.3337386 -2
2.477608 2 1.968822
0 3.2555168 -2
2.0442603 0 1.888451
0 3.2708941 -0
2.3876722 0 1.8588448
-3.6893488e+19 3.2568676 0
2.0458164 2 1.788658
-2 3.2532096 3.6893488e+19
1.67598 -3.6893488e+19 1.7094828
-3.6893488e+19 3.3513148 1.0842022e-19
2.330121 -0 1.6340839
0 3.3206515 -1.0842022e-19
1.7228518 -2 -1.2919997
2 3.352078 3.6893488e+19
2.330838 -3.6893488e+19 -1.6802957
3.6893488e+19 3.2516611 -2
1.6749036 3.6893488e+19 -1.7409265
-0 3.2527211 2
2.2249503 1.0842022e-19 -1.8026717
-3.6893488e+19 3.3232894 -2
1.7246852 1.0842022e-19 -1.8995098
-1.0842022e-19 3.2521653 -2
2.2239058 0 -1.8949957
1.0842022e-19 3.3179536 -1.0842022e-19
1.7209767 -1.0842022e-19 -1.9679867
-2 3.3199911 3.6893488e+19
1.7223929 -3.6893488e+19 -2.0408182
-3.6893488e+19 3.2592492 1.0842022e-19
2.2372191 3.6893488e+19 -2.0150061
3.6893488e+19 3.1987126 2
1.6559269 -3.6893488e+19 -2.0040071
2 2.8796456 2
2.0216525 2 -1.900473
-2 2.7609665 -1.0842022e-19
1.7752683 -3.6893488e+19 -1.8457795
-3.6893488e+19 2.7989554 -0
1.9639153 -0 -1.8852755
-1.0842022e-19 2.7617993 1.0842022e-19
1.7757479 2 -1.8753996
-1.0842022e-19 2.7499981 -2
1.9288849 0 -1.8771724
2 2.7130415 -0
1.7583129 0 -1.872734
-1.0842022e-19 2.6758685 -3.6893488e+19
1.9023634 1.0842022e-19 -1.8655849
1.0842022e-19 2.6515212 3.6893488e+19
1.7312016 2 -1.8623396
-3.6893488e+19 2.621031 -2
1.8827442 -3.6893488e+19 -1.8554956
1.0842022e-19 2.5777726 -2
1.8595351 3.6893488e+19 -1.8470927
-1.0842022e-19 2.5391359 -1.0842022e-19
1.831889 2 -1.8372291
-0 2.5083404 0
1.8098536 -1.0842022e-19 -1.8292214
-0 2.4718759 0
1.2889762 2 -1.8240668
-1.0842022e-19 2.4500546 -1.0842022e-19
1.711452 -0 -1.8215427
2 2.4345016 -3.6893488e+19
1.2759886 -1.0842022e-19 -1.8205611
0 2.367806 -3.6893488e+19
1.2528119 -3.6893488e+19 -1.8113486
-2 2.3161247 -3.6893488e+19
1.2197057 3.6893488e+19 -1.8031102
-3.6893488e+19 2.2833576 2
1.1969328 -2 -1.8007977
0 2.2545917 3.6893488e+19
1.6821711 0 -1.7982097
-3.6893488e+19 2.2177668 2
1.6673535 -3.6893488e+19 -1.7976249
-1.0842022e-19 2.1798849 -3.6893488e+19
1.6538004 -0 -1.7961192
0 2.1469932 -1.0842022e-19
1.6420326 -2 -1.7946099
-2 3.3172657 -0
2.298126 0 2.7923687
2 3.3022118 0
1.7100363 2 2.7735884
2 3.3068328 0
1.7132479 3.6893488e+19 2.7687907
-0 3.2823572 1.0842022e-19
2.2653234 2 2.7372866
2 3.2817664 -0
2.2647681 -0 2.7198188
-0 3.3007133 3.6893488e+19
1.7089949 2 2.7418149
0 3.2740784 -1.0842022e-19
2.2575438 -3.6893488e+19 2.6910498
3.6893488e+19 3.3015025 0
1.7095433 -1.0842022e-19 2.7256143
-2 3.2767982 0
2.2600999 -1.0842022e-19 2.6793609
-1.0842022e-19 3.259819 -0
1.6805735 2 2.6448252
3.6893488e+19 3.3209288 2
2.301568 3.6893488e+19 2.7292409
-1.0842022e-19 3.2867613 0
2.2694619 -0 2.6616623
2 3.344002 3.6893488e+19
2.492296 2 2.7350206
0 3.3410077 0
2.4880109 3.6893488e+19 2.7111387
-1.0842022e-19 3.2850316 1.0842022e-19
2.0782506 3.6893488e+19 2.6259863
-0 3.2846117 0
2.0777671 -1.0842022e-19 2.6091385
-3.6893488e+19 3.2928767 -1.0842022e-19
2.4191315 0 2.595634
1.0842022e-19 3.2907808 -3.6893488e+19
2.4161317 3.6893488e+19 2.5765426
-2 3.3051269 0
2.4366627 3.6893488e+19 2.5752532
2 3.2728519 -3.6893488e+19
2.064224 3.6893488e+19 2.5321343
-3.6893488e+19 3.3012326 -3.6893488e+19
2.4310894 -0 2.5539525
1.0842022e-19 3.2759075 -1.0842022e-19
1.6917548 2 2.5116806
1.0842022e-19 3.2899139 -2
2.272424 3.6893488e+19 2.5172236
0 3.2781942 -3.6893488e+19
1.693344 3.6893488e+19 2.4962554
-1.0842022e-19 3.2902012 -1.0842022e-19
2.2726941 -0 2.5010765
-3.6893488e+19 3.2796311 -1.0842022e-19
1.6943429 3.6893488e+19 2.4672625
0 3.3041162 0
2.2857697 2 2.491878
-2 3.2948503 3.6893488e+19
1.7049202 3.6893488e+19 2.4594746
-3.6893488e+19 3.2802358 3.6893488e+19
2.26333 -2 2.4216492
-1.0842022e-19 3.310667 2
1.7159127 -3.6893488e+19 2.4491615
-3.6893488e+19 3.2611277 -1.0842022e-19
2.2407494 1.0842022e-19 2.363482
1.0842022e-19 3.2548783 0
1.6771396 3.6893488e+19 2.3398616
-0 3.2608597 3.6893488e+19
2.2402456 1.0842022e-19 2.3337634
-3.6893488e+19 3.2554095 0
1.677509 -0 2.3118975
0 3.2595208 1.0842022e-19
2.2377291 -0 2.302882
2 3.2557263 3.6893488e+19
1.677729 3.6893488e+19 2.2836123
1.0842022e-19 3.2622299 2
2.2428205 -2 2.2766011
3.6893488e+19 3.2885828 1.0842022e-19
2.4129865 -3.6893488e+19 2.2888649
-2 3.2885952 -2
2.0823545 3.6893488e+19 2.2717526
-1.0842022e-19 3.2575762 -1.0842022e-19
2.3686135 0 2.2077742
2 3.2513435 0
2.0394545 -2 2.1670675
3.6893488e+19 3.2586331 1.0842022e-19
2.370126 0 2.151566
-1.0842022e-19 3.2524889 -3.6893488e+19
2.0407734 1.0842022e-19 2.1124816
-0 3.2582164 -2
2.3695295 -1.0842022e-19 2.0929651
-0 3.2591465 -2
2.0484405 2 2.0640881
-3.6893488e+19 3.2599642 -0
2.372031 1.0842022e-19 2.0369859
3.6893488e+19 3.2525442 -2
2.040837 3.6893488e+19 1.999652
-2 3.2656674 3.6893488e+19
2.3801928 2 1.9837188
2 3.2539973 -1.0842022e-19
2.0425105 3.6893488e+19 1.9443431
-2 3.2583053 -3.6893488e+19
2.3696568 -3.6893488e+19 1.9193628
0 3.2555168 -2
2.0442603 0 1.888451
0 3.2708941 -0
2.3876722 0 1.8588448
-3.6893488e+19 3.2568676 0
2.0458164 2 1.788658
-2 3.2532096 3.6893488e+19
1.67598 -3.6893488e+19 1.7094828
-2 3.2659779 -3.6893488e+19
2.2498643 -2 1.5780278
-0 3.2522774 2
1.6753321 2 -1.2563896
2 3.352078 3.6893488e+19
2.330838 -3.6893488e+19 -1.6802957
3.6893488e+19 3.2516611 -2
1.6749036 3.6893488e+19 -1.7409265
-0 3.2527211 2
2.2249503 1.0842022e-19 -1.8026717
-1.0842022e-19 3.2502825 2
1.6739457 -3.6893488e+19 -1.8564934
-1.0842022e-19 3.2521653 -2
2.2239058 0 -1.8949957
2 3.2509074 -3.6893488e+19
1.6743798 -3.6893488e+19 -1.9220203
-2 3.3199911 3.6893488e+19
1.7223929 -3.6893488e+19 -2.0408182
-3.6893488e+19 3.2266545 2
2.1978993 -1.0842022e-19 -1.9936194
3.6893488e+19 3.1987126 2
1.6559269 -3.6893488e+19 -2.0040071
2 2.8796456 2
2.0216525 2 -1.900473
-2 2.7609665 -1.0842022e-19
1.7752683 -3.6893488e+19 -1.8457795
-3.6893488e+19 2.7989554 -0
1.9639153 -0 -1.8852755
-1.0842022e-19 2.7617993 1.0842022e-19
1.7757479 2 -1.8753996
-1.0842022e-19 2.7499981 -2
1.9288849 0 -1.8771724
2 2.7130415 -0
1.7583129 0 -1.872734
-1.0842022e-19 2.6758685 -3.6893488e+19
1.9023634 1.0842022e-19 -1.8655849
1.0842022e-19 2.6515212 3.6893488e+19
1.7312016 2 -1.8623396
-3.6893488e+19 2.621031 -2
1.8827442 -3.6893488e+19 -1.8554956
1.0842022e-19 2.5777726 -2
1.8595351 3.6893488e+19 -1.8470927
-1.0842022e-19 2.5391359 -1.0842022e-19
1.831889 2 -1.8372291
-0 2.5083404 0
1.8098536 -1.0842022e-19 -1.8292214
-0 2.4718759 0
1.2889762 2 -1.8240668
-1.0842022e-19 2.4500546 -1.0842022e-19
1.711452 -0 -1.8215427
2 2.4345016 -3.6893488e+19
1.2759886 -1.0842022e-19 -1.8205611
0 2.367806 -3.6893488e+19
1.2528119 -3.6893488e+19 -1.8113486
-2 2.3161247 -3.6893488e+19
1.2197057 3.6893488e+19 -1.8031102
-3.6893488e+19 2.2833576 2
1.1969328 -2 -1.8007977
0 2.2545917 3.6893488e+19
1.6821711 0 -1.7982097
-3.6893488e+19 2.2177668 2
1.6673535 -3.6893488e+19 -1.7976249
-1.0842022e-19 2.1798849 -3.6893488e+19
1.6538004 -0 -1.7961192
0 2.1469932 -1.0842022e-19
1.6420326 -2 -1.7946099
-0 3.3171616 1.0842022e-19
2.2846782 -0 2.7922285
3.6893488e+19 3.3019254 -0
1.5920024 -2 2.7733262
1.0842022e-19 3.3086782 1.0842022e-19
2.2770636 3.6893488e+19 2.7753503
-0 3.3062408 -1.0842022e-19
1.595104 2 2.7682693
3.6893488e+19 3.3091192 -3.6893488e+19
2.2774594 3.6893488e+19 2.7666957
-1.0842022e-19 3.2836263 2
2.2545776 -3.6893488e+19 2.7228489
-2 3.3010533 -3.6893488e+19
1.5913756 -0 2.7423656
-0 3.2738595 -0
2.2416222 1.0842022e-19 2.6906316
-0 3.3008618 2
1.591238 -1.0842022e-19 2.7245986
3.6893488e+19 3.2761202 0
2.2456806 0 2.6782446
-3.6893488e+19 3.2606814 -0
1.5623592 2 2.6461315
-3.6893488e+19 3.3212531 -3.6893488e+19
2.2883506 1.0842022e-19 2.7296531
-3.6893488e+19 3.3086531 -0
1.5968379 3.6893488e+19 2.70122
3.6893488e+19 3.3317056 3.6893488e+19
2.2977326 3.6893488e+19 2.7261107
3.6893488e+19 3.3439128 -0
2.477628 2 2.7347829
0 3.272022 -2
2.0404162 -1.0842022e-19 2.6087925
3.6893488e+19 3.3372829 -2
2.4684203 -2 2.686605
3.6893488e+19 3.2750294 1.0842022e-19
2.0436273 3.6893488e+19 2.5813031
-2 3.3079143 -3.6893488e+19
2.427633 2 2.6132963
2 3.2731781 -3.6893488e+19
2.0416505 -0 2.563499
-2 3.3065727 -3.6893488e+19
2.4257698 -1.0842022e-19 2.5941973
-2 3.305074 -3.6893488e+19
2.4236884 3.6893488e+19 2.5751216
1.0842022e-19 3.2729077 1.0842022e-19
2.041362 -1.0842022e-19 2.5321662
1.0842022e-19 3.3028162 -3.6893488e+19
2.0732927 2 2.5459273
-3.6893488e+19 3.3263009 -0
2.2928815 -0 2.5507176
2 3.29708 -3.6893488e+19
1.5885198 3.6893488e+19 2.5149696
2 3.2906327 1.0842022e-19
2.2608664 3.6893488e+19 2.5014119
-0 3.2943976 -0
1.586592 -3.6893488e+19 2.4919317
2 3.3025167 1.0842022e-19
2.2715333 -0 2.4892173
3.6893488e+19 3.2958333 -1.0842022e-19
1.5876238 0 2.4610014
1.0842022e-19 3.2798588 1.0842022e-19
2.2511959 -2 2.4210184
-2 3.3038077 -2
1.5933553 -0 2.4392397
-0 3.2946601 2
2.2644813 0 2.4100962
-0 3.3010333 -2
1.5913612 1.0842022e-19 2.4014018
-1.0842022e-19 3.3414221 -0
2.3064539 -0 2.436775
3.6893488e+19 3.3002973 2
1.5908322 0 2.366709
1.0842022e-19 3.2549076 3.6893488e+19
2.2076004 -3.6893488e+19 2.2974532
2 3.2558694 -0
1.5589006 0 2.2837679
0 3.2960494 1.0842022e-19
2.2657282 3.6893488e+19 2.312227
0 3.2963867 0
2.4116235 0 2.296608
1.0842022e-19 3.2917707 0
2.0615005 -1.0842022e-19 2.2747176
-3.6893488e+19 3.2963681 -3.6893488e+19
2.4115977 -1.0842022e-19 2.2632973
0 3.252193 -3.6893488e+19
2.0192463 0 2.1684391
3.6893488e+19 3.2934589 0
2.4075575 -1.0842022e-19 2.2055328
-3.6893488e+19 3.3068488 3.6893488e+19
2.0775983 -3.6893488e+19 2.1904824
-0 3.3183424 3.6893488e+19
2.4421158 -2 2.1727273
0 3.2591689 2
2.359935 1.0842022e-19 2.0360415
0 3.2871721 -2
2.0565908 -2 2.0338573
0 3.2674096 0
2.3713799 3.6893488e+19 1.9851968
1.0842022e-19 3.3152502 3.6893488e+19
2.0865676 2 1.991188
-0 3.3349984 3.6893488e+19
2.4652476 3.6893488e+19 1.9695973
1.0842022e-19 3.315295 1.0842022e-19
2.0866156 -0 1.9208261
-1.0842022e-19 3.262707 1.0842022e-19
2.3648491 -0 1.8517251
-2 3.3150277 0
2.0863304 -3.6893488e+19 1.8256952
1.0842022e-19 3.25315 -1.0842022e-19
1.556946 2 1.7094312
3.6893488e+19 3.3519294 -1.0842022e-19
2.3158851 3.6893488e+19 1.6342982
-0 3.2522333 1.0842022e-19
1.5562873 -1.0842022e-19 -1.2563652
3.6893488e+19 3.3511794 -2
2.3152118 -1.0842022e-19 -1.6798085
3.6893488e+19 3.25107 -1.0842022e-19
1.5554512 2 -1.7403581
-0 3.3491642 -1.0842022e-19
2.3134031 -2 -1.8704375
-1.0842022e-19 3.3160281 0
1.6021385 0 -1.8961501
-1.0842022e-19 3.2522657 1.0842022e-19
2.202858 0 -1.8950316
-0 3.2507851 0
1.5552465 2 -1.9219347
-3.6893488e+19 3.2502317 0
2.1992068 2 -1.9498018
-3.6893488e+19 3.2551928 -3.6893488e+19
1.5584143 1.0842022e-19 -1.9819251
-3.6893488e+19 3.2256348 1.0842022e-19
2.1769209 -1.0842022e-19 -1.9930617
-2 3.1982176 0
1.5360734 -0 -2.0037243
-2 2.7627993 -3.6893488e+19
1.765285 -2 -1.8473098
2 2.8013248 2
1.9592408 -0 -1.8863161
3.6893488e+19 2.7627585 -3.6893488e+19
1.7652632 0 -1.8758476
-1.0842022e-19 2.7500567 -0
1.9236401 0 -1.8771724
2 2.7142055 -2
1.7477977 -0 -1.8733341
1.0842022e-19 2.6746006 -1.0842022e-19
1.8974218 0 -1.8648131
2 2.6506855 0
1.7138902 1.0842022e-19 -1.8618242
-0 2.6211169 -1.0842022e-19
1.8788522 -3.6893488e+19 -1.8554956
-0 2.5741255 2
1.8500737 3.6893488e+19 -1.8445709
2 2.5393269 3.6893488e+19
1.8259094 -2 -1.8373201
1.0842022e-19 2.5082762 -3.6893488e+19
1.8043476 0 -1.8291235
-1.0842022e-19 2.4721296 0
1.1696665 0 -1.8241717
2 2.4496262 2
1.7017879 -1.0842022e-19 -1.821326
-0 3.3171616 1.0842022e-19
2.2846782 -0 2.7922285
3.6893488e+19 3.3019254 -0
1.5920024 -2 2.7733262
1.0842022e-19 3.3086782 1.0842022e-19
2.2770636 3.6893488e+19 2.7753503
-0 3.3062408 -1.0842022e-19
1.595104 2 2.7682693
3.6893488e+19 3.3091192 -3.6893488e+19
2.2774594 3.6893488e+19 2.7666957
0 3.2760203 1.0842022e-19
2.245501 3.6893488e+19 2.7101684
-2 3.3010533 -3.6893488e+19
1.5913756 -0 2.7423656
-0 3.2738595 -0
2.2416222 1.0842022e-19 2.6906316
-0 3.3008618 2
1.591238 -1.0842022e-19 2.7245986
3.6893488e+19 3.2761202 0
2.2456806 0 2.6782446
-3.6893488e+19 3.2606814 -0
1.5623592 2 2.6461315
-3.6893488e+19 3.3212531 -3.6893488e+19
2.2883506 1.0842022e-19 2.7296531
-1.0842022e-19 3.283953 3.6893488e+19
1.5790851 0 2.6651108
-1.0842022e-19 3.2869887 -3.6893488e+19
2.2575955 -3.6893488e+19 2.6619267
3.6893488e+19 3.3439128 -0
2.477628 2 2.7347829
0 3.272022 -2
2.0404162 -1.0842022e-19 2.6087925
3.6893488e+19 3.3372829 -2
2.4684203 -2 2.686605
3.6893488e+19 3.2750294 1.0842022e-19
2.0436273 3.6893488e+19 2.5813031
-1.0842022e-19 3.2962711 3.6893488e+19
2.411463 -0 2.5995588
2 3.2731781 -3.6893488e+19
2.0416505 -0 2.563499
0 3.2896609 -3.6893488e+19
2.4022825 3.6893488e+19 2.5752099
-2 3.305074 -3.6893488e+19
2.4236884 3.6893488e+19 2.5751216
1.0842022e-19 3.2729077 1.0842022e-19
2.041362 -1.0842022e-19 2.5321662
2 3.2760766 -3.6893488e+19
2.044745 -2 2.5197959
0 3.2819915 0
2.2531102 -2 2.509882
3.6893488e+19 3.2838185 3.6893488e+19
1.5789884 -1.0842022e-19 2.5031414
2 3.2906327 1.0842022e-19
2.2608664 3.6893488e+19 2.5014119
-0 3.280489 -0
1.5765954 -3.6893488e+19 2.4686906
2 3.3025167 1.0842022e-19
2.2715333 -0 2.4892173
3.6893488e+19 3.2958333 -1.0842022e-19
1.5876238 0 2.4610014
1.0842022e-19 3.2798588 1.0842022e-19
2.2511959 -2 2.4210184
-2 3.3038077 -2
1.5933553 -0 2.4392397
-1.0842022e-19 3.2600791 1.0842022e-19
2.2168844 3.6893488e+19 2.3619678
-1.0842022e-19 3.2540245 0
1.5575747 -2 2.3387196
-1.0842022e-19 3.2607124 0
2.2180212 -3.6893488e+19 2.3335245
0 3.2553034 -1.0842022e-19
1.5584937 -3.6893488e+19 2.3117642
1.0842022e-19 3.2549076 3.6893488e+19
2.2076004 -3.6893488e+19 2.2974532
2 3.2558694 -0
1.5589006 0 2.2837679
-3.6893488e+19 3.2619112 -2
2.2201731 -3.6893488e+19 2.2762234
0 3.2963867 0
2.4116235 0 2.296608
1.0842022e-19 3.2917707 0
2.0615005 -1.0842022e-19 2.2747176
3.6893488e+19 3.2578068 -1.0842022e-19
2.3580434 1.0842022e-19 2.2080779
0 3.252193 -3.6893488e+19
2.0192463 0 2.1684391
0 3.2574492 -2
2.3575466 -0 2.1496351
3.6893488e+19 3.2532139 -2
2.0203364 0 2.1134894
1.0842022e-19 3.2577007 1.0842022e-19
2.3578961 -0 2.092201
0 3.2591689 2
2.359935 1.0842022e-19 2.0360415
3.6893488e+19 3.2521925 1.0842022e-19
2.0192461 1.0842022e-19 1.9992818
0 3.2674096 0
2.3713799 3.6893488e+19 1.9851968
2 3.2522719 3.6893488e+19
2.0193307 -1.0842022e-19 1.9430053
3.6893488e+19 3.2583807 3.6893488e+19
2.3588405 -0 1.919373
2 3.2538848 -3.6893488e+19
2.0210526 -1.0842022e-19 1.8875542
-1.0842022e-19 3.262707 1.0842022e-19
2.3648491 -0 1.8517251
-1.0842022e-19 3.258234 -2
2.025696 1.0842022e-19 1.7895136
1.0842022e-19 3.25315 -1.0842022e-19
1.556946 2 1.7094312
-3.6893488e+19 3.2583425 -1.0842022e-19
2.2137668 -3.6893488e+19 1.5721699
-0 3.2522333 1.0842022e-19
1.5562873 -1.0842022e-19 -1.2563652
-1.0842022e-19 3.2520235 2
2.2024231 -0 -1.6290394
3.6893488e+19 3.25107 -1.0842022e-19
1.5554512 2 -1.7403581
-2 3.2521663 -3.6893488e+19
2.2026794 -2 -1.8022549
3.6893488e+19 3.2512383 -0
1.5555722 2 -1.8573749
-1.0842022e-19 3.2522657 1.0842022e-19
2.202858 0 -1.8950316
-0 3.2507851 0
1.5552465 2 -1.9219347
-3.6893488e+19 3.2502317 0
2.1992068 2 -1.9498018
-3.6893488e+19 3.2551928 -3.6893488e+19
1.5584143 1.0842022e-19 -1.9819251
-3.6893488e+19 3.2256348 1.0842022e-19
2.1769209 -1.0842022e-19 -1.9930617
-2 3.1982176 0
1.5360734 -0 -2.0037243
-2 2.7627993 -3.6893488e+19
1.765285 -2 -1.8473098
2 2.8013248 2
1.9592408 -0 -1.8863161
3.6893488e+19 2.7627585 -3.6893488e+19
1.7652632 0 -1.8758476
-1.0842022e-19 2.7500567 -0
1.9236401 0 -1.8771724
2 2.7142055 -2
1.7477977 -0 -1.8733341
1.0842022e-19 2.6746006 -1.0842022e-19
1.8974218 0 -1.8648131
2 2.6506855 0
1.7138902 1.0842022e-19 -1.8618242
-0 2.6211169 -1.0842022e-19
1.8788522 -3.6893488e+19 -1.8554956
-0 2.5741255 2
1.8500737 3.6893488e+19 -1.8445709
2 2.5393269 3.6893488e+19
1.8259094 -2 -1.8373201
1.0842022e-19 2.5082762 -3.6893488e+19
1.8043476 0 -1.8291235
-1.0842022e-19 2.4721296 0
1.1696665 0 -1.8241717
2 2.4496262 2
1.7017879 -1.0842022e-19 -1.821326
-1.0842022e-19 3.3084571 0
1.1092941 -2 2.7882934
-1.0842022e-19 3.3170094 -0
2.2712021 -2 2.7920463
-1.0842022e-19 3.3011494 0
1.1037433 -2 2.7726226
-0 3.3079152 1.0842022e-19
2.263422 -2 2.7746303
-3.6893488e+19 3.3066387 -3.6893488e+19
1.1079128 2 2.7686169
2 3.3088739 -3.6893488e+19
2.2642419 -2 2.7664456
-0 3.282613 2
2.233552 -1.0842022e-19 2.721092
-0 3.3008096 0
1.1034852 3.6893488e+19 2.7419651
-2 3.2732563 2
2.2175426 -3.6893488e+19 2.6895978
-1.0842022e-19 3.300771 1.0842022e-19
1.1034559 0 2.7244537
3.6893488e+19 3.2752867 -1.0842022e-19
2.2210164 -2 2.6768904
-0 3.2606518 1.0842022e-19
1.0729827 -1.0842022e-19 2.6460848
2 3.3085008 3.6893488e+19
1.1093271 -3.6893488e+19 2.7009952
-2 3.3321371 1.0842022e-19
2.2841439 -0 2.7266617
0 3.3170698 2
2.0618787 -1.0842022e-19 2.6863689
0 3.2715364 0
2.0170908 -1.0842022e-19 2.6081219
2 3.3007212 1.0842022e-19
2.0457978 0 2.6294
2 3.2922413 2
2.3935163 2 2.6114514
0 3.2752843 -1.0842022e-19
2.0207772 -2 2.5815821
0 3.3048255 2
2.4104614 1.0842022e-19 2.6095712
-1.0842022e-19 3.2745769 -2
2.0200815 -2 2.5650778
3.6893488e+19 3.3053308 0
2.4111419 -2 2.592726
1.0842022e-19 3.3047566 2
2.4103687 0 2.5747106
1.0842022e-19 3.2739065 3.6893488e+19
2.0194221 -3.6893488e+19 2.533175
-1.0842022e-19 3.3012757 3.6893488e+19
2.0463433 -3.6893488e+19 2.5443971
3.6893488e+19 3.2968276 2
1.1004605 -0 2.5315177
-3.6893488e+19 3.3267817 1.0842022e-19
2.2795625 -3.6893488e+19 2.5511174
-2 3.3042324 -0
2.2602713 -1.0842022e-19 2.5131385
3.6893488e+19 3.2958441 -3.6893488e+19
1.0997134 1.0842022e-19 2.4943469
1.0842022e-19 3.3044541 -1.0842022e-19
2.2604609 -3.6893488e+19 2.4922795
3.6893488e+19 3.2967987 -0
1.1004386 0 2.4625039
-1.0842022e-19 3.3210185 -3.6893488e+19
2.2746317 -1.0842022e-19 2.4828696
1.0842022e-19 3.2965729 -0
1.1002671 3.6893488e+19 2.4287779
0 3.2957284 -2
2.252996 -3.6893488e+19 2.4115236
-2 3.2999911 2
1.1028636 -1.0842022e-19 2.4000106
-3.6893488e+19 3.3415799 3.6893488e+19
2.2922223 -1.0842022e-19 2.4369142
1.0842022e-19 3.2974942 3.6893488e+19
1.1009668 -0 2.3632843
3.6893488e+19 3.255271 3.6893488e+19
2.1867695 0 2.2978346
0 3.2552314 -3.6893488e+19
1.0688653 1.0842022e-19 2.2830591
-3.6893488e+19 3.2958114 2
2.2530673 -3.6893488e+19 2.3119314
-2 3.2962198 -2
2.3988736 -1.0842022e-19 2.2963746
-0 3.3002141 2
2.0452991 -1.0842022e-19 2.2826438
2 3.2961082 -3.6893488e+19
2.3987231 3.6893488e+19 2.2630074
1.0842022e-19 3.2517307 1.0842022e-19
1.9976094 -0 2.1676369
-2 3.2974281 0
2.4005008 -2 2.2115908
-2 3.3006494 -1.0842022e-19
2.0457273 -1.0842022e-19 2.1815469
-0 3.2571361 -0
2.3462455 -0 2.0913749
-0 3.2852077 -1.0842022e-19
2.0305383 1.0842022e-19 2.0956142
1.0842022e-19 3.2600672 3.6893488e+19
2.3501923 1.0842022e-19 2.0369687
-1.0842022e-19 3.2855258 0
2.0308514 3.6893488e+19 2.0322065
-0 3.2604344 -1.0842022e-19
2.3506868 2 1.9790107
0 3.3150425 -0
2.0598845 3.6893488e+19 1.9910089
0 3.3358519 -2
2.4522398 2 1.9701074
0 3.3149312 1.0842022e-19
2.0597751 3.6893488e+19 1.9206146
1.0842022e-19 3.258002 -1.0842022e-19
2.3474114 -2 1.8476145
2 3.314539 3.6893488e+19
2.0593894 -3.6893488e+19 1.8253669
-1.0842022e-19 3.3596017 -3.6893488e+19
1.1365708 0 1.7737489
1.0842022e-19 3.3521829 -0
2.3012929 -0 1.6343756
3.6893488e+19 3.3578124 1.0842022e-19
1.1358913 -0 -1.3113509
-1.0842022e-19 3.3517134 -0
2.3008914 -3.6893488e+19 -1.6800561
-3.6893488e+19 3.2511959 2
1.0658003 2 -1.7404778
2 3.2514381 1.0842022e-19
2.1802115 -0 -1.8017176
0 3.2512863 -2
1.0658687 0 -1.8574183
-2 3.2534564 -0
2.1836648 -1.0842022e-19 -1.8956951
-1.0842022e-19 3.3267999 -1.0842022e-19
1.1232265 1.0842022e-19 -1.9740485
-0 3.2506733 -1.0842022e-19
2.1789029 2 -1.9501256
-0 3.2539756 3.6893488e+19
1.0679116 -0 -1.9808179
-2 3.2249546 -2
2.1563244 2 -1.9926792
-1.0842022e-19 3.2537317 -0
1.0677264 -1.0842022e-19 -2.0372608
1.0842022e-19 2.7626967 1.0842022e-19
1.754198 3.6893488e+19 -1.8472043
3.6893488e+19 2.7995269 1.0842022e-19
1.9516634 -3.6893488e+19 -1.8854723
-0 2.762157 -1.0842022e-19
1.7539325 -2 -1.8755488
1.0842022e-19 2.7492313 -3.6893488e+19
1.9180593 2 -1.8769195
-0 2.7137458 -1.0842022e-19
1.7280767 0 -1.8730674
1.0842022e-19 2.6754413 2
1.893219 3.6893488e+19 -1.865234
-0 2.6500962 -0
1.6967729 -1.0842022e-19 -1.8614559
3.6893488e+19 2.6212001 3.6893488e+19
1.8749189 -3.6893488e+19 -1.8554956
3.6893488e+19 2.5738258 0
1.8430232 -3.6893488e+19 -1.8443186
-0 2.5395157 -3.6893488e+19
1.819923 1.0842022e-19 -1.8374112
1.0842022e-19 2.5080862 0
1.7987624 -1.0842022e-19 -1.8289275
3.6893488e+19 2.4708884 -3.6893488e+19
0.83941782 -3.6893488e+19 -1.8236471
-1.0842022e-19 2.4514279 -0
1.6930987 -3.6893488e+19 -1.8220844
1.0842022e-19 2.4320238 -1.0842022e-19
0.83203775 1.0842022e-19 -1.819443
-1.0842022e-19 2.3675632 0
0.81979728 -3.6893488e+19 -1.8112229
2 2.3176148 3.6893488e+19
0.8081249 -0 -1.8039471
2 2.2806444 -2
0.79408413 0 -1.7991118
3.6893488e+19 2.2574093 -0
1.6733067 -1.0842022e-19 -1.8000469
-0 2.2184699 3.6893488e+19
1.657704 1.0842022e-19 -1.7978058
-1.0842022e-19 2.1756821 -1.0842022e-19
1.6433001 -2 -1.7943691
1.0842022e-19 2.1452246 0
1.633047 -2 -1.7937775
-1.0842022e-19 3.3084571 0
1.1092941 -2 2.7882934
-1.0842022e-19 3.3170094 -0
2.2712021 -2 2.7920463
-1.0842022e-19 3.3011494 0
1.1037433 -2 2.7726226
2 3.2774253 0
2.2246757 0 2.7448728
-3.6893488e+19 3.3066387 -3.6893488e+19
1.1079128 2 2.7686169
0 3.2779408 -2
2.2255573 3.6893488e+19 2.7295234
-0 3.282613 2
2.233552 -1.0842022e-19 2.721092
-1.0842022e-19 3.26087 3.6893488e+19
1.0731484 -1.0842022e-19 2.676645
-2 3.2732563 2
2.2175426 -3.6893488e+19 2.6895978
-1.0842022e-19 3.300771 1.0842022e-19
1.1034559 0 2.7244537
3.6893488e+19 3.2752867 -1.0842022e-19
2.2210164 -2 2.6768904
-0 3.2606518 1.0842022e-19
1.0729827 -1.0842022e-19 2.6460848
-2 3.2846918 3.6893488e+19
1.0912427 -3.6893488e+19 2.6661892
-1.0842022e-19 3.2844958 1.0842022e-19
2.2367735 0 2.6582901
0 3.3170698 2
2.0618787 -1.0842022e-19 2.6863689
0 3.2715364 0
2.0170908 -1.0842022e-19 2.6081219
2 3.3007212 1.0842022e-19
2.0457978 0 2.6294
2 3.2922413 2
2.3935163 2 2.6114514
0 3.2752843 -1.0842022e-19
2.0207772 -2 2.5815821
3.6893488e+19 3.2958138 0
2.3983269 1.0842022e-19 2.5989411
-1.0842022e-19 3.2745769 -2
2.0200815 -2 2.5650778
0 3.2898338 -0
2.3902743 -1.0842022e-19 2.575331
1.0842022e-19 3.3047566 2
2.4103687 0 2.5747106
1.0842022e-19 3.2739065 3.6893488e+19
2.0194221 -3.6893488e+19 2.533175
-0 3.2761307 0
2.02161 -2 2.5198262
3.6893488e+19 3.2968276 2
1.1004605 -0 2.5315177
-2 3.2820783 -2
2.2326369 3.6893488e+19 2.5099249
-2 3.3042324 -0
2.2602713 -1.0842022e-19 2.5131385
3.6893488e+19 3.2958441 -3.6893488e+19
1.0997134 1.0842022e-19 2.4943469
2 3.265039 -3.6893488e+19
2.2034824 2 2.4285483
3.6893488e+19 3.2584956 -3.6893488e+19
1.0713447 0 2.4028158
-1.0842022e-19 3.3210185 -3.6893488e+19
2.2746317 -1.0842022e-19 2.4828696
1.0842022e-19 3.2965729 -0
1.1002671 3.6893488e+19 2.4287779
0 3.2957284 -2
2.252996 -3.6893488e+19 2.4115236
-1.0842022e-19 3.2536674 2
1.0676775 -2 2.3382421
-3.6893488e+19 3.3415799 3.6893488e+19
2.2922223 -1.0842022e-19 2.4369142
-1.0842022e-19 3.2556782 -1.0842022e-19
1.0692048 1.0842022e-19 2.3122211
3.6893488e+19 3.255271 3.6893488e+19
2.1867695 0 2.2978346
0 3.2552314 -3.6893488e+19
1.0688653 1.0842022e-19 2.2830591
2 3.2568111 2
2.1894047 1.0842022e-19 2.2708058
-2 3.2962198 -2
2.3988736 -1.0842022e-19 2.2963746
-0 3.3002141 2
2.0452991 -1.0842022e-19 2.2826438
-1.0842022e-19 3.2580822 -3.6893488e+19
2.3475194 0 2.2084646
1.0842022e-19 3.2517307 1.0842022e-19
1.9976094 -0 2.1676369
-0 3.2570713 2
2.3461583 0 2.1489594
-0 3.2524083 -3.6893488e+19
1.9982759 -2 2.1123023
-0 3.2571361 -0
2.3462455 -0 2.0913749
1.0842022e-19 3.2551498 2
2.0009725 -2 2.0591898
1.0842022e-19 3.2600672 3.6893488e+19
2.3501923 1.0842022e-19 2.0369687
0 3.2533534 1.0842022e-19
1.9992055 -1.0842022e-19 2.0004079
-0 3.2604344 -1.0842022e-19
2.3506868 2 1.9790107
-1.0842022e-19 3.2582417 -0
2.0040138 -3.6893488e+19 1.947556
2 3.256197 1.0842022e-19
2.344981 -2 1.9179039
3.6893488e+19 3.2521884 0
1.9980597 -1.0842022e-19 1.8866236
1.0842022e-19 3.258002 -1.0842022e-19
2.3474114 -2 1.8476145
2 3.2542892 -1.0842022e-19
2.0001259 3.6893488e+19 1.7869867
-0 3.2526352 -2
1.0668935 -2 1.7090045
2 3.2598932 3.6893488e+19
2.1946781 1.0842022e-19 1.5733249
-2 3.2523279 0
1.0666602 1.0842022e-19 -1.2564141
-3.6893488e+19 3.2533078 -2
2.1834106 -3.6893488e+19 -1.6296784
-3.6893488e+19 3.2511959 2
1.0658003 2 -1.7404778
2 3.2514381 1.0842022e-19
2.1802115 -0 -1.8017176
0 3.2512863 -2
1.0658687 0 -1.8574183
-2 3.2534564 -0
2.1836648 -1.0842022e-19 -1.8956951
-1.0842022e-19 3.2540822 -1.0842022e-19
1.0679926 -0 -1.9241945
-0 3.2506733 -1.0842022e-19
2.1789029 2 -1.9501256
-0 3.2539756 3.6893488e+19
1.0679116 -0 -1.9808179
-2 3.2249546 -2
2.1563244 2 -1.9926792
1.0842022e-19 3.1985319 0
1.0453451 0 -2.0039012
1.0842022e-19 2.7626967 1.0842022e-19
1.754198 3.6893488e+19 -1.8472043
3.6893488e+19 2.7995269 1.0842022e-19
1.9516634 -3.6893488e+19 -1.8854723
-0 2.762157 -1.0842022e-19
1.7539325 -2 -1.8755488
1.0842022e-19 2.7492313 -3.6893488e+19
1.9180593 2 -1.8769195
-0 2.7137458 -1.0842022e-19
1.7280767 0 -1.8730674
1.0842022e-19 2.6754413 2
1.893219 3.6893488e+19 -1.865234
-0 2.6500962 -0
1.6967729 -1.0842022e-19 -1.8614559
3.6893488e+19 2.6212001 3.6893488e+19
1.8749189 -3.6893488e+19 -1.8554956
3.6893488e+19 2.5738258 0
1.8430232 -3.6893488e+19 -1.8443186
-0 2.5395157 -3.6893488e+19
1.819923 1.0842022e-19 -1.8374112
1.0842022e-19 2.5080862 0
1.7987624 -1.0842022e-19 -1.8289275
3.6893488e+19 2.4708884 -3.6893488e+19
0.83941782 -3.6893488e+19 -1.8236471
-1.0842022e-19 2.4514279 -0
1.6930987 -3.6893488e+19 -1.8220844
1.0842022e-19 2.4320238 -1.0842022e-19
0.83203775 1.0842022e-19 -1.819443
-1.0842022e-19 2.3675632 0
0.81979728 -3.6893488e+19 -1.8112229
2 2.3176148 3.6893488e+19
0.8081249 -0 -1.8039471
2 2.2806444 -2
0.79408413 0 -1.7991118
3.6893488e+19 2.2574093 -0
1.6733067 -1.0842022e-19 -1.8000469
-0 2.2184699 3.6893488e+19
1.657704 1.0842022e-19 -1.7978058
-1.0842022e-19 2.1756821 -1.0842022e-19
1.6433001 -2 -1.7943691
1.0842022e-19 2.1452246 0
1.633047 -2 -1.7937775
-2 3.307878 2
-1.5639322 2 2.7877531
0 3.3169611 -2
2.2580278 1.0842022e-19 2.7919624
-1.0842022e-19 3.3004627 0
-1.5593817 -3.6893488e+19 2.7720017
-3.6893488e+19 3.3076215 0
2.2504251 3.6893488e+19 2.7743316
-0 3.3051574 -3.6893488e+19
-1.5622625 3.6893488e+19 2.7673199
-2 3.3057728 3.6893488e+19
2.2478402 0 2.7637353
-3.6893488e+19 3.3003035 -0
-1.559284 0 2.7411389
1.0842022e-19 3.2732933 -2
2.1949587 -3.6893488e+19 2.6895978
2 3.3012455 -3.6893488e+19
-1.5598619 2 2.7252033
-1.0842022e-19 3.2753084 -2
2.1982398 2 2.6768668
3.6893488e+19 3.2606511 -2
-1.5349509 -1.0842022e-19 2.6460848
-0 3.2819169 1.0842022e-19
2.2089994 -3.6893488e+19 2.670804
2 3.3083923 0
-1.5642477 1.0842022e-19 2.7008381
3.6893488e+19 3.3333032 -1.0842022e-19
2.2713315 1.0842022e-19 2.7282708
0 3.3171401 0
2.0357163 2 2.6864326
3.6893488e+19 3.2716956 3.6893488e+19
1.9947747 -3.6893488e+19 2.6083047
-0 3.3008366 1.0842022e-19
2.0210283 -3.6893488e+19 2.6295166
-0 3.2926886 1.0842022e-19
2.3819416 -3.6893488e+19 2.611927
3.6893488e+19 3.2752588 -3.6893488e+19
1.9979848 -1.0842022e-19 2.5815263
0 3.3041358 -0
2.3968792 -0 2.6086807
-3.6893488e+19 3.2770405 -2
1.99959 -3.6893488e+19 2.5678806
-1.0842022e-19 3.3047483 -2
2.3976786 -1.0842022e-19 2.5919991
-3.6893488e+19 3.2776511 1.0842022e-19
2.0001402 1.0842022e-19 2.5527897
-1.0842022e-19 3.3046365 -2
2.3975327 3.6893488e+19 2.5745132
1.0842022e-19 3.2746863 1.0842022e-19
1.9974691 0 2.5339599
-1.0842022e-19 3.3063016 -0
2.3997056 1.0842022e-19 2.5588605
-2 3.3013141 -3.6893488e+19
2.0214584 -0 2.5444124
1.0842022e-19 3.2976801 -0
-1.5576741 3.6893488e+19 2.5323272
-3.6893488e+19 3.2785351 3.6893488e+19
2.2034936 -2 2.5066254
2 3.297981 -0
-1.5578587 -2 2.5157728
-2 3.2771847 2
2.2012949 -1.0842022e-19 2.4794242
3.6893488e+19 3.2954547 -3.6893488e+19
-1.5563084 2 2.4936976
0 3.2651989 3.6893488e+19
2.1817801 -1.0842022e-19 2.4287491
0 3.2957871 2
-1.5565124 0 2.4609287
2 3.2639496 2
2.1797462 0 2.3969743
3.6893488e+19 3.2976613 -2
-1.5576625 -3.6893488e+19 2.4303527
3.6893488e+19 3.2993987 2
-1.5587287 3.6893488e+19 2.3992217
-1.0842022e-19 3.2829046 -1.0842022e-19
2.2106075 2 2.361814
-2 3.2967298 0
-1.557091 3.6893488e+19 2.3623521
-1.0842022e-19 3.29568 -3.6893488e+19
2.2314076 3.6893488e+19 2.3117509
-3.6893488e+19 3.2695956 2
2.3518066 3.6893488e+19 2.2696788
-3.6893488e+19 3.2845514 3.6893488e+19
2.0063567 2 2.2678776
-3.6893488e+19 3.2686644 1.0842022e-19
2.3505914 -0 2.2271609
-3.6893488e+19 3.2845364 -1.0842022e-19
2.0063431 3.6893488e+19 2.222028
1.0842022e-19 3.2562864 -0
2.3344386 3.6893488e+19 2.147656
2 3.2512105 1.0842022e-19
1.9763193 1.0842022e-19 2.1105556
2 3.2579691 1.0842022e-19
2.3366346 -2 2.0924075
2 3.285089 3.6893488e+19
2.0068409 1.0842022e-19 2.095444
-0 3.32585 0
2.4252152 -0 2.1094792
-2 3.2848606 -2
2.0066352 1.0842022e-19 2.0315278
-1.0842022e-19 3.3261847 3.6893488e+19
2.425652 3.6893488e+19 2.0367663
-0 3.2566721 3.6893488e+19
2.3349421 -0 1.9181794
1.0842022e-19 3.2850337 3.6893488e+19
2.0067911 -1.0842022e-19 1.9044058
-2 3.355397 3.6893488e+19
2.4637723 -0 1.9032927
1.0842022e-19 3.2851853 2
2.0069277 2 1.8066543
3.6893488e+19 3.3564446 0
-1.5937355 2 1.7724433
0 3.3529482 1.0842022e-19
2.287324 -2 1.6346494
0 3.3575771 3.6893488e+19
-1.5944303 -0 -1.3112289
-0 3.2515943 3.6893488e+19
2.1596301 3.6893488e+19 -1.6287838
2 3.251586 -0
-1.529388 0 -1.7408518
0 3.2508011 -3.6893488e+19
2.1583383 1.0842022e-19 -1.8012462
3.6893488e+19 3.250973 1.0842022e-19
-1.5290118 -1.0842022e-19 -1.8571292
1.0842022e-19 3.2528977 -3.6893488e+19
2.161752 1.0842022e-19 -1.8953544
-3.6893488e+19 3.3265021 2
-1.575361 2 -1.973845
-1.0842022e-19 3.2503951 1.0842022e-19
2.1576777 0 -1.9498765
0 3.2541156 0
-1.5309403 0 -1.9809457
1.0842022e-19 3.2240829 -3.6893488e+19
2.1359358 -2 -1.9922011
3.6893488e+19 3.2546992 -3.6893488e+19
-1.5312984 -3.6893488e+19 -2.0383568
1.0842022e-19 2.8573771 1.0842022e-19
1.983178 1.0842022e-19 -1.8915521
-2 2.7612193 -3.6893488e+19
1.7353364 -3.6893488e+19 -1.8459378
3.6893488e+19 2.7985959 -0
1.9448251 1.0842022e-19 -1.8850224
-2 2.7622392 2
1.7362554 3.6893488e+19 -1.8755788
-0 2.7503529 0
1.913348 3.6893488e+19 -1.8772671
3.6893488e+19 2.7136564 2
1.7088575 -0 -1.8730006
3.6893488e+19 2.6766508 3.6893488e+19
1.8891885 3.6893488e+19 -1.8658655
-3.6893488e+19 2.6502512 3.6893488e+19
1.6802962 2 -1.8615296
-1.0842022e-19 2.6215279 0
1.8674111 -1.0842022e-19 -1.8556498
-2 2.5740192 -2
1.836413 0 -1.8444028
3.6893488e+19 2.5395777 0
1.813941 1.0842022e-19 -1.8374112
-0 2.5076454 2
1.7931061 1.0842022e-19 -1.8285358
-2 2.4708869 2
-1.144482 -3.6893488e+19 -1.8236471
-3.6893488e+19 2.4522333 0
1.6840745 -1.0842022e-19 -1.8224095
-2 3.307878 2
-1.5639322 2 2.7877531
0 3.3169611 -2
2.2580278 1.0842022e-19 2.7919624
-1.0842022e-19 3.3004627 0
-1.5593817 -3.6893488e+19 2.7720017
3.6893488e+19 3.27795 0
2.2025409 2 2.7457421
-0 3.3051574 -3.6893488e+19
-1.5622625 3.6893488e+19 2.7673199
0 3.278146 -2
2.2028596 -1.0842022e-19 2.7298129
-3.6893488e+19 3.3003035 -0
-1.559284 0 2.7411389
1.0842022e-19 3.2732933 -2
2.1949587 -3.6893488e+19 2.6895978
-1.0842022e-19 3.2577088 -2
-1.5331453 -3.6893488e+19 2.6565259
-1.0842022e-19 3.2753084 -2
2.1982398 2 2.6768668
3.6893488e+19 3.2606511 -2
-1.5349509 -1.0842022e-19 2.6460848
-0 3.2819169 1.0842022e-19
2.2089994 -3.6893488e+19 2.670804
-1.0842022e-19 3.2854903 -1.0842022e-19
-1.5501937 -1.0842022e-19 2.6673577
-1.0842022e-19 3.2847185 -1.0842022e-19
2.2135608 -0 2.6585546
0 3.3171401 0
2.0357163 2 2.6864326
3.6893488e+19 3.2716956 3.6893488e+19
1.9947747 -3.6893488e+19 2.6083047
-0 3.3008366 1.0842022e-19
2.0210283 -3.6893488e+19 2.6295166
-0 3.2926886 1.0842022e-19
2.3819416 -3.6893488e+19 2.611927
3.6893488e+19 3.2752588 -3.6893488e+19
1.9979848 -1.0842022e-19 2.5815263
-0 3.2951529 -3.6893488e+19
2.3851571 -3.6893488e+19 2.5980868
-3.6893488e+19 3.2770405 -2
1.99959 -3.6893488e+19 2.5678806
-3.6893488e+19 3.2901578 -1.0842022e-19
2.378639 -2 2.5756252
-3.6893488e+19 3.2776511 1.0842022e-19
2.0001402 1.0842022e-19 2.5527897
-1.0842022e-19 3.3046365 -2
2.3975327 3.6893488e+19 2.5745132
1.0842022e-19 3.2746863 1.0842022e-19
1.9974691 0 2.5339599
-1.0842022e-19 3.3063016 -0
2.3997056 1.0842022e-19 2.5588605
0 3.2763999 -2
1.9990127 3.6893488e+19 2.5200686
1.0842022e-19 3.2976801 -0
-1.5576741 3.6893488e+19 2.5323272
-3.6893488e+19 3.2785351 3.6893488e+19
