# .PCD v0.7 - Point Cloud Data file format
VERSION 0.7
FIELDS x y z
SIZE 4 4 4
TYPE F F F
COUNT 1 1 1
WIDTH 1710
HEIGHT 1
VIEWPOINT 0 0 0 1 0 0 0
POINTS 1710
DATA ascii
2.5169544 0 2.2923043
-3.6893488e+19 3.0933354 3.6893488e+19
2.3177567 3.6893488e+19 2.2380226
1.0842022e-19 3.1277068 3.6893488e+19
2.5068681 3.6893488e+19 2.2597251
2 3.0875359 0
2.3123891 0 2.1916113
2 3.1295793 -2
2.5081415 -3.6893488e+19 2.2288013
-0 3.0953963 0
2.319664 0 2.1628757
0 3.1850305 2
2.5458524 0 2.2492528
-3.6893488e+19 3.0930576 1.0842022e-19
2.3174996 2 2.1213722
3.6893488e+19 3.1344426 0
2.5114491 -0 2.1475008
1.0842022e-19 3.1562619 3.6893488e+19
2.5776393 1.0842022e-19 2.1492527
0 3.1572485 -1.0842022e-19
2.5784349 3.6893488e+19 2.10374
-3.6893488e+19 3.1303878 -0
2.4466023 2 2.0558565
-3.6893488e+19 3.1400082 3.6893488e+19
2.5645313 -3.6893488e+19 2.0442748
-3.6893488e+19 3.1359162 -3.6893488e+19
2.4530931 0 2.0167077
2 3.1409817 -1.0842022e-19
2.5653162 -2 2.0004368
-1.0842022e-19 3.1385071 -0
2.5633206 -1.0842022e-19 1.9545945
0 3.144268 -1.0842022e-19
2.4628985 1.0842022e-19 1.933471
1.0842022e-19 3.1410964 -0
2.5654087 -3.6893488e+19 1.9114169
-0 3.1453266 0
2.4641416 3.6893488e+19 1.8893645
2 3.1377254 -2
2.56269 3.6893488e+19 1.8567854
-2 3.1392558 -3.6893488e+19
2.4570138 1.0842022e-19 1.8116642
-2 3.2091982 0
2.6203313 2 1.7949821
-0 3.1393175 -3.6893488e+19
2.4570863 1.0842022e-19 1.6977926
-3.6893488e+19 3.1316383 -0
2.3532059 -0 1.5898383
-3.6893488e+19 3.1450186 -1.0842022e-19
2.5186415 0 1.305987
-1.0842022e-19 3.1322305 1.0842022e-19
2.353754 1.0842022e-19 -1.5032026
3.6893488e+19 3.1262233 0
2.3481944 0 -1.7320558
0 3.1464331 -3.6893488e+19
2.5196033 0 -1.793064
0 3.1336074 3.6893488e+19
2.3550282 -1.0842022e-19 -1.8294724
0 3.1476502 -2
2.520431 -3.6893488e+19 -1.8792874
0 3.1381159 -1.0842022e-19
2.3592007 0 -1.8970294
3.6893488e+19 3.1192212 1.0842022e-19
2.5010974 1.0842022e-19 -1.9118447
0 3.1097138 -1.0842022e-19
2.3329146 0 -1.9266926
1.0842022e-19 3.1061802 -0
2.484457 -3.6893488e+19 -1.9464594
0 3.0705109 -2
2.2966323 3.6893488e+19 -1.9434686
-2 3.0830004 -3.6893488e+19
2.4529293 -0 -1.971406
2 2.8875494 0
2.263562 -2 -1.9008018
-0 2.8341379 -0
2.2694733 -1.0842022e-19 -1.8902894
-1.0842022e-19 2.804709 -1.0842022e-19
2.1077499 -2 -1.8853644
0 2.7529259 -2
2.0469527 2 -1.8766668
3.6893488e+19 2.6506176 1.0842022e-19
2.0730875 -1.0842022e-19 -1.8618383
0 2.5654528 1.0842022e-19
1.935182 -3.6893488e+19 -1.8187119
-0 2.5898194 -2
2.0240552 3.6893488e+19 -1.8453417
0 2.5693455 1.0842022e-19
1.9374671 -3.6893488e+19 -1.8392144
0 2.5498254 -1.0842022e-19
1.9918011 3.6893488e+19 -1.8365823
-3.6893488e+19 2.5358949 -1.0842022e-19
1.9178305 3.6893488e+19 -1.8330132
1.0842022e-19 2.5202348 -3.6893488e+19
1.9679371 0 -1.8312007
3.6893488e+19 2.5083811 1.0842022e-19
1.9016789 1.0842022e-19 -1.8276844
-1.0842022e-19 2.4769497 -3.6893488e+19
1.9423236 -0 -1.8206626
-3.6893488e+19 2.4625213 -3.6893488e+19
1.8857582 1.0842022e-19 -1.8195784
-2 2.4461823 -1.0842022e-19
1.8314706 -0 -1.8182857
0 2.4036465 -0
1.8117871 -3.6893488e+19 -1.8113307
1.0842022e-19 2.3482814 1.0842022e-19
1.786167 -1.0842022e-19 -1.8056159
-1.0842022e-19 2.3045995 2
1.7659533 3.6893488e+19 -1.8003794
2 2.2755046 -0
1.7524896 -1.0842022e-19 -1.7994431
-3.6893488e+19 2.2325959 0
1.8196005 3.6893488e+19 -1.793925
3.6893488e+19 2.1856165 2
1.8006566 3.6893488e+19 -1.7902681
-0 2.1580129 -0
1.7895257 -2 -1.791835
-3.6893488e+19 2.1213729 -2
1.7747512 3.6893488e+19 -1.7878728
-1.0842022e-19 3.1071007 2
2.3229156 -0 2.5827091
-1.0842022e-19 3.1167216 1.0842022e-19
2.4908919 3.6893488e+19 2.588774
-2 3.1201844 0
2.4955273 0 2.5809824
3.6893488e+19 3.0962312 2
2.3130865 -3.6893488e+19 2.5521736
-0 3.0952568 -1.0842022e-19
2.3122053 -1.0842022e-19 2.5411954
3.6893488e+19 3.1006529 -3.6893488e+19
2.3170848 0 2.5354886
3.6893488e+19 3.1119852 1.0842022e-19
2.4845517 3.6893488e+19 2.541599
3.6893488e+19 3.1318607 3.6893488e+19
2.3453052 -2 2.5497591
-3.6893488e+19 3.1710901 -0
2.5318346 1.0842022e-19 2.5645287
-0 3.0906 -0
2.3079944 -0 2.4951591
-1.0842022e-19 3.1735327 2
2.5334694 3.6893488e+19 2.5539873
-2 3.1331055 2
2.5547895 -2 2.5209002
-2 3.1879261 2
2.5023928 3.6893488e+19 2.5505025
-2 3.1354036 -2
2.5566177 -3.6893488e+19 2.511251
-1.0842022e-19 3.1659336 3.6893488e+19
2.4794354 -0 2.5233686
2 3.1315124 -3.6893488e+19
2.5535219 -1.0842022e-19 2.4949617
-2 3.1334715 3.6893488e+19
2.5550807 -2 2.4751694
0 3.1921697 0
2.5048385 -2 2.5150952
-0 3.177609 -3.6893488e+19
2.5901952 -3.6893488e+19 2.502507
-3.6893488e+19 3.1190202 3.6893488e+19
2.4253597 1.0842022e-19 2.4212496
-3.6893488e+19 3.1815219 2
2.5933084 -1.0842022e-19 2.4846067
2 3.1197119 -1.0842022e-19
2.4261568 3.6893488e+19 2.4008148
1.0842022e-19 3.1449544 2
2.5642161 -1.0842022e-19 2.3978589
0 3.1899571 -1.0842022e-19
2.5035632 -2 2.42659
3.6893488e+19 3.1638634 -1.0842022e-19
2.3742442 -2 2.3879418
-0 3.1276424 1.0842022e-19
2.5027552 3.6893488e+19 2.3242126
-2 3.2366254 -0
2.4400408 -0 2.4008644
2 3.1326661 -2
2.5061173 2 2.3066592
1.0842022e-19 3.089633 3.6893488e+19
2.3071198 -0 2.2605314
2 3.1397648 3.6893488e+19
2.5108685 2 2.2901111
-3.6893488e+19 3.0927887 0
2.3099737 -3.6893488e+19 2.2370994
-1.0842022e-19 3.1274743 3.6893488e+19
2.5026426 2 2.2594507
3.6893488e+19 3.0893083 0
2.3068264 -1.0842022e-19 2.1937971
-0 3.1322052 2
2.5058091 2 2.2319009
-2 3.141362 -2
2.3538969 3.6893488e+19 2.2176814
-2 3.189496 1.0842022e-19
2.5441537 -2 2.2520773
2 3.1395721 -3.6893488e+19
2.3522782 0 2.1715994
-3.6893488e+19 3.1344893 2
2.5073378 1.0842022e-19 2.1473737
-3.6893488e+19 3.1577599 2
2.574404 -3.6893488e+19 2.1505146
1.0842022e-19 3.1867495 -2
2.5017145 -2 2.1504023
-1.0842022e-19 3.1583803 0
2.5748975 -2 2.104537
-2 3.1863554 3.6893488e+19
2.5014875 -2 2.1007242
-2 3.1757286 -0
2.5886993 0 2.0710588
-2 3.1427691 0
2.4527345 -1.0842022e-19 2.0213401
3.6893488e+19 3.2446723 -1.0842022e-19
2.6435492 3.6893488e+19 2.0666881
-3.6893488e+19 3.1847298 0
2.5005507 -2 2.0012584
1.0842022e-19 3.2423143 1.0842022e-19
2.6416733 -2 2.009125
3.6893488e+19 3.1471698 -1.0842022e-19
2.4578068 -0 1.9347509
-1.0842022e-19 3.2356722 -0
2.636389 2 1.9503461
2 3.1832654 -0
2.4994133 -0 1.9026809
-2 3.2157044 -0
2.6205032 -1.0842022e-19 1.889128
1.0842022e-19 3.1815889 -3.6893488e+19
2.4974806 1.0842022e-19 1.8318858
-2 3.2083972 -3.6893488e+19
2.6146896 1.0842022e-19 1.7945966
2 3.1364348 1.0842022e-19
2.4454329 -3.6893488e+19 1.6962532
2 3.2035139 0
2.410099 -0 1.6276115
-3.6893488e+19 3.1459637 -1.0842022e-19
2.5150175 2 1.3063399
-1.0842022e-19 3.1998835 0
2.4068162 -3.6893488e+19 -1.5258485
-3.6893488e+19 3.1412101 1.0842022e-19
2.5118361 -1.0842022e-19 -1.654554
-2 3.1277332 0
2.341573 -0 -1.7329173
2 3.1471322 3.6893488e+19
2.5157995 3.6893488e+19 -1.793286
0 3.1798286 -3.6893488e+19
2.3886809 -3.6893488e+19 -1.8540409
-0 3.1483805 0
2.5166352 0 -1.8794677
-2 3.1370213 -1.0842022e-19
2.3499718 -3.6893488e+19 -1.8965708
2 3.1061835 -2
2.4767854 -0 -1.9463745
1.0842022e-19 3.0928247 -3.6893488e+19
2.3100059 3.6893488e+19 -1.9568758
-0 3.0810227 3.6893488e+19
2.4431055 1.0842022e-19 -1.9699938
0 2.8805168 -3.6893488e+19
2.2546787 2 -1.8979999
-0 2.8341296 -3.6893488e+19
2.2658253 0 -1.8902124
0 2.7800279 3.6893488e+19
2.1955667 2 -1.8834786
-0 2.564765 2
1.9314106 2 -1.7825762
0 2.7159815 3.6893488e+19
2.1207235 -0 -1.8737162
-3.6893488e+19 2.5648682 -3.6893488e+19
1.93147 0 -1.8004434
3.6893488e+19 2.6448362 -3.6893488e+19
2.064122 -0 -1.8582981
-0 2.5656962 -1.0842022e-19
1.9319472 1.0842022e-19 -1.8187877
0 2.5901201 0
2.0205913 -3.6893488e+19 -1.8454208
-1.0842022e-19 2.5656447 -2
1.9319175 2 -1.8366516
1.0842022e-19 2.5516927 -3.6893488e+19
1.9900193 -2 -1.8377883
-0 2.535511 2
1.9145504 1.0842022e-19 -1.8326547
0 2.5195222 -3.6893488e+19
1.9644252 -0 -1.830549
-3.6893488e+19 2.5093415 -3.6893488e+19
1.8994679 2 -1.8283603
-1.0842022e-19 2.4791517 3.6893488e+19
1.9406008 -0 -1.8214629
0 2.4626977 1.0842022e-19
1.8833348 1.0842022e-19 -1.8195784
2 2.446563 0
1.8269068 -3.6893488e+19 -1.8183926
-1.0842022e-19 3.1071007 2
2.3229156 -0 2.5827091
-1.0842022e-19 3.1167216 1.0842022e-19
2.4908919 3.6893488e+19 2.588774
-2 3.1201844 0
2.4955273 0 2.5809824
3.6893488e+19 3.0962312 2
2.3130865 -3.6893488e+19 2.5521736
-0 3.0952568 -1.0842022e-19
2.3122053 -1.0842022e-19 2.5411954
3.6893488e+19 3.1006529 -3.6893488e+19
2.3170848 0 2.5354886
3.6893488e+19 3.1119852 1.0842022e-19
2.4845517 3.6893488e+19 2.541599
3.6893488e+19 3.1318607 3.6893488e+19
2.3453052 -2 2.5497591
-3.6893488e+19 3.1710901 -0
2.5318346 1.0842022e-19 2.5645287
-0 3.0906 -0
2.3079944 -0 2.4951591
-1.0842022e-19 3.1735327 2
2.5334694 3.6893488e+19 2.5539873
-2 3.1331055 2
2.5547895 -2 2.5209002
2 3.1645372 -2
2.4778256 2 2.5344532
-2 3.1354036 -2
2.5566177 -3.6893488e+19 2.511251
-1.0842022e-19 3.1659336 3.6893488e+19
2.4794354 -0 2.5233686
2 3.1315124 -3.6893488e+19
2.5535219 -1.0842022e-19 2.4949617
-2 3.1334715 3.6893488e+19
2.5550807 -2 2.4751694
-0 3.117363 -2
2.4234493 -1.0842022e-19 2.4404926
-1.0842022e-19 3.1382666 0
2.5588956 2 2.4585502
-3.6893488e+19 3.1190202 3.6893488e+19
2.4253597 1.0842022e-19 2.4212496
-3.6893488e+19 3.1815219 2
2.5933084 -1.0842022e-19 2.4846067
2 3.1197119 -1.0842022e-19
2.4261568 3.6893488e+19 2.4008148
1.0842022e-19 3.1449544 2
2.5642161 -1.0842022e-19 2.3978589
0 3.1899571 -1.0842022e-19
2.5035632 -2 2.42659
3.6893488e+19 3.1105652 -3.6893488e+19
2.3260481 1.0842022e-19 2.3379819
-0 3.1276424 1.0842022e-19
2.5027552 3.6893488e+19 2.3242126
1.0842022e-19 3.0904803 2
2.3078861 -3.6893488e+19 2.2804751
2 3.1326661 -2
2.5061173 2 2.3066592
1.0842022e-19 3.089633 3.6893488e+19
2.3071198 -0 2.2605314
2 3.1397648 3.6893488e+19
2.5108685 2 2.2901111
-3.6893488e+19 3.0927887 0
2.3099737 -3.6893488e+19 2.2370994
-1.0842022e-19 3.1274743 3.6893488e+19
2.5026426 2 2.2594507
3.6893488e+19 3.0893083 0
2.3068264 -1.0842022e-19 2.1937971
-0 3.1322052 2
2.5058091 2 2.2319009
-0 3.0963049 -3.6893488e+19
2.313153 -1.0842022e-19 2.1638377
0 3.1430101 -2
2.5130405 -3.6893488e+19 2.2008297
-1.0842022e-19 3.0934703 0
2.31059 -0 2.1217074
-3.6893488e+19 3.1344893 2
2.5073378 1.0842022e-19 2.1473737
-3.6893488e+19 3.1577599 2
2.574404 -3.6893488e+19 2.1505146
1.0842022e-19 3.1867495 -2
2.5017145 -2 2.1504023
-1.0842022e-19 3.1583803 0
2.5748975 -2 2.104537
2 3.1353211 1.0842022e-19
2.4441493 -1.0842022e-19 2.059705
-2 3.1757286 -0
2.5886993 0 2.0710588
-2 3.1427691 0
2.4527345 -1.0842022e-19 2.0213401
0 3.1419525 0
2.5618279 -1.0842022e-19 2.000927
-3.6893488e+19 3.1847298 0
2.5005507 -2 2.0012584
-0 3.1389561 -1.0842022e-19
2.559444 -2 1.9547235
3.6893488e+19 3.1471698 -1.0842022e-19
2.4578068 -0 1.9347509
0 3.1403518 -0
2.5605543 0 1.9110252
-0 3.145539 -0
2.4559271 2 1.8893863
0 3.1382966 -1.0842022e-19
2.5589192 -0 1.8570051
1.0842022e-19 3.1815889 -3.6893488e+19
2.4974806 1.0842022e-19 1.8318858
3.6893488e+19 3.1390109 -0
2.5594876 1.0842022e-19 1.7689252
2 3.1364348 1.0842022e-19
2.4454329 -3.6893488e+19 1.6962532
3.6893488e+19 3.1321254 1.0842022e-19
2.3455446 -1.0842022e-19 1.590048
-3.6893488e+19 3.1459637 -1.0842022e-19
2.5150175 2 1.3063399
-3.6893488e+19 3.1351707 -2
2.3482983 2 -1.50415
-3.6893488e+19 3.1412101 1.0842022e-19
2.5118361 -1.0842022e-19 -1.654554
-2 3.1277332 0
2.341573 -0 -1.7329173
2 3.1471322 3.6893488e+19
2.5157995 3.6893488e+19 -1.793286
-1.0842022e-19 3.1331012 -0
2.346427 0 -1.8291416
-0 3.1483805 0
2.5166352 0 -1.8794677
-2 3.1370213 -1.0842022e-19
2.3499718 -3.6893488e+19 -1.8965708
2 3.1061835 -2
2.4767854 -0 -1.9463745
-2 3.0673485 -2
2.2869687 1.0842022e-19 -1.9415025
-0 3.0810227 3.6893488e+19
2.4431055 1.0842022e-19 -1.9699938
0 2.8805168 -3.6893488e+19
2.2546787 2 -1.8979999
-0 2.8341296 -3.6893488e+19
2.2658253 0 -1.8902124
0 2.7800279 3.6893488e+19
2.1955667 2 -1.8834786
-0 2.564765 2
1.9314106 2 -1.7825762
0 2.7159815 3.6893488e+19
2.1207235 -0 -1.8737162
-3.6893488e+19 2.5648682 -3.6893488e+19
1.93147 0 -1.8004434
3.6893488e+19 2.6448362 -3.6893488e+19
2.064122 -0 -1.8582981
-0 2.5656962 -1.0842022e-19
1.9319472 1.0842022e-19 -1.8187877
0 2.5901201 0
2.0205913 -3.6893488e+19 -1.8454208
-1.0842022e-19 2.5656447 -2
1.9319175 2 -1.8366516
1.0842022e-19 2.5516927 -3.6893488e+19
1.9900193 -2 -1.8377883
-0 2.535511 2
1.9145504 1.0842022e-19 -1.8326547
0 2.5195222 -3.6893488e+19
1.9644252 -0 -1.830549
-3.6893488e+19 2.5093415 -3.6893488e+19
1.8994679 2 -1.8283603
-1.0842022e-19 2.4791517 3.6893488e+19
1.9406008 -0 -1.8214629
0 2.4626977 1.0842022e-19
1.8833348 1.0842022e-19 -1.8195784
2 2.446563 0
1.8269068 -3.6893488e+19 -1.8183926
-3.6893488e+19 3.1056013 2
2.3140152 -1.0842022e-19 2.5812151
-3.6893488e+19 3.1170313 -2
2.4834034 -0 2.5889127
2 3.1170633 -0
2.4834454 -1.0842022e-19 2.5780489
-0 3.1264458 -0
2.3324218 -2 2.5784473
0 3.0975468 2
2.3069024 -1.0842022e-19 2.543041
2 3.1001163 1.0842022e-19
2.3091714 3.6893488e+19 2.5349681
3.6893488e+19 3.1131709 3.6893488e+19
2.4783189 1.0842022e-19 2.5424271
-1.0842022e-19 3.1006622 -2
2.3096535 -1.0842022e-19 2.525188
-3.6893488e+19 3.1851985 2
2.536592 -1.0842022e-19 2.5876565
-1.0842022e-19 3.188134 0
2.5385251 -2 2.577117
3.6893488e+19 3.0920141 -0
2.3020167 -0 2.4970694
-3.6893488e+19 3.1734436 0
2.528851 0 2.5537913
0 3.1353586 2
2.5523868 2 2.5223525
2 3.1907439 -1.0842022e-19
2.4986095 -3.6893488e+19 2.5523229
1.0842022e-19 3.1754432 -2
2.5838406 -2 2.5382431
2 3.1611416 3.6893488e+19
2.4651208 -1.0842022e-19 2.520118
1.0842022e-19 3.1313767 1.0842022e-19
2.5492623 -1.0842022e-19 2.4945297
-3.6893488e+19 3.1349432 -3.6893488e+19
2.5520608 2 2.4767466
-0 3.1169188 2
2.415092 0 2.4397957
2 3.1763432 1.0842022e-19
2.584547 -0 2.5016294
-2 3.119097 0
2.4175563 -3.6893488e+19 2.4211795
2 3.2194276 0
2.5155296 2 2.5043645
2 3.1547501 -1.0842022e-19
2.45789 -3.6893488e+19 2.4154484
-3.6893488e+19 3.1437283 -0
2.5589545 1.0842022e-19 2.3964188
-2 3.1590617 -1.0842022e-19
2.4627678 -2 2.3964851
3.6893488e+19 3.1654963 -2
2.3669055 -3.6893488e+19 2.3893585
-3.6893488e+19 3.132421 -0
2.5018363 0 2.3500433
-3.6893488e+19 3.0924282 -2
2.3023825 -3.6893488e+19 2.3014274
0 3.1920164 0
2.5410817 2 2.3793137
-3.6893488e+19 3.2371695 -3.6893488e+19
2.4301968 0 2.4011953
2 3.1917794 -1.0842022e-19
2.5409255 1.0842022e-19 2.3538773
-1.0842022e-19 3.1414945 1.0842022e-19
2.3457108 -1.0842022e-19 2.3002264
3.6893488e+19 3.1384296 -0
2.5057931 1.0842022e-19 2.2889917
-1.0842022e-19 3.1457365 3.6893488e+19
2.3494565 -2 2.2810864
-2 3.144608 0
2.3484602 1.0842022e-19 2.2579877
3.6893488e+19 3.1325252 -3.6893488e+19
2.5019047 -2 2.2320945
-1.0842022e-19 3.142096 1.0842022e-19
2.346242 -2 2.2184215
-0 3.190979 1.0842022e-19
2.5403986 1.0842022e-19 2.2528181
-1.0842022e-19 3.1417625 -1.0842022e-19
2.3459473 -0 2.1738458
-3.6893488e+19 3.1877699 -0
2.5382853 -3.6893488e+19 2.2022429
-3.6893488e+19 3.1603279 -1.0842022e-19
2.57198 1.0842022e-19 2.1528287
-2 3.1860785 1.0842022e-19
2.4933319 -1.0842022e-19 2.1496379
-2 3.1544576 0
2.5673738 3.6893488e+19 2.10095
-0 3.1882801 1.0842022e-19
2.4958224 1.0842022e-19 2.1021397
0 3.1772969 -2
2.5852952 1.0842022e-19 2.0720747
3.6893488e+19 3.2335248 -0
2.5235035 3.6893488e+19 2.0839128
0 3.2446833 -0
2.6381726 -0 2.0665312
-3.6893488e+19 3.2361617 -3.6893488e+19
2.5249951 2 2.0308793
1.0842022e-19 3.2460325 2
2.6392314 -1.0842022e-19 2.010947
1.0842022e-19 3.2151155 -1.0842022e-19
2.5130904 -3.6893488e+19 1.9662762
-1.0842022e-19 3.2346973 0
2.630337 2 1.9498405
2 3.146646 0
2.4487221 0 1.8897241
3.6893488e+19 3.2183371 -0
2.6174991 -2 1.889842
-0 3.1358371 1.0842022e-19
2.4364941 -1.0842022e-19 1.8098851
3.6893488e+19 3.2059054 1.0842022e-19
2.6077442 -2 1.7935873
2 3.134104 -0
2.4345334 -0 1.6949966
2 3.2042367 1.0842022e-19
2.4011154 1.0842022e-19 1.6277776
1.0842022e-19 3.176971 -0
2.5311737 3.6893488e+19 1.3204552
-2 3.1431994 2
2.5089343 0 -1.6552725
-3.6893488e+19 3.1279991 0
2.3337936 -1.0842022e-19 -1.733013
3.6893488e+19 3.146719 2
2.5112519 0 -1.7930379
1.0842022e-19 3.1800165 2
2.3797276 -0 -1.854074
-0 3.1494169 2
2.5130286 1.0842022e-19 -1.8797481
0 3.1344953 -2
2.3395298 -3.6893488e+19 -1.8955715
-0 3.0963228 -2
2.4561288 -2 -1.940855
-1.0842022e-19 3.0896037 0
2.2998884 1.0842022e-19 -1.9548723
1.0842022e-19 3.0795031 -0
2.4339762 1.0842022e-19 -1.9688886
3.6893488e+19 2.8822837 -3.6893488e+19
2.2517457 -0 -1.8986225
-2 2.8318524 0
2.2604012 1.0842022e-19 -1.8891848
3.6893488e+19 2.5657525 2
1.928604 2 -1.7651646
-2 2.7795603 -1.0842022e-19
2.1887362 2 -1.8831869
-3.6893488e+19 2.5664885 1.0842022e-19
1.9290204 -2 -1.7833798
-0 2.7156105 -3.6893488e+19
2.1153595 -1.0842022e-19 -1.8733897
-3.6893488e+19 2.5648625 -2
1.9281006 1.0842022e-19 -1.8003746
-0 2.6450405 0
2.0599842 -0 -1.8582981
-0 2.5642099 -3.6893488e+19
1.9277314 -2 -1.8178031
-1.0842022e-19 2.5909073 -1.0842022e-19
2.0175064 -2 -1.8458169
2 2.5652695 1.0842022e-19
1.9283308 1.0842022e-19 -1.8363209
1.0842022e-19 2.5520933 -1.0842022e-19
1.9870493 2 -1.8379607
2 2.5357411 -0
1.9116281 -3.6893488e+19 -1.8327442
-0 2.5199058 -3.6893488e+19
1.9617922 2 -1.8307352
-2 2.5093153 1.0842022e-19
1.8966806 1.0842022e-19 -1.8282638
-3.6893488e+19 2.4791555 -3.6893488e+19
1.9379941 3.6893488e+19 -1.8213629
0 2.4633632 1.0842022e-19
1.8810496 -0 -1.8197854
3.6893488e+19 2.4466937 2
1.8222272 -3.6893488e+19 -1.8183926
1.0842022e-19 2.4061074 -3.6893488e+19
1.8043072 -1.0842022e-19 -1.8123558
-3.6893488e+19 2.3489804 -3.6893488e+19
1.7790842 -1.0842022e-19 -1.8058714
-3.6893488e+19 2.3052719 2
1.7597858 1.0842022e-19 -1.8006625
-2 2.2744403 -1.0842022e-19
1.7423456 2 -1.7986665
1.0842022e-19 2.2330992 -3.6893488e+19
1.8145413 3.6893488e+19 -1.793925
-0 2.1884825 -0
1.7970363 3.6893488e+19 -1.7911822
1.0842022e-19 2.1594005 -1.0842022e-19
1.7856261 -0 -1.792228
-2 2.1217601 2
1.7708582 3.6893488e+19 -1.7878728
-3.6893488e+19 3.1056013 2
2.3140152 -1.0842022e-19 2.5812151
-3.6893488e+19 3.1170313 -2
2.4834034 -0 2.5889127
2 3.1170633 -0
2.4834454 -1.0842022e-19 2.5780489
-0 3.1264458 -0
2.3324218 -2 2.5784473
0 3.0975468 2
2.3069024 -1.0842022e-19 2.543041
2 3.1001163 1.0842022e-19
2.3091714 3.6893488e+19 2.5349681
3.6893488e+19 3.1131709 3.6893488e+19
2.4783189 1.0842022e-19 2.5424271
-1.0842022e-19 3.1006622 -2
2.3096535 -1.0842022e-19 2.525188
-3.6893488e+19 3.1851985 2
2.536592 -1.0842022e-19 2.5876565
3.6893488e+19 3.1714857 -3.6893488e+19
2.5275614 0 2.5646873
3.6893488e+19 3.0920141 -0
2.3020167 -0 2.4970694
-3.6893488e+19 3.1734436 0
2.528851 0 2.5537913
0 3.1353586 2
2.5523868 2 2.5223525
-1.0842022e-19 3.1657293 1.0842022e-19
2.4703109 2 2.5351646
0 3.135936 -2
2.5528398 3.6893488e+19 2.5114765
2 3.1611416 3.6893488e+19
2.4651208 -1.0842022e-19 2.520118
1.0842022e-19 3.1313767 1.0842022e-19
2.5492623 -1.0842022e-19 2.4945297
-3.6893488e+19 3.1349432 -3.6893488e+19
2.5520608 2 2.4767466
-0 3.1169188 2
2.415092 0 2.4397957
0 3.1398637 -2
2.5559218 1.0842022e-19 2.4601982
-2 3.119097 0
2.4175563 -3.6893488e+19 2.4211795
-2 3.1188993 2
2.4173326 0 2.3997846
2 3.1547501 -1.0842022e-19
2.45789 -3.6893488e+19 2.4154484
-3.6893488e+19 3.1437283 -0
2.5589545 1.0842022e-19 2.3964188
-2 3.1590617 -1.0842022e-19
2.4627678 -2 2.3964851
-0 3.1127687 2
2.3203442 2 2.3399479
-3.6893488e+19 3.132421 -0
2.5018363 0 2.3500433
-3.6893488e+19 3.0924282 -2
2.3023825 -3.6893488e+19 2.3014274
0 3.1920164 0
2.5410817 2 2.3793137
-1.0842022e-19 3.0895293 -0
2.2998226 0 2.2796102
-3.6893488e+19 3.1304696 3.6893488e+19
2.5005512 -3.6893488e+19 2.3047664
-1.0842022e-19 3.0904744 -3.6893488e+19
2.300657 -0 2.2611005
3.6893488e+19 3.1384296 -0
2.5057931 1.0842022e-19 2.2889917
-1.0842022e-19 3.0931675 -3.6893488e+19
2.3030353 1.0842022e-19 2.2374952
-0 3.0892837 -3.6893488e+19
2.2996056 -0 2.1936352
3.6893488e+19 3.1325252 -3.6893488e+19
2.5019047 -2 2.2320945
1.0842022e-19 3.0950124 -0
2.3046644 -3.6893488e+19 2.1621723
-3.6893488e+19 3.1368446 -3.6893488e+19
2.5047493 3.6893488e+19 2.1935647
1.0842022e-19 3.0959263 3.6893488e+19
2.3054714 -1.0842022e-19 2.1242557
-2 3.133641 1.0842022e-19
2.5026398 1.0842022e-19 2.1463246
-3.6893488e+19 3.1603279 -1.0842022e-19
2.57198 1.0842022e-19 2.1528287
-2 3.1860785 1.0842022e-19
2.4933319 -1.0842022e-19 2.1496379
-2 3.1544576 0
2.5673738 3.6893488e+19 2.10095
-2 3.1330237 1.0842022e-19
2.4333115 2 2.0577435
3.6893488e+19 3.1503093 -3.6893488e+19
2.5641184 -0 2.0517328
3.6893488e+19 3.2335248 -0
2.5235035 3.6893488e+19 2.0839128
-1.0842022e-19 3.1515317 1.0842022e-19
2.5650778 1.0842022e-19 2.0069268
-3.6893488e+19 3.2361617 -3.6893488e+19
2.5249951 2 2.0308793
0 3.141824 -0
2.5574601 0 1.9561263
2 3.1474421 -0
2.4496226 0 1.9348085
-0 3.1421478 3.6893488e+19
2.5577142 3.6893488e+19 1.9116824
2 3.146646 0
2.4487221 0 1.8897241
2 3.1383135 -3.6893488e+19
2.5547054 0 1.8568953
-0 3.1358371 1.0842022e-19
2.4364941 -1.0842022e-19 1.8098851
-1.0842022e-19 3.1370964 2
2.5537505 0 1.7681428
2 3.134104 -0
2.4345334 -0 1.6949966
3.6893488e+19 3.1343493 -1.0842022e-19
2.339401 -2 1.5912362
0 3.1421275 0
2.5082283 2 1.3045049
-2 3.1431994 2
2.5089343 0 -1.6552725
-3.6893488e+19 3.1279991 0
2.3337936 -1.0842022e-19 -1.733013
3.6893488e+19 3.146719 2
2.5112519 0 -1.7930379
-0 3.1290207 -0
2.3346956 0 -1.8269081
-0 3.1494169 2
2.5130286 1.0842022e-19 -1.8797481
0 3.1344953 -2
2.3395298 -3.6893488e+19 -1.8955715
-0 3.0963228 -2
2.4561288 -2 -1.940855
0 3.0668828 2
2.2798245 -2 -1.9411653
1.0842022e-19 3.0795031 -0
2.4339762 1.0842022e-19 -1.9688886
3.6893488e+19 2.8822837 -3.6893488e+19
2.2517457 -0 -1.8986225
-2 2.8318524 0
2.2604012 1.0842022e-19 -1.8891848
3.6893488e+19 2.5657525 2
1.928604 2 -1.7651646
-2 2.7795603 -1.0842022e-19
2.1887362 2 -1.8831869
-3.6893488e+19 2.5664885 1.0842022e-19
1.9290204 -2 -1.7833798
-0 2.7156105 -3.6893488e+19
2.1153595 -1.0842022e-19 -1.8733897
-3.6893488e+19 2.5648625 -2
1.9281006 1.0842022e-19 -1.8003746
-0 2.6450405 0
2.0599842 -0 -1.8582981
-0 2.5642099 -3.6893488e+19
1.9277314 -2 -1.8178031
-1.0842022e-19 2.5909073 -1.0842022e-19
2.0175064 -2 -1.8458169
2 2.5652695 1.0842022e-19
1.9283308 1.0842022e-19 -1.8363209
1.0842022e-19 2.5520933 -1.0842022e-19
1.9870493 2 -1.8379607
2 2.5357411 -0
1.9116281 -3.6893488e+19 -1.8327442
-0 2.5199058 -3.6893488e+19
1.9617922 2 -1.8307352
-2 2.5093153 1.0842022e-19
1.8966806 1.0842022e-19 -1.8282638
-3.6893488e+19 2.4791555 -3.6893488e+19
1.9379941 3.6893488e+19 -1.8213629
0 2.4633632 1.0842022e-19
1.8810496 -0 -1.8197854
3.6893488e+19 2.4466937 2
1.8222272 -3.6893488e+19 -1.8183926
1.0842022e-19 2.4061074 -3.6893488e+19
1.8043072 -1.0842022e-19 -1.8123558
-3.6893488e+19 2.3489804 -3.6893488e+19
1.7790842 -1.0842022e-19 -1.8058714
-3.6893488e+19 2.3052719 2
1.7597858 1.0842022e-19 -1.8006625
-2 2.2744403 -1.0842022e-19
1.7423456 2 -1.7986665
1.0842022e-19 2.2330992 -3.6893488e+19
1.8145413 3.6893488e+19 -1.793925
-0 2.1884825 -0
1.7970363 3.6893488e+19 -1.7911822
1.0842022e-19 2.1594005 -1.0842022e-19
1.7856261 -0 -1.792228
-2 2.1217601 2
1.7708582 3.6893488e+19 -1.7878728
-3.6893488e+19 3.100527 2
2.3020785 -3.6893488e+19 2.5763953
1.0842022e-19 3.0994167 2
2.3011215 -0 2.5650542
-2 3.11463 2
2.4723718 -0 2.5757346
1.0842022e-19 3.0968254 -1.0842022e-19
2.2988882 -2 2.5423489
3.6893488e+19 3.1928227 1.0842022e-19
2.5368345 1.0842022e-19 2.6194293
1.0842022e-19 3.0991812 -3.6893488e+19
2.3009183 -0 2.5341256
0 3.1975927 2
2.5399241 2 2.6102493
-1.0842022e-19 3.1016166 3.6893488e+19
2.3030174 3.6893488e+19 2.5258579
-1.0842022e-19 3.1855066 -2
2.5320954 -3.6893488e+19 2.5877504
0 3.1879277 1.0842022e-19
2.5336637 2 2.5768228
-0 3.0923567 -0
2.2950373 2 2.4974248
1.0842022e-19 3.1880541 -0
2.5337455 0 2.5641384
-0 3.1352534 1.0842022e-19
2.5481017 -1.0842022e-19 2.5221388
-1.0842022e-19 3.1913638 -3.6893488e+19
2.4898512 3.6893488e+19 2.5526369
-1.0842022e-19 3.1756003 -2
2.5793211 -2 2.538202
-0 3.1624844 -2
2.4577992 -3.6893488e+19 2.5209005
2 3.1367533 -2
2.549262 1.0842022e-19 2.5006225
-3.6893488e+19 3.1606174 -3.6893488e+19
2.4557271 2 2.5078237
-3.6893488e+19 3.137476 -0
2.5498214 -2 2.4796376
-2 3.1219528 -3.6893488e+19
2.4128149 -2 2.4456654
-3.6893488e+19 3.180114 1.0842022e-19
2.582814 -1.0842022e-19 2.5037251
0 3.1192024 -1.0842022e-19
2.4097621 1.0842022e-19 2.4211447
-2 3.1340342 1.0842022e-19
2.5471582 2 2.4308336
2 3.2196617 2
2.5106289 -2 2.5043976
2 3.13342 -0
2.5466828 0 2.4079754
3.6893488e+19 3.2156677 1.0842022e-19
2.5084126 -3.6893488e+19 2.4778004
3.6893488e+19 3.1379313 0
2.5501738 1.0842022e-19 2.3903823
-1.0842022e-19 3.1591508 -2
2.4540994 -3.6893488e+19 2.3964255
-0 3.1128726 0
2.3127177 2 2.3399479
-3.6893488e+19 3.1763582 3.6893488e+19
2.5261698 1.0842022e-19 2.3900931
0 3.2371352 -2
2.4198048 -2 2.4286847
-0 3.1827881 1.0842022e-19
2.5303347 2 2.3712354
-3.6893488e+19 3.2399364 -1.0842022e-19
2.422219 1.0842022e-19 2.4033582
0 3.1825752 3.6893488e+19
2.5301967 -3.6893488e+19 2.3463557
1.0842022e-19 3.139782 -1.0842022e-19
2.3359075 -1.0842022e-19 2.2988274
0 3.187747 1.0842022e-19
2.5335467 -1.0842022e-19 2.3255439
1.0842022e-19 3.1468713 -3.6893488e+19
2.3420169 -2 2.2818117
1.0842022e-19 3.190752 3.6893488e+19
2.5354931 2 2.3026819
-1.0842022e-19 3.1431727 -0
2.3388298 -0 2.2569757
-2 3.134104 2
2.4976001 0 2.2338769
-0 3.1425183 -1.0842022e-19
2.3382657 -2 2.2187915
-3.6893488e+19 3.1895373 -1.0842022e-19
2.5347064 1.0842022e-19 2.2518835
-1.0842022e-19 3.1420608 1.0842022e-19
2.3378716 2 2.174047
0 3.1882966 2
2.5339026 -1.0842022e-19 2.2025926
-1.0842022e-19 3.16308 3.6893488e+19
2.5696332 -0 2.1553228
-1.0842022e-19 3.1938415 -0
2.4926012 -3.6893488e+19 2.1566024
-0 3.1732006 -0
2.5774643 -3.6893488e+19 2.1170254
3.6893488e+19 3.1315572 0
2.4234746 -2 2.0564523
-2 3.1758912 -2
2.5795462 -0 2.0708508
3.6893488e+19 3.2335482 -1.0842022e-19
2.5183349 -1.0842022e-19 2.083806
1.0842022e-19 3.1783788 0
2.5814712 -2 2.0239649
-2 3.2360623 -0
2.5197301 -3.6893488e+19 2.0307183
-3.6893488e+19 3.1334174 -1.0842022e-19
2.425539 -1.0842022e-19 1.9282215
-1.0842022e-19 3.219027 -3.6893488e+19
2.6129239 -0 1.9432807
0 3.186527 -0
2.484483 -2 1.9037161
1.0842022e-19 3.218945 3.6893488e+19
2.6128604 3.6893488e+19 1.8899519
-0 3.185097 1.0842022e-19
2.4828961 -0 1.8334128
1.0842022e-19 3.2074888 -0
2.6039958 -3.6893488e+19 1.7940862
-2 3.1839242 0
2.4815946 0 1.7202077
2 3.2043669 -0
2.3915658 1.0842022e-19 1.6277776
0 3.1613908 0
2.5164747 -2 1.3132422
3.6893488e+19 3.1302674 -2
2.327708 -2 -1.502432
-3.6893488e+19 3.1841178 -2
2.5311959 1.0842022e-19 -1.6713574
-1.0842022e-19 3.1288531 -3.6893488e+19
2.3264892 2 -1.7334726
-1.0842022e-19 3.1446066 -2
2.5056028 0 -1.7920715
-3.6893488e+19 3.1805434 0
2.3710353 -1.0842022e-19 -1.8542891
1.0842022e-19 3.1535671 3.6893488e+19
2.5114069 2 -1.88104
-0 3.1342015 1.0842022e-19
2.3310986 -2 -1.8954186
-0 3.1082287 1.0842022e-19
2.3087156 -0 -1.9258085
-1.0842022e-19 3.0965638 0
2.4489675 1.0842022e-19 -1.940906
0 3.0897322 -0
2.2927754 1.0842022e-19 -1.954891
1.0842022e-19 3.080754 -1.0842022e-19
2.4284859 -3.6893488e+19 -1.9696254
3.6893488e+19 2.8788118 0
2.2407441 -3.6893488e+19 -1.8972095
2 2.8354542 0
2.259568 0 -1.8906235
-2 2.5651269 -1.0842022e-19
1.9248731 1.0842022e-19 -1.7648355
2 2.7787235 0
2.1813416 2 -1.8827202
0 2.5659873 3.6893488e+19
1.9253505 0 -1.7830708
-3.6893488e+19 2.7149916 1.0842022e-19
2.1098015 3.6893488e+19 -1.8729327
-2 2.5646079 -1.0842022e-19
1.9245851 3.6893488e+19 -1.8001683
2 2.6453652 -0
2.0559258 -1.0842022e-19 -1.8583703
-3.6893488e+19 2.5642021 -1.0842022e-19
1.9243599 -1.0842022e-19 -1.8177274
-3.6893488e+19 2.5903478 3.6893488e+19
2.0133545 3.6893488e+19 -1.8453417
0 2.5651388 3.6893488e+19
1.9248797 -3.6893488e+19 -1.8361554
-0 2.5510252 2
1.9829274 -0 -1.8370992
-1.0842022e-19 2.5359695 3.6893488e+19
1.9086928 -1.0842022e-19 -1.8328339
-2 2.5208993 -0
1.9596167 -1.0842022e-19 -1.8313868
-1.0842022e-19 2.5089178 -1.0842022e-19
1.893681 1.0842022e-19 -1.8278775
1.0842022e-19 2.4781799 0
1.9350032 -2 -1.8208627
3.6893488e+19 2.4632874 -2
1.8785458 2 -1.8196819
-0 2.4473159 2
1.8177447 3.6893488e+19 -1.8186066
-3.6893488e+19 3.100527 2
2.3020785 -3.6893488e+19 2.5763953
1.0842022e-19 3.0994167 2
2.3011215 -0 2.5650542
-2 3.11463 2
2.4723718 -0 2.5757346
1.0842022e-19 3.0968254 -1.0842022e-19
2.2988882 -2 2.5423489
3.6893488e+19 3.1928227 1.0842022e-19
2.5368345 1.0842022e-19 2.6194293
1.0842022e-19 3.0991812 -3.6893488e+19
2.3009183 -0 2.5341256
-2 3.1134477 0
2.4708402 -2 2.5425243
-1.0842022e-19 3.1016166 3.6893488e+19
2.3030174 3.6893488e+19 2.5258579
-1.0842022e-19 3.1752961 -1.0842022e-19
2.5254817 -3.6893488e+19 2.5798318
0 3.1879277 1.0842022e-19
2.5336637 2 2.5768228
-0 3.0923567 -0
2.2950373 2 2.4974248
1.0842022e-19 3.1880541 -0
2.5337455 0 2.5641384
-0 3.1352534 1.0842022e-19
2.5481017 -1.0842022e-19 2.5221388
-1.0842022e-19 3.1913638 -3.6893488e+19
2.4898512 3.6893488e+19 2.5526369
-2 3.1361637 -0
2.548806 3.6893488e+19 2.511497
-0 3.1624844 -2
2.4577992 -3.6893488e+19 2.5209005
2 3.1367533 -2
2.549262 1.0842022e-19 2.5006225
-3.6893488e+19 3.1606174 -3.6893488e+19
2.4557271 2 2.5078237
-3.6893488e+19 3.137476 -0
2.5498214 -2 2.4796376
-2 3.1219528 -3.6893488e+19
2.4128149 -2 2.4456654
1.0842022e-19 3.1399722 -0
2.5517528 3.6893488e+19 2.4600906
0 3.1192024 -1.0842022e-19
2.4097621 1.0842022e-19 2.4211447
-2 3.1340342 1.0842022e-19
2.5471582 2 2.4308336
-0 3.1175013 -0
2.4078743 2 2.3981228
2 3.13342 -0
2.5466828 0 2.4079754
0 3.1565573 1.0842022e-19
2.451221 -3.6893488e+19 2.4171498
3.6893488e+19 3.1379313 0
2.5501738 1.0842022e-19 2.3903823
-1.0842022e-19 3.1591508 -2
2.4540994 -3.6893488e+19 2.3964255
-0 3.1128726 0
2.3127177 2 2.3399479
2 3.1337194 0
2.4971018 3.6893488e+19 2.3510809
3.6893488e+19 3.0920014 3.6893488e+19
2.2947311 -3.6893488e+19 2.3009653
-0 3.1827881 1.0842022e-19
2.5303347 2 2.3712354
-2 3.0928102 -3.6893488e+19
2.295428 3.6893488e+19 2.2822311
-2 3.1324134 0
2.49541 -0 2.3061922
1.0842022e-19 3.0885925 3.6893488e+19
2.2917933 1.0842022e-19 2.259583
-3.6893488e+19 3.1357701 2
2.4997585 -2 2.2868898
0 3.0936065 -0
2.2961142 -3.6893488e+19 2.2379785
1.0842022e-19 3.190752 3.6893488e+19
2.5354931 2 2.3026819
-1.0842022e-19 3.1431727 -0
2.3388298 -0 2.2569757
-2 3.134104 2
2.4976001 0 2.2338769
1.0842022e-19 3.0964127 -3.6893488e+19
2.2985325 -3.6893488e+19 2.1637266
-3.6893488e+19 3.1895373 -1.0842022e-19
2.5347064 1.0842022e-19 2.2518835
3.6893488e+19 3.0964284 -3.6893488e+19
2.2985461 -3.6893488e+19 2.1246915
-1.0842022e-19 3.131897 -2
2.4947407 1.0842022e-19 2.1443536
0 3.1466954 1.0842022e-19
2.5569551 3.6893488e+19 2.1392457
-1.0842022e-19 3.1938415 -0
2.4926012 -3.6893488e+19 2.1566024
1.0842022e-19 3.1496708 0
2.5592575 -1.0842022e-19 2.0966189
3.6893488e+19 3.1315572 0
2.4234746 -2 2.0564523
2 3.1503611 2
2.5597916 2 2.0516174
3.6893488e+19 3.2335482 -1.0842022e-19
2.5183349 -1.0842022e-19 2.083806
0 3.1532702 -2
2.5620425 -3.6893488e+19 2.0079069
0 3.1338573 3.6893488e+19
2.4260271 -3.6893488e+19 1.9716913
-3.6893488e+19 3.1334174 -1.0842022e-19
2.425539 -1.0842022e-19 1.9282215
1.0842022e-19 3.1420419 -1.0842022e-19
2.5533543 1.0842022e-19 1.911556
-3.6893488e+19 3.1492057 -0
2.4430618 2 1.8905741
-2 3.1405675 0
2.5522137 -2 1.858122
2 3.1454809 -0
2.4389277 0 1.8144366
-3.6893488e+19 3.1372945 -1.0842022e-19
2.5496809 0 1.7681428
-2 3.1350501 -2
2.427351 -0 1.695405
1.0842022e-19 3.1343353 2
2.3312137 3.6893488e+19 1.5911664
1.0842022e-19 3.141216 -3.6893488e+19
2.5034065 -3.6893488e+19 1.3040107
3.6893488e+19 3.1302674 -2
2.327708 -2 -1.502432
3.6893488e+19 3.1435225 2
2.5049007 -2 -1.6553333
-1.0842022e-19 3.1288531 -3.6893488e+19
2.3264892 2 -1.7334726
-1.0842022e-19 3.1446066 -2
2.5056028 0 -1.7920715
-2 3.1296263 -2
2.3271556 -0 -1.8271728
1.0842022e-19 3.1535671 3.6893488e+19
2.5114069 2 -1.88104
-0 3.1342015 1.0842022e-19
2.3310986 -2 -1.8954186
-0 3.1082287 1.0842022e-19
2.3087156 -0 -1.9258085
-1.0842022e-19 3.0965638 0
2.4489675 1.0842022e-19 -1.940906
1.0842022e-19 3.0671599 3.6893488e+19
2.2733231 2 -1.9412777
1.0842022e-19 3.080754 -1.0842022e-19
2.4284859 -3.6893488e+19 -1.9696254
3.6893488e+19 2.8788118 0
2.2407441 -3.6893488e+19 -1.8972095
2 2.8354542 0
2.259568 0 -1.8906235
-2 2.5651269 -1.0842022e-19
1.9248731 1.0842022e-19 -1.7648355
2 2.7787235 0
2.1813416 2 -1.8827202
0 2.5659873 3.6893488e+19
1.9253505 0 -1.7830708
-3.6893488e+19 2.7149916 1.0842022e-19
2.1098015 3.6893488e+19 -1.8729327
-2 2.5646079 -1.0842022e-19
1.9245851 3.6893488e+19 -1.8001683
2 2.6453652 -0
2.0559258 -1.0842022e-19 -1.8583703
-3.6893488e+19 2.5642021 -1.0842022e-19
1.9243599 -1.0842022e-19 -1.8177274
-3.6893488e+19 2.5903478 3.6893488e+19
2.0133545 3.6893488e+19 -1.8453417
0 2.5651388 3.6893488e+19
1.9248797 -3.6893488e+19 -1.8361554
-0 2.5510252 2
1.9829274 -0 -1.8370992
-1.0842022e-19 2.5359695 3.6893488e+19
1.9086928 -1.0842022e-19 -1.8328339
-2 2.5208993 -0
1.9596167 -1.0842022e-19 -1.8313868
-1.0842022e-19 2.5089178 -1.0842022e-19
1.893681 1.0842022e-19 -1.8278775
1.0842022e-19 2.4781799 0
1.9350032 -2 -1.8208627
3.6893488e+19 2.4632874 -2
1.8785458 2 -1.8196819
-0 2.4473159 2
1.8177447 3.6893488e+19 -1.8186066
3.6893488e+19 3.1004431 2
2.2945833 -0 2.5762262
-1.0842022e-19 3.1950066 -1.0842022e-19
2.5334687 0 2.6605654
2 3.1001205 -2
2.294312 -1.0842022e-19 2.5656009
2 3.1946175 -2
2.5332208 3.6893488e+19 2.6470227
2 3.1927245 0
2.5320151 -3.6893488e+19 2.6322427
-1.0842022e-19 3.0944884 -0
2.2895777 -1.0842022e-19 2.5402982
-2 3.1929786 3.6893488e+19
2.532177 2 2.6194041
-1.0842022e-19 3.0990956 3.6893488e+19
2.2934506 0 2.533977
1.0842022e-19 3.196449 1.0842022e-19
2.5343876 0 2.6091778
1.0842022e-19 3.1024468 3.6893488e+19
2.2962675 -3.6893488e+19 2.526432
-3.6893488e+19 3.1729894 -3.6893488e+19
2.5194438 3.6893488e+19 2.5779052
3.6893488e+19 3.1906309 -1.0842022e-19
2.5306814 1.0842022e-19 2.578702
1.0842022e-19 3.0957859 -1.0842022e-19
2.2906682 -2 2.5011334
2 3.1898489 1.0842022e-19
2.5301833 3.6893488e+19 2.5652928
1.0842022e-19 3.1826906 -2
2.5801091 2 2.5554943
-2 3.1915531 -1.0842022e-19
2.480639 1.0842022e-19 2.5526578
-3.6893488e+19 3.1805987 3.6893488e+19
2.5785134 -3.6893488e+19 2.5414402
-3.6893488e+19 3.162755 -2
2.4492917 -1.0842022e-19 2.5209808
-1.0842022e-19 3.1388273 -1.0842022e-19
2.5466449 1.0842022e-19 2.5018399
3.6893488e+19 3.1622033 2
2.4486911 1.0842022e-19 2.5087264
2 3.137671 2
2.5457628 -2 2.4796376
-3.6893488e+19 3.1217496 -0
2.4046566 1.0842022e-19 2.445262
1.0842022e-19 3.1400468 -1.0842022e-19
2.5475752 3.6893488e+19 2.4599473
0 3.1649272 2
2.4516561 -3.6893488e+19 2.4731321
3.6893488e+19 3.1345315 2
2.5433676 -0 2.4311745
-2 3.1174493 -1.0842022e-19
2.3999755 -2 2.3979232
1.0842022e-19 3.1339781 2
2.5429454 3.6893488e+19 2.4083638
-0 3.2167261 -2
2.50402 2 2.4787142
3.6893488e+19 3.1359634 2
2.5444601 0 2.3882067
-0 3.1595132 -2
2.4457629 1.0842022e-19 2.3966341
1.0842022e-19 3.1312742 3.6893488e+19
2.4857426 -0 2.3486969
-2 3.2353861 -1.0842022e-19
2.4080167 -1.0842022e-19 2.4270267
0 3.1320868 -3.6893488e+19
2.4867775 -3.6893488e+19 2.3276069
1.0842022e-19 3.1404569 2
2.3282189 0 2.3213685
-1.0842022e-19 3.1388385 -1.0842022e-19
2.3268585 0 2.2980213
-2 3.1834133 0
2.5260839 1.0842022e-19 2.3221858
2 3.1458983 3.6893488e+19
2.332793 -0 2.2810426
1.0842022e-19 3.1858943 1.0842022e-19
2.5276642 1.0842022e-19 2.2992201
-0 3.1385119 0
2.3265841 -0 2.2538586
3.6893488e+19 3.1378655 -1.0842022e-19
2.4941399 1.0842022e-19 2.23841
3.6893488e+19 3.1405821 -2
2.3283241 -1.0842022e-19 2.2163491
0 3.1548438 -0
2.507885 0 2.2138085
0 3.141705 -2
2.329268 -3.6893488e+19 2.1735439
2 3.1344907 0
2.4898405 -2 2.1468649
-3.6893488e+19 3.1645746 3.6893488e+19
2.5662882 2 2.156585
0 3.1944959 3.6893488e+19
2.4838421 -2 2.1570554
2 3.1669457 1.0842022e-19
2.5680971 -0 2.111419
-3.6893488e+19 3.1924958 -2
2.4816651 2 2.1052682
2 3.1756148 -2
2.5747108 0 2.0704815
-0 3.1750975 3.6893488e+19
2.5743163 -2 2.0217297
-3.6893488e+19 3.1345212 1.0842022e-19
2.4185588 -1.0842022e-19 1.971995
-0 3.1602926 0
2.5630214 -3.6893488e+19 1.9656231
1.0842022e-19 3.1333079 -3.6893488e+19
2.4172378 -0 1.9281064
-3.6893488e+19 3.1431289 -0
2.5499268 -3.6893488e+19 1.9119225
-3.6893488e+19 3.1834643 -1.0842022e-19
2.4718342 -2 1.9025828
-0 3.1432807 2
2.5500426 -2 1.8596234
-3.6893488e+19 3.1685963 3.6893488e+19
2.4556501 2 1.8254368
0 3.1375816 0
2.5456946 3.6893488e+19 1.7681768
3.6893488e+19 3.1771445 -1.0842022e-19
2.4649549 2 1.7166891
1.0842022e-19 3.2055502 3.6893488e+19
2.3829365 2 1.6280746
2 3.173291 2
2.5196359 -3.6893488e+19 1.318606
-2 3.1805046 -1.0842022e-19
2.524231 -1.0842022e-19 -1.6698596
-1.0842022e-19 3.1379089 2
2.3260772 -1.0842022e-19 -1.7389867
-3.6893488e+19 3.1454206 3.6893488e+19
2.5018826 -2 -1.7923456
1.0842022e-19 3.1873136 -2
2.3676066 -1.0842022e-19 -1.8578296
-1.0842022e-19 3.15133 -3.6893488e+19
2.5056467 -1.0842022e-19 -1.8802588
3.6893488e+19 3.134495 3.6893488e+19
2.3232074 -1.0842022e-19 -1.8954892
-0 3.1239929 -3.6893488e+19
2.4764662 3.6893488e+19 -1.9136536
-1.0842022e-19 3.1309123 -3.6893488e+19
2.3201957 0 -1.9368891
-1.0842022e-19 3.1045129 1.0842022e-19
2.451649 -0 -1.9452027
-0 3.0898888 -0
2.2857113 2 -1.9549284
-1.0842022e-19 3.0818181 3.6893488e+19
2.4227357 3.6893488e+19 -1.9702394
-2 2.8795259 0
2.2335155 -3.6893488e+19 -1.8974251
-2 2.8336608 0
2.2545574 1.0842022e-19 -1.8898014
0 2.7767799 2
2.172323 -3.6893488e+19 -1.8817284
2 2.7132652 2
2.1034353 3.6893488e+19 -1.8718879
-1.0842022e-19 2.5657096 -3.6893488e+19
1.9218279 -1.0842022e-19 -1.8007184
3.6893488e+19 2.6455641 -1.0842022e-19
2.0517845 -1.0842022e-19 -1.8583703
0 2.5651798 -0
1.9215395 3.6893488e+19 -1.8182576
-0 2.5903966 0
2.0096962 0 -1.8452625
3.6893488e+19 2.5648818 2
1.9213774 2 -1.8359075
0 2.5504427 -2
1.9792143 3.6893488e+19 -1.8365823
3.6893488e+19 2.5364425 3.6893488e+19
1.905899 1.0842022e-19 -1.8331028
0 2.521158 -2
1.9568723 -2 -1.8314799
2 2.5088878 0
1.8909022 1.0842022e-19 -1.827781
3.6893488e+19 2.4808638 -0
1.9334308 0 -1.8218631
-1.0842022e-19 2.4629612 3.6893488e+19
1.8759855 -2 -1.8194748
-0 2.4469461 0
1.812852 -3.6893488e+19 -1.8183926
1.0842022e-19 2.407325 -3.6893488e+19
1.7961991 2 -1.8128114
1.0842022e-19 2.3499177 3.6893488e+19
1.7720708 1.0842022e-19 -1.8062546
-1.0842022e-19 2.3061829 1.0842022e-19
1.7536891 3.6893488e+19 -1.8010871
-0 2.2733674 -0
1.7297933 0 -1.7978898
2 2.229717 -3.6893488e+19
1.8079933 -1.0842022e-19 -1.7925723
3.6893488e+19 2.1884449 0
1.7922497 -2 -1.7909993
3.6893488e+19 2.1569266 0
1.7802267 0 -1.791049
-3.6893488e+19 2.1235781 3.6893488e+19
1.7675055 2 -1.7885033
-3.6893488e+19 3.0948718 -0
2.2899001 -2 2.5710399
-1.0842022e-19 3.1950066 -1.0842022e-19
2.5334687 0 2.6605654
2 3.1001205 -2
2.294312 -1.0842022e-19 2.5656009
-0 3.1152656 1.0842022e-19
2.4653478 -0 2.5761652
2 3.1927245 0
2.5320151 -3.6893488e+19 2.6322427
-1.0842022e-19 3.0944884 -0
2.2895777 -1.0842022e-19 2.5402982
-2 3.1929786 3.6893488e+19
2.532177 2 2.6194041
-1.0842022e-19 3.0990956 3.6893488e+19
2.2934506 0 2.533977
-2 3.1136611 -0
2.4633036 0 2.5425732
1.0842022e-19 3.1024468 3.6893488e+19
2.2962675 -3.6893488e+19 2.526432
-3.6893488e+19 3.1729894 -3.6893488e+19
2.5194438 3.6893488e+19 2.5779052
3.6893488e+19 3.1906309 -1.0842022e-19
2.5306814 1.0842022e-19 2.578702
1.0842022e-19 3.0957859 -1.0842022e-19
2.2906682 -2 2.5011334
2 3.1898489 1.0842022e-19
2.5301833 3.6893488e+19 2.5652928
0 3.1303964 -2
2.5402126 0 2.5185728
-2 3.1915531 -1.0842022e-19
2.480639 1.0842022e-19 2.5526578
2 3.1357222 1.0842022e-19
2.544276 1.0842022e-19 2.5110667
-3.6893488e+19 3.162755 -2
2.4492917 -1.0842022e-19 2.5209808
-1.0842022e-19 3.1388273 -1.0842022e-19
2.5466449 1.0842022e-19 2.5018399
3.6893488e+19 3.1622033 2
2.4486911 1.0842022e-19 2.5087264
2 3.137671 2
2.5457628 -2 2.4796376
-3.6893488e+19 3.1217496 -0
2.4046566 1.0842022e-19 2.445262
1.0842022e-19 3.1400468 -1.0842022e-19
2.5475752 3.6893488e+19 2.4599473
0 3.1195805 1.0842022e-19
2.4022954 2 2.4214244
3.6893488e+19 3.1345315 2
2.5433676 -0 2.4311745
-2 3.1174493 -1.0842022e-19
2.3999755 -2 2.3979232
1.0842022e-19 3.1339781 2
2.5429454 3.6893488e+19 2.4083638
1.0842022e-19 3.1573486 -1.0842022e-19
2.4434066 0 2.4178116
3.6893488e+19 3.1359634 2
2.5444601 0 2.3882067
-0 3.1595132 -2
2.4457629 1.0842022e-19 2.3966341
1.0842022e-19 3.1312742 3.6893488e+19
2.4857426 -0 2.3486969
2 3.0921586 -2
2.2876191 -3.6893488e+19 2.3010197
0 3.1320868 -3.6893488e+19
2.4867775 -3.6893488e+19 2.3276069
3.6893488e+19 3.0911744 0
2.286792 3.6893488e+19 2.2808061
-3.6893488e+19 3.0884082 -2
2.2844667 0 2.2593696
2 3.1350105 3.6893488e+19
2.4905026 1.0842022e-19 2.2862046
1.0842022e-19 3.0933616 -0
2.2886305 1.0842022e-19 2.2374952
-1.0842022e-19 3.133064 -3.6893488e+19
2.4880228 -1.0842022e-19 2.2629547
2 3.0935025 3.6893488e+19
2.288749 3.6893488e+19 2.1988978
3.6893488e+19 3.1378655 -1.0842022e-19
2.4941399 1.0842022e-19 2.23841
0 3.0953624 -1.0842022e-19
2.2903123 0 2.1623576
1.0842022e-19 3.1377892 -1.0842022e-19
2.4940426 -2 2.1942699
-3.6893488e+19 3.0954084 -1.0842022e-19
2.2903512 1.0842022e-19 2.1234846
2 3.1344907 0
2.4898405 -2 2.1468649
-3.6893488e+19 3.1478446 3.6893488e+19
2.5535245 -0 2.1401772
-0 3.1362519 3.6893488e+19
2.4204426 2 2.1037176
2 3.1669457 1.0842022e-19
2.5680971 -0 2.111419
-1.0842022e-19 3.1352201 3.6893488e+19
2.4193194 1.0842022e-19 2.059283
3.6893488e+19 3.1498878 2
2.5550833 -1.0842022e-19 2.0511093
2 3.1504364 -1.0842022e-19
2.5555017 -0 2.0059659
-3.6893488e+19 3.1345212 1.0842022e-19
2.4185588 -1.0842022e-19 1.971995
-1.0842022e-19 3.1412399 -1.0842022e-19
2.5484855 -3.6893488e+19 1.9556103
1.0842022e-19 3.1333079 -3.6893488e+19
2.4172378 -0 1.9281064
-3.6893488e+19 3.1431289 -0
2.5499268 -3.6893488e+19 1.9119225
1.0842022e-19 3.1332517 0
2.4171767 -1.0842022e-19 1.8849075
-0 3.1432807 2
2.5500426 -2 1.8596234
-0 3.1330218 1.0842022e-19
2.4169266 2 1.8084027
0 3.1375816 0
2.5456946 3.6893488e+19 1.7681768
-2 3.1361485 2
2.42033 2 1.695892
3.6893488e+19 3.1361206 -1.0842022e-19
2.3245738 3.6893488e+19 1.59211
2 3.1413805 0
2.4986181 -3.6893488e+19 1.3040107
-1.0842022e-19 3.1436262 1.0842022e-19
2.5007396 -0 -1.655309
-1.0842022e-19 3.1379089 2
2.3260772 -1.0842022e-19 -1.7389867
-3.6893488e+19 3.1454206 3.6893488e+19
2.5018826 -2 -1.7923456
1.0842022e-19 3.136724 0
2.3250811 1.0842022e-19 -1.8308953
-1.0842022e-19 3.15133 -3.6893488e+19
2.5056467 -1.0842022e-19 -1.8802588
3.6893488e+19 3.134495 3.6893488e+19
2.3232074 -1.0842022e-19 -1.8954892
-0 3.1239929 -3.6893488e+19
2.4764662 3.6893488e+19 -1.9136536
-1.0842022e-19 3.1309123 -3.6893488e+19
2.3201957 0 -1.9368891
-1.0842022e-19 3.1045129 1.0842022e-19
2.451649 -0 -1.9452027
-0 3.0673103 -1.0842022e-19
2.2667317 -0 -1.9413152
-1.0842022e-19 3.0818181 3.6893488e+19
2.4227357 3.6893488e+19 -1.9702394
-2 2.8795259 0
2.2335155 -3.6893488e+19 -1.8974251
-2 2.8336608 0
2.2545574 1.0842022e-19 -1.8898014
0 2.7767799 2
2.172323 -3.6893488e+19 -1.8817284
2 2.7132652 2
2.1034353 3.6893488e+19 -1.8718879
-1.0842022e-19 2.5657096 -3.6893488e+19
1.9218279 -1.0842022e-19 -1.8007184
3.6893488e+19 2.6455641 -1.0842022e-19
2.0517845 -1.0842022e-19 -1.8583703
0 2.5651798 -0
1.9215395 3.6893488e+19 -1.8182576
-0 2.5903966 0
2.0096962 0 -1.8452625
3.6893488e+19 2.5648818 2
1.9213774 2 -1.8359075
0 2.5504427 -2
1.9792143 3.6893488e+19 -1.8365823
3.6893488e+19 2.5364425 3.6893488e+19
1.905899 1.0842022e-19 -1.8331028
0 2.521158 -2
1.9568723 -2 -1.8314799
2 2.5088878 0
1.8909022 1.0842022e-19 -1.827781
3.6893488e+19 2.4808638 -0
1.9334308 0 -1.8218631
-1.0842022e-19 2.4629612 3.6893488e+19
1.8759855 -2 -1.8194748
-0 2.4469461 0
1.812852 -3.6893488e+19 -1.8183926
1.0842022e-19 2.407325 -3.6893488e+19
1.7961991 2 -1.8128114
1.0842022e-19 2.3499177 3.6893488e+19
1.7720708 1.0842022e-19 -1.8062546
-1.0842022e-19 2.3061829 1.0842022e-19
1.7536891 3.6893488e+19 -1.8010871
-0 2.2733674 -0
1.7297933 0 -1.7978898
2 2.229717 -3.6893488e+19
1.8079933 -1.0842022e-19 -1.7925723
3.6893488e+19 2.1884449 0
1.7922497 -2 -1.7909993
3.6893488e+19 2.1569266 0
1.7802267 0 -1.791049
-3.6893488e+19 2.1235781 3.6893488e+19
1.7675055 2 -1.7885033
3.6893488e+19 3.0960863 -2
2.2835906 1.0842022e-19 2.572083
2 3.1922407 3.6893488e+19
2.5269578 -3.6893488e+19 2.6578445
-0 3.1945903 3.6893488e+19
2.5284293 2 2.6468344
-1.0842022e-19 3.136483 -0
2.3166926 0 2.5869229
-0 3.195142 -0
2.5287747 2 2.6341712
-2 3.1410739 3.6893488e+19
2.3204546 -0 2.5794661
3.6893488e+19 3.1924059 -0
2.5270612 2 2.6187739
-1.0842022e-19 3.0979412 0
2.2851107 -1.0842022e-19 2.5329609
-2 3.1963611 -2
2.5295382 -1.0842022e-19 2.6089585
-3.6893488e+19 3.1025424 2
2.2888811 -3.6893488e+19 2.526432
3.6893488e+19 3.1688585 -3.6893488e+19
2.5123143 -0 2.5745685
-1.0842022e-19 3.1923313 -1.0842022e-19
2.5270145 3.6893488e+19 2.579834
-2 3.0964303 -0
2.2838726 -1.0842022e-19 2.5015333
2 3.1942871 -1.0842022e-19
2.5282393 -1.0842022e-19 2.5683424
1.0842022e-19 3.1823304 -0
2.5751421 -0 2.5550885
2 3.1816912 2
2.5746615 -3.6893488e+19 2.5420346
0 3.1649799 -1.0842022e-19
2.4428596 3.6893488e+19 2.5223453
3.6893488e+19 3.1361389 1.0842022e-19
2.5404031 -3.6893488e+19 2.499949
-0 3.1627467 -3.6893488e+19
2.4404764 2 2.508976
0 3.1395638 2
2.5429788 1.0842022e-19 2.4817405
1.0842022e-19 3.1225858 -1.0842022e-19
2.3976173 2 2.4461057
-2 3.1404226 -2
2.5436246 -3.6893488e+19 2.4601622
3.6893488e+19 3.165411 -0
2.4433198 -3.6893488e+19 2.4735167
-2 3.1350265 2
2.5395665 -2 2.4315155
3.6893488e+19 3.1177633 0
2.3924711 2 2.3981228
-0 3.1334682 -0
2.5383945 -0 2.4076192
3.6893488e+19 3.2176898 1.0842022e-19
2.4991109 0 2.4795334
-0 3.1361854 -3.6893488e+19
2.5404379 -0 2.3882372
-3.6893488e+19 3.1603651 1.0842022e-19
2.4379351 -2 2.3973188
-3.6893488e+19 3.2341788 -3.6893488e+19
2.3967466 2 2.453341
3.6893488e+19 3.1943545 -3.6893488e+19
2.5282815 -1.0842022e-19 2.4062195
-2 3.2374032 -1.0842022e-19
2.3993888 -2 2.4286847
3.6893488e+19 3.1346395 -3.6893488e+19
2.4817688 -0 2.3296595
-3.6893488e+19 3.2407627 2
2.4021418 2 2.4038162
1.0842022e-19 3.1359894 1.0842022e-19
2.4834597 -1.0842022e-19 2.3087976
3.6893488e+19 3.1380777 3.6893488e+19
2.3179994 2 2.2973573
1.0842022e-19 3.1833775 1.0842022e-19
2.5214071 3.6893488e+19 2.3220258
-2 3.1469967 -0
2.3253078 1.0842022e-19 2.2817459
0 3.1857054 -3.6893488e+19
2.5228648 -2 2.2989666
-1.0842022e-19 3.1366963 -3.6893488e+19
2.3168674 0 2.2526038
2 3.1377182 3.6893488e+19
2.485625 0 2.2380226
2 3.1373711 -0
2.3174202 -2 2.2123895
1.0842022e-19 3.1370566 -0
2.4847963 0 2.1932473
3.6893488e+19 3.0941377 -1.0842022e-19
2.2819939 2 2.1220093
3.6893488e+19 3.1336946 0
2.4805856 3.6893488e+19 2.1458795
0 3.164382 -3.6893488e+19
2.5616436 -1.0842022e-19 2.1561942
1.0842022e-19 3.1948693 2
2.4747572 0 2.1572537
2 3.1660485 0
2.5628972 -0 2.1104624
-0 3.1925902 -0
2.4723251 0 2.1052186
-2 3.146558 -0
2.548239 -1.0842022e-19 2.048454
-2 3.1764438 3.6893488e+19
2.5707152 -0 2.0224552
-3.6893488e+19 3.1331711 1.0842022e-19
2.4089141 0 1.9711375
-0 3.1745856 -1.0842022e-19
2.5693176 2 1.973024
2 3.1325762 0
2.4082792 -0 1.9277037
-3.6893488e+19 3.1769733 -3.6893488e+19
2.5711133 -3.6893488e+19 1.9257752
-1.0842022e-19 3.1779501 1.0842022e-19
2.4567015 2 1.9005886
-0 3.177284 -0
2.571347 2 1.8773913
1.0842022e-19 3.1766112 3.6893488e+19
2.4552724 -0 1.8292024
-1.0842022e-19 3.1784337 0
2.5722117 -0 1.7831895
0 3.1771715 1.0842022e-19
2.4558704 1.0842022e-19 1.7166263
-0 3.1366296 3.6893488e+19
2.3168128 0 1.5923373
2 3.1733117 1.0842022e-19
2.5151033 -3.6893488e+19 1.3185354
-1.0842022e-19 3.1372848 2
2.3173497 -1.0842022e-19 -1.5047122
-3.6893488e+19 3.1756194 1.0842022e-19
2.5165486 2 -1.6678628
-1.0842022e-19 3.1358073 1.0842022e-19
2.316139 1.0842022e-19 -1.7376274
3.6893488e+19 3.1465104 -2
2.4966373 2 -1.7927375
1.0842022e-19 3.1381657 -0
2.3180714 -3.6893488e+19 -1.8316066
-3.6893488e+19 3.1519589 -1.0842022e-19
2.5017309 -1.0842022e-19 -1.880409
3.6893488e+19 3.1286013 -2
2.3102341 3.6893488e+19 -1.8932202
-3.6893488e+19 3.1259067 0
2.4708312 2 -1.9144231
3.6893488e+19 3.131917 -0
2.3129511 -1.0842022e-19 -1.937331
-2 3.1048756 -2
2.444489 -2 -1.9453216
3.6893488e+19 3.0940819 -2
