# .PCD v0.7 - Point Cloud Data file format
VERSION 0.7
FIELDS x y z
SIZE 4 4 4
TYPE F F F
COUNT 1 1 1
WIDTH 1713
HEIGHT 1
VIEWPOINT 0 0 0 1 0 0 0
POINTS 1713
DATA ascii
-1.0842022e-19 3.1626914 1.0842022e-19
-1.5279884 0 2.6078994
-3.6893488e+19 3.2032602 1.0842022e-19
2.1153564 -1.0842022e-19 2.6369596
-2 3.1640697 2
-1.5284994 -3.6893488e+19 2.5970249
3.6893488e+19 3.1749561 -3.6893488e+19
-1.532535 1.0842022e-19 2.5937955
0 3.2011042 1.0842022e-19
2.1136184 1.0842022e-19 2.6088612
0 3.1845932 -0
-1.5361075 3.6893488e+19 2.5889966
-1.0842022e-19 3.1816087 0
2.097904 -2 2.5808423
1.0842022e-19 3.1818871 3.6893488e+19
-1.5351044 -1.0842022e-19 2.5744004
-1.0842022e-19 3.1832483 1.0842022e-19
2.0992255 0 2.5695777
1.0842022e-19 3.1806583 1.0842022e-19
-1.5346489 -1.0842022e-19 2.5610626
-2 3.3395824 0
2.273725 -1.0842022e-19 2.7313912
-2 3.2105641 -0
2.2986536 3.6893488e+19 2.5704637
3.6893488e+19 3.1285291 1.0842022e-19
1.9174864 -3.6893488e+19 2.5071878
-1.0842022e-19 3.2155957 3.6893488e+19
2.3019164 1.0842022e-19 2.5605624
-1.0842022e-19 3.1297696 -2
1.9180353 -1.0842022e-19 2.4942868
3.6893488e+19 3.1285858 -3.6893488e+19
1.9175115 1.0842022e-19 2.4710925
0 3.1800148 0
2.2788439 -0 2.5121598
1.0842022e-19 3.1297596 1.0842022e-19
1.9180309 -2 2.4508748
-2 3.1847136 1.0842022e-19
2.2818909 3.6893488e+19 2.5025966
3.6893488e+19 3.1342568 -3.6893488e+19
1.9200207 -3.6893488e+19 2.434325
-3.6893488e+19 3.1328609 0
1.9194032 1.0842022e-19 2.4109848
-0 3.1294916 -2
2.2421639 1.0842022e-19 2.3977461
2 3.1351621 -2
1.9204212 0 2.391598
0 3.1819472 -1.0842022e-19
2.2800968 -3.6893488e+19 2.428164
3.6893488e+19 3.131989 3.6893488e+19
1.9190173 -0 2.3667376
-0 3.1157775 3.6893488e+19
-1.510597 1.0842022e-19 2.3406997
3.6893488e+19 3.3015742 3.6893488e+19
2.2361758 -0 2.5227201
2 3.1165626 -2
-1.510888 0 2.3207254
1.0842022e-19 3.1172996 3.6893488e+19
-1.5111612 2 2.3006546
1.0842022e-19 3.2084649 -3.6893488e+19
2.1195514 0 2.3628244
-3.6893488e+19 3.1192012 -0
-1.5118662 2 2.2814224
2 3.1314428 1.0842022e-19
2.057467 1.0842022e-19 2.2803791
-1.0842022e-19 3.1190951 3.6893488e+19
-1.5118269 2 2.260582
-3.6893488e+19 3.1309621 -0
2.0570796 3.6893488e+19 2.2585852
-2 3.1199672 -1.0842022e-19
-1.5121502 -1.0842022e-19 2.2308376
2 3.1385527 -1.0842022e-19
2.0631979 0 2.2337995
-3.6893488e+19 3.1428943 -1.0842022e-19
2.0666976 1.0842022e-19 2.1950812
0 3.1234684 -2
-1.513448 0 2.1516159
-1.0842022e-19 3.1433899 1.0842022e-19
2.0670972 0 2.1515064
-2 3.1258655 -0
2.2374613 -0 2.113282
2 3.1867559 2
1.9432498 1.0842022e-19 2.1464672
-1.0842022e-19 3.1278181 0
2.2399938 1.0842022e-19 2.0727582
2 3.122335 -0
1.9147457 -1.0842022e-19 2.0463216
1.0842022e-19 3.113512 0
2.2214401 3.6893488e+19 2.0197539
-2 3.1879637 -3.6893488e+19
1.9437842 2 2.0495844
-1.0842022e-19 3.1115038 -2
2.2188356 -0 1.9777323
-2 3.1045127 -0
1.90686 -0 1.9528791
2 3.1110959 2
2.2183065 -1.0842022e-19 1.9370196
1.0842022e-19 3.0960369 -0
1.9031097 0 1.9093812
1.0842022e-19 3.112663 -1.0842022e-19
2.2203388 0 1.8972104
0 3.0990961 0
1.9044633 -2 1.8686181
-1.0842022e-19 3.1130917 0
2.2208951 -0 1.8384755
-1.0842022e-19 3.0935807 3.6893488e+19
1.902023 -3.6893488e+19 1.7880772
3.6893488e+19 3.1114786 0
2.2188029 0 1.7565998
3.6893488e+19 3.0950449 -1.0842022e-19
1.9026707 -3.6893488e+19 1.6735083
3.6893488e+19 3.0799954 1.0842022e-19
-1.4946645 0 1.5595366
2 3.1032705 2
2.0347583 -1.0842022e-19 1.2847716
-0 3.0811536 -3.6893488e+19
-1.4955232 -2 -1.4706712
-3.6893488e+19 3.0982704 0
2.0307281 1.0842022e-19 -1.6358756
-0 3.0791709 -2
-1.4940532 2 -1.7016894
1.0842022e-19 3.0980601 3.6893488e+19
2.0305583 1.0842022e-19 -1.7706537
3.6893488e+19 3.0794535 -1.0842022e-19
-1.4942627 -0 -1.7994443
-1.0842022e-19 3.0974894 1.0842022e-19
2.0300984 -1.0842022e-19 -1.8480433
-2 3.078064 2
-1.4932326 1.0842022e-19 -1.8719144
3.6893488e+19 3.0920038 1.0842022e-19
2.0256767 1.0842022e-19 -1.8979808
0 3.0784397 1.0842022e-19
-1.4935111 0 -1.9102625
1.0842022e-19 3.0850065 -2
2.0200362 -2 -1.9323975
1.0842022e-19 3.0790489 -3.6893488e+19
-1.4939626 -0 -1.9473072
-3.6893488e+19 3.0587552 -3.6893488e+19
1.9988762 2 -1.9526383
-1.0842022e-19 3.0802972 -2
-1.4948883 0 -1.984955
-2 3.0398924 -1.0842022e-19
1.9836717 -3.6893488e+19 -1.9726943
-0 3.046509 2
2.1345437 1.0842022e-19 -1.9948708
-3.6893488e+19 3.0196149 0
1.8635913 -0 -1.9871004
2 2.8777564 0
1.7921445 -3.6893488e+19 -1.9372492
2 2.82393 -0
1.960053 2 -1.9201313
1.0842022e-19 2.7841542 -2
1.7507286 -3.6893488e+19 -1.9067711
-0 2.743335 -1.0842022e-19
1.9099519 -1.0842022e-19 -1.893418
-3.6893488e+19 2.7045166 0
1.7011085 1.0842022e-19 -1.8881277
-1.0842022e-19 2.6628406 -2
1.8838536 -0 -1.8816347
-1.0842022e-19 2.6534591 -0
1.6785171 -1.0842022e-19 -1.8839357
3.6893488e+19 2.6051307 -3.6893488e+19
1.855285 3.6893488e+19 -1.8714727
2 2.5642195 -3.6893488e+19
1.8287561 3.6893488e+19 -1.8608042
-3.6893488e+19 2.5247095 -2
1.8031359 1.0842022e-19 -1.846671
0 2.503536 0
-1.1879761 -1.0842022e-19 -1.8432086
-0 2.4841528 -3.6893488e+19
1.6951288 3.6893488e+19 -1.840448
3.6893488e+19 2.4599853 2
-1.1705207 2 -1.8359319
2 3.1686757 -0
-1.6479737 3.6893488e+19 2.6376157
3.6893488e+19 3.2059753 -2
2.0983391 -3.6893488e+19 2.6659231
-0 3.2027559 2
2.0958798 -3.6893488e+19 2.6497138
3.6893488e+19 3.1646109 2
-1.6465371 -1.0842022e-19 2.6095679
3.6893488e+19 3.2017312 -2
2.0950968 0 2.6356046
2 3.1640346 -2
-1.6463333 3.6893488e+19 2.5969994
-0 3.1746144 0
-1.6500727 -3.6893488e+19 2.5935228
0 3.1859686 -2
-1.6540855 1.0842022e-19 2.5900733
-3.6893488e+19 3.1816642 3.6893488e+19
2.079767 -2 2.5808423
1.0842022e-19 3.1845322 2
2.0819578 -0 2.5704832
-2 3.3396416 3.6893488e+19
2.2594669 0 2.7314131
-0 3.1296024 3.6893488e+19
1.9019998 -3.6893488e+19 2.5078993
3.6893488e+19 3.2173529 3.6893488e+19
2.2931745 1.0842022e-19 2.5616691
-1.0842022e-19 3.1302276 2
1.9022502 1.0842022e-19 2.4948487
-3.6893488e+19 3.128581 -3.6893488e+19
1.9015908 1.0842022e-19 2.4710541
-1.0842022e-19 3.1786263 1.0842022e-19
2.2688811 -3.6893488e+19 2.5112586
-2 3.1697111 -2
1.9180601 -0 2.4982736
3.6893488e+19 3.3086059 0
2.3871825 -3.6893488e+19 2.6085646
2 3.1711559 3.6893488e+19
1.9186386 2 2.4759991
-3.6893488e+19 3.1317728 -2
1.9028689 -3.6893488e+19 2.4097881
1.0842022e-19 3.1844664 -2
2.2725444 3.6893488e+19 2.4552698
2 3.1832435 3.6893488e+19
2.2717774 3.6893488e+19 2.4293592
-1.0842022e-19 3.1267734 -2
1.900867 1.0842022e-19 2.3617053
0 3.3568962 0
-1.7511388 0 2.5824308
1.0842022e-19 3.1174905 2
-1.6298832 1.0842022e-19 2.3215408
-1.0842022e-19 3.2050617 -0
2.0976412 -0 2.3857605
-2 3.3124886 -3.6893488e+19
-1.7208874 -3.6893488e+19 2.5057917
-1.0842022e-19 3.2067842 0
2.0989573 -1.0842022e-19 2.3614478
0 3.1163664 3.6893488e+19
-1.6294858 -0 2.2792645
0 3.2028916 -1.0842022e-19
2.0959833 -3.6893488e+19 2.3328543
-2 3.1194334 0
-1.6305699 2 2.2608237
-1.0842022e-19 3.1971984 -3.6893488e+19
2.091634 2 2.3035052
1.0842022e-19 3.1199322 2
-1.6307461 -3.6893488e+19 2.2307971
2 3.1967049 2
2.0912571 -1.0842022e-19 2.2780674
-0 3.1186678 1.0842022e-19
-1.6302993 2 2.1877806
-1.0842022e-19 3.2814755 3.6893488e+19
2.1800628 -1.0842022e-19 2.3188219
-2 3.3586228 -1.0842022e-19
-1.751749 -3.6893488e+19 2.3856556
-3.6893488e+19 3.2823551 0
2.1814067 -3.6893488e+19 2.2881434
1.0842022e-19 3.1142204 -2
2.2069571 -3.6893488e+19 2.1019528
-0 3.1863494 -2
1.9247223 -2 2.1460707
3.6893488e+19 3.1973667 2
2.280637 2 2.1320913
-3.6893488e+19 3.1847951 3.6893488e+19
1.9241 2 2.0960066
-3.6893488e+19 3.1140237 -1.0842022e-19
2.2067106 1.0842022e-19 2.0200772
-1.0842022e-19 3.1880877 -2
1.9254184 -2 2.0496483
-2 3.2425451 -1.0842022e-19
2.3089778 2 2.0602179
1.0842022e-19 3.2026002 3.6893488e+19
1.9312295 -1.0842022e-19 2.0089941
3.6893488e+19 3.2732685 -1.0842022e-19
2.3428473 -2 2.0330043
-0 3.094718 0
1.8880315 2 1.9087627
0 3.2917142 1.0842022e-19
2.3659897 -1.0842022e-19 1.9867727
0 3.1861036 -1.0842022e-19
1.9246238 -1.0842022e-19 1.9021578
3.6893488e+19 3.1128252 1.0842022e-19
2.2052069 0 1.8382741
-0 3.0938857 3.6893488e+19
1.8876982 1.0842022e-19 1.7882107
1.0842022e-19 3.2363195 -3.6893488e+19
2.3050723 3.6893488e+19 1.8020122
3.6893488e+19 3.0960059 1.0842022e-19
1.8885472 -3.6893488e+19 1.6739795
3.6893488e+19 3.081023 2
-1.6089888 -0 1.5601132
2 3.102879 -1.0842022e-19
2.0195794 -3.6893488e+19 1.2845739
1.0842022e-19 3.0998449 -1.0842022e-19
2.0172615 1.0842022e-19 -1.6364722
-0 3.0827608 1.0842022e-19
-1.6102172 -2 -1.7038912
3.6893488e+19 3.096638 0
2.0148118 1.0842022e-19 -1.7700399
3.6893488e+19 3.0802934 2
-1.6084731 -1.0842022e-19 -1.799891
1.0842022e-19 3.0843644 -2
2.0054352 0 -1.8395911
-3.6893488e+19 3.1088951 0
-1.6268454 -0 -1.885061
2 3.084528 0
2.0055604 0 -1.8947275
1.0842022e-19 3.1110141 0
-1.6275942 1.0842022e-19 -1.9261591
-0 3.0855546 -1.0842022e-19
2.0063446 0 -1.9701985
-0 3.0786078 3.6893488e+19
-1.6072816 3.6893488e+19 -1.9837557
-2 3.0822392 -0
2.0038118 1.0842022e-19 -2.005192
-3.6893488e+19 3.0844669 -2
2.1696281 -2 -2.0261602
-0 3.0190098 -3.6893488e+19
1.840433 -2 -1.9865518
0 2.8259254 -2
1.9544557 2 -1.9211434
-2 2.7803714 3.6893488e+19
1.7245319 -2 -1.9046735
2 2.7440598 -1.0842022e-19
1.904964 -2 -1.8935986
3.6893488e+19 2.70243 -2
1.6811613 -0 -1.887484
1.0842022e-19 2.6656601 2
1.8803736 0 -1.882506
-2 2.653487 -1.0842022e-19
1.6615636 -1.0842022e-19 -1.8839357
-1.0842022e-19 2.6045842 -1.0842022e-19
1.8474338 1.0842022e-19 -1.871042
3.6893488e+19 2.5646574 -1.0842022e-19
1.8223873 0 -1.8610835
1.0842022e-19 2.5246432 -0
1.797286 1.0842022e-19 -1.846571
1.0842022e-19 2.5035331 -2
-1.3042138 -1.0842022e-19 -1.8432086
1.0842022e-19 2.485208 2
1.6853356 -2 -1.8408897
-3.6893488e+19 2.45998 -0
-1.287572 2 -1.8359319
0 2.3815925 -3.6893488e+19
-1.2598672 -0 -1.8215827
1.0842022e-19 2.3373139 -2
-1.2384355 -3.6893488e+19 -1.8179314
-0 2.2995644 -3.6893488e+19
-1.2117517 0 -1.8134235
1.0842022e-19 2.2662802 2
1.6670399 0 -1.8082981
0 2.2346783 3.6893488e+19
1.6520214 -3.6893488e+19 -1.8058076
-3.6893488e+19 2.1884093 -1.0842022e-19
1.637509 1.0842022e-19 -1.8012674
-3.6893488e+19 2.1603382 0
1.6287044 2 -1.8019534
2 3.1686757 -0
-1.6479737 3.6893488e+19 2.6376157
3.6893488e+19 3.2059753 -2
2.0983391 -3.6893488e+19 2.6659231
-0 3.2027559 2
2.0958798 -3.6893488e+19 2.6497138
3.6893488e+19 3.1646109 2
-1.6465371 -1.0842022e-19 2.6095679
3.6893488e+19 3.2017312 -2
2.0950968 0 2.6356046
2 3.1640346 -2
-1.6463333 3.6893488e+19 2.5969994
-0 3.1746144 0
-1.6500727 -3.6893488e+19 2.5935228
0 3.1859686 -2
-1.6540855 1.0842022e-19 2.5900733
-3.6893488e+19 3.1816642 3.6893488e+19
2.079767 -2 2.5808423
1.0842022e-19 3.1845322 2
2.0819578 -0 2.5704832
-2 3.3396416 3.6893488e+19
2.2594669 0 2.7314131
-0 3.1296024 3.6893488e+19
1.9019998 -3.6893488e+19 2.5078993
3.6893488e+19 3.2173529 3.6893488e+19
2.2931745 1.0842022e-19 2.5616691
-1.0842022e-19 3.1302276 2
1.9022502 1.0842022e-19 2.4948487
-3.6893488e+19 3.128581 -3.6893488e+19
1.9015908 1.0842022e-19 2.4710541
-1.0842022e-19 3.1786263 1.0842022e-19
2.2688811 -3.6893488e+19 2.5112586
-0 3.1325669 0
1.9031869 2 2.4541767
3.6893488e+19 3.3086059 0
2.3871825 -3.6893488e+19 2.6085646
1.0842022e-19 3.1337886 1.0842022e-19
1.903676 -2 2.4337656
-3.6893488e+19 3.1317728 -2
1.9028689 -3.6893488e+19 2.4097881
2 3.1332781 -0
2.2308674 1.0842022e-19 2.4016306
2 3.1832435 3.6893488e+19
2.2717774 3.6893488e+19 2.4293592
-1.0842022e-19 3.1267734 -2
1.900867 1.0842022e-19 2.3617053
0 3.1174808 2
-1.6298797 -2 2.3422897
1.0842022e-19 3.1174905 2
-1.6298832 1.0842022e-19 2.3215408
-2 3.1541543 -1.0842022e-19
2.0587509 -1.0842022e-19 2.3426058
-2 3.1187875 1.0842022e-19
-1.6303416 3.6893488e+19 2.3018761
-3.6893488e+19 3.1515849 -2
2.056788 -0 2.3177693
0 3.1163664 3.6893488e+19
-1.6294858 -0 2.2792645
0 3.2028916 -1.0842022e-19
2.0959833 -3.6893488e+19 2.3328543
-2 3.1194334 0
-1.6305699 2 2.2608237
-1.0842022e-19 3.1971984 -3.6893488e+19
2.091634 2 2.3035052
1.0842022e-19 3.1199322 2
-1.6307461 -3.6893488e+19 2.2307971
2 3.1967049 2
2.0912571 -1.0842022e-19 2.2780674
-0 3.1186678 1.0842022e-19
-1.6302993 2 2.1877806
-2 3.1941648 -0
2.0893166 -3.6893488e+19 2.2515483
3.6893488e+19 3.1253037 1.0842022e-19
-1.6326447 3.6893488e+19 2.153594
-3.6893488e+19 3.2823551 0
2.1814067 -3.6893488e+19 2.2881434
1.0842022e-19 3.1142204 -2
2.2069571 -3.6893488e+19 2.1019528
-0 3.1863494 -2
1.9247223 -2 2.1460707
-1.0842022e-19 3.114022 -1.0842022e-19
2.2067084 -3.6893488e+19 2.0609074
0 3.1248257 2
1.9000871 0 2.0482833
-3.6893488e+19 3.1140237 -1.0842022e-19
2.2067106 1.0842022e-19 2.0200772
-1.0842022e-19 3.1880877 -2
1.9254184 -2 2.0496483
-0 3.1154709 -2
2.2085261 -1.0842022e-19 1.9801831
1.0842022e-19 3.2026002 3.6893488e+19
1.9312295 -1.0842022e-19 2.0089941
0 3.1138806 -2
2.2065308 -3.6893488e+19 1.9384223
-0 3.094718 0
1.8880315 2 1.9087627
-1.0842022e-19 3.1115553 3.6893488e+19
2.2036138 0 1.8967301
3.6893488e+19 3.1017125 1.0842022e-19
1.8908322 2 1.8704271
3.6893488e+19 3.1128252 1.0842022e-19
2.2052069 0 1.8382741
-0 3.0938857 3.6893488e+19
1.8876982 1.0842022e-19 1.7882107
-1.0842022e-19 3.1106508 3.6893488e+19
2.2024789 -0 1.7562709
3.6893488e+19 3.0960059 1.0842022e-19
1.8885472 -3.6893488e+19 1.6739795
3.6893488e+19 3.081023 2
-1.6089888 -0 1.5601132
2 3.102879 -1.0842022e-19
2.0195794 -3.6893488e+19 1.2845739
1.0842022e-19 3.0998449 -1.0842022e-19
2.0172615 1.0842022e-19 -1.6364722
-0 3.0827608 1.0842022e-19
-1.6102172 -2 -1.7038912
3.6893488e+19 3.096638 0
2.0148118 1.0842022e-19 -1.7700399
3.6893488e+19 3.0802934 2
-1.6084731 -1.0842022e-19 -1.799891
1.0842022e-19 3.0843644 -2
2.0054352 0 -1.8395911
2 3.0777168 0
-1.6066518 -0 -1.8716557
2 3.084528 0
2.0055604 0 -1.8947275
-1.0842022e-19 3.0782797 2
-1.6070497 -1.0842022e-19 -1.9101862
-2 3.0618203 0
1.9882131 -1.0842022e-19 -1.9546235
-0 3.0786078 3.6893488e+19
-1.6072816 3.6893488e+19 -1.9837557
-0 3.041707 -3.6893488e+19
1.9728476 -2 -1.9740593
-3.6893488e+19 3.0844669 -2
2.1696281 -2 -2.0261602
-0 3.0190098 -3.6893488e+19
1.840433 -2 -1.9865518
0 2.8259254 -2
1.9544557 2 -1.9211434
-2 2.7803714 3.6893488e+19
1.7245319 -2 -1.9046735
2 2.7440598 -1.0842022e-19
1.904964 -2 -1.8935986
3.6893488e+19 2.70243 -2
1.6811613 -0 -1.887484
1.0842022e-19 2.6656601 2
1.8803736 0 -1.882506
-2 2.653487 -1.0842022e-19
1.6615636 -1.0842022e-19 -1.8839357
-1.0842022e-19 2.6045842 -1.0842022e-19
1.8474338 1.0842022e-19 -1.871042
3.6893488e+19 2.5646574 -1.0842022e-19
1.8223873 0 -1.8610835
1.0842022e-19 2.5246432 -0
1.797286 1.0842022e-19 -1.846571
1.0842022e-19 2.5035331 -2
-1.3042138 -1.0842022e-19 -1.8432086
1.0842022e-19 2.485208 2
1.6853356 -2 -1.8408897
-3.6893488e+19 2.45998 -0
-1.287572 2 -1.8359319
0 2.3815925 -3.6893488e+19
-1.2598672 -0 -1.8215827
1.0842022e-19 2.3373139 -2
-1.2384355 -3.6893488e+19 -1.8179314
-0 2.2995644 -3.6893488e+19
-1.2117517 0 -1.8134235
1.0842022e-19 2.2662802 2
1.6670399 0 -1.8082981
0 2.2346783 3.6893488e+19
1.6520214 -3.6893488e+19 -1.8058076
-3.6893488e+19 2.1884093 -1.0842022e-19
1.637509 1.0842022e-19 -1.8012674
-3.6893488e+19 2.1603382 0
1.6287044 2 -1.8019534
-0 3.169277 3.6893488e+19
-1.718623 -2 2.6381793
-2 3.2064569 -2
2.0794959 1.0842022e-19 2.666312
-0 3.1953435 0
-1.7322149 1.0842022e-19 2.649251
2 3.2022624 -2
2.076468 2 2.6492295
1.0842022e-19 3.1679323 3.6893488e+19
-1.7179219 2 2.6124549
2 3.1765666 1.0842022e-19
2.0579195 3.6893488e+19 2.6140792
-2 3.1639965 3.6893488e+19
-1.7158697 -2 2.5969737
-3.6893488e+19 3.1746373 3.6893488e+19
-1.7214181 -2 2.5935476
-3.6893488e+19 3.1886597 0
-1.7287298 -3.6893488e+19 2.5921786
1.0842022e-19 3.1914876 -0
-1.7302042 -0 2.5816212
0 3.3396063 -0
2.2402933 2 2.7313042
0 3.1306734 0
1.8864325 -3.6893488e+19 2.5086107
-0 3.1299429 1.0842022e-19
1.8861707 0 2.4944475
0 3.2011445 -0
2.2734771 3.6893488e+19 2.5378506
-3.6893488e+19 3.1280489 1.0842022e-19
1.885492 2 2.4703627
0 3.1792061 -2
2.2601783 -2 2.511559
2 3.1697373 2
1.9004329 -0 2.4982736
-3.6893488e+19 3.3086374 2
2.3741832 -1.0842022e-19 2.6085289
0 3.1717081 1.0842022e-19
1.9011393 1.0842022e-19 2.4765935
2 3.1319788 0
2.2131 2 2.4219339
-3.6893488e+19 3.23364 2
1.9233356 3.6893488e+19 2.5095491
-1.0842022e-19 3.1823604 -3.6893488e+19
2.2620904 3.6893488e+19 2.4529715
0 3.1269686 -2
1.8851047 2 2.3832171
-0 3.1847847 -0
2.2635601 -3.6893488e+19 2.4307992
0 3.1270452 -2
1.8851321 2 2.3619435
-3.6893488e+19 3.1157358 3.6893488e+19
-1.6907052 -3.6893488e+19 2.3406706
2 3.2104783 -3.6893488e+19
2.0823987 -2 2.416316
3.6893488e+19 3.1156511 -1.0842022e-19
-1.690661 0 2.3199372
-1.0842022e-19 3.2051792 2
2.0785737 2 2.3858132
-3.6893488e+19 3.3124518 2
-1.7879214 2 2.5057664
-0 3.2053487 3.6893488e+19
2.078696 0 2.3602681
-2 3.116173 -3.6893488e+19
-1.6909331 -2 2.2791221
-2 3.2031331 3.6893488e+19
2.0770967 -3.6893488e+19 2.3329914
-1.0842022e-19 3.1184618 1.0842022e-19
-1.6921266 -2 2.2601423
-1.0842022e-19 3.197875 -0
2.0733011 0 2.3039274
0 3.1140077 -3.6893488e+19
-1.689804 -0 2.2231057
0 3.1963859 2
2.072226 -0 2.2778349
-1.0842022e-19 3.1175082 -1.0842022e-19
-1.6916293 2 2.1864114
-1.0842022e-19 3.1916654 -2
2.0688186 0 2.2501025
-2 3.1946452 -1.0842022e-19
2.0709696 3.6893488e+19 2.2037053
0 3.1148851 -1.0842022e-19
2.1923759 -1.0842022e-19 2.1025238
-3.6893488e+19 3.1870315 -3.6893488e+19
1.9066311 3.6893488e+19 2.1466653
3.6893488e+19 3.1971772 -3.6893488e+19
2.2710721 2 2.1318521
-1.0842022e-19 3.1254418 -2
1.8845575 -2 2.0487549
2 3.1145022 -3.6893488e+19
2.1919117 1.0842022e-19 2.0203774
-2 3.1854618 3.6893488e+19
1.9060686 -2 2.0478337
0 3.2436414 0
2.2992382 -3.6893488e+19 2.0608451
-0 3.1878603 2
1.9069282 3.6893488e+19 2.0005438
0 3.2739 -3.6893488e+19
2.3320682 1.0842022e-19 2.033601
-0 3.1734684 -0
1.9017701 -3.6893488e+19 1.9450196
2 3.1115663 -2
2.1883523 0 1.8967048
-1.0842022e-19 3.1033897 1.0842022e-19
1.8766541 -3.6893488e+19 1.8715822
-1.0842022e-19 3.0955939 -3.6893488e+19
1.8727202 -1.0842022e-19 1.7890112
-3.6893488e+19 3.2386301 1.0842022e-19
2.2962005 -2 1.8028172
1.0842022e-19 3.0937157 2
1.8713739 1.0842022e-19 1.6728172
0 3.079361 -3.6893488e+19
-1.6717381 2 1.5591871
1.0842022e-19 3.1031718 0
2.0049391 2 1.2846869
-3.6893488e+19 3.0777066 3.6893488e+19
-1.6708757 -0 -1.4683806
-2 3.1025097 -3.6893488e+19
2.0044611 1.0842022e-19 -1.637495
1.0842022e-19 3.0779741 -1.0842022e-19
-1.671015 0 -1.7009618
3.6893488e+19 3.0940893 1.0842022e-19
1.9983828 2 -1.7689559
-1.0842022e-19 3.1613674 -1.0842022e-19
-1.7144988 -3.6893488e+19 -1.8428237
3.6893488e+19 3.0835936 0
1.9908065 -1.0842022e-19 -1.8390703
2 3.1610289 -0
-1.7143222 2 -1.904683
-3.6893488e+19 3.0895305 -1.0842022e-19
1.995092 2 -1.8968738
-2 3.1565785 0
-1.7120018 2 -1.9483962
2 3.0876176 -3.6893488e+19
1.9937111 2 -1.9337732
3.6893488e+19 3.0811315 -0
-1.6726614 -1.0842022e-19 -1.9485618
1.0842022e-19 3.0883093 -2
1.9942104 -1.0842022e-19 -1.971979
-2 3.0821295 2
-1.6731819 1.0842022e-19 -1.9862652
-0 3.0822797 0
1.989858 1.0842022e-19 -2.005192
-0 3.0829787 -2
2.1536937 2 -2.0248759
-2 3.0192137 -3.6893488e+19
1.8179712 2 -1.9867164
-1.0842022e-19 2.8241255 -3.6893488e+19
1.9464802 0 -1.920164
3.6893488e+19 2.7812617 -3.6893488e+19
1.7016071 2 -1.9051549
-0 2.7461488 -1.0842022e-19
1.9003791 3.6893488e+19 -1.8941766
1.0842022e-19 2.705075 -0
1.6630979 -1.0842022e-19 -1.8882791
-2 2.6646259 -0
1.8756701 1.0842022e-19 -1.8821496
2 2.6411827 -2
1.6401989 3.6893488e+19 -1.8798432
-3.6893488e+19 2.6044075 -3.6893488e+19
1.8398367 -2 -1.8708696
3.6893488e+19 2.5647211 -1.0842022e-19
1.8157793 0 -1.8610835
2 2.5246987 -1.0842022e-19
1.7915183 1.0842022e-19 -1.846571
1.0842022e-19 2.5035286 -0
-1.382197 -1.0842022e-19 -1.8432086
-2 2.4867563 -2
1.6756839 -3.6893488e+19 -1.8415523
3.6893488e+19 2.4599719 3.6893488e+19
-1.3648425 2 -1.8359319
-0 3.169277 3.6893488e+19
-1.718623 -2 2.6381793
3.6893488e+19 3.1798537 3.6893488e+19
2.0602922 2 2.6420484
-0 3.1953435 0
-1.7322149 1.0842022e-19 2.649251
2 3.2022624 -2
2.076468 2 2.6492295
1.0842022e-19 3.1679323 3.6893488e+19
-1.7179219 2 2.6124549
2 3.1765666 1.0842022e-19
2.0579195 3.6893488e+19 2.6140792
-2 3.1639965 3.6893488e+19
-1.7158697 -2 2.5969737
-3.6893488e+19 3.1746373 3.6893488e+19
-1.7214181 -2 2.5935476
-3.6893488e+19 3.1886597 0
-1.7287298 -3.6893488e+19 2.5921786
1.0842022e-19 3.1914876 -0
-1.7302042 -0 2.5816212
0 3.3396063 -0
2.2402933 2 2.7313042
0 3.1306734 0
1.8864325 -3.6893488e+19 2.5086107
-0 3.1299429 1.0842022e-19
1.8861707 0 2.4944475
0 3.2011445 -0
2.2734771 3.6893488e+19 2.5378506
-3.6893488e+19 3.1280489 1.0842022e-19
1.885492 2 2.4703627
0 3.1792061 -2
2.2601783 -2 2.511559
1.0842022e-19 3.132529 -3.6893488e+19
1.8870975 -1.0842022e-19 2.4541032
-3.6893488e+19 3.3086374 2
2.3741832 -1.0842022e-19 2.6085289
1.0842022e-19 3.1337197 -0
1.8875242 -2 2.4336607
2 3.1319788 0
2.2131 2 2.4219339
0 3.1311774 2
1.8866131 -3.6893488e+19 2.4091234
3.6893488e+19 3.1334484 3.6893488e+19
2.2148817 -0 2.4017277
0 3.1269686 -2
1.8851047 2 2.3832171
-0 3.1847847 -0
2.2635601 -3.6893488e+19 2.4307992
0 3.1270452 -2
1.8851321 2 2.3619435
-3.6893488e+19 3.1157358 3.6893488e+19
-1.6907052 -3.6893488e+19 2.3406706
2 3.2104783 -3.6893488e+19
2.0823987 -2 2.416316
3.6893488e+19 3.1156511 -1.0842022e-19
-1.690661 0 2.3199372
0 3.1548867 1.0842022e-19
2.0422697 -2 2.3431847
-0 3.1195581 1.0842022e-19
-1.6926982 -1.0842022e-19 2.3025122
3.6893488e+19 3.150733 2
2.0392714 -2 2.3170564
-2 3.116173 -3.6893488e+19
-1.6909331 -2 2.2791221
-2 3.1561286 -2
2.0431662 -0 2.2984495
-1.0842022e-19 3.1184618 1.0842022e-19
-1.6921266 -2 2.2601423
1.0842022e-19 3.1573119 0
2.0440204 0 2.2764013
0 3.1140077 -3.6893488e+19
-1.689804 -0 2.2231057
2 3.1548347 0
2.0422323 3.6893488e+19 2.2519732
-1.0842022e-19 3.1175082 -1.0842022e-19
-1.6916293 2 2.1864114
-1.0842022e-19 3.1916654 -2
2.0688186 0 2.2501025
-2 3.1946452 -1.0842022e-19
2.0709696 3.6893488e+19 2.2037053
0 3.1148851 -1.0842022e-19
2.1923759 -1.0842022e-19 2.1025238
-2 3.1226823 -2
1.8835685 -1.0842022e-19 2.0882597
-3.6893488e+19 3.1147802 2
2.1922491 -2 2.061492
-1.0842022e-19 3.1254418 -2
1.8845575 -2 2.0487549
2 3.1145022 -3.6893488e+19
2.1919117 1.0842022e-19 2.0203774
-3.6893488e+19 3.0918519 -3.6893488e+19
1.870038 2 1.9838095
3.6893488e+19 3.1145484 2
2.191968 3.6893488e+19 1.9795557
1.0842022e-19 3.0955675 -3.6893488e+19
1.8727012 1.0842022e-19 1.9477339
-2 3.1142032 1.0842022e-19
2.1915495 -3.6893488e+19 1.9385513
-3.6893488e+19 3.0938962 -0
1.8715034 -2 1.9083743
2 3.1115663 -2
2.1883523 0 1.8967048
-1.0842022e-19 3.1033897 1.0842022e-19
1.8766541 -3.6893488e+19 1.8715822
-1.0842022e-19 3.0955939 -3.6893488e+19
1.8727202 -1.0842022e-19 1.7890112
1.0842022e-19 3.1102877 -1.0842022e-19
2.1868021 -3.6893488e+19 1.7561121
1.0842022e-19 3.0937157 2
1.8713739 1.0842022e-19 1.6728172
0 3.079361 -3.6893488e+19
-1.6717381 2 1.5591871
1.0842022e-19 3.1031718 0
2.0049391 2 1.2846869
-3.6893488e+19 3.0777066 3.6893488e+19
-1.6708757 -0 -1.4683806
-2 3.1025097 -3.6893488e+19
2.0044611 1.0842022e-19 -1.637495
1.0842022e-19 3.0779741 -1.0842022e-19
-1.671015 0 -1.7009618
3.6893488e+19 3.0940893 1.0842022e-19
1.9983828 2 -1.7689559
3.6893488e+19 3.0808187 3.6893488e+19
-1.6724983 0 -1.8001723
3.6893488e+19 3.0835936 0
1.9908065 -1.0842022e-19 -1.8390703
1.0842022e-19 3.0783045 1.0842022e-19
-1.6711874 2 -1.8721025
-3.6893488e+19 3.0895305 -1.0842022e-19
1.995092 2 -1.8968738
1.0842022e-19 3.0793359 -0
-1.6717252 -2 -1.9107044
2 3.0876176 -3.6893488e+19
1.9937111 2 -1.9337732
3.6893488e+19 3.0811315 -0
-1.6726614 -1.0842022e-19 -1.9485618
1.0842022e-19 3.0883093 -2
1.9942104 -1.0842022e-19 -1.971979
-2 3.0821295 2
-1.6731819 1.0842022e-19 -1.9862652
2 3.0426781 -2
1.9612713 -0 -1.9747778
-0 3.0829787 -2
2.1536937 2 -2.0248759
-2 3.0192137 -3.6893488e+19
1.8179712 2 -1.9867164
-1.0842022e-19 2.8241255 -3.6893488e+19
1.9464802 0 -1.920164
3.6893488e+19 2.7812617 -3.6893488e+19
1.7016071 2 -1.9051549
-0 2.7461488 -1.0842022e-19
1.9003791 3.6893488e+19 -1.8941766
1.0842022e-19 2.705075 -0
1.6630979 -1.0842022e-19 -1.8882791
-2 2.6646259 -0
1.8756701 1.0842022e-19 -1.8821496
2 2.6411827 -2
1.6401989 3.6893488e+19 -1.8798432
-3.6893488e+19 2.6044075 -3.6893488e+19
1.8398367 -2 -1.8708696
3.6893488e+19 2.5647211 -1.0842022e-19
1.8157793 0 -1.8610835
2 2.5246987 -1.0842022e-19
1.7915183 1.0842022e-19 -1.846571
1.0842022e-19 2.5035286 -0
-1.382197 -1.0842022e-19 -1.8432086
-2 2.4867563 -2
1.6756839 -3.6893488e+19 -1.8415523
3.6893488e+19 2.4599719 3.6893488e+19
-1.3648425 2 -1.8359319
3.6893488e+19 3.1686273 0
-1.7693075 1.0842022e-19 2.6375875
-0 3.207027 -1.0842022e-19
2.0606768 -1.0842022e-19 2.6667838
-0 3.1993873 -0
2.0554836 1.0842022e-19 2.646646
1.0842022e-19 3.168777 -2
-1.769359 -2 2.6131964
-1.0842022e-19 3.2128005 2
2.0646017 3.6893488e+19 2.6449599
0 3.1639252 -2
-1.7676865 -2 2.5969224
-3.6893488e+19 3.212743 -1.0842022e-19
2.0645626 0 2.6314278
1.0842022e-19 3.1755152 -0
-1.7716818 -3.6893488e+19 2.5942662
-3.6893488e+19 3.215662 0
2.0665469 1.0842022e-19 2.620307
-2 3.1904891 -1.0842022e-19
-1.7768435 -3.6893488e+19 2.5936141
2 3.2041216 -1.0842022e-19
2.0587018 2 2.5979719
0 3.1885591 1.0842022e-19
-1.7761782 2 2.5794296
3.6893488e+19 3.1306944 -3.6893488e+19
1.8658898 -3.6893488e+19 2.5086107
0 3.1298099 2
1.8653301 3.6893488e+19 2.4942467
-2 3.2012632 0
2.2640209 -2 2.5378702
1.0842022e-19 3.1253841 3.6893488e+19
1.8625296 -0 2.467021
2 3.1803684 -2
2.2517958 -2 2.5122161
0 3.1668246 -3.6893488e+19
1.8818758 -0 2.4947884
0 3.3083432 0
2.360805 -1.0842022e-19 2.6081169
2 3.1692255 0
1.8826355 2 2.4737616
-3.6893488e+19 3.1321459 -0
2.1971648 3.6893488e+19 2.4220362
0 3.2336669 -3.6893488e+19
1.9030235 3.6893488e+19 2.5095491
2 3.1338015 1.0842022e-19
2.1991019 3.6893488e+19 2.402019
-0 3.1254706 2
1.8625845 0 2.3816733
2 3.2042329 3.6893488e+19
2.2657583 1.0842022e-19 2.4499815
-2 3.1279655 0
1.8641632 2 2.362807
-2 3.1153853 1.0842022e-19
-1.7509542 -3.6893488e+19 2.3403525
-0 3.2091351 2
2.0621099 2 2.4150541
-0 3.1142752 0
-1.7505715 -3.6893488e+19 2.3187411
-0 3.2050142 0
2.0593088 -1.0842022e-19 2.3856289
0 3.1185544 -0
-1.7520465 2 2.301698
0 3.2054012 -3.6893488e+19
2.0595715 0 2.3602681
1.0842022e-19 3.1178439 1.0842022e-19
-1.7518016 -0 2.2804027
-1.0842022e-19 3.2019105 -1.0842022e-19
2.0571988 2 2.3320549
0 3.1169899 -0
-1.7515072 3.6893488e+19 2.2591095
-2 3.1974909 -2
2.0541945 -0 2.3036318
3.6893488e+19 3.1147461 -0
-1.7507337 -0 2.2240772
-1.0842022e-19 3.1948495 3.6893488e+19
2.0523989 -1.0842022e-19 2.2768469
-1.0842022e-19 3.0875831 -0
-1.7327405 -0 2.1508856
3.6893488e+19 3.1902213 3.6893488e+19
2.0492527 -0 2.248512
1.0842022e-19 3.0866272 -3.6893488e+19
-1.7320814 -2 2.1120174
-3.6893488e+19 3.1960361 -2
2.0532055 -3.6893488e+19 2.2050722
1.0842022e-19 3.1895826 -3.6893488e+19
1.889076 -2 2.1489584
-1.0842022e-19 3.1962063 -1.0842022e-19
2.2610621 0 2.1309488
0 3.1857202 0
1.8878541 2 2.0967019
-1.0842022e-19 3.1142931 0
2.1762745 -0 2.0201695
1.0842022e-19 3.1853611 1.0842022e-19
1.8877405 -0 2.0477483
-3.6893488e+19 3.2415576 1.0842022e-19
2.287596 2 2.0594728
0 3.1896331 0
1.8890921 -1.0842022e-19 2.0015442
1.0842022e-19 3.2740781 -2
2.3207099 0 2.03373
-3.6893488e+19 3.1812057 1.0842022e-19
1.8864259 1.0842022e-19 1.948572
-0 3.1142852 1.0842022e-19
2.1762652 2 1.8977791
-1.0842022e-19 3.1013477 -0
1.8473203 -0 1.8701438
2 3.2818093 1.0842022e-19
2.3297567 2 1.9155859
2 3.0931451 -2
1.8421299 -3.6893488e+19 1.78784
3.6893488e+19 3.107522 -1.0842022e-19
2.1683512 1.0842022e-19 1.7550803
2 3.095453 1.0842022e-19
1.8435904 2 1.6736811
3.6893488e+19 3.0792277 -3.6893488e+19
-1.72698 -2 1.5591171
3.6893488e+19 3.1891348 -1.0842022e-19
2.0485141 3.6893488e+19 1.3235323
-1.0842022e-19 3.0781047 -2
-1.7262058 -0 -1.4686513
-0 3.1045172 -1.0842022e-19
1.990993 1.0842022e-19 -1.6382622
-0 3.0767159 -2
-1.7252483 -0 -1.7001959
3.6893488e+19 3.0963142 -0
1.9854168 -3.6893488e+19 -1.76987
0 3.1641381 3.6893488e+19
-1.7677599 -2 -1.8442962
0 3.0837257 3.6893488e+19
1.9768593 -2 -1.8391304
-2 3.1600814 2
-1.7663616 -1.0842022e-19 -1.9043303
0 3.0871041 -0
1.9791559 2 -1.8958074
-1.0842022e-19 3.1578178 -1.0842022e-19
-1.7655813 3.6893488e+19 -1.9490058
3.6893488e+19 3.0850041 -3.6893488e+19
1.9777284 -3.6893488e+19 -1.9323295
2 3.0891593 1.0842022e-19
1.980553 -0 -1.9725112
2 3.0801973 -1.0842022e-19
1.9744608 -3.6893488e+19 -2.0035634
1.0842022e-19 3.0843823 3.6893488e+19
2.1412745 -0 -2.0259805
-0 3.0189791 -2
1.7952003 -1.0842022e-19 -1.9864969
0 2.8220742 -3.6893488e+19
1.938436 2 -1.9190539
-0 2.7837708 3.6893488e+19
1.6795601 -1.0842022e-19 -1.9065304
2 2.7469919 2
1.8953876 -2 -1.8943933
1.0842022e-19 2.7057233 3.6893488e+19
1.6441827 -2 -1.8884684
-0 2.6647069 3.6893488e+19
1.8676329 1.0842022e-19 -1.8821496
-3.6893488e+19 2.6408305 2
1.6223037 1.0842022e-19 -1.8797193
-0 2.6039801 2
1.8321034 0 -1.8705251
3.6893488e+19 2.5888145 -2
1.5893897 -0 -1.8689517
2 2.564162 -3.6893488e+19
1.8088069 -0 -1.860618
-1.0842022e-19 2.5512762 -0
1.5656369 -2 -1.858874
-0 2.5242562 2
1.7854593 -1.0842022e-19 -1.8461708
-2 2.5035222 0
-1.4247863 -1.0842022e-19 -1.8432086
-2 2.4870605 3.6893488e+19
1.6655465 2 -1.8416628
0 2.4587188 -2
-1.4081275 1.0842022e-19 -1.8353624
-2 2.3877745 -1.0842022e-19
-1.383672 3.6893488e+19 -1.8247761
-3.6893488e+19 2.3368044 3.6893488e+19
-1.3572037 1.0842022e-19 -1.8176484
-0 2.302268 2
-1.3333932 -1.0842022e-19 -1.8151321
-3.6893488e+19 2.2668774 1.0842022e-19
1.6561422 -3.6893488e+19 -1.8086362
1.0842022e-19 2.2324197 -1.0842022e-19
1.6411247 -3.6893488e+19 -1.8048935
2 2.1915176 3.6893488e+19
1.6291595 -2 -1.8024464
0 2.159039 0
1.6143167 3.6893488e+19 -1.8013229
3.6893488e+19 3.1686273 0
-1.7693075 1.0842022e-19 2.6375875
-1.0842022e-19 3.1784723 -2
2.041266 -1.0842022e-19 2.6407435
-0 3.1993873 -0
2.0554836 1.0842022e-19 2.646646
1.0842022e-19 3.168777 -2
-1.769359 -2 2.6131964
1.0842022e-19 3.1766462 0
2.0400248 -2 2.6141052
0 3.1639252 -2
-1.7676865 -2 2.5969224
-3.6893488e+19 3.212743 -1.0842022e-19
2.0645626 0 2.6314278
1.0842022e-19 3.1755152 -0
-1.7716818 -3.6893488e+19 2.5942662
-3.6893488e+19 3.215662 0
2.0665469 1.0842022e-19 2.620307
-2 3.1904891 -1.0842022e-19
-1.7768435 -3.6893488e+19 2.5936141
2 3.2041216 -1.0842022e-19
2.0587018 2 2.5979719
0 3.1885591 1.0842022e-19
-1.7761782 2 2.5794296
3.6893488e+19 3.1306944 -3.6893488e+19
1.8658898 -3.6893488e+19 2.5086107
0 3.1298099 2
1.8653301 3.6893488e+19 2.4942467
-2 3.2012632 0
2.2640209 -2 2.5378702
1.0842022e-19 3.1253841 3.6893488e+19
1.8625296 -0 2.467021
1.0842022e-19 3.1314678 -1.0842022e-19
2.1963711 -1.0842022e-19 2.4648438
-0 3.1295214 -0
1.8651476 0 2.4505081
0 3.1319859 2
2.1969774 1.0842022e-19 2.4436474
-3.6893488e+19 3.1329982 2
1.8673477 3.6893488e+19 2.4328218
-3.6893488e+19 3.1321459 -0
2.1971648 3.6893488e+19 2.4220362
-1.0842022e-19 3.134357 1.0842022e-19
1.8682075 -0 2.4125135
2 3.1338015 1.0842022e-19
2.1991019 3.6893488e+19 2.402019
-0 3.1254706 2
1.8625845 0 2.3816733
2 3.2042329 3.6893488e+19
2.2657583 1.0842022e-19 2.4499815
-2 3.1279655 0
1.8641632 2 2.362807
-2 3.1153853 1.0842022e-19
-1.7509542 -3.6893488e+19 2.3403525
2 3.1366613 1.0842022e-19
2.0128438 -0 2.3495383
-0 3.1142752 0
-1.7505715 -3.6893488e+19 2.3187411
-0 3.1545606 -2
2.0250113 3.6893488e+19 2.342869
0 3.1185544 -0
-1.7520465 2 2.301698
-3.6893488e+19 3.1509032 1.0842022e-19
2.0225253 1.0842022e-19 2.3171549
1.0842022e-19 3.1178439 1.0842022e-19
-1.7518016 -0 2.2804027
-2 3.1554291 2
2.0256019 -3.6893488e+19 2.2979012
0 3.1169899 -0
-1.7515072 3.6893488e+19 2.2591095
-3.6893488e+19 3.1566119 -2
2.0264058 1.0842022e-19 2.2758946
3.6893488e+19 3.1147461 -0
-1.7507337 -0 2.2240772
0 3.1546946 3.6893488e+19
2.0251024 -2 2.2518568
-1.0842022e-19 3.0875831 -0
-1.7327405 -0 2.1508856
3.6893488e+19 3.1902213 3.6893488e+19
2.0492527 -0 2.248512
1.0842022e-19 3.0866272 -3.6893488e+19
-1.7320814 -2 2.1120174
-3.6893488e+19 3.1960361 -2
2.0532055 -3.6893488e+19 2.2050722
1.0842022e-19 3.1895826 -3.6893488e+19
1.889076 -2 2.1489584
-1.0842022e-19 3.1142602 -0
2.1762359 2 2.0609872
-2 3.0908246 1.0842022e-19
1.8406618 1.0842022e-19 2.0211937
-1.0842022e-19 3.1142931 0
2.1762745 -0 2.0201695
0 3.0924017 -0
1.8416595 -2 1.9841723
2 3.1143084 3.6893488e+19
2.1762922 -2 1.9793596
-2 3.095118 -2
1.8433784 1.0842022e-19 1.9474659
3.6893488e+19 3.1140876 1.0842022e-19
2.176034 3.6893488e+19 1.9384546
2 3.0958829 -3.6893488e+19
1.8438623 -0 1.9092804
-0 3.1142852 1.0842022e-19
2.1762652 2 1.8977791
-1.0842022e-19 3.1013477 -0
1.8473203 -0 1.8701438
0 3.1056466 -3.6893488e+19
2.1661565 1.0842022e-19 1.8339713
2 3.0931451 -2
1.8421299 -3.6893488e+19 1.78784
3.6893488e+19 3.107522 -1.0842022e-19
2.1683512 1.0842022e-19 1.7550803
2 3.095453 1.0842022e-19
1.8435904 2 1.6736811
3.6893488e+19 3.0792277 -3.6893488e+19
-1.72698 -2 1.5591171
2 3.1040242 -2
1.9906578 -2 1.2850538
-1.0842022e-19 3.0781047 -2
-1.7262058 -0 -1.4686513
-0 3.1045172 -1.0842022e-19
1.990993 1.0842022e-19 -1.6382622
-0 3.0767159 -2
-1.7252483 -0 -1.7001959
3.6893488e+19 3.0963142 -0
1.9854168 -3.6893488e+19 -1.76987
-2 3.0805604 1.0842022e-19
-1.727899 -2 -1.8000399
0 3.0837257 3.6893488e+19
1.9768593 -2 -1.8391304
-2 3.0792022 -3.6893488e+19
-1.7269624 1.0842022e-19 -1.8727844
0 3.0871041 -0
1.9791559 2 -1.8958074
-1.0842022e-19 3.076298 -2
-1.7249602 -3.6893488e+19 -1.9092259
3.6893488e+19 3.0850041 -3.6893488e+19
1.9777284 -3.6893488e+19 -1.9323295
2 3.0891593 1.0842022e-19
1.980553 -0 -1.9725112
1.0842022e-19 3.0371919 -1.0842022e-19
1.9452267 -0 -1.970539
1.0842022e-19 3.0843823 3.6893488e+19
2.1412745 -0 -2.0259805
-0 3.0189791 -2
1.7952003 -1.0842022e-19 -1.9864969
0 2.8220742 -3.6893488e+19
1.938436 2 -1.9190539
-0 2.7837708 3.6893488e+19
1.6795601 -1.0842022e-19 -1.9065304
2 2.7469919 2
1.8953876 -2 -1.8943933
1.0842022e-19 2.7057233 3.6893488e+19
1.6441827 -2 -1.8884684
-0 2.6647069 3.6893488e+19
1.8676329 1.0842022e-19 -1.8821496
-3.6893488e+19 2.6408305 2
1.6223037 1.0842022e-19 -1.8797193
-0 2.6039801 2
1.8321034 0 -1.8705251
3.6893488e+19 2.5888145 -2
1.5893897 -0 -1.8689517
2 2.564162 -3.6893488e+19
1.8088069 -0 -1.860618
-1.0842022e-19 2.5512762 -0
1.5656369 -2 -1.858874
-0 2.5242562 2
1.7854593 -1.0842022e-19 -1.8461708
-2 2.5035222 0
-1.4247863 -1.0842022e-19 -1.8432086
-2 2.4870605 3.6893488e+19
1.6655465 2 -1.8416628
0 2.4587188 -2
-1.4081275 1.0842022e-19 -1.8353624
-2 2.3877745 -1.0842022e-19
-1.383672 3.6893488e+19 -1.8247761
-3.6893488e+19 2.3368044 3.6893488e+19
-1.3572037 1.0842022e-19 -1.8176484
-0 2.302268 2
-1.3333932 -1.0842022e-19 -1.8151321
-3.6893488e+19 2.2668774 1.0842022e-19
1.6561422 -3.6893488e+19 -1.8086362
1.0842022e-19 2.2324197 -1.0842022e-19
1.6411247 -3.6893488e+19 -1.8048935
2 2.1915176 3.6893488e+19
1.6291595 -2 -1.8024464
0 2.159039 0
1.6143167 3.6893488e+19 -1.8013229
2 3.2079289 -3.6893488e+19
2.0420256 -3.6893488e+19 2.6675611
-0 3.2128506 2
2.0451643 3.6893488e+19 2.6449599
-2 3.162658 3.6893488e+19
-1.8019156 -2 2.5958714
2 3.2144141 2
2.0461614 2 2.6327636
1.0842022e-19 3.2160494 2
2.0472043 -2 2.6205747
0 3.1891258 1.0842022e-19
-1.8132629 -0 2.5925615
0 3.1882994 1.0842022e-19
-1.8129086 1.0842022e-19 2.5792451
3.6893488e+19 3.1663535 -0
-1.8034999 -2 2.550756
-3.6893488e+19 3.1997814 2
2.2536604 -2 2.562712
0 3.1307437 3.6893488e+19
1.8339299 -1.0842022e-19 2.5086317
-0 3.1299515 0
1.8334953 -1.0842022e-19 2.4944072
-3.6893488e+19 3.1996551 -0
2.2535892 2 2.5367904
3.6893488e+19 3.1260815 -0
1.8313715 -2 2.4678659
3.6893488e+19 3.1814973 -0
2.2366977 0 2.5128546
0 3.1660721 2
1.8533161 -1.0842022e-19 2.4938712
-1.0842022e-19 3.1305461 0
2.1792285 -0 2.4418919
-0 3.1667397 -3.6893488e+19
1.8536824 -0 2.4709296
3.6893488e+19 3.1325269 -1.0842022e-19
2.1814625 -1.0842022e-19 2.4223771
0 3.2338142 -2
1.8827444 1.0842022e-19 2.5096157
1.0842022e-19 3.1338429 3.6893488e+19
2.1829469 -0 2.4019866
-1.0842022e-19 3.1244659 2
1.8304851 0 2.3806336
3.6893488e+19 3.2048445 3.6893488e+19
2.2565157 1.0842022e-19 2.4505024
-1.0842022e-19 3.128263 -3.6893488e+19
1.8325686 2 2.363075
1.0842022e-19 3.1157463 3.6893488e+19
-1.7818035 1.0842022e-19 2.3406997
-2 3.2076643 3.6893488e+19
2.041857 2 2.4136798
-2 3.1137977 0
-1.7809682 0 2.3183336
-2 3.2031071 1.0842022e-19
2.0389509 -0 2.3839712
-0 3.1192575 2
-1.7833089 1.0842022e-19 2.3022833
2 3.2035549 -0
2.0392363 1.0842022e-19 2.3587687
3.6893488e+19 3.1191697 -1.0842022e-19
-1.7832712 2 2.2814224
-2 3.201524 -2
2.0379412 -2 2.3317349
1.0842022e-19 3.1196239 -3.6893488e+19
-1.7834659 -0 2.2609775
-1.0842022e-19 3.1973526 3.6893488e+19
2.0352812 2 2.3035052
0 3.1840625 -1.0842022e-19
-1.8110921 -2 2.2820942
-0 3.190944 -1.0842022e-19
2.0311942 -0 2.2743866
3.6893488e+19 3.1825838 0
-1.8104583 -0 2.2568583
1.0842022e-19 3.1901755 0
2.0307043 -3.6893488e+19 2.2484062
0 3.1815813 1.0842022e-19
-1.8100284 0 2.2141483
3.6893488e+19 3.1966765 -1.0842022e-19
2.0348499 2 2.2056763
3.6893488e+19 3.1962698 3.6893488e+19
2.2516799 0 2.1809862
-3.6893488e+19 3.1954188 -3.6893488e+19
2.2512 -0 2.1302047
2 3.1855853 1.0842022e-19
1.8640238 -1.0842022e-19 2.0965776
-0 3.1850388 -3.6893488e+19
1.8637239 -1.0842022e-19 2.0475135
-0 3.2272909 -3.6893488e+19
2.2691746 2 2.0504341
-0 3.0956657 -0
1.8146812 -3.6893488e+19 1.9477695
2 3.2759836 -3.6893488e+19
2.3112893 -3.6893488e+19 2.0356486
3.6893488e+19 3.1825697 2
1.8623691 -2 1.9491904
3.6893488e+19 3.1083395 -0
2.154181 1.0842022e-19 1.8953397
-1.0842022e-19 3.2076988 1.0842022e-19
1.8755792 -3.6893488e+19 1.9096659
2 3.285135 2
2.3216116 -1.0842022e-19 1.9175084
-2 3.1071529 1.0842022e-19
2.1528428 3.6893488e+19 1.7549216
0 3.0989692 -1.0842022e-19
1.8164939 1.0842022e-19 1.6754404
2 3.079061 3.6893488e+19
-1.7660757 -2 1.5590297
2 3.1874337 -0
2.0289557 -0 1.3227419
-1.0842022e-19 3.0795629 -1.0842022e-19
-1.7662909 -1.0842022e-19 -1.46963
1.0842022e-19 3.2530444 2
2.0727377 1.0842022e-19 -1.6973538
3.6893488e+19 3.0774555 -0
-1.7653874 2 -1.7006555
2 3.2519815 -1.0842022e-19
2.071382 -2 -1.8357949
1.0842022e-19 3.0795503 -2
-1.7662854 -1.0842022e-19 -1.7995105
0 3.251812 -1.0842022e-19
2.0711658 1.0842022e-19 -1.9115542
-2 3.1622863 -1.0842022e-19
-1.8017563 -3.6893488e+19 -1.905165
-1.0842022e-19 3.2514896 0
2.070755 2 -1.9675299
2 3.1649261 -3.6893488e+19
-1.8028879 0 -1.9524809
-1.0842022e-19 3.0806088 0
1.9608326 1.0842022e-19 -1.9299181
-1.0842022e-19 3.0734625 1.0842022e-19
-1.7636756 -0 -1.9439741
-3.6893488e+19 3.0746882 -2
1.9570569 -3.6893488e+19 -1.9629942
2 3.0752115 -0
1.9573905 0 -1.9997079
3.6893488e+19 3.0873094 2
2.1304605 3.6893488e+19 -2.0283439
-2 3.0177753 3.6893488e+19
1.7719395 -2 -1.9854271
-2 2.8240633 2
1.93276 3.6893488e+19 -1.920066
3.6893488e+19 2.7832859 -2
1.6554507 0 -1.9062554
-0 2.7493241 1.0842022e-19
1.8908004 -0 -1.8950436
-3.6893488e+19 2.7073653 -0
1.6254877 -3.6893488e+19 -1.8889606
1.0842022e-19 2.6650338 -0
1.859064 -0 -1.8822287
1.0842022e-19 2.6396041 3.6893488e+19
1.588792 -0 -1.8793058
1.0842022e-19 2.6056619 -0
1.8255804 -2 -1.871645
-1.0842022e-19 2.5855944 -1.0842022e-19
1.5591546 -0 -1.8666215
-2 2.5642211 3.6893488e+19
1.8022094 -0 -1.860618
-3.6893488e+19 2.5476832 0
1.5383513 1.0842022e-19 -1.8560737
-3.6893488e+19 2.5241838 -3.6893488e+19
1.7796297 3.6893488e+19 -1.8460708
2 2.5202508 0
1.5232979 -3.6893488e+19 -1.8500071
1.0842022e-19 2.5036385 1.0842022e-19
-1.4674809 -3.6893488e+19 -1.8433155
2 2.4876099 0
1.6554768 0 -1.8418837
1.0842022e-19 2.4584558 3.6893488e+19
-1.4465501 -2 -1.8352485
3.6893488e+19 3.1790667 -2
2.0236199 -0 2.6412432
2 3.1769061 -2
2.0222421 -3.6893488e+19 2.6142876
-2 3.162658 3.6893488e+19
-1.8019156 -2 2.5958714
2 3.1760621 2
2.021704 -2 2.6011543
2 3.1713035 2
2.0186694 3.6893488e+19 2.5849955
0 3.1891258 1.0842022e-19
-1.8132629 -0 2.5925615
0 3.1882994 1.0842022e-19
-1.8129086 1.0842022e-19 2.5792451
3.6893488e+19 3.1663535 -0
-1.8034999 -2 2.550756
-3.6893488e+19 3.1997814 2
2.2536604 -2 2.562712
0 3.1307437 3.6893488e+19
1.8339299 -1.0842022e-19 2.5086317
-0 3.1299515 0
1.8334953 -1.0842022e-19 2.4944072
-3.6893488e+19 3.1996551 -0
2.2535892 2 2.5367904
3.6893488e+19 3.1260815 -0
1.8313715 -2 2.4678659
-3.6893488e+19 3.1316628 -0
2.1804881 -1.0842022e-19 2.464994
-2 3.1279943 1.0842022e-19
1.8324213 3.6893488e+19 2.4486737
-1.0842022e-19 3.1305461 0
2.1792285 -0 2.4418919
-0 3.1322744 -3.6893488e+19
1.8347698 1.0842022e-19 2.4319828
3.6893488e+19 3.1325269 -1.0842022e-19
2.1814625 -1.0842022e-19 2.4223771
1.0842022e-19 3.1334467 -2
1.8354131 -1.0842022e-19 2.4115164
1.0842022e-19 3.1338429 3.6893488e+19
2.1829469 -0 2.4019866
-1.0842022e-19 3.1244659 2
1.8304851 0 2.3806336
-0 3.1343377 3.6893488e+19
2.1835051 2 2.3806686
-1.0842022e-19 3.128263 -3.6893488e+19
1.8325686 2 2.363075
1.0842022e-19 3.1157463 3.6893488e+19
-1.7818035 1.0842022e-19 2.3406997
0 3.1367962 -0
1.9966637 -0 2.3496225
-2 3.1137977 0
-1.7809682 0 2.3183336
-1.0842022e-19 3.1523685 2
2.0065944 -2 2.3409743
-0 3.1192575 2
-1.7833089 1.0842022e-19 2.3022833
2 3.2035549 -0
2.0392363 1.0842022e-19 2.3587687
3.6893488e+19 3.1191697 -1.0842022e-19
-1.7832712 2 2.2814224
0 3.1568413 2
2.0094466 -3.6893488e+19 2.2989063
1.0842022e-19 3.1196239 -3.6893488e+19
-1.7834659 -0 2.2609775
-1.0842022e-19 3.1550069 1.0842022e-19
2.0082769 -1.0842022e-19 2.2747757
0 3.0879502 1.0842022e-19
-1.7698867 1.0842022e-19 2.1892633
-0 3.190944 -1.0842022e-19
2.0311942 -0 2.2743866
-2 3.0889122 -1.0842022e-19
-1.7702992 -2 2.1524768
1.0842022e-19 3.1901755 0
2.0307043 -3.6893488e+19 2.2484062
0 3.0884871 1.0842022e-19
-1.7701169 -1.0842022e-19 2.1140292
3.6893488e+19 3.1966765 -1.0842022e-19
2.0348499 2 2.2056763
1.0842022e-19 3.1288097 -2
2.1772697 0 2.1158364
0 3.1256287 -2
2.1736817 3.6893488e+19 2.0706325
3.6893488e+19 3.0929945 1.0842022e-19
1.8132154 0 2.022907
-0 3.0924807 1.0842022e-19
1.8129334 -3.6893488e+19 1.984215
0 3.1247184 3.6893488e+19
2.1726551 -3.6893488e+19 1.9858691
-0 3.0956657 -0
1.8146812 -3.6893488e+19 1.9477695
0 3.1134086 -3.6893488e+19
2.1598983 2 1.9380677
3.6893488e+19 3.1825697 2
1.8623691 -2 1.9491904
3.6893488e+19 3.1083395 -0
2.154181 1.0842022e-19 1.8953397
-1.0842022e-19 3.1051445 2
1.8198826 3.6893488e+19 1.8727809
-1.0842022e-19 3.1049967 0
2.1504107 -0 1.8335501
-2 3.1071529 1.0842022e-19
2.1528428 3.6893488e+19 1.7549216
0 3.0989692 -1.0842022e-19
1.8164939 1.0842022e-19 1.6754404
2 3.079061 3.6893488e+19
-1.7660757 -2 1.5590297
2 3.106498 -0
1.9773422 -1.0842022e-19 1.2861549
-1.0842022e-19 3.0795629 -1.0842022e-19
-1.7662909 -1.0842022e-19 -1.46963
-1.0842022e-19 3.1078966 -1.0842022e-19
1.9782342 3.6893488e+19 -1.639565
3.6893488e+19 3.0774555 -0
-1.7653874 2 -1.7006555
1.0842022e-19 3.0957897 1.0842022e-19
1.9705135 0 -1.7696351
1.0842022e-19 3.0795503 -2
-1.7662854 -1.0842022e-19 -1.7995105
-3.6893488e+19 3.0925028 2
1.9684175 1.0842022e-19 -1.8447386
-2 3.1622863 -1.0842022e-19
-1.8017563 -3.6893488e+19 -1.905165
-1.0842022e-19 3.0837693 -3.6893488e+19
1.9628479 2 -1.8943495
1.0842022e-19 3.075788 2
-1.7646725 2 -1.9089822
-1.0842022e-19 3.0806088 0
1.9608326 1.0842022e-19 -1.9299181
-1.0842022e-19 3.0734625 1.0842022e-19
-1.7636756 -0 -1.9439741
-3.6893488e+19 3.0746882 -2
1.9570569 -3.6893488e+19 -1.9629942
1.0842022e-19 3.0386264 -0
1.9340599 -2 -1.9716166
3.6893488e+19 3.0873094 2
2.1304605 3.6893488e+19 -2.0283439
-2 3.0177753 3.6893488e+19
1.7719395 -2 -1.9854271
-2 2.8240633 2
1.93276 3.6893488e+19 -1.920066
3.6893488e+19 2.7832859 -2
1.6554507 0 -1.9062554
-0 2.7493241 1.0842022e-19
1.8908004 -0 -1.8950436
-3.6893488e+19 2.7073653 -0
1.6254877 -3.6893488e+19 -1.8889606
1.0842022e-19 2.6650338 -0
1.859064 -0 -1.8822287
1.0842022e-19 2.6396041 3.6893488e+19
1.588792 -0 -1.8793058
1.0842022e-19 2.6056619 -0
1.8255804 -2 -1.871645
-1.0842022e-19 2.5855944 -1.0842022e-19
1.5591546 -0 -1.8666215
-2 2.5642211 3.6893488e+19
1.8022094 -0 -1.860618
-3.6893488e+19 2.5476832 0
1.5383513 1.0842022e-19 -1.8560737
-3.6893488e+19 2.5241838 -3.6893488e+19
1.7796297 3.6893488e+19 -1.8460708
2 2.5202508 0
1.5232979 -3.6893488e+19 -1.8500071
1.0842022e-19 2.5036385 1.0842022e-19
-1.4674809 -3.6893488e+19 -1.8433155
2 2.4876099 0
1.6554768 0 -1.8418837
1.0842022e-19 2.4584558 3.6893488e+19
-1.4465501 -2 -1.8352485
-2 3.2092235 2
2.0235367 0 2.6686995
2 3.2139359 1.0842022e-19
2.0263436 -1.0842022e-19 2.6458459
0 3.1620917 1.0842022e-19
-1.8362936 3.6893488e+19 2.5954101
-2 3.2143998 -0
2.0266199 -3.6893488e+19 2.6327131
-0 3.2208748 0
2.0304768 0 2.6243739
-3.6893488e+19 3.1876979 2
-1.8494228 3.6893488e+19 2.5914609
3.6893488e+19 3.2572432 -0
2.0564539 -1.0842022e-19 2.6441441
3.6893488e+19 3.186532 2
-1.848825 0 2.5779302
3.6893488e+19 3.1669831 0
-1.8388016 2 2.5512226
-2 3.18718 2
2.0104065 2 2.5596945
3.6893488e+19 3.1998632 2
2.2384298 -2 2.562712
0 3.1988132 2
2.2372897 -1.0842022e-19 2.5362012
3.6893488e+19 3.1258192 3.6893488e+19
1.7996532 -3.6893488e+19 2.4675202
-0 3.181514 -0
2.2185075 -1.0842022e-19 2.5128169
0 3.1663058 2
1.8184683 -2 2.494128
0 3.1302142 -2
2.1628096 1.0842022e-19 2.4414263
0 3.1667881 -0
1.8186924 2 2.4709647
3.6893488e+19 3.1315153 0
2.1642225 -3.6893488e+19 2.4211836
3.6893488e+19 3.1306443 -1.0842022e-19
1.8018955 2 2.4084921
1.0842022e-19 3.1339436 -3.6893488e+19
2.1668587 3.6893488e+19 2.402019
-0 3.3315499 -0
1.90408 -0 2.5869966
2 3.2106516 1.0842022e-19
2.2500715 -3.6893488e+19 2.456171
-1.0842022e-19 3.1282787 -2
1.8007962 2 2.363075
-3.6893488e+19 3.1153286 -0
-1.8123165 -2 2.3403237
-0 3.2086415 2
2.02319 1.0842022e-19 2.4145212
3.6893488e+19 3.1126034 0
-1.8109193 -3.6893488e+19 2.3173006
1.0842022e-19 3.2545104 -0
2.0531983 -2 2.4313097
3.6893488e+19 3.1182175 -1.0842022e-19
-1.8137977 0 2.3014436
3.6893488e+19 3.2519572 2
2.0501568 1.0842022e-19 2.3985636
-0 3.1190932 3.6893488e+19
-1.8142468 2 2.2813749
3.6893488e+19 3.2535396 -3.6893488e+19
2.0520418 0 2.3725138
2 3.1195474 -0
-1.8144796 1.0842022e-19 2.2609336
-1.0842022e-19 3.1968067 -2
2.0161405 0 2.3031042
-1.0842022e-19 3.183485 0
-1.8472627 -2 2.2817299
1.0842022e-19 3.1913311 -2
2.0128789 3.6893488e+19 2.2745998
-1.0842022e-19 3.1821308 3.6893488e+19
-1.8465683 0 2.2565994
2 3.1902823 -1.0842022e-19
2.0122542 -1.0842022e-19 2.2484767
3.6893488e+19 3.1819386 -0
-1.8464698 -1.0842022e-19 2.2145505
-3.6893488e+19 3.1951058 1.0842022e-19
2.2332647 3.6893488e+19 2.1797841
-0 3.1242335 -2
2.1563163 3.6893488e+19 2.0693836
2 3.1891611 -2
1.8290898 1.0842022e-19 2.0994084
3.6893488e+19 3.1854939 -3.6893488e+19
1.8273855 2 2.0478125
-1.0842022e-19 3.2394342 -1.0842022e-19
2.2656965 -3.6893488e+19 2.0580218
-1.0842022e-19 3.0934942 3.6893488e+19
1.7846309 3.6893488e+19 1.946519
1.0842022e-19 3.1851802 -0
1.8272398 3.6893488e+19 1.9503841
-2 3.1064098 0
2.1369648 -0 1.8945308
3.6893488e+19 3.2066245 -0
1.8372055 -0 1.9092846
-3.6893488e+19 3.1043441 3.6893488e+19
2.134722 -3.6893488e+19 1.8331289
1.0842022e-19 3.0954568 1.0842022e-19
1.785543 3.6893488e+19 1.7889223
-0 3.1058149 -3.6893488e+19
2.1363187 1.0842022e-19 1.7544113
1.0842022e-19 3.0957966 -2
1.7857008 0 1.6738383
-3.6893488e+19 3.080173 1.0842022e-19
-1.7942911 1.0842022e-19 1.5596589
0 3.1874156 2
2.0105467 -2 1.3227136
-1.0842022e-19 3.079144 -3.6893488e+19
-1.7937634 -1.0842022e-19 -1.4693593
-3.6893488e+19 3.2518988 -3.6893488e+19
2.0500872 -1.0842022e-19 -1.6964406
1.0842022e-19 3.0780053 -3.6893488e+19
-1.7931795 2 -1.7010001
-2 3.2524753 3.6893488e+19
2.0507741 3.6893488e+19 -1.8361868
3.6893488e+19 3.0781941 1.0842022e-19
-1.7932764 -3.6893488e+19 -1.798799
2 3.2534142 0
2.0518925 1.0842022e-19 -1.9125657
3.6893488e+19 3.0802724 1.0842022e-19
-1.794342 -3.6893488e+19 -1.8736073
1.0842022e-19 3.2523737 1.0842022e-19
2.050653 -0 -1.9682723
-0 3.0748384 -3.6893488e+19
-1.7915558 -1.0842022e-19 -1.9085249
-0 3.0741994 -1.0842022e-19
-1.7912282 3.6893488e+19 -1.9444236
-1.0842022e-19 3.0747211 3.6893488e+19
1.9434203 -3.6893488e+19 -1.9629942
1.0842022e-19 3.0737324 3.6893488e+19
-1.7909887 3.6893488e+19 -1.9803135
1.0842022e-19 3.0732481 -3.6893488e+19
1.9425428 1.0842022e-19 -1.9981753
3.6893488e+19 3.0910137 -0
2.1202486 0 -2.0313497
0 3.0219049 -2
1.7513614 3.6893488e+19 -1.9890479
1.0842022e-19 2.8223801 0
