# .PCD v0.7 - Point Cloud Data file format
VERSION 0.7
FIELDS x y z
SIZE 4 4 4
TYPE F F F
COUNT 1 1 1
WIDTH 1734
HEIGHT 1
VIEWPOINT 0 0 0 1 0 0 0
POINTS 1734
DATA ascii
1.0842022e-19 3.2597942 -2
2.760776 1.0842022e-19 2.4083328
3.6893488e+19 3.2511787 3.6893488e+19
2.8098047 1.0842022e-19 2.3859239
3.6893488e+19 3.2670557 1.0842022e-19
2.7680652 2 2.3887742
2 3.251616 3.6893488e+19
2.810344 -0 2.3569953
-2 3.2598572 2
2.7608395 -3.6893488e+19 2.3482003
-0 3.2483962 -1.0842022e-19
2.8073616 2 2.3242893
-1.0842022e-19 3.1735718 -1.0842022e-19
2.6751728 0 2.2592824
1.0842022e-19 3.2593806 2
2.8199208 -3.6893488e+19 2.3070953
-2 3.2606554 0
2.7616408 -1.0842022e-19 2.2889903
3.6893488e+19 3.1733096 1.0842022e-19
2.7610557 -0 2.2015436
-1.0842022e-19 3.2491994 1.0842022e-19
2.841579 -3.6893488e+19 2.254138
-2 3.1637342 0
2.7194605 2 2.1402388
1.0842022e-19 3.2488654 2
2.8413503 -2 2.1989439
-2 3.2454102 -1.0842022e-19
2.7810686 3.6893488e+19 2.1596708
-2 3.2477386 -3.6893488e+19
2.8405793 -3.6893488e+19 2.1391032
-1.0842022e-19 3.244879 -1.0842022e-19
2.7807672 1.0842022e-19 2.1017389
-3.6893488e+19 3.2470875 0
2.7820203 -3.6893488e+19 2.0455823
1.0842022e-19 3.2481885 -1.0842022e-19
2.8408871 1.0842022e-19 2.0218146
-2 3.2471392 1.0842022e-19
2.7820497 3.6893488e+19 1.9879211
-3.6893488e+19 3.2501342 2
2.8423107 -2 1.9639207
0 3.2316878 1.0842022e-19
2.7732832 -2 1.9246387
0 3.1832972 -1.0842022e-19
2.7964849 0 1.8841844
3.6893488e+19 3.1698847 2
2.7264392 -2 1.8320785
-2 3.1611676 0
2.781343 3.6893488e+19 1.7826906
-1.0842022e-19 3.1795981 -3.6893488e+19
2.7374609 -2 1.7244644
0 3.1557891 0
2.6573229 3.6893488e+19 1.608956
-3.6893488e+19 3.1967137 2
2.7754891 2 1.3361515
0 3.1598835 0
2.6614327 -3.6893488e+19 -1.515801
-2 3.198348 -2
2.7764969 1.0842022e-19 -1.6828153
-0 3.16026 -0
2.6618106 1.0842022e-19 -1.7545836
0 3.1676819 2
2.757585 -1.0842022e-19 -1.8076776
-1.0842022e-19 3.1869829 2
2.6886346 0 -1.863554
-0 3.1859219 2
2.6875696 2 -1.919132
0 3.1919839 -1.0842022e-19
2.772572 3.6893488e+19 -1.9498726
-2 3.1842947 -2
2.6859362 1.0842022e-19 -1.9684843
-2 3.088625 -0
2.6676612 -3.6893488e+19 -1.9426892
-3.6893488e+19 3.0879638 -2
2.5892413 1.0842022e-19 -1.9589356
-3.6893488e+19 2.907088 -1.0842022e-19
2.4086268 2 -1.8992785
2 2.771661 -3.6893488e+19
2.3717699 -3.6893488e+19 -1.8613418
1.0842022e-19 2.7467463 -2
2.2818265 3.6893488e+19 -1.8519515
-1.0842022e-19 2.6960618 2
2.3052194 -1.0842022e-19 -1.8454031
3.6893488e+19 2.67993 0
2.2378376 3.6893488e+19 -1.8464351
-1.0842022e-19 2.6400471 -1.0842022e-19
2.266891 -3.6893488e+19 -1.8408065
1.0842022e-19 2.6167495 0
2.1661472 1.0842022e-19 -1.8352432
0 2.5851262 0
2.2086225 -2 -1.8302647
3.6893488e+19 2.5738764 -3.6893488e+19
2.1174994 0 -1.8295411
1.0842022e-19 2.545217 -0
2.1540065 2 -1.8233234
1.0842022e-19 2.5381036 3.6893488e+19
2.0769083 -3.6893488e+19 -1.823754
-1.0842022e-19 2.5178275 1.0842022e-19
2.116524 -0 -1.820817
-0 2.5102627 -1.0842022e-19
2.0453176 1.0842022e-19 -1.8197491
3.6893488e+19 2.4842131 -3.6893488e+19
2.0813243 -1.0842022e-19 -1.8163989
3.6893488e+19 2.4706335 3.6893488e+19
2.0170116 -3.6893488e+19 -1.8148415
1.0842022e-19 2.4424636 1.0842022e-19
2.0527573 -1.0842022e-19 -1.8130602
3.6893488e+19 2.4334641 -1.0842022e-19
1.9959238 -0 -1.8125404
-3.6893488e+19 3.2986486 -0
2.7997775 2 2.7760313
2 3.2932906 2
2.8617456 -0 2.7616909
-1.0842022e-19 3.293339 0
2.8618054 -0 2.7527978
-0 3.2803011 1.0842022e-19
2.7813606 3.6893488e+19 2.7175956
0 3.2549872 2
2.814502 -0 2.6740046
2 3.240515 -0
2.7423689 3.6893488e+19 2.6444793
-0 3.2428083 1.0842022e-19
2.7446711 -0 2.6316354
-0 3.2692888 -0
2.8685236 2 2.6447766
2 3.2505283 0
2.7842722 -0 2.6037354
2 3.2593846 1.0842022e-19
2.8549697 0 2.614526
-0 3.2521689 1.0842022e-19
2.7861338 0 2.5910287
-2 3.2573135 -0
2.8521354 -0 2.5960491
1.0842022e-19 3.2532508 -3.6893488e+19
2.7873611 0 2.577441
-3.6893488e+19 3.2391357 -3.6893488e+19
2.7775087 -0 2.5517082
-0 3.2434402 -1.0842022e-19
2.7799509 1.0842022e-19 2.5397599
1.0842022e-19 3.2353921 1.0842022e-19
2.7753849 3.6893488e+19 2.5206995
-0 3.2536197 -3.6893488e+19
2.8470802 1.0842022e-19 2.5300279
0 3.2421868 -2
2.7792397 1.0842022e-19 2.5099783
-3.6893488e+19 3.253947 3.6893488e+19
2.8475285 3.6893488e+19 2.515178
-3.6893488e+19 3.2449985 0
2.7808352 1.0842022e-19 2.4937975
-1.0842022e-19 3.2529123 1.0842022e-19
2.7538683 -0 2.4857514
2 3.2500632 1.0842022e-19
2.8084288 -1.0842022e-19 2.4726887
2 3.1707428 3.6893488e+19
2.672333 -2 2.3795431
0 3.2438262 -0
2.8045433 -0 2.4375725
-3.6893488e+19 3.1720784 2
2.6736739 0 2.3562052
-2 3.2525721 -2
2.8115232 1.0842022e-19 2.4178097
-3.6893488e+19 3.1717958 -2
2.6733902 -2 2.3314798
2 3.2354963 2
2.7994063 2 2.3729706
2 3.1718848 -0
2.6734793 -3.6893488e+19 2.3070853
-1.0842022e-19 3.18399 -1.0842022e-19
2.7676423 -0 2.3078747
-2 3.2598572 2
2.7608395 -3.6893488e+19 2.3482003
-3.6893488e+19 3.1745298 -1.0842022e-19
2.7618082 -1.0842022e-19 2.276227
-1.0842022e-19 3.1735718 -1.0842022e-19
2.6751728 0 2.2592824
0 3.173439 -2
2.7611353 -2 2.2506666
-2 3.1739621 -3.6893488e+19
2.6755645 -0 2.2200494
3.6893488e+19 3.1733096 1.0842022e-19
2.7610557 -0 2.2015436
-1.0842022e-19 3.2491994 1.0842022e-19
2.841579 -3.6893488e+19 2.254138
-2 3.1637342 0
2.7194605 2 2.1402388
1.0842022e-19 3.2488654 2
2.8413503 -2 2.1989439
1.0842022e-19 3.1647286 0
2.7205887 3.6893488e+19 2.0929525
-2 3.2477386 -3.6893488e+19
2.8405793 -3.6893488e+19 2.1391032
-1.0842022e-19 3.1651025 -2
2.7210128 -1.0842022e-19 2.045037
-3.6893488e+19 3.168611 1.0842022e-19
2.7249942 0 1.9989182
1.0842022e-19 3.2481885 -1.0842022e-19
2.8408871 1.0842022e-19 2.0218146
-0 3.1720109 -0
2.7288518 2 1.9519662
2 3.1650827 -2
2.7840216 3.6893488e+19 1.9274942
-3.6893488e+19 3.1676669 -3.6893488e+19
2.7239227 1.0842022e-19 1.9014277
-1.0842022e-19 3.1663282 -0
2.784874 2 1.8789294
3.6893488e+19 3.1698847 2
2.7264392 -2 1.8320785
-2 3.1611676 0
2.781343 3.6893488e+19 1.7826906
-1.0842022e-19 3.1795981 -3.6893488e+19
2.7374609 -2 1.7244644
0 3.1557891 0
2.6573229 3.6893488e+19 1.608956
2 3.1610579 -1.0842022e-19
2.7535 -3.6893488e+19 1.3192977
0 3.1598835 0
2.6614327 -3.6893488e+19 -1.515801
-0 3.1614685 -1.0842022e-19
2.7537532 2 -1.6677775
-0 3.16026 -0
2.6618106 1.0842022e-19 -1.7545836
0 3.1676819 2
2.757585 -1.0842022e-19 -1.8076776
1.0842022e-19 3.1626775 3.6893488e+19
2.6642373 -2 -1.8502853
-2 3.1634076 -1.0842022e-19
2.6649702 -2 -1.9103967
0 3.1919839 -1.0842022e-19
2.772572 3.6893488e+19 -1.9498726
-2 3.1842947 -2
2.6859362 1.0842022e-19 -1.9684843
-2 3.088625 -0
2.6676612 -3.6893488e+19 -1.9426892
-3.6893488e+19 3.0879638 -2
2.5892413 1.0842022e-19 -1.9589356
-3.6893488e+19 2.907088 -1.0842022e-19
2.4086268 2 -1.8992785
2 2.771661 -3.6893488e+19
2.3717699 -3.6893488e+19 -1.8613418
1.0842022e-19 2.7467463 -2
2.2818265 3.6893488e+19 -1.8519515
-1.0842022e-19 2.6960618 2
2.3052194 -1.0842022e-19 -1.8454031
3.6893488e+19 2.67993 0
2.2378376 3.6893488e+19 -1.8464351
-1.0842022e-19 2.6400471 -1.0842022e-19
2.266891 -3.6893488e+19 -1.8408065
1.0842022e-19 2.6167495 0
2.1661472 1.0842022e-19 -1.8352432
0 2.5851262 0
2.2086225 -2 -1.8302647
3.6893488e+19 2.5738764 -3.6893488e+19
2.1174994 0 -1.8295411
1.0842022e-19 2.545217 -0
2.1540065 2 -1.8233234
1.0842022e-19 2.5381036 3.6893488e+19
2.0769083 -3.6893488e+19 -1.823754
-1.0842022e-19 2.5178275 1.0842022e-19
2.116524 -0 -1.820817
-0 2.5102627 -1.0842022e-19
2.0453176 1.0842022e-19 -1.8197491
3.6893488e+19 2.4842131 -3.6893488e+19
2.0813243 -1.0842022e-19 -1.8163989
3.6893488e+19 2.4706335 3.6893488e+19
2.0170116 -3.6893488e+19 -1.8148415
1.0842022e-19 2.4424636 1.0842022e-19
2.0527573 -1.0842022e-19 -1.8130602
3.6893488e+19 2.4334641 -1.0842022e-19
1.9959238 -0 -1.8125404
-0 3.2993622 -1.0842022e-19
2.7971566 -2 2.7765095
2 3.2923138 0
2.8571844 -0 2.7606094
3.6893488e+19 3.293751 0
2.8589406 -3.6893488e+19 2.752949
1.0842022e-19 3.2805145 -2
2.7784476 2 2.7176452
2 3.2552218 -2
2.8118608 -2 2.6740532
1.0842022e-19 3.2398539 -1.0842022e-19
2.7362447 -2 2.6436896
2 3.2432206 -2
2.7395866 -2 2.6317046
1.0842022e-19 3.2461226 0
2.7424674 2 2.6192148
-0 3.2695441 -0
2.8657162 -2 2.6447978
0 3.2844243 -0
2.8195109 3.6893488e+19 2.6512978
-2 3.2595289 0
2.8521278 2 2.614403
1.0842022e-19 3.2863131 -3.6893488e+19
2.8216326 1.0842022e-19 2.6369178
-0 3.2528586 -1.0842022e-19
2.7840514 -1.0842022e-19 2.5766919
2 3.2601352 3.6893488e+19
2.7922256 2 2.5706751
1.0842022e-19 3.2587297 -3.6893488e+19
2.7906466 -1.0842022e-19 2.5536394
2 3.2588737 -1.0842022e-19
2.7908084 3.6893488e+19 2.5385301
2 3.2534797 -2
2.84392 -3.6893488e+19 2.529623
-1.0842022e-19 3.2444017 -0
2.7776957 -2 2.5109549
-1.0842022e-19 3.254086 -1.0842022e-19
2.8447428 -2 2.5150859
1.0842022e-19 3.2555389 0
2.7870624 1.0842022e-19 2.5047302
-3.6893488e+19 3.2633359 2
2.7613959 -2 2.5027201
-1.0842022e-19 3.2506654 1.0842022e-19
2.8062935 -3.6893488e+19 2.4734459
2 3.2614932 -1.0842022e-19
2.7595665 -0 2.4714663
-0 3.2441347 0
2.8018968 3.6893488e+19 2.4374936
-1.0842022e-19 3.2619426 0
2.7600129 -2 2.4418337
-3.6893488e+19 3.2530134 -3.6893488e+19
2.8091624 -0 2.4182029
-1.0842022e-19 3.2596774 1.0842022e-19
2.7577643 3.6893488e+19 2.4078822
0 3.2507412 -3.6893488e+19
2.8063858 -2 2.3849413
-3.6893488e+19 3.267729 -1.0842022e-19
2.7657566 2 2.3894994
0 3.2510147 3.6893488e+19
2.80672 -0 2.3558555
-1.0842022e-19 3.2609797 -2
2.7590568 2 2.3494756
0 3.247874 0
2.8041813 -0 2.3236887
-2 3.2648263 0
2.7628753 -3.6893488e+19 2.3240056
-2 3.1782517 -1.0842022e-19
2.7616448 1.0842022e-19 2.2533119
-1.0842022e-19 3.2606597 -2
2.7587392 1.0842022e-19 2.288806
3.6893488e+19 3.1744559 2
2.7593257 -1.0842022e-19 2.2024019
-0 3.2500591 1.0842022e-19
2.8392792 1.0842022e-19 2.2543786
0 3.1644614 2
2.7155895 -1.0842022e-19 2.140635
1.0842022e-19 3.2487204 1.0842022e-19
2.8383307 -3.6893488e+19 2.1984124
-2 3.2541988 3.6893488e+19
2.785557 2 2.1700995
-3.6893488e+19 3.2497799 3.6893488e+19
2.8390496 3.6893488e+19 2.1403501
-0 3.2535293 -1.0842022e-19
2.7848048 -0 2.1101289
0 3.2564998 -3.6893488e+19
2.8480175 -0 2.0901377
2 3.1683199 0
2.7199242 -2 1.9985608
-0 3.2486634 2
2.8382921 -1.0842022e-19 2.0218306
-3.6893488e+19 3.2336736 -2
2.7716699 -1.0842022e-19 1.9813054
-0 3.2488818 -1.0842022e-19
2.8384402 0 1.9631371
-3.6893488e+19 3.2315631 -2
2.7704844 0 1.9244645
1.0842022e-19 3.1650732 -2
2.7815845 3.6893488e+19 1.8784258
3.6893488e+19 3.2272627 3.6893488e+19
2.768069 2 1.860202
-1.0842022e-19 3.2391846 2
2.8318617 -2 1.812444
-3.6893488e+19 3.1817815 -3.6893488e+19
2.7350464 1.0842022e-19 1.7254384
3.6893488e+19 3.1797423 -0
2.6765761 2 1.622604
0 3.1989267 -2
2.7742763 -0 1.3370266
-2 3.1598485 -1.0842022e-19
2.6568289 3.6893488e+19 -1.5156969
-3.6893488e+19 3.2005322 -0
2.7752573 -3.6893488e+19 -1.683558
2 3.1768456 -3.6893488e+19
2.6737006 0 -1.759734
-0 3.1655378 3.6893488e+19
2.7538772 -2 -1.8065937
0 3.1619167 0
2.6588819 0 -1.8497229
-2 3.1679699 0
2.7553632 3.6893488e+19 -1.8900831
-1.0842022e-19 3.184479 3.6893488e+19
2.681278 -2 -1.9184618
-2 3.1901588 1.0842022e-19
2.7689197 -2 -1.9488871
2 3.1850946 0
2.6818891 -1.0842022e-19 -1.9687433
3.6893488e+19 3.0883303 -0
2.6634128 0 -1.9423666
-2 3.0863667 3.6893488e+19
2.5838885 3.6893488e+19 -1.9578121
1.0842022e-19 2.9025674 0
2.3996015 3.6893488e+19 -1.8975241
1.0842022e-19 2.8136284 -1.0842022e-19
2.383229 2 -1.8757999
3.6893488e+19 2.774682 2
2.3726873 -1.0842022e-19 -1.8637567
3.6893488e+19 2.7420673 0
2.2763846 -0 -1.8496474
-1.0842022e-19 2.6988242 3.6893488e+19
2.3044813 1.0842022e-19 -1.8465699
-2 2.6786869 -0
2.23157 0 -1.8456315
-1.0842022e-19 2.6409864 -1.0842022e-19
2.2652442 -2 -1.841133
-2 2.6200225 -3.6893488e+19
2.1656687 2 -1.8369626
-0 2.5853076 2
2.2049439 -2 -1.8301924
-2 2.5730362 -1.0842022e-19
2.1128862 -1.0842022e-19 -1.8288594
2 2.5452449 -2
2.1505868 3.6893488e+19 -1.8231649
2 2.538317 0
2.073884 -3.6893488e+19 -1.823754
0 2.5180671 -1.0842022e-19
2.1137121 -0 -1.820817
3.6893488e+19 2.5094967 1.0842022e-19
2.0415084 -2 -1.8190321
-3.6893488e+19 2.4841745 -0
2.0784628 -3.6893488e+19 -1.8162127
-0 2.4724195 -0
2.0153487 0 -1.815421
3.6893488e+19 2.4414458 -3.6893488e+19
2.0494757 -3.6893488e+19 -1.8124599
2 2.4335458 0
1.9935142 2 -1.8124369
-1.0842022e-19 2.3996799 -2
1.9483676 1.0842022e-19 -1.8138365
3.6893488e+19 2.345818 -3.6893488e+19
1.921635 3.6893488e+19 -1.8085538
2 2.3072124 -2
1.9024744 2 -1.8060414
2 2.2754097 -0
1.8866903 1.0842022e-19 -1.8034819
2 2.2418842 -0
1.9168465 -3.6893488e+19 -1.8032252
1.0842022e-19 2.1941078 0
1.9006408 1.0842022e-19 -1.799409
2 2.1562359 3.6893488e+19
1.8877947 -3.6893488e+19 -1.7969441
0 2.1166384 3.6893488e+19
1.8737266 3.6893488e+19 -1.7914455
-0 3.2993622 -1.0842022e-19
2.7971566 -2 2.7765095
2 3.2923138 0
2.8571844 -0 2.7606094
3.6893488e+19 3.293751 0
2.8589406 -3.6893488e+19 2.752949
1.0842022e-19 3.2805145 -2
2.7784476 2 2.7176452
2 3.2552218 -2
2.8118608 -2 2.6740532
1.0842022e-19 3.2398539 -1.0842022e-19
2.7362447 -2 2.6436896
2 3.2432206 -2
2.7395866 -2 2.6317046
1.0842022e-19 3.2461226 0
2.7424674 2 2.6192148
-0 3.2695441 -0
2.8657162 -2 2.6447978
0 3.2844243 -0
2.8195109 3.6893488e+19 2.6512978
-2 3.2595289 0
2.8521278 2 2.614403
-1.0842022e-19 3.2522814 1.0842022e-19
2.7834032 2 2.5909283
-0 3.2528586 -1.0842022e-19
2.7840514 -1.0842022e-19 2.5766919
2 3.2390518 -2
2.7746906 -0 2.5514331
3.6893488e+19 3.2429121 0
2.776859 -1.0842022e-19 2.5392354
-2 3.235841 -3.6893488e+19
2.7728872 -0 2.5207493
2 3.2534797 -2
2.84392 -3.6893488e+19 2.529623
-1.0842022e-19 3.2444017 -0
2.7776957 -2 2.5109549
-1.0842022e-19 3.254086 -1.0842022e-19
2.8447428 -2 2.5150859
-2 3.2430053 -2
2.7769113 -1.0842022e-19 2.4914451
3.6893488e+19 3.2522495 3.6893488e+19
2.750391 -3.6893488e+19 2.4841611
-1.0842022e-19 3.2506654 1.0842022e-19
2.8062935 -3.6893488e+19 2.4734459
3.6893488e+19 3.2545435 -0
2.7526681 -1.0842022e-19 2.4589362
-0 3.2441347 0
2.8018968 3.6893488e+19 2.4374936
-1.0842022e-19 3.2619426 0
2.7600129 -2 2.4418337
-3.6893488e+19 3.2530134 -3.6893488e+19
2.8091624 -0 2.4182029
-0 3.1706531 -0
2.6675539 2 2.3303654
1.0842022e-19 3.1886261 0
2.7679832 -1.0842022e-19 2.3366923
0 3.1719496 0
2.6688409 -1.0842022e-19 2.3069315
-2 3.1868708 3.6893488e+19
2.7669108 2 2.309669
2 3.1727128 -1.0842022e-19
2.6695983 0 2.2830255
-0 3.1781197 0
2.7615643 1.0842022e-19 2.2783387
0 3.1730025 3.6893488e+19
2.6698859 0 2.2587643
-2 3.1782517 -1.0842022e-19
2.7616448 1.0842022e-19 2.2533119
-2 3.1723332 -2
2.6692216 -0 2.217937
3.6893488e+19 3.1744559 2
2.7593257 -1.0842022e-19 2.2024019
-0 3.1936667 2
2.8009825 1.0842022e-19 2.2013304
0 3.1644614 2
2.7155895 -1.0842022e-19 2.140635
0 3.1927488 0
2.8003597 2 2.148087
-3.6893488e+19 3.165246 2
2.7164712 3.6893488e+19 2.0931263
0 3.1924884 2
2.8001831 3.6893488e+19 2.0956028
2 3.1649892 -1.0842022e-19
2.7161825 1.0842022e-19 2.0447383
-0 3.1665385 3.6893488e+19
2.7825787 -0 2.0261805
2 3.1683199 0
2.7199242 -2 1.9985608
-2 3.1675296 -1.0842022e-19
2.783251 1.0842022e-19 1.9776032
-3.6893488e+19 3.2336736 -2
2.7716699 -1.0842022e-19 1.9813054
-3.6893488e+19 3.1647437 -2
2.7813611 -3.6893488e+19 1.9271908
3.6893488e+19 3.1675854 1.0842022e-19
2.719099 -1.0842022e-19 1.901286
1.0842022e-19 3.1650732 -2
2.7815845 3.6893488e+19 1.8784258
-0 3.1731739 -2
2.7253768 -2 1.8335462
-3.6893488e+19 3.1600556 3.6893488e+19
2.7781808 3.6893488e+19 1.7821237
-3.6893488e+19 3.1817815 -3.6893488e+19
2.7350464 1.0842022e-19 1.7254384
1.0842022e-19 3.1568434 -3.6893488e+19
2.6538458 -2 1.6094103
0 3.1604626 -0
2.7507763 2 1.3188602
-2 3.1598485 -1.0842022e-19
2.6568289 3.6893488e+19 -1.5156969
-1.0842022e-19 3.1627264 0
2.7521596 -1.0842022e-19 -1.668155
-1.0842022e-19 3.1596491 -1.0842022e-19
2.656631 3.6893488e+19 -1.754306
-0 3.1655378 3.6893488e+19
2.7538772 -2 -1.8065937
0 3.1619167 0
2.6588819 0 -1.8497229
-2 3.1679699 0
2.7553632 3.6893488e+19 -1.8900831
-1.0842022e-19 3.1647093 2
2.661654 0 -1.9107965
-3.6893488e+19 3.1678417 2
2.7552848 3.6893488e+19 -1.9388031
2 3.1850946 0
2.6818891 -1.0842022e-19 -1.9687433
3.6893488e+19 3.0883303 -0
2.6634128 0 -1.9423666
-2 3.0863667 3.6893488e+19
2.5838885 3.6893488e+19 -1.9578121
1.0842022e-19 2.9025674 0
2.3996015 3.6893488e+19 -1.8975241
1.0842022e-19 2.8136284 -1.0842022e-19
2.383229 2 -1.8757999
3.6893488e+19 2.774682 2
2.3726873 -1.0842022e-19 -1.8637567
3.6893488e+19 2.7420673 0
2.2763846 -0 -1.8496474
-1.0842022e-19 2.6988242 3.6893488e+19
2.3044813 1.0842022e-19 -1.8465699
-2 2.6786869 -0
2.23157 0 -1.8456315
-1.0842022e-19 2.6409864 -1.0842022e-19
2.2652442 -2 -1.841133
-2 2.6200225 -3.6893488e+19
2.1656687 2 -1.8369626
-0 2.5853076 2
2.2049439 -2 -1.8301924
-2 2.5730362 -1.0842022e-19
2.1128862 -1.0842022e-19 -1.8288594
2 2.5452449 -2
2.1505868 3.6893488e+19 -1.8231649
2 2.538317 0
2.073884 -3.6893488e+19 -1.823754
0 2.5180671 -1.0842022e-19
2.1137121 -0 -1.820817
3.6893488e+19 2.5094967 1.0842022e-19
2.0415084 -2 -1.8190321
-3.6893488e+19 2.4841745 -0
2.0784628 -3.6893488e+19 -1.8162127
-0 2.4724195 -0
2.0153487 0 -1.815421
3.6893488e+19 2.4414458 -3.6893488e+19
2.0494757 -3.6893488e+19 -1.8124599
2 2.4335458 0
1.9935142 2 -1.8124369
-1.0842022e-19 2.3996799 -2
1.9483676 1.0842022e-19 -1.8138365
3.6893488e+19 2.345818 -3.6893488e+19
1.921635 3.6893488e+19 -1.8085538
2 2.3072124 -2
1.9024744 2 -1.8060414
2 2.2754097 -0
1.8866903 1.0842022e-19 -1.8034819
2 2.2418842 -0
1.9168465 -3.6893488e+19 -1.8032252
1.0842022e-19 2.1941078 0
1.9006408 1.0842022e-19 -1.799409
2 2.1562359 3.6893488e+19
1.8877947 -3.6893488e+19 -1.7969441
0 2.1166384 3.6893488e+19
1.8737266 3.6893488e+19 -1.7914455
2 3.3007367 1.0842022e-19
2.7951729 1.0842022e-19 2.7866812
0 3.2998672 2
2.7943194 -1.0842022e-19 2.7767966
-0 3.2954428 1.0842022e-19
2.7899771 3.6893488e+19 2.7549498
-2 3.2807257 3.6893488e+19
2.7755322 0 2.7176948
1.0842022e-19 3.2552202 1.0842022e-19
2.808933 -2 2.6737123
2 3.2556555 -1.0842022e-19
2.8094599 -3.6893488e+19 2.6589708
-1.0842022e-19 3.2413325 -3.6893488e+19
2.7322426 -0 2.6299975
-1.0842022e-19 3.2474592 -0
2.738256 -2 2.6199698
-0 3.2696371 2
2.8626902 1.0842022e-19 2.6445844
-1.0842022e-19 3.2597153 -3.6893488e+19
2.7888157 -2 2.5699229
-2 3.2588 -3.6893488e+19
2.7877979 1.0842022e-19 2.5534997
-1.0842022e-19 3.2544062 -3.6893488e+19
2.8422029 2 2.5456333
3.6893488e+19 3.2581086 -0
2.787029 -2 2.5374665
-0 3.2537777 1.0842022e-19
2.8413577 2 2.5297041
0 3.257164 1.0842022e-19
2.7859786 -1.0842022e-19 2.5212734
-1.0842022e-19 3.2541349 2
2.8418381 -2 2.5149021
0 3.2560253 0
2.7847123 1.0842022e-19 2.505028
-3.6893488e+19 3.2624664 3.6893488e+19
2.7576108 1.0842022e-19 2.5017228
-3.6893488e+19 3.2508802 2
2.8036799 3.6893488e+19 2.473474
-2 3.2619491 3.6893488e+19
2.757103 -1.0842022e-19 2.4719827
-0 3.2552805 -3.6893488e+19
2.809006 -2 2.4516766
2 3.2616897 1.0842022e-19
2.7568483 2 2.4411213
1.0842022e-19 3.2533345 -2
2.8066504 -0 2.4183996
3.6893488e+19 3.2609937 1.0842022e-19
2.7561653 1.0842022e-19 2.4096844
-0 3.2516263 2
2.8045828 3.6893488e+19 2.3859923
-3.6893488e+19 3.2680838 3.6893488e+19
2.7631242 3.6893488e+19 2.3897631
-3.6893488e+19 3.2507379 -0
2.8035076 1.0842022e-19 2.35518
-0 3.2611184 -1.0842022e-19
2.7562876 3.6893488e+19 2.3494351
2 3.2499113 1.0842022e-19
2.8025606 2 2.3247542
0 3.2655125 1.0842022e-19
2.7606003 3.6893488e+19 2.3246348
1.0842022e-19 3.2504878 -3.6893488e+19
2.8032045 3.6893488e+19 2.2960918
1.0842022e-19 3.2622821 -3.6893488e+19
2.7574296 3.6893488e+19 2.2904153
-0 3.2412405 2
2.7973127 2 2.2615831
-2 3.2513895 -0
2.8381453 -2 2.2555053
-0 3.2553129 -3.6893488e+19
2.78392 3.6893488e+19 2.2309189
1.0842022e-19 3.2502911 -2
2.8366675 3.6893488e+19 2.199688
2 3.2545507 2
2.7830725 -2 2.1703725
-1.0842022e-19 3.2502446 1.0842022e-19
2.8366053 0 2.140558
-0 3.2526624 1.0842022e-19
2.7809727 -0 2.1086345
-3.6893488e+19 3.256135 -2
2.8445284 0 2.0893536
-3.6893488e+19 3.1691983 0
2.7161686 1.0842022e-19 1.9989003
-3.6893488e+19 3.2505295 0
2.8369887 1.0842022e-19 2.0228949
0 3.2359245 3.6893488e+19
2.7701855 2 1.9822115
-2 3.2481987 -1.0842022e-19
2.8350646 0 1.9626569
3.6893488e+19 3.2282441 -3.6893488e+19
2.7659149 -2 1.9231349
0 3.2501442 1.0842022e-19
2.8364701 1.0842022e-19 1.9046549
-0 3.2292082 -0
2.7664511 -0 1.8609877
3.6893488e+19 3.1606562 -1.0842022e-19
2.7761877 3.6893488e+19 1.7822144
2 3.1694834 3.6893488e+19
2.7164855 0 1.7188568
-1.0842022e-19 3.1910374 -1.0842022e-19
2.682878 0 1.6269737
0 3.1609995 -2
2.7474971 1.0842022e-19 1.318959
-0 3.2002361 -2
2.6919065 -0 -1.5294615
-1.0842022e-19 3.2055278 2
2.7756984 -3.6893488e+19 -1.6854453
2 3.1902628 3.6893488e+19
2.6821177 -1.0842022e-19 -1.7638792
-2 3.1692789 0
2.7537596 -2 -1.8080825
3.6893488e+19 3.1616979 0
2.6540813 -0 -1.8494581
-0 3.2045178 3.6893488e+19
2.7750871 -3.6893488e+19 -1.9022106
-1.0842022e-19 3.1638856 -0
2.6562285 -0 -1.9103732
1.0842022e-19 3.17571 0
2.7576518 2 -1.942205
2 3.09147 -3.6893488e+19
2.6633346 -0 -1.9439969
3.6893488e+19 3.0868878 0
2.5806553 1.0842022e-19 -1.9579993
-3.6893488e+19 2.8898511 -2
2.3826387 -0 -1.8927717
1.0842022e-19 2.8171053 -0
2.3838422 -0 -1.8770931
-1.0842022e-19 2.776582 -3.6893488e+19
2.3720317 -0 -1.8651953
-1.0842022e-19 2.7436306 -0
2.2744703 2 -1.850196
-1.0842022e-19 2.6994586 0
2.3022845 0 -1.8466866
3.6893488e+19 2.6790013 -0
2.2270699 0 -1.8456315
1.0842022e-19 2.6395597 -2
2.2619991 3.6893488e+19 -1.8401536
0 2.6200538 0
2.1615174 3.6893488e+19 -1.836825
-3.6893488e+19 2.5853684 0
2.2011058 -0 -1.830048
-2 2.5735133 -1.0842022e-19
2.1097622 2 -1.829011
-1.0842022e-19 2.5469239 2
2.1493938 2 -1.8241154
2 2.5382884 -2
2.0705903 -3.6893488e+19 -1.8235886
-2 2.5159438 3.6893488e+19
2.1077223 0 -1.8190941
3.6893488e+19 2.509567 -3.6893488e+19
2.0386508 -2 -1.8189424
3.6893488e+19 2.483896 0
2.0754454 1.0842022e-19 -1.8159335
-0 2.4727659 2
2.0128691 0 -1.815421
3.6893488e+19 2.4472599 -1.0842022e-19
2.0508056 -3.6893488e+19 -1.8147607
-2 2.4338636 0
1.9912386 2 -1.8124369
2 3.3007367 1.0842022e-19
2.7951729 1.0842022e-19 2.7866812
0 3.2998672 2
2.7943194 -1.0842022e-19 2.7767966
-0 3.2954428 1.0842022e-19
2.7899771 3.6893488e+19 2.7549498
-2 3.2807257 3.6893488e+19
2.7755322 0 2.7176948
1.0842022e-19 3.2552202 1.0842022e-19
2.808933 -2 2.6737123
2 3.2556555 -1.0842022e-19
2.8094599 -3.6893488e+19 2.6589708
-1.0842022e-19 3.2413325 -3.6893488e+19
2.7322426 -0 2.6299975
-1.0842022e-19 3.2474592 -0
2.738256 -2 2.6199698
-0 3.2696371 2
2.8626902 1.0842022e-19 2.6445844
-1.0842022e-19 3.2597153 -3.6893488e+19
2.7888157 -2 2.5699229
1.0842022e-19 3.2432139 3.6893488e+19
2.7742386 -3.6893488e+19 2.5392003
-1.0842022e-19 3.2544062 -3.6893488e+19
2.8422029 2 2.5456333
-1.0842022e-19 3.2387338 3.6893488e+19
2.7717476 -3.6893488e+19 2.5221617
-0 3.2537777 1.0842022e-19
2.8413577 2 2.5297041
2 3.2450929 -0
2.7752833 -1.0842022e-19 2.5111282
-1.0842022e-19 3.2541349 2
2.8418381 -2 2.5149021
0 3.2560253 0
2.7847123 1.0842022e-19 2.505028
-3.6893488e+19 3.2624664 3.6893488e+19
2.7576108 1.0842022e-19 2.5017228
-3.6893488e+19 3.2508802 2
2.8036799 3.6893488e+19 2.473474
-2 3.2619491 3.6893488e+19
2.757103 -1.0842022e-19 2.4719827
-3.6893488e+19 3.2380743 1.0842022e-19
2.7953966 3.6893488e+19 2.4317834
-3.6893488e+19 3.2509713 -1.0842022e-19
2.7426567 -0 2.423054
1.0842022e-19 3.2533345 -2
2.8066504 -0 2.4183996
-1.0842022e-19 3.1827085 -3.6893488e+19
2.6747031 -3.6893488e+19 2.3396132
-3.6893488e+19 3.1890652 0
2.7657349 1.0842022e-19 2.336761
-2 3.1722832 0
2.6644709 0 2.3069756
2 3.1891866 -1.0842022e-19
2.7658081 -2 2.3110621
-1.0842022e-19 3.1707177 3.6893488e+19
2.6629343 -3.6893488e+19 2.2815073
3.6893488e+19 3.1877952 -1.0842022e-19
2.764966 1.0842022e-19 2.2844021
-3.6893488e+19 3.1710668 -0
2.6632769 -2 2.2574134
1.0842022e-19 3.1809506 -0
2.7608235 1.0842022e-19 2.254705
1.0842022e-19 3.1730006 -2
2.6651747 -2 2.2183728
-1.0842022e-19 3.1777496 1.0842022e-19
2.7588863 0 2.2055492
-3.6893488e+19 3.18519 -3.6893488e+19
2.7926879 -1.0842022e-19 2.1923151
-3.6893488e+19 3.1670196 1.0842022e-19
2.7137458 -1.0842022e-19 2.1427584
-2 3.191396 3.6893488e+19
2.7968619 -3.6893488e+19 2.1465192
-1.0842022e-19 3.166152 1.0842022e-19
2.712781 3.6893488e+19 2.0936229
-1.0842022e-19 3.1846254 2
2.7923083 -3.6893488e+19 2.0891607
-0 3.2526624 1.0842022e-19
2.7809727 -0 2.1086345
-0 3.1659014 -3.6893488e+19
2.7797153 -0 2.0255139
-3.6893488e+19 3.1691983 0
2.7161686 1.0842022e-19 1.9989003
-3.6893488e+19 3.1666267 0
2.7802033 0 1.9769099
0 3.1721518 1.0842022e-19
2.7194529 0 1.9517361
3.6893488e+19 3.1626241 -3.6893488e+19
2.7775111 -0 1.9261291
-1.0842022e-19 3.1699986 -3.6893488e+19
2.7170584 -1.0842022e-19 1.9020488
0 3.1640196 1.0842022e-19
2.7784498 1.0842022e-19 1.8779864
-0 3.2292082 -0
2.7664511 -0 1.8609877
3.6893488e+19 3.1606562 -1.0842022e-19
2.7761877 3.6893488e+19 1.7822144
2 3.1694834 3.6893488e+19
2.7164855 0 1.7188568
-2 3.1559231 -0
2.6484134 -2 1.6087288
0 3.1609995 -2
2.7474971 1.0842022e-19 1.318959
-1.0842022e-19 3.1532853 0
2.6458244 -0 -1.5133542
1.0842022e-19 3.1638634 3.6893488e+19
2.7504818 -0 -1.6684837
-3.6893488e+19 3.1505671 2
2.6431565 0 -1.7513574
-2 3.1692789 0
2.7537596 -2 -1.8080825
3.6893488e+19 3.1616979 0
2.6540813 -0 -1.8494581
2 3.169111 -1.0842022e-19
2.7536578 -0 -1.8903534
-1.0842022e-19 3.1638856 -0
2.6562285 -0 -1.9103732
1.0842022e-19 3.17571 0
2.7576518 2 -1.942205
2 3.09147 -3.6893488e+19
2.6633346 -0 -1.9439969
3.6893488e+19 3.0868878 0
2.5806553 1.0842022e-19 -1.9579993
-3.6893488e+19 2.8898511 -2
2.3826387 -0 -1.8927717
1.0842022e-19 2.8171053 -0
2.3838422 -0 -1.8770931
-1.0842022e-19 2.776582 -3.6893488e+19
2.3720317 -0 -1.8651953
-1.0842022e-19 2.7436306 -0
2.2744703 2 -1.850196
-1.0842022e-19 2.6994586 0
2.3022845 0 -1.8466866
3.6893488e+19 2.6790013 -0
2.2270699 0 -1.8456315
1.0842022e-19 2.6395597 -2
2.2619991 3.6893488e+19 -1.8401536
0 2.6200538 0
2.1615174 3.6893488e+19 -1.836825
-3.6893488e+19 2.5853684 0
2.2011058 -0 -1.830048
-2 2.5735133 -1.0842022e-19
2.1097622 2 -1.829011
-1.0842022e-19 2.5469239 2
2.1493938 2 -1.8241154
2 2.5382884 -2
2.0705903 -3.6893488e+19 -1.8235886
-2 2.5159438 3.6893488e+19
2.1077223 0 -1.8190941
3.6893488e+19 2.509567 -3.6893488e+19
2.0386508 -2 -1.8189424
3.6893488e+19 2.483896 0
2.0754454 1.0842022e-19 -1.8159335
-0 2.4727659 2
2.0128691 0 -1.815421
3.6893488e+19 2.4472599 -1.0842022e-19
2.0508056 -3.6893488e+19 -1.8147607
-2 2.4338636 0
1.9912386 2 -1.8124369
2 3.3000703 -2
2.791198 -2 2.7858636
-2 3.3007989 -2
2.7919052 1.0842022e-19 2.7774801
-3.6893488e+19 3.2967651 2
2.7879908 0 2.7648292
0 3.2958839 -1.0842022e-19
2.7871354 2 2.7551677
3.6893488e+19 3.256933 -0
2.8080792 -0 2.6762207
-3.6893488e+19 3.2554743 2
2.8063304 -0 2.65836
-0 3.2429888 -1.0842022e-19
2.7284126 -1.0842022e-19 2.6310356
3.6893488e+19 3.2566323 -1.0842022e-19
2.8077188 -1.0842022e-19 2.6293142
-2 3.2670979 2
2.8561723 -0 2.640527
-3.6893488e+19 3.2584605 3.6893488e+19
2.7845144 -3.6893488e+19 2.614135
2 3.2599478 -0
2.7861514 -1.0842022e-19 2.569978
-2 3.2535713 -2
2.8381345 -2 2.5596108
-2 3.2589571 2
2.7850611 -0 2.5534647
2 3.2546141 -2
2.839525 -2 2.5456161
3.6893488e+19 3.2580562 -3.6893488e+19
2.7840691 -0 2.5372007
3.6893488e+19 3.2549698 -0
2.8399994 -3.6893488e+19 2.5307722
0 3.2575591 2
2.7835219 -1.0842022e-19 2.5214939
-2 3.2535775 3.6893488e+19
2.8381429 -3.6893488e+19 2.5140901
-0 3.2565093 0
2.7823665 -3.6893488e+19 2.5053256
-0 3.2504382 0
2.8002918 2 2.4722681
1.0842022e-19 3.2675653 -1.0842022e-19
2.759654 2 2.4817948
-2 3.2549901 -2
2.8057497 -0 2.4508083
3.6893488e+19 3.2618866 1.0842022e-19
2.7541435 -1.0842022e-19 2.4411721
1.0842022e-19 3.2551425 3.6893488e+19
2.8059323 -2 2.4210541
-0 3.2625659 -3.6893488e+19
2.7548025 -3.6893488e+19 2.4118896
-1.0842022e-19 3.2521074 -3.6893488e+19
2.8022931 1.0842022e-19 2.3864264
-2 3.2645338 1.0842022e-19
2.7567124 3.6893488e+19 2.3843567
-0 3.1895618 -2
2.7635314 2 2.3110833
-0 3.2656436 2
2.7577894 3.6893488e+19 2.3552644
-1.0842022e-19 3.2516146 3.6893488e+19
2.8017023 1.0842022e-19 2.3266528
-2 3.2655301 -1.0842022e-19
2.7576792 -0 2.3244498
2 3.2515359 1.0842022e-19
2.8016078 2 2.297097
0 3.2650552 -2
2.7572181 -3.6893488e+19 2.2932987
0 3.2506979 1.0842022e-19
2.8006029 -2 2.2667806
1.0842022e-19 3.2491648 -3.6893488e+19
2.8328152 -3.6893488e+19 2.2534468
1.0842022e-19 3.255317 -0
2.7810538 3.6893488e+19 2.2305791
2 3.2510281 -2
2.834743 0 2.200618
-1.0842022e-19 3.2552912 1.0842022e-19
2.7810256 2 2.1712914
0 3.2516482 -3.6893488e+19
2.8355699 -0 2.142405
3.6893488e+19 3.2517161 3.6893488e+19
2.7770901 -2 2.1070333
2 3.2553816 3.6893488e+19
2.8405485 3.6893488e+19 2.0880594
1.0842022e-19 3.2534111 -1.0842022e-19
2.7789557 -1.0842022e-19 2.0507097
-3.6893488e+19 3.2516968 0
2.8356352 2 2.0239267
-2 3.2285955 2
2.7634199 -3.6893488e+19 1.978544
-0 3.2493162 -0
2.8329163 -2 1.9629475
3.6893488e+19 3.2290113 0
2.7636487 -0 1.9232875
3.6893488e+19 3.2498071 2
2.8332436 3.6893488e+19 1.904371
-0 3.2225952 1.0842022e-19
2.7601173 -1.0842022e-19 1.857563
2 3.1621122 -3.6893488e+19
2.7747734 -2 1.7826339
1.0842022e-19 3.1566072 -1.0842022e-19
2.6445849 0 1.6089735
-3.6893488e+19 3.1633582 -0
2.7456434 -3.6893488e+19 1.3199188
-0 3.1901672 1.0842022e-19
2.6771529 -3.6893488e+19 -1.525911
2 3.1641591 3.6893488e+19
2.7466035 3.6893488e+19 -1.6684716
3.6893488e+19 3.1891768 -3.6893488e+19
2.6761916 -3.6893488e+19 -1.7634484
3.6893488e+19 3.1732006 3.6893488e+19
2.7537224 0 -1.8096497
3.6893488e+19 3.1597133 -2
2.6475992 -0 -1.8482338
2 3.1738701 -2
2.7541237 -2 -1.8918356
-3.6893488e+19 3.1630867 -3.6893488e+19
2.6508729 -2 -1.9099617
0 3.1746385 -3.6893488e+19
2.7545843 -3.6893488e+19 -1.9415704
0 3.165225 -3.6893488e+19
2.6529479 2 -1.958486
2 3.1422381 -2
2.7203188 -1.0842022e-19 -1.9726642
-0 3.0869508 2
2.5769882 -2 -1.9579057
0 2.8905852 3.6893488e+19
2.3790367 -2 -1.8929493
-1.0842022e-19 2.8160391 -3.6893488e+19
2.3789513 -3.6893488e+19 -1.8765662
-3.6893488e+19 2.7742777 1.0842022e-19
2.3657465 -2 -1.862986
3.6893488e+19 2.7454314 -2
2.2726862 -1.0842022e-19 -1.8508543
-2 2.6992598 3.6893488e+19
2.2995415 0 -1.8463949
-1.0842022e-19 2.680033 1.0842022e-19
2.223382 3.6893488e+19 -1.8460023
0 2.6401372 -3.6893488e+19
2.2601216 -3.6893488e+19 -1.8402841
-1.0842022e-19 2.6204412 -2
2.157783 2 -1.8368938
-0 2.5858984 -2
2.1979167 -2 -1.8301924
3.6893488e+19 2.5769918 0
2.1099539 0 -1.8310556
-3.6893488e+19 2.5478928 -2
2.1472368 -1.0842022e-19 -1.8245906
2 2.538857 3.6893488e+19
2.0679748 -0 -1.8238367
-2 2.5175941 2
2.1068339 1.0842022e-19 -1.8201278
1.0842022e-19 2.5090344 2
2.035146 0 -1.8184048
-1.0842022e-19 2.4843192 0
2.0729172 1.0842022e-19 -1.8159335
0 2.4738274 3.6893488e+19
2.0107954 1.0842022e-19 -1.8157107
-1.0842022e-19 2.4471791 -1.0842022e-19
2.0481541 -1.0842022e-19 -1.8145607
-3.6893488e+19 2.4344168 0
1.9891039 -0 -1.8125404
-0 2.3997109 2
1.9439464 2 -1.8136086
-3.6893488e+19 2.3467443 1.0842022e-19
1.9182462 3.6893488e+19 -1.8088093
-3.6893488e+19 2.306164 -0
1.8985559 -3.6893488e+19 -1.805192
-2 2.2779236 -1.0842022e-19
1.8848531 -2 -1.8048799
-0 2.2422833 -3.6893488e+19
1.9141135 -0 -1.8030561
-3.6893488e+19 2.1990871 -2
1.8997132 -0 -1.8010544
-2 2.1560214 0
1.8853563 0 -1.7965512
2 2.1158931 -1.0842022e-19
1.8689572 -0 -1.790815
2 3.3000703 -2
2.791198 -2 2.7858636
-2 3.3007989 -2
2.7919052 1.0842022e-19 2.7774801
-3.6893488e+19 3.2967651 2
2.7879908 0 2.7648292
0 3.2958839 -1.0842022e-19
2.7871354 2 2.7551677
3.6893488e+19 3.256933 -0
2.8080792 -0 2.6762207
-3.6893488e+19 3.2554743 2
2.8063304 -0 2.65836
-0 3.2429888 -1.0842022e-19
2.7284126 -1.0842022e-19 2.6310356
3.6893488e+19 3.2566323 -1.0842022e-19
2.8077188 -1.0842022e-19 2.6293142
-2 3.2670979 2
2.8561723 -0 2.640527
-3.6893488e+19 3.2584605 3.6893488e+19
2.7845144 -3.6893488e+19 2.614135
2 3.2599478 -0
2.7861514 -1.0842022e-19 2.569978
-2 3.2535713 -2
2.8381345 -2 2.5596108
-2 3.2437491 2
2.7717605 -3.6893488e+19 2.5393052
2 3.2546141 -2
2.839525 -2 2.5456161
3.6893488e+19 3.2430587 1.0842022e-19
2.7713804 -3.6893488e+19 2.5243719
3.6893488e+19 3.2549698 -0
2.8399994 -3.6893488e+19 2.5307722
-1.0842022e-19 3.2456 0
2.7727792 0 2.5112071
-2 3.2535775 3.6893488e+19
2.8381429 -3.6893488e+19 2.5140901
-0 3.2565093 0
2.7823665 -3.6893488e+19 2.5053256
-0 3.2504382 0
2.8002918 2 2.4722681
1.0842022e-19 3.2675653 -1.0842022e-19
2.759654 2 2.4817948
-2 3.2549901 -2
2.8057497 -0 2.4508083
3.6893488e+19 3.2618866 1.0842022e-19
2.7541435 -1.0842022e-19 2.4411721
1.0842022e-19 3.2551425 3.6893488e+19
2.8059323 -2 2.4210541
-2 3.1830447 -1.0842022e-19
2.6702409 -2 2.3396606
-1.0842022e-19 3.2521074 -3.6893488e+19
2.8022931 1.0842022e-19 2.3864264
-2 3.1717355 1.0842022e-19
2.6592662 2 2.3063822
-0 3.1895618 -2
2.7635314 2 2.3110833
1.0842022e-19 3.1718335 3.6893488e+19
2.6593611 0 2.2820742
0 3.1891842 -3.6893488e+19
2.7633049 0 2.2850802
3.6893488e+19 3.1713352 3.6893488e+19
2.6588776 -2 2.2574134
2 3.1898892 -2
2.7637277 2 2.2597835
-3.6893488e+19 3.1733305 -0
2.660814 0 2.2184401
-0 3.1798189 -3.6893488e+19
2.7576902 3.6893488e+19 2.2073929
1.0842022e-19 3.1859851 -3.6893488e+19
2.7906904 1.0842022e-19 2.1927359
-3.6893488e+19 3.1682234 2
2.710382 0 2.1436079
1.0842022e-19 3.1819537 -3.6893488e+19
2.7880025 -0 2.1376977
-3.6893488e+19 3.1689503 -1.0842022e-19
2.7111821 3.6893488e+19 2.0956838
1.0842022e-19 3.1839099 -1.0842022e-19
2.7893069 -1.0842022e-19 2.0883064
2 3.1675804 -2
2.7096739 -3.6893488e+19 2.0461471
2 3.1655543 -1.0842022e-19
2.7770684 -2 2.0250432
3.6893488e+19 3.1661289 1.0842022e-19
2.7080762 1.0842022e-19 1.9968994
-1.0842022e-19 3.1675541 -1.0842022e-19
2.7784019 -3.6893488e+19 1.9772161
1.0842022e-19 3.1605303 -2
2.7019131 -1.0842022e-19 1.9460407
-2 3.1612957 -1.0842022e-19
2.774229 0 1.9254087
-2 3.1585844 -2
2.6997712 1.0842022e-19 1.8978099
-2 3.1646483 3.6893488e+19
2.7764645 2 1.8780688
3.6893488e+19 3.1593897 -3.6893488e+19
2.7006576 2 1.8264598
2 3.1621122 -3.6893488e+19
2.7747734 -2 1.7826339
1.0842022e-19 3.1566072 -1.0842022e-19
2.6445849 0 1.6089735
-3.6893488e+19 3.1633582 -0
2.7456434 -3.6893488e+19 1.3199188
-0 3.1546659 -2
2.6427011 1.0842022e-19 -1.5137395
2 3.1641591 3.6893488e+19
2.7466035 3.6893488e+19 -1.6684716
0 3.1562583 -2
2.6442463 -2 -1.753071
3.6893488e+19 3.1732006 3.6893488e+19
2.7537224 0 -1.8096497
3.6893488e+19 3.1597133 -2
2.6475992 -0 -1.8482338
2 3.1738701 -2
2.7541237 -2 -1.8918356
-3.6893488e+19 3.1630867 -3.6893488e+19
2.6508729 -2 -1.9099617
0 3.1746385 -3.6893488e+19
2.7545843 -3.6893488e+19 -1.9415704
3.6893488e+19 3.1066096 1.0842022e-19
2.5960658 2 -1.929055
-0 3.0920079 0
2.6600897 -1.0842022e-19 -1.9441497
-0 3.0869508 2
2.5769882 -2 -1.9579057
0 2.8905852 3.6893488e+19
2.3790367 -2 -1.8929493
-1.0842022e-19 2.8160391 -3.6893488e+19
2.3789513 -3.6893488e+19 -1.8765662
-3.6893488e+19 2.7742777 1.0842022e-19
2.3657465 -2 -1.862986
3.6893488e+19 2.7454314 -2
2.2726862 -1.0842022e-19 -1.8508543
-2 2.6992598 3.6893488e+19
2.2995415 0 -1.8463949
-1.0842022e-19 2.680033 1.0842022e-19
2.223382 3.6893488e+19 -1.8460023
0 2.6401372 -3.6893488e+19
2.2601216 -3.6893488e+19 -1.8402841
-1.0842022e-19 2.6204412 -2
2.157783 2 -1.8368938
-0 2.5858984 -2
2.1979167 -2 -1.8301924
3.6893488e+19 2.5769918 0
2.1099539 0 -1.8310556
-3.6893488e+19 2.5478928 -2
2.1472368 -1.0842022e-19 -1.8245906
2 2.538857 3.6893488e+19
2.0679748 -0 -1.8238367
-2 2.5175941 2
2.1068339 1.0842022e-19 -1.8201278
1.0842022e-19 2.5090344 2
2.035146 0 -1.8184048
-1.0842022e-19 2.4843192 0
2.0729172 1.0842022e-19 -1.8159335
0 2.4738274 3.6893488e+19
2.0107954 1.0842022e-19 -1.8157107
-1.0842022e-19 2.4471791 -1.0842022e-19
2.0481541 -1.0842022e-19 -1.8145607
-3.6893488e+19 2.4344168 0
1.9891039 -0 -1.8125404
-0 2.3997109 2
1.9439464 2 -1.8136086
-3.6893488e+19 2.3467443 1.0842022e-19
1.9182462 3.6893488e+19 -1.8088093
-3.6893488e+19 2.306164 -0
1.8985559 -3.6893488e+19 -1.805192
-2 2.2779236 -1.0842022e-19
1.8848531 -2 -1.8048799
-0 2.2422833 -3.6893488e+19
1.9141135 -0 -1.8030561
-3.6893488e+19 2.1990871 -2
1.8997132 -0 -1.8010544
-2 2.1560214 0
1.8853563 0 -1.7965512
2 2.1158931 -1.0842022e-19
1.8689572 -0 -1.790815
-1.0842022e-19 3.3002009 0
2.7879915 2 2.7858074
0 3.2993586 0
2.7871833 0 2.7759767
1.0842022e-19 3.2967601 -0
2.7846904 0 2.764657
2 3.29669 -0
2.7846231 1.0842022e-19 2.743664
2 3.2563555 -3.6893488e+19
2.8044572 0 2.6749301
3.6893488e+19 3.2963405 2
2.7842879 -0 2.7254183
0 3.2552626 2
2.8031592 0 2.6577022
1.0842022e-19 3.2707551 2
2.8215587 2 2.6661415
2 3.2684855 3.6893488e+19
2.8548946 2 2.6422141
3.6893488e+19 3.27774 -0
2.8026042 -0 2.6245174
-0 3.2521183 -2
2.8332598 0 2.557569
-0 3.2590537 1.0842022e-19
2.7822452 -0 2.5533597
3.6893488e+19 3.2547624 -3.6893488e+19
2.8367548 2 2.545531
3.6893488e+19 3.2577784 1.0842022e-19
2.7808557 -2 2.5366855
-0 3.2544711 -2
2.8363698 3.6893488e+19 2.5299792
-1.0842022e-19 3.2587011 -3.6893488e+19
2.7818608 3.6893488e+19 2.5225022
-3.6893488e+19 3.2531505 -0
2.8346243 3.6893488e+19 2.5134161
1.0842022e-19 3.2574871 3.6893488e+19
2.7805381 -2 2.5061147
3.6893488e+19 3.2534127 -0
2.7362123 -2 2.4854622
1.0842022e-19 3.2493637 -2
2.7965312 -2 2.4704731
3.6893488e+19 3.1827314 -1.0842022e-19
2.6651316 3.6893488e+19 2.3893552
0 3.2544005 -3.6893488e+19
2.8021352 0 2.4494138
-3.6893488e+19 3.2626266 -3.6893488e+19
2.7519453 -0 2.4421391
-0 3.2274437 -3.6893488e+19
2.7835147 1.0842022e-19 2.3936477
0 3.262475 0
2.7517998 0 2.4114866
0 3.2524989 2
2.7998769 -2 2.3867233
-3.6893488e+19 3.1834145 -1.0842022e-19
2.665787 -0 2.3146675
0 3.2423534 -1.0842022e-19
2.7923684 -2 2.3481717
0 3.265085 -2
2.7543035 -0 2.3542929
2 3.2513039 1.0842022e-19
2.7984579 -0 2.325994
-1.0842022e-19 3.2666528 -3.6893488e+19
2.7558076 -2 2.3256154
-2 3.2529728 1.0842022e-19
2.8004401 1.0842022e-19 2.2985606
-2 3.2650409 0
2.7542615 1.0842022e-19 2.2930977
0 3.2507148 1.0842022e-19
2.7977581 -3.6893488e+19 2.2665899
2 3.2484446 -3.6893488e+19
2.8294315 0 2.252861
0 3.2551994 3.6893488e+19
2.7780457 3.6893488e+19 2.2300129
1.0842022e-19 3.2502542 -3.6893488e+19
2.8307955 0 2.1988378
3.6893488e+19 3.2545261 -3.6893488e+19
2.777312 1.0842022e-19 2.1697271
-1.0842022e-19 3.2517784 0
2.8328106 3.6893488e+19 2.1422665
-2 3.2522283 -0
2.7748086 -1.0842022e-19 2.1075029
1.0842022e-19 3.2569976 -2
2.8397093 -1.0842022e-19 2.0899024
3.6893488e+19 3.1600699 -2
2.6967807 -0 1.9931297
1.0842022e-19 3.2515011 0
2.832444 -1.0842022e-19 2.0234752
-3.6893488e+19 3.2273118 3.6893488e+19
2.7600212 1.0842022e-19 1.9777675
-3.6893488e+19 3.2501869 0
2.8307071 2 1.963213
-3.6893488e+19 3.2283003 0
2.7605598 1.0842022e-19 1.9229062
-1.0842022e-19 3.2496195 1.0842022e-19
2.8302083 -1.0842022e-19 1.9041787
3.6893488e+19 3.2259798 -0
2.7592955 3.6893488e+19 1.8590604
3.6893488e+19 3.1644294 -3.6893488e+19
2.7739043 -0 1.7833823
-1.0842022e-19 3.2265601 -1.0842022e-19
2.7596116 -3.6893488e+19 1.7482774
-3.6893488e+19 3.1570771 3.6893488e+19
2.6405208 1.0842022e-19 1.6090958
1.0842022e-19 3.167217 -1.0842022e-19
2.7455022 1.0842022e-19 1.3215845
-3.6893488e+19 3.1545269 -0
2.6380744 -2 -1.513604
-0 3.1906955 0
2.7616932 0 -1.6791259
2 3.1546011 2
2.6381454 -0 -1.7524679
3.6893488e+19 3.1729329 1.0842022e-19
2.7511454 -3.6893488e+19 -1.8093884
-1.0842022e-19 3.1581495 3.6893488e+19
2.6415496 3.6893488e+19 -1.8472412
-0 3.1745014 0
2.7520769 -2 -1.8919357
3.6893488e+19 3.1634698 -0
2.6466534 2 -1.9100088
3.6893488e+19 3.1753602 -3.6893488e+19
2.7525866 0 -1.941746
-3.6893488e+19 3.1661255 -3.6893488e+19
2.6492012 2 -1.958806
2 3.0925152 1.0842022e-19
2.6567838 -0 -1.9442856
-0 3.0872855 -2
2.5735676 0 -1.9579806
3.6893488e+19 2.8896787 -3.6893488e+19
2.3738298 2 -1.8925275
-2 2.8177228 -2
2.3773394 2 -1.877141
1.0842022e-19 2.7768874 -2
2.3660004 -1.0842022e-19 -1.8650411
0 2.7500012 3.6893488e+19
2.272382 3.6893488e+19 -1.8527744
-3.6893488e+19 2.7039165 3.6893488e+19
2.3000023 -1.0842022e-19 -1.848495
-0 2.6804624 0
2.2189989 0 -1.8460642
-3.6893488e+19 2.64024 -1.0842022e-19
2.2579172 3.6893488e+19 -1.8401536
-1.0842022e-19 2.6215496 1.0842022e-19
2.1548121 -1.0842022e-19 -1.8373752
-2 2.5864277 -0
2.1947033 0 -1.830337
2 2.5767457 3.6893488e+19
2.1059971 0 -1.8307527
-2 2.5474424 -2
2.1431711 2 -1.8241154
-0 2.5396655 3.6893488e+19
2.0655973 1.0842022e-19 -1.8242501
-0 2.5175908 -3.6893488e+19
2.1037118 -2 -1.8199555
-3.6893488e+19 2.5092204 0
2.0324268 0 -1.8184048
0 2.485214 3.6893488e+19
2.0706873 0 -1.8161197
0 2.4744079 -2
2.0084391 1.0842022e-19 -1.8158072
-3.6893488e+19 2.4473324 3.6893488e+19
2.0456507 3.6893488e+19 -1.8144606
-1.0842022e-19 2.4359286 -1.0842022e-19
1.9874772 -0 -1.8130579
-1.0842022e-19 3.3002009 0
2.7879915 2 2.7858074
0 3.2993586 0
2.7871833 0 2.7759767
1.0842022e-19 3.2967601 -0
2.7846904 0 2.764657
2 3.29669 -0
2.7846231 1.0842022e-19 2.743664
2 3.2563555 -3.6893488e+19
2.8044572 0 2.6749301
3.6893488e+19 3.2963405 2
2.7842879 -0 2.7254183
0 3.2552626 2
2.8031592 0 2.6577022
1.0842022e-19 3.2707551 2
2.8215587 2 2.6661415
2 3.2684855 3.6893488e+19
2.8548946 2 2.6422141
-1.0842022e-19 3.2413461 1.0842022e-19
2.7676666 3.6893488e+19 2.5812769
-0 3.2521183 -2
2.8332598 0 2.557569
1.0842022e-19 3.2441638 -3.6893488e+19
2.7692013 3.6893488e+19 2.5393403
3.6893488e+19 3.2547624 -3.6893488e+19
2.8367548 2 2.545531
0 3.2442498 3.6893488e+19
2.7692482 -0 2.5248373
-0 3.2544711 -2
2.8363698 3.6893488e+19 2.5299792
-2 3.2476311 -1.0842022e-19
2.7710903 1.0842022e-19 2.5120893
-3.6893488e+19 3.2531505 -0
2.8346243 3.6893488e+19 2.5134161
-2 3.2359352 -2
2.7647188 0 2.4833457
0 3.1822703 0
2.6646893 0 2.4140496
1.0842022e-19 3.2493637 -2
2.7965312 -2 2.4704731
3.6893488e+19 3.1827314 -1.0842022e-19
2.6651316 3.6893488e+19 2.3893552
0 3.2544005 -3.6893488e+19
2.8021352 0 2.4494138
1.0842022e-19 3.1828997 -2
2.665293 -1.0842022e-19 2.364399
-0 3.2274437 -3.6893488e+19
2.7835147 1.0842022e-19 2.3936477
-3.6893488e+19 3.1838028 2
2.6661596 2 2.3400402
-2 3.1744509 2
2.7520468 -1.0842022e-19 2.3250413
-3.6893488e+19 3.1834145 -1.0842022e-19
2.665787 -0 2.3146675
1.0842022e-19 3.1774883 1.0842022e-19
2.7538505 -1.0842022e-19 2.3023019
-1.0842022e-19 3.1718581 -2
2.6547005 -2 2.2819121
2 3.2513039 1.0842022e-19
2.7984579 -0 2.325994
2 3.1719959 -3.6893488e+19
2.6548326 -0 2.257654
-3.6893488e+19 3.1790872 -2
2.7547998 2 2.253206
3.6893488e+19 3.1734774 2
2.6562541 -0 2.2183058
1.0842022e-19 3.1786606 0
2.7545466 -0 2.2058034
-0 3.1836991 -0
2.7866402 3.6893488e+19 2.1900313
2 3.1715343 3.6893488e+19
2.7092714 3.6893488e+19 2.1464388
2 3.1853225 -0
2.7877131 -1.0842022e-19 2.1403813
1.0842022e-19 3.1693118 -1.0842022e-19
2.7068498 -1.0842022e-19 2.0957334
-0 3.1853845 -0
2.7877541 -3.6893488e+19 2.0891607
3.6893488e+19 3.1684527 3.6893488e+19
2.705914 2 2.0465529
0 3.165946 -2
2.7749066 0 2.025063
3.6893488e+19 3.1600699 -2
2.6967807 -0 1.9931297
-2 3.1617789 -2
2.7721527 -2 1.9738785
-1.0842022e-19 3.1596799 -0
2.6963558 1.0842022e-19 1.9454943
1.0842022e-19 3.1599634 3.6893488e+19
2.7709527 -1.0842022e-19 1.9246882
-0 3.1563458 -0
2.6927233 -0 1.8968945
-3.6893488e+19 3.1619241 2
2.7722487 3.6893488e+19 1.8771167
3.6893488e+19 3.2259798 -0
2.7592955 3.6893488e+19 1.8590604
3.6893488e+19 3.1644294 -3.6893488e+19
2.7739043 -0 1.7833823
-1.0842022e-19 3.2265601 -1.0842022e-19
2.7596116 -3.6893488e+19 1.7482774
-3.6893488e+19 3.1570771 3.6893488e+19
2.6405208 1.0842022e-19 1.6090958
1.0842022e-19 3.167217 -1.0842022e-19
2.7455022 1.0842022e-19 1.3215845
-3.6893488e+19 3.1545269 -0
2.6380744 -2 -1.513604
3.6893488e+19 3.1628656 3.6893488e+19
2.7403345 -2 -1.667814
2 3.1546011 2
2.6381454 -0 -1.7524679
3.6893488e+19 3.1729329 1.0842022e-19
2.7511454 -3.6893488e+19 -1.8093884
-1.0842022e-19 3.1581495 3.6893488e+19
2.6415496 3.6893488e+19 -1.8472412
-0 3.1745014 0
2.7520769 -2 -1.8919357
3.6893488e+19 3.1634698 -0
2.6466534 2 -1.9100088
3.6893488e+19 3.1753602 -3.6893488e+19
2.7525866 0 -1.941746
2 3.1044054 0
2.5899913 -3.6893488e+19 -1.9278356
2 3.0925152 1.0842022e-19
2.6567838 -0 -1.9442856
-0 3.0872855 -2
2.5735676 0 -1.9579806
3.6893488e+19 2.8896787 -3.6893488e+19
2.3738298 2 -1.8925275
-2 2.8177228 -2
2.3773394 2 -1.877141
1.0842022e-19 2.7768874 -2
2.3660004 -1.0842022e-19 -1.8650411
0 2.7500012 3.6893488e+19
2.272382 3.6893488e+19 -1.8527744
-3.6893488e+19 2.7039165 3.6893488e+19
2.3000023 -1.0842022e-19 -1.848495
-0 2.6804624 0
2.2189989 0 -1.8460642
-3.6893488e+19 2.64024 -1.0842022e-19
2.2579172 3.6893488e+19 -1.8401536
-1.0842022e-19 2.6215496 1.0842022e-19
2.1548121 -1.0842022e-19 -1.8373752
-2 2.5864277 -0
2.1947033 0 -1.830337
2 2.5767457 3.6893488e+19
2.1059971 0 -1.8307527
-2 2.5474424 -2
2.1431711 2 -1.8241154
-0 2.5396655 3.6893488e+19
2.0655973 1.0842022e-19 -1.8242501
-0 2.5175908 -3.6893488e+19
2.1037118 -2 -1.8199555
-3.6893488e+19 2.5092204 0
2.0324268 0 -1.8184048
0 2.485214 3.6893488e+19
2.0706873 0 -1.8161197
0 2.4744079 -2
2.0084391 1.0842022e-19 -1.8158072
-3.6893488e+19 2.4473324 3.6893488e+19
2.0456507 3.6893488e+19 -1.8144606
-1.0842022e-19 2.4359286 -1.0842022e-19
1.9874772 -0 -1.8130579
0 3.3003891 -3.6893488e+19
2.7848384 2 2.7858074
2 3.2997537 1.0842022e-19
2.7842362 -0 2.7761679
-1.0842022e-19 3.2556961 0
2.8007553 3.6893488e+19 2.7200601
0 3.2962327 3.6893488e+19
2.7808974 -2 2.7640212
-1.0842022e-19 3.2559216 -1.0842022e-19
2.8010204 2 2.7048972
-0 3.299871 -3.6893488e+19
2.7843473 -3.6893488e+19 2.7486446
-2 3.238658 3.6893488e+19
2.7634485 1.0842022e-19 2.5792303
-0 3.2590303 -2
2.7793002 -0 2.5837016
-3.6893488e+19 3.2554958 3.6893488e+19
2.8347516 2 2.5767424
-1.0842022e-19 3.25191 3.6893488e+19
2.8300533 2 2.5570495
-1.0842022e-19 3.257072 1.0842022e-19
2.7771888 2 2.5508251
-0 3.2535703 -1.0842022e-19
2.8322287 2 2.5438943
2 3.2578273 -1.0842022e-19
2.778003 -0 2.536536
-3.6893488e+19 3.254205 -2
2.8330603 1.0842022e-19 2.5294452
-2 3.2579572 -2
2.7781432 -2 2.5215254
-3.6893488e+19 3.2536345 -0
2.8323128 0 2.5136919
0 3.2577901 1.0842022e-19
2.7779629 2 2.5062339
-3.6893488e+19 3.2618167 -2
2.7465265 0 2.5006242
-1.0842022e-19 3.247457 -1.0842022e-19
2.7925596 -2 2.4683135
3.6893488e+19 3.1858134 -1.0842022e-19
2.6632524 -0 2.3918829
1.0842022e-19 3.2547469 -2
2.7996385 -2 2.4496768
-2 3.2653925 3.6893488e+19
2.7516539 -0 2.446516
-3.6893488e+19 3.2277842 -0
2.7809899 -3.6893488e+19 2.3936229
-3.6893488e+19 3.2633808 -0
2.7494926 -0 2.4126484
-1.0842022e-19 3.2514257 -2
2.7957323 0 2.3847816
1.0842022e-19 3.2668359 3.6893488e+19
2.7530224 -2 2.3872137
-0 3.1750417 2
2.749943 -1.0842022e-19 2.3003387
-2 3.2653265 -2
2.7515912 -3.6893488e+19 2.354394
-3.6893488e+19 3.2526944 -1.0842022e-19
2.7972245 -1.0842022e-19 2.3275437
3.6893488e+19 3.266274 -1.0842022e-19
2.7524896 -2 2.3249493
-0 3.2443461 0
2.7907302 2 2.2914894
-2 3.2660563 2
2.7522833 -3.6893488e+19 2.2940364
1.0842022e-19 3.2510738 -3.6893488e+19
2.7953181 1.0842022e-19 2.2667649
2 3.248312 -1.0842022e-19
2.8264449 -2 2.2525754
-3.6893488e+19 3.2555766 -1.0842022e-19
2.7755764 1.0842022e-19 2.230381
2 3.2491021 -1.0842022e-19
2.8269625 2 2.1971903
-0 3.2432015 3.6893488e+19
2.765898 2 2.1563685
-1.0842022e-19 3.252248 2
2.8304963 -2 2.1426589
2 3.2521064 -3.6893488e+19
2.7718344 -3.6893488e+19 2.1070759
3.6893488e+19 3.2531838 -1.0842022e-19
2.8317223 2 2.0845695
3.6893488e+19 3.1595476 -3.6893488e+19
2.6915958 1.0842022e-19 1.9926474
-1.0842022e-19 3.2512434 1.0842022e-19
2.82918 -1.0842022e-19 2.0229592
1.0842022e-19 3.1587048 1.0842022e-19
2.6906872 0 1.9448903
-0 3.2501211 -3.6893488e+19
2.8277094 -1.0842022e-19 1.9629728
0 3.2289124 -1.0842022e-19
2.7581942 -2 1.9230042
3.6893488e+19 3.2498136 -1.0842022e-19
2.8274286 1.0842022e-19 1.9041055
-2 3.229275 0
2.7583899 -3.6893488e+19 1.8605132
3.6893488e+19 3.1657674 -0
2.7723699 3.6893488e+19 1.7837565
3.6893488e+19 3.2288001 -3.6893488e+19
2.7581336 1.0842022e-19 1.7492671
0 3.1587613 2
2.6376007 0 1.6099172
1.0842022e-19 3.170239 0
2.7442939 -2 1.3228548
-1.0842022e-19 3.1596758 1.0842022e-19
2.638468 -2 -1.5152804
0 3.1400714 2
2.7088101 -3.6893488e+19 -1.658426
-0 3.1550672 -1.0842022e-19
2.6340978 -1.0842022e-19 -1.7525349
-3.6893488e+19 3.1396854 0
2.7083564 -2 -1.7947617
