# .PCD v0.7 - Point Cloud Data file format
VERSION 0.7
FIELDS x y z
SIZE 4 4 4
TYPE F F F
COUNT 1 1 1
WIDTH 1725
HEIGHT 1
VIEWPOINT 0 0 0 1 0 0 0
POINTS 1725
DATA ascii
1.0842022e-19 3.2204118 -0
3.0068371 3.6893488e+19 2.6009588
1.0842022e-19 3.1915457 1.0842022e-19
2.9821537 -1.0842022e-19 2.550679
3.6893488e+19 3.1919968 2
3.0228105 -3.6893488e+19 2.5530455
1.0842022e-19 3.1905558 3.6893488e+19
2.9810727 0 2.5357094
-3.6893488e+19 3.191092 2
3.0222521 0 2.5376775
1.0842022e-19 3.1798284 3.6893488e+19
3.0152998 3.6893488e+19 2.5159905
0 3.1977804 1.0842022e-19
2.9889617 -2 2.5114222
1.0842022e-19 3.1872582 -3.6893488e+19
3.0198855 -2 2.5060234
0 3.2238095 2
2.9804182 -1.0842022e-19 2.4993093
-3.6893488e+19 3.2041929 -0
3.0115294 -0 2.477809
2 3.1259744 -3.6893488e+19
2.8812184 -2 2.3723929
-2 3.1279736 3.6893488e+19
2.8832457 2 2.3504674
-1.0842022e-19 3.1258609 1.0842022e-19
2.9328501 0 2.3464746
-1.0842022e-19 3.1296794 0
2.8849754 -0 2.3280747
1.0842022e-19 3.2108388 -2
3.0153561 -3.6893488e+19 2.3948793
1.0842022e-19 3.2282867 2
2.9849579 2 2.3831134
3.6893488e+19 3.1238923 0
2.930583 0 2.2961221
1.0842022e-19 3.1309304 -1.0842022e-19
2.8862436 -3.6893488e+19 2.2811384
-0 3.1258616 -0
2.9328508 1.0842022e-19 2.2733324
-3.6893488e+19 3.1273317 -3.6893488e+19
2.8825948 -1.0842022e-19 2.2547407
-1.0842022e-19 3.1169019 -2
2.9225326 1.0842022e-19 2.2361383
1.0842022e-19 3.1277153 -0
2.8829837 2 2.2125263
-0 3.113239 1.0842022e-19
2.9183145 -0 2.1843112
2 3.1177759 3.6893488e+19
2.9539993 -0 2.1736231
-2 3.1219909 -2
2.9062021 -2 2.1417062
-1.0842022e-19 3.1111794 1.0842022e-19
2.9458563 2 2.1185308
2 3.1097229 0
2.8928058 3.6893488e+19 2.0829353
2 3.1098995 1.0842022e-19
2.9442763 -0 2.0699253
-3.6893488e+19 3.111321 0
2.894551 0 2.0383999
2 3.109664 -1.0842022e-19
2.9439855 -1.0842022e-19 2.0224786
2 3.1078868 -1.0842022e-19
2.8908007 0 1.9901003
-1.0842022e-19 3.1088259 0
2.9429512 -1.0842022e-19 1.9747523
-2 3.1053927 1.0842022e-19
2.8880775 3.6893488e+19 1.9432181
-1.0842022e-19 3.107146 1.0842022e-19
2.9408774 -2 1.9268416
0 3.1045532 -1.0842022e-19
2.8871605 3.6893488e+19 1.8976694
0 3.1072426 2
2.9409964 -0 1.7914068
2 3.1046591 -1.0842022e-19
2.8872762 3.6893488e+19 1.7301992
-3.6893488e+19 3.1101093 3.6893488e+19
2.8651323 0 1.6399481
1.0842022e-19 3.1040335 -0
2.9077129 1.0842022e-19 1.451785
1.0842022e-19 3.1077731 -3.6893488e+19
2.8627632 0 -1.4097617
-1.0842022e-19 3.1097977 -3.6893488e+19
2.9143512 1.0842022e-19 -1.6339489
3.6893488e+19 3.1057537 0
2.8607159 1.0842022e-19 -1.7176543
3.6893488e+19 3.1121323 2
2.9170399 0 -1.785643
3.6893488e+19 3.1174011 3.6893488e+19
2.8725257 -1.0842022e-19 -1.8293016
3.6893488e+19 3.1344583 -0
2.9427509 1.0842022e-19 -1.884763
-1.0842022e-19 3.1116679 2
2.8667126 3.6893488e+19 -1.8957963
1.0842022e-19 3.1317992 1.0842022e-19
2.9396887 2 -1.9330008
-2 3.0612304 -1.0842022e-19
2.8155715 -2 -1.9144142
0 3.0522532 -1.0842022e-19
2.8480816 -3.6893488e+19 -1.9338055
-1.0842022e-19 3.0533876 -2
2.8076193 2 -1.9482555
-3.6893488e+19 3.0400264 -3.6893488e+19
2.8340011 1.0842022e-19 -1.963752
0 2.8050337 -2
2.6012836 0 -1.8820713
0 2.7531052 2
2.5624444 0 -1.864836
-0 2.719656 0
2.5064247 2 -1.8556976
0 2.6560905 0
2.5006483 2 -1.8440889
2 2.6447825 -3.6893488e+19
2.4310896 -3.6893488e+19 -1.8440888
3.6893488e+19 2.6006138 -0
2.4328136 1.0842022e-19 -1.8372244
2 2.6011496 -3.6893488e+19
2.3834438 1.0842022e-19 -1.8422766
0 2.5539763 -1.0842022e-19
2.375242 1.0842022e-19 -1.8290063
2 2.5527267 1.0842022e-19
2.3305678 -0 -1.8316497
2 2.5211558 3.6893488e+19
2.334727 0 -1.8248518
-2 2.5192106 2
2.2939694 -3.6893488e+19 -1.8259797
3.6893488e+19 2.4883742 0
2.3014357 0 -1.8210838
0 2.4832418 -0
2.2638421 3.6893488e+19 -1.8208486
-2 2.4412556 -1.0842022e-19
2.2723529 0 -1.8167405
-0 2.4420855 -3.6893488e+19
2.232743 -1.0842022e-19 -1.8183324
-1.0842022e-19 2.4028554 -2
2.247303 -2 -1.813378
-1.0842022e-19 2.4092567 -0
2.1968951 -1.0842022e-19 -1.8171078
0 2.398665 0
2.1542256 1.0842022e-19 -1.8154509
2 2.3693352 3.6893488e+19
2.1244867 3.6893488e+19 -1.813127
-2 2.3260257 2
2.0805733 0 -1.811749
-0 2.2867789 0
2.0407791 2 -1.8075256
3.6893488e+19 2.2584245 0
2.0120292 -1.0842022e-19 -1.8059964
0 2.1912382 0
2.0223422 -3.6893488e+19 -1.8018011
-1.0842022e-19 2.1570935 1.0842022e-19
2.0012674 3.6893488e+19 -1.8018807
3.6893488e+19 2.1242921 1.0842022e-19
1.9810216 2 -1.8003463
3.6893488e+19 2.107821 -1.0842022e-19
1.9708552 2 -1.8048557
1.0842022e-19 3.2677159 -2
3.0564449 -0 2.7553756
-1.0842022e-19 3.1840329 2
2.9968224 -3.6893488e+19 2.6495063
3.6893488e+19 3.2644153 -0
3.0163662 1.0842022e-19 2.6973259
-1.0842022e-19 3.2085073 -2
3.0124185 -0 2.6414797
0 3.2658417 3.6893488e+19
3.0178032 2 2.6825707
3.6893488e+19 3.2291157 -3.6893488e+19
3.0099642 -1.0842022e-19 2.6225705
3.6893488e+19 3.2237115 -3.6893488e+19
3.0070319 3.6893488e+19 2.6029177
3.6893488e+19 3.1879587 -3.6893488e+19
2.9752657 2 2.5620327
1.0842022e-19 3.2214324 1.0842022e-19
3.0057955 3.6893488e+19 2.570574
2 3.1897836 -3.6893488e+19
3.0198576 3.6893488e+19 2.551043
0 3.2172348 2
3.0035179 -1.0842022e-19 2.5525799
2 3.191592 2
3.0209675 -1.0842022e-19 2.53754
-2 3.1912425 0
3.0207531 -2 2.5226145
2 3.1965659 -3.6893488e+19
2.984606 -1.0842022e-19 2.5103421
-2 3.1890464 0
3.0194056 -2 2.5066569
0 3.2246027 0
2.9781046 -2 2.4994843
-1.0842022e-19 3.2038517 -2
3.0097539 0 2.4767334
-0 3.224952 -0
2.9784565 -0 2.4698062
2 3.2056036 1.0842022e-19
3.0107567 -1.0842022e-19 2.4489436
0 3.1302783 0
2.8830843 -3.6893488e+19 2.3521383
1.0842022e-19 3.1891997 -3.6893488e+19
3.001368 1.0842022e-19 2.4042535
-1.0842022e-19 3.2282207 -1.0842022e-19
2.9817493 2 2.4126766
1.0842022e-19 3.2110724 2
3.0138867 3.6893488e+19 2.3944867
0 3.2344794 -2
2.988054 -2 2.3875608
3.6893488e+19 3.2052524 1.0842022e-19
3.0105557 -1.0842022e-19 2.3600178
2 3.2326829 -0
2.9862444 -0 2.3557644
-3.6893488e+19 3.203053 -1.0842022e-19
3.0092969 3.6893488e+19 2.3289726
1.0842022e-19 3.2326977 -2
2.9862592 -0 2.3254437
0 3.2012892 0
3.0082874 2 2.298526
3.6893488e+19 3.2373943 3.6893488e+19
2.9909906 3.6893488e+19 2.2980218
-0 3.201179 -3.6893488e+19
3.0082242 -2 2.2693238
3.6893488e+19 3.1917446 0
3.0210612 -1.0842022e-19 2.2540026
1.0842022e-19 3.2109008 2
3.0000811 1.0842022e-19 2.2346375
3.6893488e+19 3.1915767 0
3.0209582 -2 2.1998394
-1.0842022e-19 3.2101424 0
2.9993393 -2 2.1752708
0 3.1128209 -1.0842022e-19
2.9452646 -3.6893488e+19 2.0720031
0 3.2141085 2
3.0018215 -1.0842022e-19 2.1199155
-1.0842022e-19 3.1860394 0
3.0175605 3.6893488e+19 2.0798087
-1.0842022e-19 3.212235 -3.6893488e+19
3.0008049 -2 2.0596642
-3.6893488e+19 3.1802948 1.0842022e-19
3.0140355 -0 2.0190835
-3.6893488e+19 3.1054873 3.6893488e+19
2.8857694 -3.6893488e+19 1.9429945
-0 3.1070027 1.0842022e-19
2.9381247 -0 1.9264863
-0 3.1042895 0
2.8844695 -3.6893488e+19 1.8973496
1.0842022e-19 3.1074059 -3.6893488e+19
2.9386191 -0 1.8798947
-1.0842022e-19 3.101536 3.6893488e+19
2.8814814 -1.0842022e-19 1.8281652
-2 3.1064553 1.0842022e-19
2.8868198 1.0842022e-19 1.7310359
-2 3.1084368 -2
2.8610816 3.6893488e+19 1.639114
-0 3.1072235 -0
2.9089012 1.0842022e-19 1.4532976
-3.6893488e+19 3.1065438 2
2.8591747 1.0842022e-19 -1.4090024
3.6893488e+19 3.1326056 -0
2.9379551 0 -1.6422262
0 3.13779 -2
2.9438894 1.0842022e-19 -1.7967665
3.6893488e+19 3.1072829 -1.0842022e-19
2.8599191 1.0842022e-19 -1.8234127
-0 3.135443 3.6893488e+19
2.9412031 3.6893488e+19 -1.8849053
-3.6893488e+19 3.115941 1.0842022e-19
2.8686414 -3.6893488e+19 -1.897324
-2 3.1309903 -2
2.9361062 -3.6893488e+19 -1.932339
-2 3.117214 2
2.8699236 -0 -1.9437324
2 3.1340837 2
2.9396472 0 -1.9832176
2 3.0540402 -2
2.8062835 -1.0842022e-19 -1.9484193
-3.6893488e+19 3.0410857 -1.0842022e-19
2.8331957 -3.6893488e+19 -1.9642106
-1.0842022e-19 2.8016992 3.6893488e+19
2.5953445 -1.0842022e-19 -1.8804314
2 2.7504804 2
2.5573971 3.6893488e+19 -1.861967
0 2.7237265 -3.6893488e+19
2.50704 2 -1.8573658
-3.6893488e+19 2.6591911 0
2.501086 2 -1.8454067
2 2.6452355 1.0842022e-19
2.4289033 0 -1.8440281
-2 2.6038368 1.0842022e-19
2.4342394 -2 -1.8388306
-0 2.5992384 2
2.378988 -1.0842022e-19 -1.8407865
-3.6893488e+19 2.5552099 1.0842022e-19
2.374563 3.6893488e+19 -1.8295047
-2 2.5527198 0
2.3285069 -0 -1.8313509
1.0842022e-19 2.5209556 3.6893488e+19
2.3325248 1.0842022e-19 -1.8243828
0 2.519923 2
2.2929161 2 -1.8262247
-0 2.4891613 -3.6893488e+19
2.3001566 0 -1.8210838
-1.0842022e-19 2.4843681 3.6893488e+19
2.2628143 3.6893488e+19 -1.8210257
-3.6893488e+19 2.4440885 -2
2.2724993 -2 -1.8176609
-1.0842022e-19 2.4429343 -3.6893488e+19
2.2306652 -3.6893488e+19 -1.8184279
-3.6893488e+19 2.4079573 -0
2.2503288 0 -1.8154569
1.0842022e-19 2.4054685 2
2.1900079 1.0842022e-19 -1.8150587
-2 2.3996363 -2
2.152585 2 -1.8156627
3.6893488e+19 3.1891816 -0
3.0013578 -1.0842022e-19 2.6689377
-1.0842022e-19 3.1840329 2
2.9968224 -3.6893488e+19 2.6495063
3.6893488e+19 3.2644153 -0
3.0163662 1.0842022e-19 2.6973259
-1.0842022e-19 3.2085073 -2
3.0124185 -0 2.6414797
0 3.2658417 3.6893488e+19
3.0178032 2 2.6825707
3.6893488e+19 3.2291157 -3.6893488e+19
3.0099642 -1.0842022e-19 2.6225705
3.6893488e+19 3.2237115 -3.6893488e+19
3.0070319 3.6893488e+19 2.6029177
3.6893488e+19 3.1879587 -3.6893488e+19
2.9752657 2 2.5620327
2 3.1872852 0
2.974535 1.0842022e-19 2.547354
2 3.1897836 -3.6893488e+19
3.0198576 3.6893488e+19 2.551043
-3.6893488e+19 3.1903677 1.0842022e-19
2.9778802 0 2.535181
2 3.191592 2
3.0209675 -1.0842022e-19 2.53754
-2 3.1912425 0
3.0207531 -2 2.5226145
2 3.1965659 -3.6893488e+19
2.984606 -1.0842022e-19 2.5103421
-2 3.1890464 0
3.0194056 -2 2.5066569
-1.0842022e-19 3.1295545 1.0842022e-19
2.8823552 -3.6893488e+19 2.3994532
2 3.1272397 -0
2.931813 0 2.3962588
-0 3.1290517 -0
2.8818486 3.6893488e+19 2.3749449
-0 3.1196554 -2
2.9231315 3.6893488e+19 2.3642519
0 3.1302783 0
2.8830843 -3.6893488e+19 2.3521383
1.0842022e-19 3.1189234 2
2.9222937 -1.0842022e-19 2.3395689
1.0842022e-19 3.1287651 2
2.8815598 3.6893488e+19 2.3268521
-3.6893488e+19 3.119117 -1.0842022e-19
2.9225154 2 2.3158112
0 3.1285655 0
2.8813589 -0 2.3028347
-3.6893488e+19 3.1195631 2
2.9230261 -2 2.292254
-2 3.1307945 -1.0842022e-19
2.8836043 1.0842022e-19 2.2806671
0 3.1198294 -3.6893488e+19
2.9233305 3.6893488e+19 2.2685418
0 3.1313379 -2
2.8841515 1.0842022e-19 2.2571051
0 3.2012892 0
3.0082874 2 2.298526
3.6893488e+19 3.1320298 -0
2.8848486 1.0842022e-19 2.2171915
1.0842022e-19 3.1162481 0
2.9192314 -0 2.1872516
3.6893488e+19 3.1917446 0
3.0210612 -1.0842022e-19 2.2540026
-2 3.1229873 -1.0842022e-19
2.9047599 -1.0842022e-19 2.1421964
-0 3.1112561 -3.6893488e+19
2.9433444 1.0842022e-19 2.118016
-3.6893488e+19 3.1103725 -3.6893488e+19
2.8910706 0 2.0830622
0 3.1128209 -1.0842022e-19
2.9452646 -3.6893488e+19 2.0720031
1.0842022e-19 3.1130984 -3.6893488e+19
2.8940284 -2 2.0394058
-2 3.1114943 2
2.9436369 -3.6893488e+19 2.0234246
-0 3.1034286 2
2.8835351 -3.6893488e+19 1.9867718
-3.6893488e+19 3.1121993 3.6893488e+19
2.9445021 -0 1.9765003
-3.6893488e+19 3.1054873 3.6893488e+19
2.8857694 -3.6893488e+19 1.9429945
-0 3.1070027 1.0842022e-19
2.9381247 -0 1.9264863
-0 3.1042895 0
2.8844695 -3.6893488e+19 1.8973496
1.0842022e-19 3.1074059 -3.6893488e+19
2.9386191 -0 1.8798947
-1.0842022e-19 3.101536 3.6893488e+19
2.8814814 -1.0842022e-19 1.8281652
-2 3.1064553 1.0842022e-19
2.8868198 1.0842022e-19 1.7310359
-2 3.1084368 -2
2.8610816 3.6893488e+19 1.639114
-0 3.1072235 -0
2.9089012 1.0842022e-19 1.4532976
-3.6893488e+19 3.1065438 2
2.8591747 1.0842022e-19 -1.4090024
-0 3.111315 2
2.9135847 -2 -1.6343118
-3.6893488e+19 3.1116731 -3.6893488e+19
2.9139946 -0 -1.7851985
3.6893488e+19 3.1072829 -1.0842022e-19
2.8599191 1.0842022e-19 -1.8234127
0 3.1104953 2
2.9126463 2 -1.8761736
0 3.074506 -3.6893488e+19
2.8269002 2 -1.8806427
-2 3.1309903 -2
2.9361062 -3.6893488e+19 -1.932339
3.6893488e+19 3.062814 3.6893488e+19
2.8151221 2 -1.9150324
-0 3.0526261 -1.0842022e-19
2.8464055 -0 -1.9337561
2 3.0540402 -2
2.8062835 -1.0842022e-19 -1.9484193
-3.6893488e+19 3.0410857 -1.0842022e-19
2.8331957 -3.6893488e+19 -1.9642106
-1.0842022e-19 2.8016992 3.6893488e+19
2.5953445 -1.0842022e-19 -1.8804314
2 2.7504804 2
2.5573971 3.6893488e+19 -1.861967
0 2.7237265 -3.6893488e+19
2.50704 2 -1.8573658
-3.6893488e+19 2.6591911 0
2.501086 2 -1.8454067
2 2.6452355 1.0842022e-19
2.4289033 0 -1.8440281
-2 2.6038368 1.0842022e-19
2.4342394 -2 -1.8388306
-0 2.5992384 2
2.378988 -1.0842022e-19 -1.8407865
-3.6893488e+19 2.5552099 1.0842022e-19
2.374563 3.6893488e+19 -1.8295047
-2 2.5527198 0
2.3285069 -0 -1.8313509
1.0842022e-19 2.5209556 3.6893488e+19
2.3325248 1.0842022e-19 -1.8243828
0 2.519923 2
2.2929161 2 -1.8262247
-0 2.4891613 -3.6893488e+19
2.3001566 0 -1.8210838
-1.0842022e-19 2.4843681 3.6893488e+19
2.2628143 3.6893488e+19 -1.8210257
-3.6893488e+19 2.4440885 -2
2.2724993 -2 -1.8176609
-1.0842022e-19 2.4429343 -3.6893488e+19
2.2306652 -3.6893488e+19 -1.8184279
-3.6893488e+19 2.4079573 -0
2.2503288 0 -1.8154569
1.0842022e-19 2.4054685 2
2.1900079 1.0842022e-19 -1.8150587
-2 2.3996363 -2
2.152585 2 -1.8156627
-3.6893488e+19 3.2617333 1.0842022e-19
3.0477805 3.6893488e+19 2.7580662
-2 3.1897848 2
3.0001769 0 2.6688871
3.6893488e+19 3.1861734 0
2.9962451 0 2.6508775
3.6893488e+19 3.2666862 -2
3.0169055 -1.0842022e-19 2.6833749
1.0842022e-19 3.1934087 -1.0842022e-19
3.0022383 3.6893488e+19 2.6133275
-0 3.2301471 3.6893488e+19
3.0088992 -2 2.6228442
2 3.2064939 0
3.0284691 -2 2.6078095
-2 3.2238398 -2
3.0054982 2 2.6025138
-0 3.188525 1.0842022e-19
2.9729125 2 2.5619941
-0 3.2232974 -3.6893488e+19
3.0052056 -0 2.5713868
1.0842022e-19 3.1901982 -3.6893488e+19
3.0185282 0 2.5508447
-2 3.216862 -2
3.0017357 -3.6893488e+19 2.5519106
-0 3.1927755 3.6893488e+19
3.0201006 -1.0842022e-19 2.5378492
-0 3.2131705 0
2.9994907 -3.6893488e+19 2.5345693
3.6893488e+19 3.1905479 0
3.0187418 -2 2.5217497
2 3.1958072 -3.6893488e+19
2.9807656 0 2.5095322
-1.0842022e-19 3.2300839 -1.0842022e-19
2.980479 0 2.5022948
2 3.118223 -3.6893488e+19
2.918936 -2 2.38621
2 3.2262712 0
2.9766631 -2 2.4704921
2 3.1995056 -1.0842022e-19
3.0057065 2 2.4422736
3.6893488e+19 3.2286556 -0
2.9790494 -3.6893488e+19 2.4426537
0 3.1200426 -1.0842022e-19
2.9210062 -1.0842022e-19 2.3400905
0 3.2301016 0
2.9804966 1.0842022e-19 2.4137554
-0 3.20262 -2
3.0074782 -3.6893488e+19 2.3866768
0 3.2350609 1.0842022e-19
2.98546 1.0842022e-19 2.3875165
0 3.2024961 -2
3.0074077 -0 2.3573039
-2 3.2322593 2
2.9826562 -3.6893488e+19 2.3549852
-1.0842022e-19 3.2022681 2
3.0072782 -1.0842022e-19 2.3279123
2 3.2351439 -1.0842022e-19
2.985543 0 2.3266635
-1.0842022e-19 3.1156456 -0
2.9160039 1.0842022e-19 2.2330246
2 3.238342 -2
2.9887438 -3.6893488e+19 2.298209
1.0842022e-19 3.2004983 2
3.0062714 -1.0842022e-19 2.2685161
2 3.194077 3.6893488e+19
3.0208945 -1.0842022e-19 2.254935
2 3.2088628 -3.6893488e+19
2.9948449 3.6893488e+19 2.2318118
0 3.19034 -2
3.0186148 0 2.1978617
2 3.2092836 3.6893488e+19
2.9952989 1.0842022e-19 2.1738765
-2 3.1838603 1.0842022e-19
3.0146623 -3.6893488e+19 2.1344345
-2 3.1131456 -3.6893488e+19
2.8916221 2 2.0390341
2 3.1855123 -2
3.0156698 -0 2.0788827
-0 3.2132199 2
2.9995439 3.6893488e+19 2.059885
2 3.1819179 0
3.0134773 2 2.0196662
-3.6893488e+19 3.1040115 -3.6893488e+19
2.8817718 3.6893488e+19 1.9419214
-1.0842022e-19 3.1807275 -0
3.0127511 0 1.9625918
-0 3.1044066 3.6893488e+19
2.8821979 -1.0842022e-19 1.8971897
-0 3.179249 -2
3.0118492 3.6893488e+19 1.9057556
-3.6893488e+19 3.1036568 2
2.8813894 2 1.8291017
-3.6893488e+19 3.1059909 -0
2.9343212 3.6893488e+19 1.790292
2 3.1033299 0
2.8810368 -3.6893488e+19 1.728686
1.0842022e-19 3.1061697 3.6893488e+19
2.8564627 -1.0842022e-19 1.6380525
-2 3.1072686 -0
2.9064732 -0 1.4530197
2 3.1382847 3.6893488e+19
2.8886042 -0 -1.4229299
0 3.1074278 -1.0842022e-19
2.9066541 2 -1.6326685
0 3.1385505 0
2.8888702 -0 -1.7370938
1.0842022e-19 3.1364684 2
2.9396944 3.6893488e+19 -1.7959256
2 3.1077528 0
2.8580472 1.0842022e-19 -1.8234127
2 3.1313753 2
2.9338999 0 -1.8832824
-1.0842022e-19 3.1108625 1.0842022e-19
2.8611596 -2 -1.8950886
-0 3.1318314 0
2.9344189 2 -1.9324688
-0 3.1183953 0
2.8686986 0 -1.9441004
-0 3.0522099 1.0842022e-19
2.8438315 2 -1.9332294
-1.0842022e-19 3.053658 -1.0842022e-19
2.8039079 1.0842022e-19 -1.9479097
2 3.040164 -0
2.8301265 2 -1.9632136
-2 2.88362 -3.6893488e+19
2.6339357 -0 -1.8989716
1.0842022e-19 2.8089335 -1.0842022e-19
2.601481 -2 -1.8833596
2 2.7500293 0
2.5550444 -3.6893488e+19 -1.8611616
1.0842022e-19 2.7263753 -3.6893488e+19
2.5068653 -3.6893488e+19 -1.8583344
3.6893488e+19 2.6589949 -3.6893488e+19
2.4989877 -0 -1.8449483
0 2.6078119 1.0842022e-19
2.4365427 2 -1.8408867
0 2.5346386 0
2.3069589 -0 -1.8006228
3.6893488e+19 2.5555928 1.0842022e-19
2.3728337 -3.6893488e+19 -1.8294334
-0 2.5342774 -2
2.3065693 -3.6893488e+19 -1.8185053
0 2.5214963 3.6893488e+19
2.3312347 -2 -1.8244609
-3.6893488e+19 2.5208535 0
2.292093 1.0842022e-19 -1.8266329
3.6893488e+19 2.495687 -1.0842022e-19
2.3023775 -3.6893488e+19 -1.8233815
-1.0842022e-19 2.4852736 -0
2.2616634 3.6893488e+19 -1.8211143
2 2.4445879 -1.0842022e-19
2.2712061 3.6893488e+19 -1.8175689
-1.0842022e-19 2.444 0
2.228817 -0 -1.818619
-3.6893488e+19 2.4086113 3.6893488e+19
2.2485199 0 -1.8154569
1.0842022e-19 2.4062619 2
2.1881194 -0 -1.8151611
2 2.4010513 3.6893488e+19
2.1513813 -0 -1.8160864
-2 2.3754194 -0
2.1257284 1.0842022e-19 -1.8157227
-1.0842022e-19 2.326443 3.6893488e+19
2.0767117 3.6893488e+19 -1.8114955
0 2.2906351 1.0842022e-19
2.0408742 1.0842022e-19 -1.8094928
-0 2.2588859 0
2.009099 1.0842022e-19 -1.8058422
0 2.1926577 -2
2.0200286 -3.6893488e+19 -1.8018011
-3.6893488e+19 2.1550453 3.6893488e+19
1.9970846 -1.0842022e-19 -1.8004264
3.6893488e+19 2.1267521 3.6893488e+19
1.9798253 -2 -1.8009326
3.6893488e+19 2.1047981 2
1.9664329 -2 -1.8027643
-3.6893488e+19 3.2617333 1.0842022e-19
3.0477805 3.6893488e+19 2.7580662
-2 3.1897848 2
3.0001769 0 2.6688871
3.6893488e+19 3.1861734 0
2.9962451 0 2.6508775
3.6893488e+19 3.2666862 -2
3.0169055 -1.0842022e-19 2.6833749
1.0842022e-19 3.1934087 -1.0842022e-19
3.0022383 3.6893488e+19 2.6133275
2 3.19753 -0
2.9826236 -2 2.5975163
2 3.2064939 0
3.0284691 -2 2.6078095
-2 3.2238398 -2
3.0054982 2 2.6025138
-0 3.188525 1.0842022e-19
2.9729125 2 2.5619941
-0 3.1890202 -3.6893488e+19
2.9734464 -3.6893488e+19 2.5481112
1.0842022e-19 3.1901982 -3.6893488e+19
3.0185282 0 2.5508447
-2 3.216862 -2
3.0017357 -3.6893488e+19 2.5519106
-0 3.1927755 3.6893488e+19
3.0201006 -1.0842022e-19 2.5378492
-0 3.2131705 0
2.9994907 -3.6893488e+19 2.5345693
3.6893488e+19 3.1905479 0
3.0187418 -2 2.5217497
2 3.1958072 -3.6893488e+19
2.9807656 0 2.5095322
-0 3.1288602 1.0842022e-19
2.8791721 -1.0842022e-19 2.3981988
2 3.118223 -3.6893488e+19
2.918936 -2 2.38621
0 3.1294115 -0
2.8797235 -3.6893488e+19 2.3748076
-0 3.1190736 -0
2.919904 1.0842022e-19 2.3631358
-2 3.1297498 3.6893488e+19
2.8800623 2 2.3511872
0 3.1200426 -1.0842022e-19
2.9210062 -1.0842022e-19 2.3400905
-2 3.1273715 1.0842022e-19
2.8776822 0 2.325222
-3.6893488e+19 3.1204262 2
2.921443 0 2.3164582
0 3.1290913 -0
2.8794031 -2 2.3028569
2 3.1191144 -2
2.9199502 3.6893488e+19 2.2914634
1.0842022e-19 3.1279254 -0
2.8782363 3.6893488e+19 2.2781863
-1.0842022e-19 3.1188116 2
2.919606 2 2.2674031
2 3.2351439 -1.0842022e-19
2.985543 0 2.3266635
-1.0842022e-19 3.1156456 -0
2.9160039 1.0842022e-19 2.2330246
-1.0842022e-19 3.131166 1.0842022e-19
2.8814797 -3.6893488e+19 2.2155228
-2 3.1170394 -1.0842022e-19
2.9175897 1.0842022e-19 2.1875424
2 3.194077 3.6893488e+19
3.0208945 -1.0842022e-19 2.254935
-2 3.1227744 -3.6893488e+19
2.9020059 3.6893488e+19 2.141418
1.0842022e-19 3.1119685 3.6893488e+19
2.9416139 2 2.1181514
-3.6893488e+19 3.1188772 2
2.8978033 3.6893488e+19 2.0904398
-2 3.1115103 2
2.9410551 1.0842022e-19 2.0703268
-2 3.1131456 -3.6893488e+19
2.8916221 2 2.0390341
0 3.1126604 -2
2.9424579 3.6893488e+19 2.0238676
0 3.1059086 0
2.8838177 2 1.9880959
1.0842022e-19 3.1139266 -0
2.9440029 3.6893488e+19 1.9772161
-3.6893488e+19 3.1040115 -3.6893488e+19
2.8817718 3.6893488e+19 1.9419214
1.0842022e-19 3.1099219 -1.0842022e-19
2.939117 1.0842022e-19 1.9276446
-0 3.1044066 3.6893488e+19
2.8821979 -1.0842022e-19 1.8971897
1.0842022e-19 3.1079788 3.6893488e+19
2.9367464 -0 1.8798947
-3.6893488e+19 3.1036568 2
2.8813894 2 1.8291017
-3.6893488e+19 3.1059909 -0
2.9343212 3.6893488e+19 1.790292
2 3.1033299 0
2.8810368 -3.6893488e+19 1.728686
1.0842022e-19 3.1061697 3.6893488e+19
2.8564627 -1.0842022e-19 1.6380525
-2 3.1072686 -0
2.9064732 -0 1.4530197
-2 3.105839 -3.6893488e+19
2.8561318 0 -1.4084797
0 3.1074278 -1.0842022e-19
2.9066541 2 -1.6326685
3.6893488e+19 3.103591 -2
2.8538818 2 -1.7157615
1.0842022e-19 3.1100411 3.6893488e+19
2.9096274 1.0842022e-19 -1.7842375
2 3.1077528 0
2.8580472 1.0842022e-19 -1.8234127
-1.0842022e-19 3.1103823 1.0842022e-19
2.9100158 -0 -1.8759458
-1.0842022e-19 3.1108625 1.0842022e-19
2.8611596 -2 -1.8950886
-0 3.1318314 0
2.9344189 2 -1.9324688
-3.6893488e+19 3.0575826 -0
2.8078358 -2 -1.9120593
-0 3.0522099 1.0842022e-19
2.8438315 2 -1.9332294
-1.0842022e-19 3.053658 -1.0842022e-19
2.8039079 1.0842022e-19 -1.9479097
2 3.040164 -0
2.8301265 2 -1.9632136
-2 2.88362 -3.6893488e+19
2.6339357 -0 -1.8989716
1.0842022e-19 2.8089335 -1.0842022e-19
2.601481 -2 -1.8833596
2 2.7500293 0
2.5550444 -3.6893488e+19 -1.8611616
1.0842022e-19 2.7263753 -3.6893488e+19
2.5068653 -3.6893488e+19 -1.8583344
3.6893488e+19 2.6589949 -3.6893488e+19
2.4989877 -0 -1.8449483
0 2.6078119 1.0842022e-19
2.4365427 2 -1.8408867
0 2.5346386 0
2.3069589 -0 -1.8006228
3.6893488e+19 2.5555928 1.0842022e-19
2.3728337 -3.6893488e+19 -1.8294334
-0 2.5342774 -2
2.3065693 -3.6893488e+19 -1.8185053
0 2.5214963 3.6893488e+19
2.3312347 -2 -1.8244609
-3.6893488e+19 2.5208535 0
2.292093 1.0842022e-19 -1.8266329
3.6893488e+19 2.495687 -1.0842022e-19
2.3023775 -3.6893488e+19 -1.8233815
-1.0842022e-19 2.4852736 -0
2.2616634 3.6893488e+19 -1.8211143
2 2.4445879 -1.0842022e-19
2.2712061 3.6893488e+19 -1.8175689
-1.0842022e-19 2.444 0
2.228817 -0 -1.818619
-3.6893488e+19 2.4086113 3.6893488e+19
2.2485199 0 -1.8154569
1.0842022e-19 2.4062619 2
2.1881194 -0 -1.8151611
2 2.4010513 3.6893488e+19
2.1513813 -0 -1.8160864
-2 2.3754194 -0
2.1257284 1.0842022e-19 -1.8157227
-1.0842022e-19 2.326443 3.6893488e+19
2.0767117 3.6893488e+19 -1.8114955
0 2.2906351 1.0842022e-19
2.0408742 1.0842022e-19 -1.8094928
-0 2.2588859 0
2.009099 1.0842022e-19 -1.8058422
0 2.1926577 -2
2.0200286 -3.6893488e+19 -1.8018011
-3.6893488e+19 2.1550453 3.6893488e+19
1.9970846 -1.0842022e-19 -1.8004264
3.6893488e+19 2.1267521 3.6893488e+19
1.9798253 -2 -1.8009326
3.6893488e+19 2.1047981 2
1.9664329 -2 -1.8027643
0 3.2610981 -2
3.0452516 -1.0842022e-19 2.7570579
-1.0842022e-19 3.1857808 -1.0842022e-19
2.9927843 -0 2.6499226
-2 3.2670069 -0
3.0154817 3.6893488e+19 2.6833303
-3.6893488e+19 3.225827 1.0842022e-19
3.0049651 2 2.6189704
-0 3.2071154 -3.6893488e+19
3.0272095 -2 2.6077271
-2 3.2239902 -3.6893488e+19
3.0039806 -3.6893488e+19 2.6021299
1.0842022e-19 3.204999 2
3.0259261 -0 2.5908365
3.6893488e+19 3.1895232 3.6893488e+19
2.9710243 -0 2.5622647
-0 3.2238545 -3.6893488e+19
3.0039079 -1.0842022e-19 2.5713129
3.6893488e+19 3.2176282 -0
3.0005717 2 2.5519812
2 3.1907017 3.6893488e+19
3.0172558 0 2.5360456
3.6893488e+19 3.2141774 -0
2.9974453 0 2.5347872
0 3.1906934 0
3.0172508 -1.0842022e-19 2.5214071
-3.6893488e+19 3.216352 -3.6893488e+19
2.9997759 3.6893488e+19 2.521111
-1.0842022e-19 3.2106044 -2
2.9936163 -3.6893488e+19 2.5029736
-2 3.2307386 -1.0842022e-19
2.9779925 2 2.5023093
2 3.1200671 -0
2.9184747 -0 2.3875687
-3.6893488e+19 3.119297 -2
2.917604 -0 2.3628168
-1.0842022e-19 3.2291136 3.6893488e+19
2.9763768 -3.6893488e+19 2.4424994
1.0842022e-19 3.1211064 -1.0842022e-19
2.9196498 1.0842022e-19 2.3405626
0 3.2329569 -2
2.9801979 2 2.4156733
-2 3.2055132 0
3.007549 -2 2.3885715
-0 3.2358057 0
2.9830308 2 2.3876054
-1.0842022e-19 3.2012165 2
3.0051196 0 2.3557653
-1.0842022e-19 3.2335026 3.6893488e+19
2.9807408 -1.0842022e-19 2.3554363
-2 3.1208508 1.0842022e-19
2.9193611 2 2.2684829
1.0842022e-19 3.2360845 -3.6893488e+19
2.9833076 -2 2.3268697
-1.0842022e-19 3.2130539 -0
3.0118124 2 2.3053977
-2 3.2397056 -2
2.9869082 -0 2.2986517
1.0842022e-19 3.2075195 -0
3.0086832 3.6893488e+19 2.2722967
-0 3.194891 1.0842022e-19
3.0197964 2 2.2549963
-2 3.2101409 -1.0842022e-19
2.9931197 0 2.232475
0 3.1820498 3.6893488e+19
3.0120089 3.6893488e+19 2.188731
-2 3.2100675 -0
2.993041 -3.6893488e+19 2.1740031
2 3.1839643 2
3.01317 1.0842022e-19 2.1339152
-2 3.2145395 -2
2.9978335 1.0842022e-19 2.1192157
-3.6893488e+19 3.1130776 2
2.9403644 -3.6893488e+19 2.0237467
3.6893488e+19 3.2160189 1.0842022e-19
2.999419 2 2.0613194
1.0842022e-19 3.1820984 2
3.0120385 -0 2.0193498
0 3.2415674 -0
3.0133991 2 2.0161202
1.0842022e-19 3.1793034 0
3.0103436 0 1.9615519
-3.6893488e+19 3.1039691 3.6893488e+19
2.8793385 3.6893488e+19 1.8968015
-1.0842022e-19 3.1695671 -0
3.0044391 1.0842022e-19 1.9020004
-0 3.1044025 2
2.8798029 -1.0842022e-19 1.8292445
2 3.1079206 2
2.9341094 3.6893488e+19 1.7909237
-2 3.1034415 -2
2.878773 2 1.7284368
-2 3.1384506 -2
2.8862317 -1.0842022e-19 1.6503683
-0 3.107908 -2
2.9047251 3.6893488e+19 1.4530815
0 3.1368051 -0
2.8845954 -0 -1.4220462
0 3.1072786 -3.6893488e+19
2.9040132 0 -1.6324165
0 3.1051161 -2
2.8530874 -3.6893488e+19 -1.7164094
-1.0842022e-19 3.1350021 1.0842022e-19
2.9353635 -2 -1.7950246
-1.0842022e-19 3.1086676 1.0842022e-19
2.8566189 1.0842022e-19 -1.8236606
-3.6893488e+19 3.1316152 0
2.9315336 -1.0842022e-19 -1.8831685
-1.0842022e-19 3.109879 2
2.8578234 -2 -1.8945044
0 3.1334047 0
2.933557 -3.6893488e+19 -1.9329488
-2 3.1178415 -0
2.8657403 -3.6893488e+19 -1.9435557
-3.6893488e+19 3.1309333 0
2.9307625 3.6893488e+19 -1.9806169
-3.6893488e+19 3.0527961 1.0842022e-19
2.8010666 1.0842022e-19 -1.9470906
-0 3.0408123 0
2.8288529 -0 -1.9633731
-1.0842022e-19 2.8842888 3.6893488e+19
2.6320937 1.0842022e-19 -1.8990366
0 2.8077075 0
2.5979581 0 -1.8826334
0 2.7537367 3.6893488e+19
2.5577483 -0 -1.8642823
1.0842022e-19 2.5351713 3.6893488e+19
2.3056097 3.6893488e+19 -1.764484
-1.0842022e-19 2.6598597 -3.6893488e+19
2.4971044 -1.0842022e-19 -1.8450629
-1.0842022e-19 2.5346172 3.6893488e+19
2.305016 0 -1.7822821
-2 2.6059284 1.0842022e-19
2.4316933 -1.0842022e-19 -1.8394089
-1.0842022e-19 2.5354788 3.6893488e+19
2.3059394 1.0842022e-19 -1.8008938
-0 2.55512 0
2.3700695 1.0842022e-19 -1.8287927
-2 2.5346775 -1.0842022e-19
2.3050807 -3.6893488e+19 -1.8185053
-3.6893488e+19 2.5232072 0
2.3313637 -0 -1.8253988
-3.6893488e+19 2.5212348 -1.0842022e-19
2.2906744 1.0842022e-19 -1.8266329
3.6893488e+19 2.4969025 -1.0842022e-19
2.3013377 -2 -1.8235518
-3.6893488e+19 2.4852982 1.0842022e-19
2.26004 3.6893488e+19 -1.8208486
2 2.4472117 0
2.2712038 0 -1.8183974
0 2.4452832 3.6893488e+19
2.2271969 3.6893488e+19 -1.8189056
2 2.4101131 -2
2.2474117 -0 -1.8158528
-3.6893488e+19 2.4120944 -0
2.1916296 0 -1.8176202
-3.6893488e+19 2.4035783 -0
2.151273 3.6893488e+19 -1.8170397
0 3.2610981 -2
3.0452516 -1.0842022e-19 2.7570579
-1.0842022e-19 3.1857808 -1.0842022e-19
2.9927843 -0 2.6499226
-1.0842022e-19 3.2349241 1.0842022e-19
2.9821541 -1.0842022e-19 2.6434958
-3.6893488e+19 3.225827 1.0842022e-19
3.0049651 2 2.6189704
-0 3.2071154 -3.6893488e+19
3.0272095 -2 2.6077271
-2 3.2239902 -3.6893488e+19
3.0039806 -3.6893488e+19 2.6021299
1.0842022e-19 3.204999 2
3.0259261 -0 2.5908365
3.6893488e+19 3.1895232 3.6893488e+19
2.9710243 -0 2.5622647
-2 3.1903191 -3.6893488e+19
2.9718771 -3.6893488e+19 2.548573
3.6893488e+19 3.2176282 -0
3.0005717 2 2.5519812
2 3.1907017 3.6893488e+19
3.0172558 0 2.5360456
3.6893488e+19 3.2141774 -0
2.9974453 0 2.5347872
0 3.1906934 0
3.0172508 -1.0842022e-19 2.5214071
-3.6893488e+19 3.216352 -3.6893488e+19
2.9997759 3.6893488e+19 2.521111
-1.0842022e-19 3.2106044 -2
2.9936163 -3.6893488e+19 2.5029736
3.6893488e+19 3.1310503 -1.0842022e-19
2.8788736 2 2.3999784
2 3.1200671 -0
2.9184747 -0 2.3875687
-3.6893488e+19 3.119297 -2
2.917604 -0 2.3628168
1.0842022e-19 3.1291325 3.6893488e+19
2.8769667 2 2.3501589
1.0842022e-19 3.1211064 -1.0842022e-19
2.9196498 1.0842022e-19 2.3405626
2 3.1255248 0
2.8733797 -1.0842022e-19 2.3232081
-3.6893488e+19 3.1207867 0
2.9192886 -0 2.3162963
-2 3.1272171 0
2.8750625 -1.0842022e-19 2.3009667
-2 3.1203129 0
2.9187529 -0 2.2919762
-1.0842022e-19 3.1281121 3.6893488e+19
2.8759522 -0 2.2779608
-2 3.1208508 1.0842022e-19
2.9193611 2 2.2684829
1.0842022e-19 3.2360845 -3.6893488e+19
2.9833076 -2 2.3268697
-1.0842022e-19 3.1171112 2
2.9151323 0 2.2342415
-3.6893488e+19 3.1299887 -1.0842022e-19
2.8778181 -0 2.2134798
-2 3.1180189 3.6893488e+19
2.9161587 -2 2.1880593
-1.0842022e-19 3.1217337 1.0842022e-19
2.9508629 -1.0842022e-19 2.1761301
-2 3.2101409 -1.0842022e-19
2.9931197 0 2.232475
1.0842022e-19 3.1225505 -3.6893488e+19
2.9518533 2 2.1283116
0 3.1229453 0
2.8996747 1.0842022e-19 2.0937104
-0 3.1106448 -2
2.9374135 1.0842022e-19 2.0690517
2 3.1162436 -1.0842022e-19
2.8924925 -0 2.04109
-3.6893488e+19 3.1130776 2
2.9403644 -3.6893488e+19 2.0237467
1.0842022e-19 3.1031339 -1.0842022e-19
2.8784432 -3.6893488e+19 1.9859076
0 3.1142392 2
2.9417729 -3.6893488e+19 1.9770496
2 3.1030507 -2
2.8783541 -0 1.9411314
3.6893488e+19 3.1103082 0
2.9370053 2 1.9275525
-3.6893488e+19 3.1039691 3.6893488e+19
2.8793385 3.6893488e+19 1.8968015
-3.6893488e+19 3.1097243 3.6893488e+19
2.9362972 -3.6893488e+19 1.8803205
-0 3.1044025 2
2.8798029 -1.0842022e-19 1.8292445
2 3.1079206 2
2.9341094 3.6893488e+19 1.7909237
-2 3.1034415 -2
2.878773 2 1.7284368
-1.0842022e-19 3.1068306 2
2.8547924 -1.0842022e-19 1.6381283
-0 3.107908 -2
2.9047251 3.6893488e+19 1.4530815
0 3.1063879 1.0842022e-19
2.854352 2 -1.408517
0 3.1072786 -3.6893488e+19
2.9040132 0 -1.6324165
0 3.1051161 -2
2.8530874 -3.6893488e+19 -1.7164094
0 3.1103854 -0
2.9075265 -2 -1.7841533
-1.0842022e-19 3.1086676 1.0842022e-19
2.8566189 1.0842022e-19 -1.8236606
-2 3.1114342 -2
2.9087126 2 -1.8761262
-1.0842022e-19 3.109879 2
2.8578234 -2 -1.8945044
0 3.1334047 0
2.933557 -3.6893488e+19 -1.9329488
3.6893488e+19 3.0538168 2
2.8020813 -2 -1.9098663
-0 3.0500758 2
2.8393281 1.0842022e-19 -1.9316658
-3.6893488e+19 3.0527961 1.0842022e-19
2.8010666 1.0842022e-19 -1.9470906
-0 3.0408123 0
2.8288529 -0 -1.9633731
-1.0842022e-19 2.8842888 3.6893488e+19
2.6320937 1.0842022e-19 -1.8990366
0 2.8077075 0
2.5979581 0 -1.8826334
0 2.7537367 3.6893488e+19
2.5577483 -0 -1.8642823
1.0842022e-19 2.5351713 3.6893488e+19
2.3056097 3.6893488e+19 -1.764484
-1.0842022e-19 2.6598597 -3.6893488e+19
2.4971044 -1.0842022e-19 -1.8450629
-1.0842022e-19 2.5346172 3.6893488e+19
2.305016 0 -1.7822821
-2 2.6059284 1.0842022e-19
2.4316933 -1.0842022e-19 -1.8394089
-1.0842022e-19 2.5354788 3.6893488e+19
2.3059394 1.0842022e-19 -1.8008938
-0 2.55512 0
2.3700695 1.0842022e-19 -1.8287927
-2 2.5346775 -1.0842022e-19
2.3050807 -3.6893488e+19 -1.8185053
-3.6893488e+19 2.5232072 0
2.3313637 -0 -1.8253988
-3.6893488e+19 2.5212348 -1.0842022e-19
2.2906744 1.0842022e-19 -1.8266329
3.6893488e+19 2.4969025 -1.0842022e-19
2.3013377 -2 -1.8235518
-3.6893488e+19 2.4852982 1.0842022e-19
2.26004 3.6893488e+19 -1.8208486
2 2.4472117 0
2.2712038 0 -1.8183974
0 2.4452832 3.6893488e+19
2.2271969 3.6893488e+19 -1.8189056
2 2.4101131 -2
2.2474117 -0 -1.8158528
-3.6893488e+19 2.4120944 -0
2.1916296 0 -1.8176202
-3.6893488e+19 2.4035783 -0
2.151273 3.6893488e+19 -1.8170397
-0 3.182615 -1.0842022e-19
2.9864182 -1.0842022e-19 2.6464708
-0 3.212337 -2
3.0099182 1.0842022e-19 2.6583498
0 3.2394261 -1.0842022e-19
2.9836509 -3.6893488e+19 2.6466682
1.0842022e-19 3.2265575 2
3.0038595 -0 2.6190546
-2 3.2058647 0
3.02493 -3.6893488e+19 2.6062214
-1.0842022e-19 3.2244189 2
3.0027204 0 2.6019888
-1.0842022e-19 3.2069929 -1.0842022e-19
3.0256102 2 2.5918248
1.0842022e-19 3.2197988 -0
3.0002592 -3.6893488e+19 2.5833387
-2 3.2243371 -1.0842022e-19
3.0026767 1.0842022e-19 2.5712206
2 3.2215159 0
3.001174 -3.6893488e+19 2.5540943
2 3.1924932 -1.0842022e-19
3.0168655 2 2.5367842
-0 3.2184188 -3.6893488e+19
2.9990482 2 2.5370145
2 3.1911063 3.6893488e+19
3.0160291 -3.6893488e+19 2.5212603
-0 3.2174537 2
2.9980202 -0 2.5213969
-2 3.211699 1.0842022e-19
2.9918892 -3.6893488e+19 2.5032439
3.6893488e+19 3.2288449 -1.0842022e-19
2.9731946 3.6893488e+19 2.5010111
0 3.1200089 -0
2.9160259 2 2.3869743
-1.0842022e-19 3.2335417 3.6893488e+19
2.9778361 1.0842022e-19 2.4764743
0 3.1197522 -1.0842022e-19
2.9157372 -1.0842022e-19 2.3627636
1.0842022e-19 3.2293878 -0
2.973731 -3.6893488e+19 2.4422166
-0 3.2107682 -1.0842022e-19
3.0090363 -2 2.4222627
-2 3.2352152 -2
2.9794898 2 2.4171116
0 3.210237 -2
3.0087376 -0 2.3920605
1.0842022e-19 3.2367852 3.6893488e+19
2.9810412 0 2.3879168
-3.6893488e+19 3.2080808 -3.6893488e+19
3.0075254 2 2.3606803
-2 3.2334743 -3.6893488e+19
2.9777694 -3.6893488e+19 2.3549852
-1.0842022e-19 3.2239857 0
3.0164671 -2 2.3426764
-3.6893488e+19 3.2313931 0
2.975713 0 2.3233235
-1.0842022e-19 3.211899 1.0842022e-19
3.0096722 -0 2.3042166
3.6893488e+19 3.2396841 1.0842022e-19
2.983906 -0 2.2982771
2 3.2092104 2
3.0081606 2 2.2729268
1.0842022e-19 3.20033 2
3.0215919 0 2.2577326
-2 3.211513 1.0842022e-19
2.9916911 2 2.2332823
-0 3.1817801 2
3.0104046 -0 2.1878097
0 3.2100351 0
2.9901164 0 2.1734202
-3.6893488e+19 3.184793 -3.6893488e+19
3.0122216 3.6893488e+19 2.1340804
-2 3.2146504 -0
2.9950335 -3.6893488e+19 2.1188219
1.0842022e-19 3.1853538 -3.6893488e+19
3.0125597 3.6893488e+19 2.0777555
-0 3.219439 -3.6893488e+19
3.0000675 2 2.063195
-0 3.1961634 -3.6893488e+19
3.019079 -2 2.0277066
1.0842022e-19 3.2432847 -1.0842022e-19
3.0127699 -0 2.0167015
-2 3.1800184 1.0842022e-19
3.0093422 2 1.9615914
-3.6893488e+19 3.1031079 -3.6893488e+19
2.8761973 -2 1.8962532
2 3.1686091 3.6893488e+19
3.0024612 0 1.9014294
-2 3.104562 -1.0842022e-19
2.8777466 0 1.82907
-0 3.1675048 0
3.0017953 -2 1.8182597
-3.6893488e+19 3.1047857 0
2.877985 -3.6893488e+19 1.7290064
-3.6893488e+19 3.1040971 1.0842022e-19
2.8499191 0 1.6369044
-0 3.1094365 1.0842022e-19
2.9041388 -1.0842022e-19 1.453668
3.6893488e+19 3.1070998 0
2.8528862 2 -1.4086415
0 3.1087518 3.6893488e+19
2.9033687 -1.0842022e-19 -1.6327794
-2 3.1044817 -3.6893488e+19
2.8502989 2 -1.7157615
0 3.1273887 1.0842022e-19
2.9243236 1.0842022e-19 -1.791433
2 3.1563327 2
2.9015381 3.6893488e+19 -1.8497891
-2 3.1292815 2
2.9264519 -3.6893488e+19 -1.8821719
3.6893488e+19 3.1168694 3.6893488e+19
2.8625405 -3.6893488e+19 -1.897133
0 3.1312919 1.0842022e-19
2.9287121 2 -1.9316902
0 3.1112583 -2
2.8569953 -1.0842022e-19 -1.9398615
-0 3.1317308 -0
2.9292057 1.0842022e-19 -1.9807816
1.0842022e-19 3.0536952 -2
2.8001115 2 -1.9474365
-2 3.041322 -0
2.827553 -1.0842022e-19 -1.9634528
0 2.8852584 0
2.6307125 2 -1.8992318
-2 2.8069887 -3.6893488e+19
2.5951681 3.6893488e+19 -1.8821415
3.6893488e+19 2.7506909 -1.0842022e-19
2.552381 2 -1.861061
0 2.5360947 -2
2.3048019 -0 -1.7647531
3.6893488e+19 2.6611071 -2
2.4958735 2 -1.8454067
-0 2.5355396 1.0842022e-19
2.3042109 1.0842022e-19 -1.782586
3.6893488e+19 2.6061344 0
2.4295661 -1.0842022e-19 -1.8392161
1.0842022e-19 2.5354116 -1.0842022e-19
2.3040743 -0 -1.8006228
-3.6893488e+19 2.5556779 -0
2.368706 3.6893488e+19 -1.8288639
-2 2.5348294 -1.0842022e-19
2.3034542 -3.6893488e+19 -1.8183559
3.6893488e+19 2.5233979 2
2.3297701 1.0842022e-19 -1.8252425
-2 2.5214791 1.0842022e-19
2.2892311 3.6893488e+19 -1.8265512
2 2.495291 1.0842022e-19
2.2987077 -0 -1.8226156
-0 2.4861519 2
2.2589705 3.6893488e+19 -1.8209372
-3.6893488e+19 2.4489388 -1.0842022e-19
2.2707529 0 -1.8188577
3.6893488e+19 2.4456451 -2
2.2247853 -3.6893488e+19 -1.81881
-1.0842022e-19 2.4109325 1.0842022e-19
2.2456632 -3.6893488e+19 -1.8159517
-2 2.4115353 1.0842022e-19
2.1884453 -1.0842022e-19 -1.8171078
-2 2.4045131 -2
2.14974 -0 -1.8172516
-2 2.3763652 -3.6893488e+19
2.1219242 1.0842022e-19 -1.8157227
-1.0842022e-19 2.3292663 -1.0842022e-19
2.075381 -0 -1.8126358
-2 2.2889261 3.6893488e+19
2.035517 3.6893488e+19 -1.8079472
0 2.2557735 3.6893488e+19
2.0027554 -2 -1.803219
-0 2.1931741 2
2.0172763 2 -1.801465
0 2.1575537 2
1.9957937 -1.0842022e-19 -1.8009717
-3.6893488e+19 2.1300097 -0
1.9791821 -2 -1.80191
0 2.1000271 -2
1.9610996 -3.6893488e+19 -1.7998364
-0 3.182615 -1.0842022e-19
2.9864182 -1.0842022e-19 2.6464708
-0 3.212337 -2
3.0099182 1.0842022e-19 2.6583498
0 3.2394261 -1.0842022e-19
2.9836509 -3.6893488e+19 2.6466682
1.0842022e-19 3.2265575 2
3.0038595 -0 2.6190546
-2 3.2058647 0
3.02493 -3.6893488e+19 2.6062214
-1.0842022e-19 3.2244189 2
3.0027204 0 2.6019888
-1.0842022e-19 3.2069929 -1.0842022e-19
3.0256102 2 2.5918248
1.0842022e-19 3.2197988 -0
3.0002592 -3.6893488e+19 2.5833387
-2 3.2243371 -1.0842022e-19
3.0026767 1.0842022e-19 2.5712206
2 3.2215159 0
3.001174 -3.6893488e+19 2.5540943
2 3.1924932 -1.0842022e-19
3.0168655 2 2.5367842
-0 3.2184188 -3.6893488e+19
2.9990482 2 2.5370145
2 3.1911063 3.6893488e+19
3.0160291 -3.6893488e+19 2.5212603
-0 3.2174537 2
2.9980202 -0 2.5213969
-0 3.1978443 0
2.9771285 0 2.4912894
-3.6893488e+19 3.1314285 3.6893488e+19
2.8769279 2 2.3998909
0 3.1200089 -0
2.9160259 2 2.3869743
2 3.1321774 -2
2.8776677 0 2.3765914
0 3.1197522 -1.0842022e-19
2.9157372 -1.0842022e-19 2.3627636
1.0842022e-19 3.1278362 -0
2.8733778 3.6893488e+19 2.3485394
1.0842022e-19 3.1192327 -1.0842022e-19
2.915153 -0 2.3383765
-1.0842022e-19 3.1306927 -1.0842022e-19
2.8762007 -2 2.3272595
-2 3.1210537 3.6893488e+19
2.9172008 2 2.3160884
1.0842022e-19 3.128958 0
2.8744864 1.0842022e-19 2.3019898
-1.0842022e-19 3.1196835 -0
2.9156601 -3.6893488e+19 2.2910786
1.0842022e-19 3.1306925 0
2.8762004 -2 2.2795188
-3.6893488e+19 3.120846 2
2.9169674 -2 2.2681098
-1.0842022e-19 3.1304824 -3.6893488e+19
2.8759928 -2 2.2555475
0 3.120579 -3.6893488e+19
2.9166667 -1.0842022e-19 2.2381425
2 3.1308126 2
2.8763192 1.0842022e-19 2.2139225
0 3.1209185 -3.6893488e+19
2.9170485 1.0842022e-19 2.1909029
3.6893488e+19 3.1232183 -1.0842022e-19
2.9501724 -2 2.1772001
2 3.1116164 -2
2.885262 -3.6893488e+19 2.1286733
3.6893488e+19 3.1242237 0
2.9513853 2 2.1294496
0 3.2100351 0
2.9901164 0 2.1734202
2 3.1244097 -2
2.9516094 -3.6893488e+19 2.0807397
-0 3.1136634 3.6893488e+19
2.8874431 -2 2.0386622
2 3.1125987 2
2.9373631 -0 2.0229819
-3.6893488e+19 3.11134 -1.0842022e-19
2.8849678 -0 1.9910748
3.6893488e+19 3.1137347 0
2.9387336 -1.0842022e-19 1.9764004
3.6893488e+19 3.1033189 2
2.8764222 2 1.941027
-2 3.1114295 -2
2.9359529 3.6893488e+19 1.927842
-3.6893488e+19 3.1031079 -3.6893488e+19
2.8761973 -2 1.8962532
-0 3.1112731 1.0842022e-19
2.9357643 0 1.8806884
-2 3.104562 -1.0842022e-19
2.8777466 0 1.82907
-3.6893488e+19 3.1109383 1.0842022e-19
2.9353607 2 1.7920756
-3.6893488e+19 3.1047857 0
2.877985 -3.6893488e+19 1.7290064
-3.6893488e+19 3.1040971 1.0842022e-19
2.8499191 0 1.6369044
-0 3.1094365 1.0842022e-19
2.9041388 -1.0842022e-19 1.453668
3.6893488e+19 3.1070998 0
2.8528862 2 -1.4086415
0 3.1087518 3.6893488e+19
2.9033687 -1.0842022e-19 -1.6327794
-2 3.1044817 -3.6893488e+19
2.8502989 2 -1.7157615
0 3.1273887 1.0842022e-19
2.9243236 1.0842022e-19 -1.791433
3.6893488e+19 3.1179545 -2
2.8636127 -0 -1.8285577
2 3.1122322 1.0842022e-19
2.9072821 0 -1.8762306
3.6893488e+19 3.1168694 3.6893488e+19
2.8625405 -3.6893488e+19 -1.897133
0 3.1312919 1.0842022e-19
2.9287121 2 -1.9316902
-1.0842022e-19 3.0544369 -1.0842022e-19
2.8008447 -3.6893488e+19 -1.9099988
1.0842022e-19 3.0531304 -0
2.8408298 3.6893488e+19 -1.9332623
1.0842022e-19 3.0536952 -2
2.8001115 2 -1.9474365
-2 3.041322 -0
2.827553 -1.0842022e-19 -1.9634528
0 2.8852584 0
2.6307125 2 -1.8992318
-2 2.8069887 -3.6893488e+19
2.5951681 3.6893488e+19 -1.8821415
3.6893488e+19 2.7506909 -1.0842022e-19
2.552381 2 -1.861061
0 2.5360947 -2
2.3048019 -0 -1.7647531
3.6893488e+19 2.6611071 -2
2.4958735 2 -1.8454067
-0 2.5355396 1.0842022e-19
2.3042109 1.0842022e-19 -1.782586
3.6893488e+19 2.6061344 0
2.4295661 -1.0842022e-19 -1.8392161
1.0842022e-19 2.5354116 -1.0842022e-19
2.3040743 -0 -1.8006228
-3.6893488e+19 2.5556779 -0
2.368706 3.6893488e+19 -1.8288639
-2 2.5348294 -1.0842022e-19
2.3034542 -3.6893488e+19 -1.8183559
3.6893488e+19 2.5233979 2
2.3297701 1.0842022e-19 -1.8252425
-2 2.5214791 1.0842022e-19
2.2892311 3.6893488e+19 -1.8265512
2 2.495291 1.0842022e-19
2.2987077 -0 -1.8226156
-0 2.4861519 2
2.2589705 3.6893488e+19 -1.8209372
-3.6893488e+19 2.4489388 -1.0842022e-19
2.2707529 0 -1.8188577
3.6893488e+19 2.4456451 -2
2.2247853 -3.6893488e+19 -1.81881
-1.0842022e-19 2.4109325 1.0842022e-19
2.2456632 -3.6893488e+19 -1.8159517
-2 2.4115353 1.0842022e-19
2.1884453 -1.0842022e-19 -1.8171078
-2 2.4045131 -2
2.14974 -0 -1.8172516
-2 2.3763652 -3.6893488e+19
2.1219242 1.0842022e-19 -1.8157227
-1.0842022e-19 2.3292663 -1.0842022e-19
2.075381 -0 -1.8126358
-2 2.2889261 3.6893488e+19
2.035517 3.6893488e+19 -1.8079472
0 2.2557735 3.6893488e+19
2.0027554 -2 -1.803219
-0 2.1931741 2
2.0172763 2 -1.801465
0 2.1575537 2
1.9957937 -1.0842022e-19 -1.8009717
-3.6893488e+19 2.1300097 -0
1.9791821 -2 -1.80191
0 2.1000271 -2
1.9610996 -3.6893488e+19 -1.7998364
-0 3.1842933 -3.6893488e+19
2.9853184 1.0842022e-19 2.6474257
-3.6893488e+19 3.2398105 -1.0842022e-19
2.9808459 0 2.6622043
-2 3.2618287 2
3.0425911 2 2.6945105
-1.0842022e-19 3.2397535 -2
2.9807899 1.0842022e-19 2.6464226
3.6893488e+19 3.1857347 3.6893488e+19
3.0112371 2 2.604538
1.0842022e-19 3.2286358 -1.0842022e-19
3.003361 3.6893488e+19 2.6201494
-3.6893488e+19 3.1822624 1.0842022e-19
3.0091555 0 2.5872474
-0 3.2239065 -2
3.0008576 -3.6893488e+19 2.6011202
-1.0842022e-19 3.2215979 -0
2.9992714 -2 2.5841508
3.6893488e+19 3.2245324 2
3.001189 1.0842022e-19 2.5709066
3.6893488e+19 3.2016087 3.6893488e+19
3.0207541 1.0842022e-19 2.5572133
-2 3.2225268 -1.0842022e-19
3.0001273 0 2.5543234
3.6893488e+19 3.1930838 3.6893488e+19
3.0156431 0 2.5367155
3.6893488e+19 3.2200007 1.0842022e-19
2.9975805 -1.0842022e-19 2.5375838
-0 3.1899939 -1.0842022e-19
3.0137906 3.6893488e+19 2.5201509
3.6893488e+19 3.2184873 -1.0842022e-19
2.9959781 2 2.5216193
1.0842022e-19 3.2123685 -0
2.9895003 -2 2.5032589
-1.0842022e-19 3.230298 -1.0842022e-19
2.9715075 -1.0842022e-19 2.5014486
-1.0842022e-19 3.1210668 -1.0842022e-19
2.9146636 0 2.3875122
1.0842022e-19 3.1281531 2
2.871232 -3.6893488e+19 2.3721459
0 3.1208916 -0
2.9144676 -1.0842022e-19 2.3633482
3.6893488e+19 3.2276618 -2
2.9689195 -0 2.4400573
3.6893488e+19 3.2107658 -1.0842022e-19
3.0074506 1.0842022e-19 2.4216418
-0 3.2373209 3.6893488e+19
2.9784019 -1.0842022e-19 2.4183822
3.6893488e+19 3.1218157 3.6893488e+19
2.9155004 -1.0842022e-19 2.3162732
2 3.2368541 -3.6893488e+19
2.9779434 -2 2.3874719
-2 3.2096772 -1.0842022e-19
3.0068424 -2 2.3614068
-1.0842022e-19 3.2329235 0
2.9740851 3.6893488e+19 2.3541243
-2 3.2070582 -2
3.005379 -2 2.3299541
-1.0842022e-19 3.2310069 1.0842022e-19
2.9722035 -3.6893488e+19 2.3226478
-1.0842022e-19 3.2125497 2
3.0084474 -0 2.3041987
2 3.2345221 -3.6893488e+19
2.9756541 2 2.2947528
1.0842022e-19 3.2080059 3.6893488e+19
3.0059085 -0 2.271812
-0 3.1999958 -1.0842022e-19
3.0197871 -0 2.2571363
-1.0842022e-19 3.2128165 1.0842022e-19
2.9899747 -0 2.2339742
1.0842022e-19 3.1832094 0
3.0097232 -0 2.1885684
0 3.2118332 -1.0842022e-19
2.9889336 2 2.174485
-2 3.1824791 1.0842022e-19
3.0092854 2 2.1314359
2 3.2157381 -3.6893488e+19
2.9930675 -2 2.1191719
-1.0842022e-19 3.1859052 2
3.0113394 1.0842022e-19 2.0776548
-2 3.2238729 2
3.0008399 -2 2.0657141
1.0842022e-19 3.1940534 -1.0842022e-19
3.0162244 3.6893488e+19 2.0259588
3.6893488e+19 3.2469244 3.6893488e+19
3.013042 -3.6893488e+19 2.0182962
1.0842022e-19 3.1275654 -1.0842022e-19
2.9527254 -3.6893488e+19 1.9354895
-2 3.1036541 0
2.8744068 3.6893488e+19 1.8962761
-0 3.1281078 0
2.9533761 -2 1.8865632
0 3.1045029 1.0842022e-19
2.8753052 1.0842022e-19 1.8287525
1.0842022e-19 3.1614087 -3.6893488e+19
2.9933057 -0 1.8151385
1.0842022e-19 3.1064668 -0
2.8773842 3.6893488e+19 1.729772
3.6893488e+19 3.1043575 1.0842022e-19
2.847872 0 1.6368285
0 3.1073725 -0
2.8993602 0 1.4522017
-3.6893488e+19 3.2097282 -3.6893488e+19
2.9513142 3.6893488e+19 -1.4539711
0 3.1112697 0
2.9037154 -0 -1.6335154
-2 3.107239 2
2.8507009 -2 -1.7171597
-1.0842022e-19 3.133971 -1.0842022e-19
2.9290838 -3.6893488e+19 -1.7940876
-3.6893488e+19 3.1586797 -1.0842022e-19
2.9012001 3.6893488e+19 -1.8507965
-2 3.1325111 -0
2.9274526 3.6893488e+19 -1.8831021
1.0842022e-19 3.1108921 2
2.8542869 -2 -1.8945494
3.6893488e+19 3.130106 -2
2.9247646 -3.6893488e+19 -1.9308597
1.0842022e-19 3.1133504 -0
2.8567002 3.6893488e+19 -1.9407152
2 3.1324546 0
2.9273894 -0 -1.9808803
2 3.054311 -3.6893488e+19
2.7987413 -3.6893488e+19 -1.947582
-3.6893488e+19 3.0430579 0
2.8274896 -3.6893488e+19 -1.9644101
-1.0842022e-19 2.885699 3.6893488e+19
2.6286399 3.6893488e+19 -1.8992101
1.0842022e-19 2.8077664 2
2.593926 -0 -1.882282
-1.0842022e-19 2.7492805 0
2.549335 2 -1.859702
3.6893488e+19 2.5364923 -1.0842022e-19
2.3033037 -0 -1.7647531
-2 2.6615403 3.6893488e+19
2.4934638 1.0842022e-19 -1.8452921
-1.0842022e-19 2.5354955 -0
2.3022485 -3.6893488e+19 -1.7823428
-3.6893488e+19 2.6093698 3.6893488e+19
2.430908 2 -1.8408225
2 2.5356982 0
2.3024631 2 -1.8005551
0 2.5576565 -3.6893488e+19
2.3689001 -3.6893488e+19 -1.8298607
-2 2.5352254 2
2.3019626 -3.6893488e+19 -1.8183559
-1.0842022e-19 2.5237215 -3.6893488e+19
2.3282099 -0 -1.8251643
0 2.5218568 0
2.2878094 3.6893488e+19 -1.8265512
-2 2.494148 0
2.296258 3.6893488e+19 -1.8218497
-2 2.487268 1.0842022e-19
2.2579305 3.6893488e+19 -1.8211143
-2 2.4487917 1.0842022e-19
2.2690654 1.0842022e-19 -1.8184894
3.6893488e+19 2.4475844 -3.6893488e+19
2.2238486 -1.0842022e-19 -1.8193831
-1.0842022e-19 2.4090192 3.6893488e+19
2.2404408 1.0842022e-19 -1.8147639
-0 2.4107888 -3.6893488e+19
2.1848938 -2 -1.816493
-0 2.4052579 -3.6893488e+19
2.1478407 1.0842022e-19 -1.8173575
-0 3.1842933 -3.6893488e+19
2.9853184 1.0842022e-19 2.6474257
-3.6893488e+19 3.2398105 -1.0842022e-19
2.9808459 0 2.6622043
-2 3.2618287 2
3.0425911 2 2.6945105
-1.0842022e-19 3.2397535 -2
2.9807899 1.0842022e-19 2.6464226
3.6893488e+19 3.1857347 3.6893488e+19
3.0112371 2 2.604538
1.0842022e-19 3.2286358 -1.0842022e-19
3.003361 3.6893488e+19 2.6201494
-3.6893488e+19 3.1822624 1.0842022e-19
3.0091555 0 2.5872474
-0 3.2239065 -2
3.0008576 -3.6893488e+19 2.6011202
-1.0842022e-19 3.2215979 -0
2.9992714 -2 2.5841508
3.6893488e+19 3.2245324 2
3.001189 1.0842022e-19 2.5709066
3.6893488e+19 3.2016087 3.6893488e+19
3.0207541 1.0842022e-19 2.5572133
-2 3.2225268 -1.0842022e-19
3.0001273 0 2.5543234
3.6893488e+19 3.1930838 3.6893488e+19
3.0156431 0 2.5367155
3.6893488e+19 3.2200007 1.0842022e-19
2.9975805 -1.0842022e-19 2.5375838
-0 3.1899939 -1.0842022e-19
3.0137906 3.6893488e+19 2.5201509
3.6893488e+19 3.2184873 -1.0842022e-19
2.9959781 2 2.5216193
1.0842022e-19 3.2123685 -0
2.9895003 -2 2.5032589
-0 3.1282706 -0
2.8713474 -0 2.3960693
-1.0842022e-19 3.1210668 -1.0842022e-19
2.9146636 0 2.3875122
1.0842022e-19 3.1281531 2
2.871232 -3.6893488e+19 2.3721459
0 3.1208916 -0
2.9144676 -1.0842022e-19 2.3633482
-3.6893488e+19 3.1285186 -3.6893488e+19
2.8715909 1.0842022e-19 2.3487194
3.6893488e+19 3.1198831 0
2.9133408 2 2.3384759
3.6893488e+19 3.1290615 -2
2.8721237 -3.6893488e+19 2.3254375
3.6893488e+19 3.1218157 3.6893488e+19
2.9155004 -1.0842022e-19 2.3162732
3.6893488e+19 3.1303966 2
2.8734345 3.6893488e+19 2.3027458
3.6893488e+19 3.1201446 -3.6893488e+19
2.9136329 1.0842022e-19 2.2910147
2 3.1301489 1.0842022e-19
2.8731914 1.0842022e-19 2.2787604
-2 3.2070582 -2
3.005379 -2 2.3299541
3.6893488e+19 3.1312249 -2
2.8742476 1.0842022e-19 2.2557166
-0 3.1216125 3.6893488e+19
2.9152734 -1.0842022e-19 2.2387867
-1.0842022e-19 3.1317234 -2
2.874737 -0 2.2144332
0 3.1181688 -2
2.9114249 1.0842022e-19 2.1869931
0 3.1088517 -2
2.9302864 1.0842022e-19 2.1601098
-0 3.110189 1.0842022e-19
2.881325 3.6893488e+19 2.1266551
1.0842022e-19 3.1832094 0
3.0097232 -0 2.1885684
2 3.1116769 1.0842022e-19
2.8829002 -0 2.0824282
3.6893488e+19 3.1101406 2
2.9318321 -2 2.0676348
-0 3.1118789 0
2.8831141 -1.0842022e-19 2.0368469
0 3.1134911 2
