# .PCD v0.7 - Point Cloud Data file format
VERSION 0.7
FIELDS x y z
SIZE 4 4 4
TYPE F F F
COUNT 1 1 1
WIDTH 1717
HEIGHT 1
VIEWPOINT 0 0 0 1 0 0 0
POINTS 1717
DATA ascii
2.4327922 1.0842022e-19 2.5122845
3.6893488e+19 3.1471033 3.6893488e+19
2.2167225 -3.6893488e+19 2.4759657
-0 3.1780148 -1.0842022e-19
2.4356787 2 2.5017352
3.6893488e+19 3.0916903 2
2.1515946 -3.6893488e+19 2.3900325
-0 3.1214187 1.0842022e-19
2.3780694 0 2.4155915
-2 3.1284652 -0
2.1948168 0 2.4104419
-2 3.1226602 -1.0842022e-19
2.379333 -1.0842022e-19 2.3956492
3.6893488e+19 3.1299875 -1.0842022e-19
2.1966059 -0 2.3904736
-3.6893488e+19 3.1284072 3.6893488e+19
2.3851831 1.0842022e-19 2.3801262
0 3.1300392 1.0842022e-19
2.1966667 -1.0842022e-19 2.3689475
1.0842022e-19 3.1492295 -2
2.0234466 2 2.3755906
0 3.1190181 1.0842022e-19
2.2843242 -0 2.3379762
-3.6893488e+19 3.1458538 2
2.0211346 -2 2.350029
-1.0842022e-19 3.1185288 -1.0842022e-19
2.2839472 -3.6893488e+19 2.3166308
-3.6893488e+19 3.148447 2
2.0229108 3.6893488e+19 2.3298244
1.0842022e-19 3.0817759 1.0842022e-19
2.2556295 -1.0842022e-19 2.2662647
1.0842022e-19 3.1474504 -2
2.022228 -0 2.3065946
0 3.0829899 2
2.2565649 -1.0842022e-19 2.2468226
-1.0842022e-19 3.1340868 -2
2.0130749 -0 2.2746594
-1.0842022e-19 3.0834761 -3.6893488e+19
2.2569394 -0 2.2098792
0 3.1305828 -2
2.0106747 -2 2.2507551
-3.6893488e+19 3.1342757 2
2.2960801 -0 2.2365873
-0 3.2320685 -0
2.0801861 3.6893488e+19 2.2905426
-0 3.136246 2
2.2975981 -2 2.1955521
-1.0842022e-19 3.1601377 2
2.0309181 -1.0842022e-19 2.1983607
0 3.0912342 0
2.262917 -1.0842022e-19 2.1052103
-1.0842022e-19 3.1619315 -3.6893488e+19
2.4193075 -1.0842022e-19 2.1570218
-1.0842022e-19 3.0882108 0
2.1475053 -0 2.0634227
0 3.1039031 1.0842022e-19
2.36024 2 2.0597641
1.0842022e-19 3.0891171 -3.6893488e+19
2.1485701 -3.6893488e+19 2.0262206
-1.0842022e-19 3.1026967 2
2.3590121 -1.0842022e-19 2.0189459
-1.0842022e-19 3.1709924 1.0842022e-19
2.2447999 -1.0842022e-19 2.0457268
3.6893488e+19 3.1980214 0
2.4560437 -2 2.0411592
2 3.0877669 0
2.1469834 0 1.9494246
-1.0842022e-19 3.0896962 -3.6893488e+19
2.3457787 0 1.9325187
3.6893488e+19 3.2530179 3.6893488e+19
2.2973764 0 1.9921227
1.0842022e-19 3.086761 -2
2.3427908 2 1.8930397
-0 3.2489002 1.0842022e-19
2.2931831 3.6893488e+19 1.932868
-3.6893488e+19 3.094439 2
2.3506067 1.0842022e-19 1.8401138
-0 3.2461629 2
2.2915745 3.6893488e+19 1.8763592
1.0842022e-19 3.0952833 -3.6893488e+19
2.3514657 -3.6893488e+19 1.7629683
3.6893488e+19 3.2412817 0
2.2887061 -2 1.7653162
-1.0842022e-19 3.0739484 3.6893488e+19
1.971884 0 1.5997835
2 3.0867536 3.6893488e+19
2.2594647 0 1.417102
0 3.1375821 -0
2.0154688 0 -1.4045093
2 3.088243 -2
2.2606122 1.0842022e-19 -1.5942625
-2 3.1346335 3.6893488e+19
2.0134494 -0 -1.7100831
3.6893488e+19 3.0936038 2
2.2647429 -0 -1.7577019
3.6893488e+19 3.0818124 -2
1.9772702 -0 -1.7897214
-0 3.0942509 3.6893488e+19
2.2652414 2 -1.8351122
-2 3.0761499 -3.6893488e+19
1.9733919 2 -1.8597524
1.0842022e-19 3.0889108 -1.0842022e-19
2.2611268 3.6893488e+19 -1.8914256
3.6893488e+19 3.0751548 -1.0842022e-19
1.9727103 -0 -1.9033463
0 3.0957742 -1.0842022e-19
2.2664149 -0 -1.9330648
-1.0842022e-19 3.0300574 -3.6893488e+19
1.9418215 2 -1.9133806
-0 3.0402372 3.6893488e+19
2.1972489 1.0842022e-19 -1.9362303
0 2.950912 -1.0842022e-19
1.9044229 2 -1.9067346
-1.0842022e-19 2.8724899 -0
2.0369992 -1.0842022e-19 -1.8904105
-3.6893488e+19 2.831404 2
2.0873382 2 -1.8846906
0 2.809217 0
1.9317141 2 -1.8836722
-3.6893488e+19 2.7825036 -2
2.0375621 2 -1.8807429
-2 2.7568932 3.6893488e+19
1.9009656 -1.0842022e-19 -1.8754671
-1.0842022e-19 2.7073579 -0
1.9827737 1.0842022e-19 -1.8624754
3.6893488e+19 2.6685314 1.0842022e-19
1.8709537 -3.6893488e+19 -1.85291
3.6893488e+19 2.6423304 -0
1.9496777 1.0842022e-19 -1.8508667
-2 2.6101432 -1.0842022e-19
1.8366413 3.6893488e+19 -1.8413585
0 2.5876088 3.6893488e+19
1.921827 -2 -1.8384513
-2 2.573169 3.6893488e+19
1.8149132 0 -1.8373268
-1.0842022e-19 2.5515864 -1.0842022e-19
1.9034933 0 -1.8327433
1.0842022e-19 2.535352 -0
1.7926896 2 -1.828555
-0 2.5165799 -0
1.8856766 1.0842022e-19 -1.8237363
0 2.5056338 -0
1.7752254 -2 -1.8217711
-2 2.47629 -1.0842022e-19
1.8674092 2 -1.8160508
0 2.462054 -2
1.760765 -3.6893488e+19 -1.8158783
0 2.4047744 2
1.6386223 -1.0842022e-19 -1.8090643
0 2.3520648 1.0842022e-19
1.6161419 -2 -1.805034
-0 2.3066435 1.0842022e-19
1.5850313 -1.0842022e-19 -1.7992353
-1.0842022e-19 2.2739255 0
1.5626216 -0 -1.7962754
1.0842022e-19 2.2433467 0
1.7505451 2 -1.7945745
0 2.1972544 1.0842022e-19
1.7276314 -2 -1.7917005
-2 2.1624942 2
1.7099402 -0 -1.7907677
3.6893488e+19 2.1210501 3.6893488e+19
1.6888471 2 -1.7849879
2 3.1329522 -3.6893488e+19
2.0122976 0 2.6065538
0 3.1462474 1.0842022e-19
2.3053041 0 2.6144555
-2 3.131736 3.6893488e+19
2.0114648 -0 2.5942101
2 3.1464751 1.0842022e-19
2.3054795 -1.0842022e-19 2.6029959
-0 3.164052 -0
2.0335991 -0 2.6112247
0 3.1457701 -0
2.3049362 0 2.5907538
3.6893488e+19 3.142879 0
2.3027089 -0 2.5767694
2 3.1559381 -0
2.0280416 1.0842022e-19 2.5804811
1.0842022e-19 3.1452971 0
2.3045719 -1.0842022e-19 2.56725
1.0842022e-19 3.1571164 -0
2.0288486 2 2.5696256
-2 3.1307299 3.6893488e+19
2.2933481 1.0842022e-19 2.5334375
2 3.1521382 1.0842022e-19
2.025439 -1.0842022e-19 2.5424688
3.6893488e+19 3.1302631 -0
2.2929883 -0 2.5220847
-3.6893488e+19 3.1403773 3.6893488e+19
2.3973675 2 2.5246203
0 3.0880821 -0
2.1473536 -0 2.4633973
2 3.122467 -1.0842022e-19
2.3791363 1.0842022e-19 2.5012443
-2 3.0870616 1.0842022e-19
2.1461546 -1.0842022e-19 2.4426212
0 3.1236882 0
2.3803794 -0 2.4825668
-0 3.0905788 1.0842022e-19
2.1502883 0 2.4277086
3.6893488e+19 3.1259961 -3.6893488e+19
2.3827286 3.6893488e+19 2.4638891
1.0842022e-19 3.0907266 3.6893488e+19
2.1504619 -2 2.4083929
-3.6893488e+19 3.1308358 -2
2.387655 -2 2.4479742
3.6893488e+19 3.0916903 2
2.1515946 -3.6893488e+19 2.3900325
-0 3.1214187 1.0842022e-19
2.3780694 0 2.4155915
3.6893488e+19 3.0934107 3.6893488e+19
2.1536167 1.0842022e-19 2.3724256
-2 3.1226602 -1.0842022e-19
2.379333 -1.0842022e-19 2.3956492
-3.6893488e+19 3.0910983 -1.0842022e-19
2.1508989 -1.0842022e-19 2.3505113
-3.6893488e+19 3.1284072 3.6893488e+19
2.3851831 1.0842022e-19 2.3801262
1.0842022e-19 3.087651 -2
2.146847 -0 2.3277965
3.6893488e+19 3.0668409 -1.0842022e-19
1.9670157 -2 2.2980802
-1.0842022e-19 3.1003816 -2
2.2699649 3.6893488e+19 2.3209076
-1.0842022e-19 3.0680547 0
1.9678472 1.0842022e-19 2.2812362
-0 3.100837 3.6893488e+19
2.2703159 -2 2.3014305
-2 3.0672669 1.0842022e-19
1.9673077 0 2.2626257
1.0842022e-19 3.0817759 1.0842022e-19
2.2556295 -1.0842022e-19 2.2662647
-0 3.0666177 -1.0842022e-19
1.9668629 -2 2.2384801
0 3.0829899 2
2.2565649 -1.0842022e-19 2.2468226
1.0842022e-19 3.0695593 -2
1.9688777 1.0842022e-19 2.207032
-1.0842022e-19 3.0834761 -3.6893488e+19
2.2569394 -0 2.2098792
2 3.0687859 0
1.968348 2 2.170078
-0 3.088505 -1.0842022e-19
2.2608142 2 2.1786304
1.0842022e-19 3.0707979 1.0842022e-19
1.9697261 3.6893488e+19 2.1366897
-2 3.0905442 -2
2.2623854 3.6893488e+19 2.1428332
-0 3.0721731 0
1.9706681 1.0842022e-19 2.1021984
0 3.0912342 0
2.262917 -1.0842022e-19 2.1052103
-1.0842022e-19 3.1619315 -3.6893488e+19
2.4193075 -1.0842022e-19 2.1570218
-1.0842022e-19 3.0882108 0
2.1475053 -0 2.0634227
0 3.1039031 1.0842022e-19
2.36024 2 2.0597641
1.0842022e-19 3.0891171 -3.6893488e+19
2.1485701 -3.6893488e+19 2.0262206
-1.0842022e-19 3.1026967 2
2.3590121 -1.0842022e-19 2.0189459
2 3.0879834 2
2.1472378 -0 1.987417
3.6893488e+19 3.1005433 2
2.3568201 3.6893488e+19 1.9778104
2 3.0877669 0
2.1469834 0 1.9494246
-1.0842022e-19 3.0896962 -3.6893488e+19
2.3457787 0 1.9325187
-3.6893488e+19 3.0907423 -2
2.1504805 1.0842022e-19 1.9130348
1.0842022e-19 3.086761 -2
2.3427908 2 1.8930397
3.6893488e+19 3.0965381 -3.6893488e+19
2.1572921 3.6893488e+19 1.8770208
-3.6893488e+19 3.094439 2
2.3506067 1.0842022e-19 1.8401138
0 3.0958059 1.0842022e-19
2.1564317 3.6893488e+19 1.8011347
1.0842022e-19 3.0952833 -3.6893488e+19
2.3514657 -3.6893488e+19 1.7629683
1.0842022e-19 3.0956175 -2
2.1562102 -0 1.6974255
-1.0842022e-19 3.0739484 3.6893488e+19
1.971884 0 1.5997835
2 3.0867536 3.6893488e+19
2.2594647 0 1.417102
-2 3.0800097 -2
1.9760356 1.0842022e-19 -1.3815582
2 3.088243 -2
2.2606122 1.0842022e-19 -1.5942625
3.6893488e+19 3.0821211 -3.6893488e+19
1.9774817 0 -1.6814014
3.6893488e+19 3.0936038 2
2.2647429 -0 -1.7577019
3.6893488e+19 3.0818124 -2
1.9772702 -0 -1.7897214
-0 3.0942509 3.6893488e+19
2.2652414 2 -1.8351122
-2 3.0761499 -3.6893488e+19
1.9733919 2 -1.8597524
1.0842022e-19 3.0889108 -1.0842022e-19
2.2611268 3.6893488e+19 -1.8914256
3.6893488e+19 3.0751548 -1.0842022e-19
1.9727103 -0 -1.9033463
3.6893488e+19 3.0419276 -3.6893488e+19
2.1998537 2 -1.9045566
-1.0842022e-19 3.0300574 -3.6893488e+19
1.9418215 2 -1.9133806
-0 3.0402372 3.6893488e+19
2.1972489 1.0842022e-19 -1.9362303
0 2.950912 -1.0842022e-19
1.9044229 2 -1.9067346
-1.0842022e-19 2.8724899 -0
2.0369992 -1.0842022e-19 -1.8904105
-3.6893488e+19 2.831404 2
2.0873382 2 -1.8846906
0 2.809217 0
1.9317141 2 -1.8836722
-3.6893488e+19 2.7825036 -2
2.0375621 2 -1.8807429
-2 2.7568932 3.6893488e+19
1.9009656 -1.0842022e-19 -1.8754671
-1.0842022e-19 2.7073579 -0
1.9827737 1.0842022e-19 -1.8624754
3.6893488e+19 2.6685314 1.0842022e-19
1.8709537 -3.6893488e+19 -1.85291
3.6893488e+19 2.6423304 -0
1.9496777 1.0842022e-19 -1.8508667
-2 2.6101432 -1.0842022e-19
1.8366413 3.6893488e+19 -1.8413585
0 2.5876088 3.6893488e+19
1.921827 -2 -1.8384513
-2 2.573169 3.6893488e+19
1.8149132 0 -1.8373268
-1.0842022e-19 2.5515864 -1.0842022e-19
1.9034933 0 -1.8327433
1.0842022e-19 2.535352 -0
1.7926896 2 -1.828555
-0 2.5165799 -0
1.8856766 1.0842022e-19 -1.8237363
0 2.5056338 -0
1.7752254 -2 -1.8217711
-2 2.47629 -1.0842022e-19
1.8674092 2 -1.8160508
0 2.462054 -2
1.760765 -3.6893488e+19 -1.8158783
0 2.4047744 2
1.6386223 -1.0842022e-19 -1.8090643
0 2.3520648 1.0842022e-19
1.6161419 -2 -1.805034
-0 2.3066435 1.0842022e-19
1.5850313 -1.0842022e-19 -1.7992353
-1.0842022e-19 2.2739255 0
1.5626216 -0 -1.7962754
1.0842022e-19 2.2433467 0
1.7505451 2 -1.7945745
0 2.1972544 1.0842022e-19
1.7276314 -2 -1.7917005
-2 2.1624942 2
1.7099402 -0 -1.7907677
3.6893488e+19 2.1210501 3.6893488e+19
1.6888471 2 -1.7849879
2 3.1320484 -1.0842022e-19
1.9967082 -1.0842022e-19 2.6056759
-0 3.1434581 -0
2.2953899 2 2.6118059
0 3.1346993 -1.0842022e-19
1.99842 0 2.5968468
1.0842022e-19 3.1464458 -3.6893488e+19
2.2976327 1.0842022e-19 2.6028879
-0 3.1636975 3.6893488e+19
2.0171456 2 2.6108787
-1.0842022e-19 3.1406596 2
2.2932889 -0 2.5862756
2 3.168349 -3.6893488e+19
2.0201492 -2 2.6027265
-1.0842022e-19 3.1423609 -1.0842022e-19
2.2945662 1.0842022e-19 2.5762627
-2 3.1538374 -3.6893488e+19
2.0107784 1.0842022e-19 2.5787375
-3.6893488e+19 3.1440463 -3.6893488e+19
2.2958314 -2 2.5661728
-2 3.1570964 -1.0842022e-19
2.0128829 3.6893488e+19 2.5695775
-3.6893488e+19 3.1295536 -3.6893488e+19
2.284951 -0 2.5435042
-3.6893488e+19 3.1564157 1.0842022e-19
2.0124435 -1.0842022e-19 2.5572798
-3.6893488e+19 3.1306348 -0
2.2857628 0 2.5333009
2 3.1527629 1.0842022e-19
2.0100846 1.0842022e-19 2.5428934
1.0842022e-19 3.1304128 0
2.2855961 2 2.5221286
0 3.1370764 -1.0842022e-19
2.3863163 2 2.5222142
3.6893488e+19 3.1486416 3.6893488e+19
2.2028553 -1.0842022e-19 2.5231538
1.0842022e-19 3.1237135 -2
2.3729796 -2 2.5020072
3.6893488e+19 3.1511679 3.6893488e+19
2.2057252 -3.6893488e+19 2.5133553
2 3.1236808 2
2.3729472 3.6893488e+19 2.4824088
3.6893488e+19 3.1481667 -0
2.2023158 -0 2.4999406
-0 3.1263878 1.0842022e-19
2.375649 -0 2.4642293
1.0842022e-19 3.1472352 -3.6893488e+19
2.2012575 -2 2.4760396
0 3.131475 -2
2.3807259 -0 2.4485877
0 3.0912879 -2
2.1377015 1.0842022e-19 2.3895044
-0 3.1269391 -1.0842022e-19
2.376199 -2 2.4216383
2 3.1314976 2
2.1833799 -1.0842022e-19 2.4136572
-3.6893488e+19 3.1217911 3.6893488e+19
2.3710613 0 2.3946052
1.0842022e-19 3.1305184 -0
2.1822674 -3.6893488e+19 2.39095
2 3.1217542 1.0842022e-19
2.3710244 2 2.3733277
1.0842022e-19 3.1304777 1.0842022e-19
2.1822212 3.6893488e+19 2.369308
-2 3.1459208 -2
2.0056663 -1.0842022e-19 2.3724399
2 3.1207731 -1.0842022e-19
2.2783589 -1.0842022e-19 2.3395047
3.6893488e+19 3.1462045 -3.6893488e+19
2.0058494 -2 2.3503034
0 3.1196356 -1.0842022e-19
2.2775049 1.0842022e-19 2.317508
0 3.0667093 -0
1.9545153 2 2.2621372
1.0842022e-19 3.1246698 -3.6893488e+19
2.2812843 1.0842022e-19 2.3006191
-0 3.1444759 3.6893488e+19
2.0047333 0 2.3042693
-1.0842022e-19 3.1523697 2
2.3020804 -0 2.3000991
1.0842022e-19 3.1375782 -2
2.0002789 -2 2.2771277
3.6893488e+19 3.0814457 -1.0842022e-19
2.2476678 -1.0842022e-19 2.2069728
-2 3.1393659 0
2.0014336 0 2.2565162
3.6893488e+19 3.1333106 -3.6893488e+19
2.2877715 -3.6893488e+19 2.2352521
-0 3.2408669 0
2.066978 -1.0842022e-19 2.2958152
-3.6893488e+19 3.1381667 -0
2.2914174 -0 2.1976638
2 3.1839304 -3.6893488e+19
2.3257744 0 2.2015984
-2 3.160387 3.6893488e+19
2.4095814 0 2.155371
1.0842022e-19 3.0895154 0
2.1356883 0 2.0645761
-1.0842022e-19 3.164268 3.6893488e+19
2.4134548 -1.0842022e-19 2.1124887
3.6893488e+19 3.0883675 -0
2.1343842 1.0842022e-19 2.0255616
-1.0842022e-19 3.1637022 1.0842022e-19
2.4128902 1.0842022e-19 2.0653682
-0 3.1704128 1.0842022e-19
2.2275875 2 2.0452676
2 3.1639216 -3.6893488e+19
2.4131088 3.6893488e+19 2.0189157
-0 3.2577698 0
2.2928257 -3.6893488e+19 2.0543315
-1.0842022e-19 3.1648026 0
2.4139884 1.0842022e-19 1.9728047
-0 3.2518163 0
2.2860625 2 1.9909302
-0 3.0873296 -3.6893488e+19
2.3366673 -0 1.8932371
-3.6893488e+19 3.2484584 2
2.2831235 -1.0842022e-19 1.9326738
-3.6893488e+19 3.0959404 2
2.3452613 1.0842022e-19 1.8409848
0 3.2467182 -3.6893488e+19
2.2821348 0 1.8764783
-2 3.0944903 0
2.3438141 -2 1.7626091
-1.0842022e-19 3.2416801 -3.6893488e+19
2.2792733 -0 1.7654053
2 3.0737941 1.0842022e-19
1.9590905 -2 1.5996535
-3.6893488e+19 3.0895386 2
2.2549098 -2 1.4184448
1.0842022e-19 3.13784 -3.6893488e+19
2.000448 -2 -1.4045963
0 3.088944 1.0842022e-19
2.2544632 0 -1.5946658
-1.0842022e-19 3.1357031 -1.0842022e-19
1.9990683 -3.6893488e+19 -1.7106458
0 3.0949283 0
2.258956 2 -1.7581824
-0 3.0803163 -2
1.9633021 3.6893488e+19 -1.788962
2 3.0947976 -3.6893488e+19
2.2588577 -2 -1.8353969
-3.6893488e+19 3.0748408 -1.0842022e-19
1.9597664 2 -1.8587863
3.6893488e+19 3.0904825 0
2.2556183 2 -1.8920485
0 3.0728159 -2
1.9584587 3.6893488e+19 -1.9022278
-0 3.0961654 1.0842022e-19
2.2598848 2 -1.9332294
-1.0842022e-19 3.0299611 1.0842022e-19
1.9307853 -0 -1.9133078
-0 3.0391233 -2
2.1841204 -3.6893488e+19 -1.9354724
-2 2.9451554 -0
1.8937298 3.6893488e+19 -1.9047179
1.0842022e-19 2.8725145 0
2.0296664 1.0842022e-19 -1.8903872
-0 2.8338599 3.6893488e+19
2.0832045 -0 -1.8856469
-1.0842022e-19 2.8079019 -3.6893488e+19
1.9248877 -1.0842022e-19 -1.8830802
2 2.7802999 1.0842022e-19
2.0297496 0 -1.879683
2 2.757561 -0
1.8962941 -2 -1.8757709
-0 2.7122025 -0
1.9806476 -1.0842022e-19 -1.8649169
3.6893488e+19 2.6686053 -3.6893488e+19
1.862767 -3.6893488e+19 -1.85291
2 2.642575 -1.0842022e-19
1.9459021 3.6893488e+19 -1.8509378
-0 2.6107042 -1.0842022e-19
1.8298793 2 -1.8416573
-1.0842022e-19 2.58796 -2
1.9186482 0 -1.8386077
-0 2.5733504 -2
1.8086624 -3.6893488e+19 -1.8374083
-1.0842022e-19 2.5518029 -0
1.9006052 -3.6893488e+19 -1.8328283
3.6893488e+19 2.5357749 1.0842022e-19
1.7873197 3.6893488e+19 -1.8288207
-0 2.5180206 -0
1.8837472 -3.6893488e+19 -1.8247488
-3.6893488e+19 2.5043135 -3.6893488e+19
1.7694496 -0 -1.8207204
-1.0842022e-19 2.4759431 -0
1.8625044 -0 -1.8158528
-3.6893488e+19 2.4618874 0
1.7561756 3.6893488e+19 -1.8157759
2 3.1320484 -1.0842022e-19
1.9967082 -1.0842022e-19 2.6056759
-0 3.1434581 -0
2.2953899 2 2.6118059
0 3.1346993 -1.0842022e-19
1.99842 0 2.5968468
1.0842022e-19 3.1464458 -3.6893488e+19
2.2976327 1.0842022e-19 2.6028879
-0 3.1636975 3.6893488e+19
2.0171456 2 2.6108787
-1.0842022e-19 3.1406596 2
2.2932889 -0 2.5862756
2 3.168349 -3.6893488e+19
2.0201492 -2 2.6027265
-1.0842022e-19 3.1423609 -1.0842022e-19
2.2945662 1.0842022e-19 2.5762627
-2 3.1538374 -3.6893488e+19
2.0107784 1.0842022e-19 2.5787375
-3.6893488e+19 3.1440463 -3.6893488e+19
2.2958314 -2 2.5661728
-2 3.1570964 -1.0842022e-19
2.0128829 3.6893488e+19 2.5695775
-3.6893488e+19 3.1295536 -3.6893488e+19
2.284951 -0 2.5435042
-3.6893488e+19 3.1564157 1.0842022e-19
2.0124435 -1.0842022e-19 2.5572798
-3.6893488e+19 3.1306348 -0
2.2857628 0 2.5333009
2 3.1527629 1.0842022e-19
2.0100846 1.0842022e-19 2.5428934
1.0842022e-19 3.1304128 0
2.2855961 2 2.5221286
0 3.1370764 -1.0842022e-19
2.3863163 2 2.5222142
2 3.0862367 0
2.1319637 -1.0842022e-19 2.4607866
1.0842022e-19 3.1237135 -2
2.3729796 -2 2.5020072
0 3.0865369 -3.6893488e+19
2.1323044 -3.6893488e+19 2.4418538
2 3.1236808 2
2.3729472 3.6893488e+19 2.4824088
3.6893488e+19 3.0887296 0
2.1347957 3.6893488e+19 2.4253111
-0 3.1263878 1.0842022e-19
2.375649 -0 2.4642293
-0 3.0898926 -0
2.1361167 -3.6893488e+19 2.4073215
0 3.131475 -2
2.3807259 -0 2.4485877
0 3.0912879 -2
2.1377015 1.0842022e-19 2.3895044
-0 3.1269391 -1.0842022e-19
2.376199 -2 2.4216383
-1.0842022e-19 3.0929153 -3.6893488e+19
2.1395504 -0 2.3718226
-3.6893488e+19 3.1217911 3.6893488e+19
2.3710613 0 2.3946052
-0 3.0917461 -2
2.1382222 1.0842022e-19 2.351115
2 3.1217542 1.0842022e-19
2.3710244 2 2.3733277
-3.6893488e+19 3.088515 2
2.134552 1.0842022e-19 2.3285775
-2 3.1459208 -2
2.0056663 -1.0842022e-19 2.3724399
-1.0842022e-19 3.0996902 2
2.262531 1.0842022e-19 2.3202
3.6893488e+19 3.1462045 -3.6893488e+19
2.0058494 -2 2.3503034
3.6893488e+19 3.0959377 0
2.2597139 -1.0842022e-19 2.297152
0 3.0667093 -0
1.9545153 2 2.2621372
2 3.0806456 3.6893488e+19
2.2464664 2 2.265296
0 3.0678933 2
1.9552799 -3.6893488e+19 2.2403979
-0 3.0846472 -0
2.2512374 -1.0842022e-19 2.2491794
-3.6893488e+19 3.0673835 1.0842022e-19
1.9549509 -1.0842022e-19 2.2038741
3.6893488e+19 3.0814457 -1.0842022e-19
2.2476678 -1.0842022e-19 2.2069728
2 3.0695341 -0
1.9563395 -2 2.171021
-1.0842022e-19 3.09091 3.6893488e+19
2.2559392 2 2.1815753
-1.0842022e-19 3.0702388 -2
1.9567946 -1.0842022e-19 2.1359766
0 3.0918028 -0
2.2566094 -2 2.1441932
-3.6893488e+19 3.0938282 -2
2.2581301 3.6893488e+19 2.1078277
-1.0842022e-19 3.0857937 -0
2.3351345 1.0842022e-19 2.0816894
1.0842022e-19 3.0895154 0
2.1356883 0 2.0645761
-1.0842022e-19 3.164268 3.6893488e+19
2.4134548 -1.0842022e-19 2.1124887
3.6893488e+19 3.0883675 -0
2.1343842 1.0842022e-19 2.0255616
-1.0842022e-19 3.1637022 1.0842022e-19
2.4128902 1.0842022e-19 2.0653682
1.0842022e-19 3.0847421 1.0842022e-19
2.1302657 3.6893488e+19 1.9850986
2 3.0889082 -0
2.3382428 -2 1.9701811
1.0842022e-19 3.0885742 1.0842022e-19
2.134619 1.0842022e-19 1.9498659
-0 3.0869186 2
2.3362572 -3.6893488e+19 1.9309704
-1.0842022e-19 3.0903664 -3.6893488e+19
2.1366549 -1.0842022e-19 1.9128261
-0 3.0873296 -3.6893488e+19
2.3366673 -0 1.8932371
1.0842022e-19 3.0931714 2
2.1398413 0 1.8757646
-3.6893488e+19 3.0959404 2
2.3452613 1.0842022e-19 1.8409848
0 3.0946202 -2
2.1414871 -0 1.8004998
-2 3.0944903 0
2.3438141 -2 1.7626091
-0 3.0949304 1.0842022e-19
2.1418397 -1.0842022e-19 1.6969982
2 3.0737941 1.0842022e-19
1.9590905 -2 1.5996535
-3.6893488e+19 3.0895386 2
2.2549098 -2 1.4184448
1.0842022e-19 3.13784 -3.6893488e+19
2.000448 -2 -1.4045963
0 3.088944 1.0842022e-19
2.2544632 0 -1.5946658
-0 3.0786891 3.6893488e+19
1.9622514 0 -1.6795086
0 3.0949283 0
2.258956 2 -1.7581824
-0 3.0803163 -2
1.9633021 3.6893488e+19 -1.788962
2 3.0947976 -3.6893488e+19
2.2588577 -2 -1.8353969
-3.6893488e+19 3.0748408 -1.0842022e-19
1.9597664 2 -1.8587863
3.6893488e+19 3.0904825 0
2.2556183 2 -1.8920485
0 3.0728159 -2
1.9584587 3.6893488e+19 -1.9022278
-0 3.0415912 -3.6893488e+19
2.1878259 2 -1.9043427
-1.0842022e-19 3.0299611 1.0842022e-19
1.9307853 -0 -1.9133078
-0 3.0391233 -2
2.1841204 -3.6893488e+19 -1.9354724
-2 2.9451554 -0
1.8937298 3.6893488e+19 -1.9047179
1.0842022e-19 2.8725145 0
2.0296664 1.0842022e-19 -1.8903872
-0 2.8338599 3.6893488e+19
2.0832045 -0 -1.8856469
-1.0842022e-19 2.8079019 -3.6893488e+19
1.9248877 -1.0842022e-19 -1.8830802
2 2.7802999 1.0842022e-19
2.0297496 0 -1.879683
2 2.757561 -0
1.8962941 -2 -1.8757709
-0 2.7122025 -0
1.9806476 -1.0842022e-19 -1.8649169
3.6893488e+19 2.6686053 -3.6893488e+19
1.862767 -3.6893488e+19 -1.85291
2 2.642575 -1.0842022e-19
1.9459021 3.6893488e+19 -1.8509378
-0 2.6107042 -1.0842022e-19
1.8298793 2 -1.8416573
-1.0842022e-19 2.58796 -2
1.9186482 0 -1.8386077
-0 2.5733504 -2
1.8086624 -3.6893488e+19 -1.8374083
-1.0842022e-19 2.5518029 -0
1.9006052 -3.6893488e+19 -1.8328283
3.6893488e+19 2.5357749 1.0842022e-19
1.7873197 3.6893488e+19 -1.8288207
-0 2.5180206 -0
1.8837472 -3.6893488e+19 -1.8247488
-3.6893488e+19 2.5043135 -3.6893488e+19
1.7694496 -0 -1.8207204
-1.0842022e-19 2.4759431 -0
1.8625044 -0 -1.8158528
-3.6893488e+19 2.4618874 0
1.7561756 3.6893488e+19 -1.8157759
1.0842022e-19 3.1672485 2
2.0019252 -1.0842022e-19 2.6384065
3.6893488e+19 3.1435232 1.0842022e-19
2.287122 3.6893488e+19 2.611778
-3.6893488e+19 3.166635 2
2.001555 -3.6893488e+19 2.6256018
-2 3.1472709 2
2.2898564 0 2.6035368
-3.6893488e+19 3.1638923 -2
1.9998989 3.6893488e+19 2.6110117
-3.6893488e+19 3.1415758 -3.6893488e+19
2.285701 1.0842022e-19 2.5869827
2 3.1635332 3.6893488e+19
1.9996821 -1.0842022e-19 2.5986304
-3.6893488e+19 3.1447721 1.0842022e-19
2.2880332 1.0842022e-19 2.5781882
2 3.1538177 -0
1.993816 2 2.5786877
3.6893488e+19 3.1439893 -0
2.287462 2 2.5660505
1.0842022e-19 3.1538899 2
1.9938596 1.0842022e-19 2.5670278
3.6893488e+19 3.1308069 1.0842022e-19
2.277844 1.0842022e-19 2.5444021
-0 3.1566415 1.0842022e-19
1.9955211 3.6893488e+19 2.5574191
-0 3.1304212 -1.0842022e-19
2.2775624 0 2.5330732
0 3.1560917 0
1.9951891 -1.0842022e-19 2.5452838
0 3.1311178 2
2.2780707 3.6893488e+19 2.5225668
0 3.136682 2
2.3776965 3.6893488e+19 2.5218489
0 3.1488681 -3.6893488e+19
2.1863148 1.0842022e-19 2.5232592
0 3.1510873 -2
2.1887424 3.6893488e+19 2.5132544
-2 3.1264663 -2
2.3677182 -0 2.4858477
-3.6893488e+19 3.1497793 -1.0842022e-19
2.1873119 3.6893488e+19 2.500937
3.6893488e+19 3.1242712 2
2.3655741 -1.0842022e-19 2.4614694
-3.6893488e+19 3.1477392 2
2.1850803 2 2.476557
0 3.098141 -1.0842022e-19
2.3400509 2 2.4092569
1.0842022e-19 3.134995 1.0842022e-19
2.1711395 3.6893488e+19 2.4393063
3.6893488e+19 3.1250024 0
2.3662884 -2 2.4193363
3.6893488e+19 3.1349349 -1.0842022e-19
2.1710737 -1.0842022e-19 2.4173081
-0 3.1204967 2
2.3618875 2 2.3931041
-1.0842022e-19 3.1302476 2
2.1659465 3.6893488e+19 2.3906007
-3.6893488e+19 3.1219666 2
2.3633232 1.0842022e-19 2.3734205
3.6893488e+19 3.1291542 -0
2.1647503 0 2.3679564
1.0842022e-19 3.145093 1.0842022e-19
1.9885483 -1.0842022e-19 2.371623
-2 3.1226254 -2
2.2718744 -3.6893488e+19 2.3411181
2 3.1455622 -2
1.9888315 -1.0842022e-19 2.3496997
-3.6893488e+19 3.0926485 3.6893488e+19
2.2500029 -0 2.2942555
-1.0842022e-19 3.142844 -2
1.9871904 -0 2.32512
-1.0842022e-19 3.1240792 -3.6893488e+19
2.2729352 0 2.3000727
3.6893488e+19 3.1442366 0
1.9880313 0 2.3040535
3.6893488e+19 3.1453092 -1.0842022e-19
2.288425 -0 2.2947617
1.0842022e-19 3.141537 3.6893488e+19
1.9864012 0 2.2799299
3.6893488e+19 3.144067 2
2.2875187 -3.6893488e+19 2.2715893
-3.6893488e+19 3.1404016 0
1.9857159 -1.0842022e-19 2.2571721
3.6893488e+19 3.1332483 3.6893488e+19
2.2796252 3.6893488e+19 2.2350559
2 3.2350941 2
2.0428889 3.6893488e+19 2.2923064
-0 3.1389127 -2
2.2837579 -3.6893488e+19 2.1984153
1.0842022e-19 3.2329378 -2
2.0415869 2 2.2639189
-0 3.1602411 -1.0842022e-19
2.4007082 -3.6893488e+19 2.1550956
1.0842022e-19 3.0912893 0
2.1233306 -0 2.0661619
-2 3.2151375 2
2.454329 -3.6893488e+19 2.1568685
1.0842022e-19 3.0902352 -3.6893488e+19
2.1221774 -2 2.0270319
-1.0842022e-19 3.2167585 2
2.4559124 -3.6893488e+19 2.1056981
2 3.0844605 1.0842022e-19
2.1158607 2 1.984858
-1.0842022e-19 3.1637764 1.0842022e-19
2.4041615 -0 2.0187345
0 3.0834329 1.0842022e-19
2.1147366 -1.0842022e-19 1.946795
3.6893488e+19 3.1643786 2
2.4047496 3.6893488e+19 1.972505
-1.0842022e-19 3.0843828 -3.6893488e+19
2.1157756 -2 1.9099344
-2 3.0873146 -0
2.3294764 -2 1.8931844
3.6893488e+19 3.2473962 -0
2.2720466 0 1.9322513
3.6893488e+19 3.0970137 -3.6893488e+19
2.3389499 -2 1.8415848
-3.6893488e+19 3.246341 0
2.2714696 3.6893488e+19 1.8763592
-3.6893488e+19 3.0948808 2
2.3368669 -3.6893488e+19 1.7627206
3.6893488e+19 3.2414582 3.6893488e+19
2.2687988 -2 1.7653162
-3.6893488e+19 3.0753572 -1.0842022e-19
1.9464434 3.6893488e+19 1.600715
-1.0842022e-19 3.0916438 2
2.2485397 0 1.4194481
-0 3.1363807 1.0842022e-19
1.983288 2 -1.403999
-1.0842022e-19 3.0902085 -1.0842022e-19
2.2464452 -1.0842022e-19 -1.5954319
-1.0842022e-19 3.0763183 -3.6893488e+19
1.9470236 -1.0842022e-19 -1.6781955
2 3.0952919 2
2.2519314 1.0842022e-19 -1.7582905
-0 3.0774775 -3.6893488e+19
1.9477235 2 -1.7875363
-2 3.1936719 -1.0842022e-19
2.3237114 1.0842022e-19 -1.8853325
3.6893488e+19 3.0775902 0
1.9477917 -0 -1.8607409
2 3.1897759 -0
2.3208687 2 -1.933429
1.0842022e-19 3.0737853 2
1.9454943 1.0842022e-19 -1.9026693
-2 3.0913348 2
2.2480888 -0 -1.9306288
-3.6893488e+19 3.0290222 -2
1.9184674 1.0842022e-19 -1.9127436
1.0842022e-19 3.0384471 1.0842022e-19
2.170913 -2 -1.9349937
0 2.9382126 3.6893488e+19
1.8822914 3.6893488e+19 -1.9022893
2 2.8721695 3.6893488e+19
2.0215418 -0 -1.8902231
-2 2.8316133 1.0842022e-19
2.0739076 2 -1.8846906
-2 2.807709 -0
1.9182988 -3.6893488e+19 -1.8829726
-2 2.7790897 -0
2.0226045 -0 -1.8790814
-1.0842022e-19 2.7543714 -0
1.8891263 -0 -1.8733817
0 2.7118568 3.6893488e+19
1.9755622 -2 -1.8646599
-2 2.6685572 -1.0842022e-19
1.8539263 -1.0842022e-19 -1.8528423
-3.6893488e+19 2.6418355 -2
1.9413651 1.0842022e-19 -1.8504394
2 2.6108944 0
1.8223882 -3.6893488e+19 -1.8417319
0 2.5888116 -3.6893488e+19
1.9154692 -3.6893488e+19 -1.8390765
0 2.5730367 3.6893488e+19
1.8016821 -0 -1.8371634
2 2.5526423 3.6893488e+19
1.8978049 -0 -1.833339
1.0842022e-19 2.5371935 3.6893488e+19
1.782078 -3.6893488e+19 -1.829795
-0 2.5195899 1.0842022e-19
1.8816627 1.0842022e-19 -1.8258535
-0 2.50436 -3.6893488e+19
1.76412 -0 -1.8207204
-0 2.4765909 -2
1.857758 2 -1.8160508
1.0842022e-19 2.4575059 -0
1.7501144 -3.6893488e+19 -1.8139316
-2 2.4056015 1.0842022e-19
1.6198932 -2 -1.8094028
-0 2.3491628 1.0842022e-19
1.5858167 1.0842022e-19 -1.8035138
-3.6893488e+19 2.306706 -2
1.5601822 -1.0842022e-19 -1.7992353
0 2.2695386 -1.0842022e-19
1.5377413 -1.0842022e-19 -1.7934979
-0 2.2402334 1.0842022e-19
1.7394209 -1.0842022e-19 -1.793398
-2 2.1955845 0
1.7176152 -3.6893488e+19 -1.7909733
2 2.1608078 1.0842022e-19
1.7006309 2 -1.7899858
0 2.1232259 -2
1.6822765 -1.0842022e-19 -1.7858244
-2 3.1317527 -0
1.9804938 3.6893488e+19 2.6053646
3.6893488e+19 3.1435232 1.0842022e-19
2.287122 3.6893488e+19 2.611778
3.6893488e+19 3.1338551 3.6893488e+19
1.9817631 3.6893488e+19 2.5960503
-2 3.1472709 2
2.2898564 0 2.6035368
-3.6893488e+19 3.1638923 -2
1.9998989 3.6893488e+19 2.6110117
-3.6893488e+19 3.1415758 -3.6893488e+19
2.285701 1.0842022e-19 2.5869827
2 3.1635332 3.6893488e+19
1.9996821 -1.0842022e-19 2.5986304
-3.6893488e+19 3.1447721 1.0842022e-19
2.2880332 1.0842022e-19 2.5781882
2 3.1538177 -0
1.993816 2 2.5786877
3.6893488e+19 3.1439893 -0
2.287462 2 2.5660505
1.0842022e-19 3.1538899 2
1.9938596 1.0842022e-19 2.5670278
3.6893488e+19 3.1308069 1.0842022e-19
2.277844 1.0842022e-19 2.5444021
-0 3.1566415 1.0842022e-19
1.9955211 3.6893488e+19 2.5574191
-0 3.1304212 -1.0842022e-19
2.2775624 0 2.5330732
0 3.1560917 0
1.9951891 -1.0842022e-19 2.5452838
0 3.1311178 2
2.2780707 3.6893488e+19 2.5225668
0 3.136682 2
2.3776965 3.6893488e+19 2.5218489
0 3.1488681 -3.6893488e+19
2.1863148 1.0842022e-19 2.5232592
3.6893488e+19 3.0865674 -3.6893488e+19
2.1181653 -0 2.4418135
-2 3.1264663 -2
2.3677182 -0 2.4858477
1.0842022e-19 3.0899928 3.6893488e+19
2.1219122 -1.0842022e-19 2.4268191
3.6893488e+19 3.1242712 2
2.3655741 -1.0842022e-19 2.4614694
-1.0842022e-19 3.0899546 -3.6893488e+19
2.1218705 -3.6893488e+19 2.4073215
0 3.098141 -1.0842022e-19
2.3400509 2 2.4092569
-1.0842022e-19 3.0917821 -0
2.1238697 2 2.3899975
2 3.0977798 1.0842022e-19
2.3396983 -3.6893488e+19 2.3888953
2 3.0928235 2
2.1250088 0 2.3716552
1.0842022e-19 3.1004143 1.0842022e-19
2.3422716 2 2.3717961
1.0842022e-19 3.0927672 -3.6893488e+19
2.1249471 -0 2.3520997
3.6893488e+19 3.0982032 -3.6893488e+19
2.3401117 1.0842022e-19 2.3495641
0 3.088577 -2
2.1203635 1.0842022e-19 2.3285775
1.0842022e-19 3.145093 1.0842022e-19
1.9885483 -1.0842022e-19 2.371623
-0 3.1020322 -0
2.2568493 1.0842022e-19 2.3222663
2 3.0885744 0
1.9544237 -1.0842022e-19 2.2993193
-3.6893488e+19 3.0926485 3.6893488e+19
2.2500029 -0 2.2942555
1.0842022e-19 3.0912497 -3.6893488e+19
1.9560388 -0 2.2824202
-1.0842022e-19 3.1240792 -3.6893488e+19
2.2729352 0 2.3000727
-3.6893488e+19 3.0661538 -1.0842022e-19
1.9408866 0 2.2376652
3.6893488e+19 3.1453092 -1.0842022e-19
2.288425 -0 2.2947617
1.0842022e-19 3.0680382 2
1.9420244 3.6893488e+19 2.2047637
3.6893488e+19 3.144067 2
2.2875187 -3.6893488e+19 2.2715893
1.0842022e-19 3.0691621 -1.0842022e-19
1.9427029 -3.6893488e+19 2.1704879
-1.0842022e-19 3.0883865 1.0842022e-19
2.2437866 0 2.178277
3.6893488e+19 3.0703962 1.0842022e-19
1.9434481 2 2.1361268
-1.0842022e-19 3.0939653 -3.6893488e+19
2.2509634 3.6893488e+19 2.1465912
-3.6893488e+19 3.0710237 0
1.943827 0 2.1008704
0 3.0847878 0
2.3270082 -1.0842022e-19 2.0805886
1.0842022e-19 3.0912893 0
2.1233306 -0 2.0661619
1.0842022e-19 3.1641853 -2
2.4045606 1.0842022e-19 2.1122992
1.0842022e-19 3.0902352 -3.6893488e+19
2.1221774 -2 2.0270319
3.6893488e+19 3.164084 -3.6893488e+19
2.4044616 3.6893488e+19 2.065557
2 3.0844605 1.0842022e-19
2.1158607 2 1.984858
-2 3.0886147 -3.6893488e+19
2.3307462 3.6893488e+19 1.9699194
0 3.0834329 1.0842022e-19
2.1147366 -1.0842022e-19 1.946795
2 3.0869036 1.0842022e-19
2.3290749 3.6893488e+19 1.9309039
-1.0842022e-19 3.0843828 -3.6893488e+19
2.1157756 -2 1.9099344
-2 3.0873146 -0
2.3294764 -2 1.8931844
0 3.0929847 3.6893488e+19
2.125185 -1.0842022e-19 1.8756732
3.6893488e+19 3.0970137 -3.6893488e+19
2.3389499 -2 1.8415848
-1.0842022e-19 3.093966 -0
2.1262586 1.0842022e-19 1.8001348
-3.6893488e+19 3.0948808 2
2.3368669 -3.6893488e+19 1.7627206
-3.6893488e+19 3.0940268 -2
2.1263251 2 1.6964464
-3.6893488e+19 3.0753572 -1.0842022e-19
1.9464434 3.6893488e+19 1.600715
-1.0842022e-19 3.0916438 2
2.2485397 0 1.4194481
-3.6893488e+19 3.0804205 3.6893488e+19
1.9495006 -0 -1.381695
-1.0842022e-19 3.0902085 -1.0842022e-19
2.2464452 -1.0842022e-19 -1.5954319
-1.0842022e-19 3.0763183 -3.6893488e+19
1.9470236 -1.0842022e-19 -1.6781955
2 3.0952919 2
2.2519314 1.0842022e-19 -1.7582905
-0 3.0774775 -3.6893488e+19
1.9477235 2 -1.7875363
-1.0842022e-19 3.087009 -1.0842022e-19
2.2417762 -3.6893488e+19 -1.8305944
3.6893488e+19 3.0775902 0
1.9477917 -0 -1.8607409
0 3.0859296 -2
2.240201 3.6893488e+19 -1.890115
-3.6893488e+19 3.037046 -3.6893488e+19
1.9233119 0 -1.8853463
0 3.041662 1.0842022e-19
2.1756041 2 -1.9043427
-3.6893488e+19 3.0290222 -2
1.9184674 1.0842022e-19 -1.9127436
1.0842022e-19 3.0384471 1.0842022e-19
2.170913 -2 -1.9349937
0 2.9382126 3.6893488e+19
1.8822914 3.6893488e+19 -1.9022893
2 2.8721695 3.6893488e+19
2.0215418 -0 -1.8902231
-2 2.8316133 1.0842022e-19
2.0739076 2 -1.8846906
-2 2.807709 -0
1.9182988 -3.6893488e+19 -1.8829726
-2 2.7790897 -0
2.0226045 -0 -1.8790814
-1.0842022e-19 2.7543714 -0
1.8891263 -0 -1.8733817
0 2.7118568 3.6893488e+19
1.9755622 -2 -1.8646599
-2 2.6685572 -1.0842022e-19
1.8539263 -1.0842022e-19 -1.8528423
-3.6893488e+19 2.6418355 -2
1.9413651 1.0842022e-19 -1.8504394
2 2.6108944 0
1.8223882 -3.6893488e+19 -1.8417319
0 2.5888116 -3.6893488e+19
1.9154692 -3.6893488e+19 -1.8390765
0 2.5730367 3.6893488e+19
1.8016821 -0 -1.8371634
2 2.5526423 3.6893488e+19
1.8978049 -0 -1.833339
1.0842022e-19 2.5371935 3.6893488e+19
1.782078 -3.6893488e+19 -1.829795
-0 2.5195899 1.0842022e-19
1.8816627 1.0842022e-19 -1.8258535
-0 2.50436 -3.6893488e+19
1.76412 -0 -1.8207204
-0 2.4765909 -2
1.857758 2 -1.8160508
1.0842022e-19 2.4575059 -0
1.7501144 -3.6893488e+19 -1.8139316
-2 2.4056015 1.0842022e-19
1.6198932 -2 -1.8094028
-0 2.3491628 1.0842022e-19
1.5858167 1.0842022e-19 -1.8035138
-3.6893488e+19 2.306706 -2
1.5601822 -1.0842022e-19 -1.7992353
0 2.2695386 -1.0842022e-19
1.5377413 -1.0842022e-19 -1.7934979
-0 2.2402334 1.0842022e-19
1.7394209 -1.0842022e-19 -1.793398
-2 2.1955845 0
1.7176152 -3.6893488e+19 -1.7909733
2 2.1608078 1.0842022e-19
1.7006309 2 -1.7899858
0 2.1232259 -2
1.6822765 -1.0842022e-19 -1.7858244
2 3.1674404 2
1.984514 3.6893488e+19 2.6385481
0 3.148562 2
2.2823746 2 2.6163239
-1.0842022e-19 3.1668577 -2
1.9841866 0 2.6257668
-0 3.1473038 -3.6893488e+19
2.2814832 1.0842022e-19 2.6034827
3.6893488e+19 3.1644201 0
1.9828173 3.6893488e+19 2.6114376
-3.6893488e+19 3.1634197 0
1.9822553 3.6893488e+19 2.5985017
2 3.1450176 0
2.2798636 -0 2.5783148
1.0842022e-19 3.1522036 3.6893488e+19
1.9759541 -1.0842022e-19 2.5773425
-3.6893488e+19 3.1452115 -0
2.2800009 -0 2.5669563
3.6893488e+19 3.1567786 1.0842022e-19
1.9785243 -3.6893488e+19 2.5692647
-3.6893488e+19 3.0879498 -2
2.228864 -3.6893488e+19 2.5112076
-2 3.1577237 3.6893488e+19
1.9790553 -0 2.5582078
-3.6893488e+19 3.0875685 0
2.2283239 1.0842022e-19 2.5011272
0 3.1555467 0
1.9778322 2 2.5448594
-3.6893488e+19 3.1313913 -0
2.2702096 -3.6893488e+19 2.5226982
-2 3.1361318 2
2.3689456 1.0842022e-19 2.5213764
-0 3.1499217 2
2.1706228 0 2.5239329
-3.6893488e+19 3.1348782 3.6893488e+19
2.3677478 -2 2.5093701
-2 3.1510653 -2
2.1718256 3.6893488e+19 2.5131938
-3.6893488e+19 3.1272595 -2
2.3604681 1.0842022e-19 2.4867175
0 3.1510513 -3.6893488e+19
2.1718106 0 2.5016911
-0 3.1227946 -3.6893488e+19
2.3562019 -2 2.4595034
1.0842022e-19 3.0901687 -3.6893488e+19
2.1077766 -1.0842022e-19 2.4075062
-3.6893488e+19 3.0984352 -2
2.3329268 2 2.4094734
1.0842022e-19 3.1337352 -1.0842022e-19
2.1535983 1.0842022e-19 2.4377918
-0 3.1235843 -0
2.3569565 3.6893488e+19 2.4176185
-1.0842022e-19 3.1343226 -2
2.1542163 0 2.4165714
-3.6893488e+19 3.120337 0
2.3538539 3.6893488e+19 2.3928103
-0 3.1292319 2
2.1488621 0 2.3894889
-3.6893488e+19 3.119036 -3.6893488e+19
2.3526106 -0 2.3703611
-1.0842022e-19 3.1300566 -0
2.1497295 -1.0842022e-19 2.3687673
-2 3.1442621 -2
1.9714926 -2 2.3708062
0 3.1322391 2
2.2708101 1.0842022e-19 2.3498366
-1.0842022e-19 3.1445134 -3.6893488e+19
1.9716338 3.6893488e+19 2.3487394
3.6893488e+19 3.0851152 -0
2.2248473 3.6893488e+19 2.2877183
-1.0842022e-19 3.0915618 1.0842022e-19
1.9418862 0 2.2826517
0 3.1071317 2
2.253022 3.6893488e+19 2.2864103
-2 3.1443985 -0
1.9715693 2 2.3041494
-3.6893488e+19 3.1447203 0
2.2796531 3.6893488e+19 2.2942533
1.0842022e-19 3.0679753 0
1.9286355 -2 2.2046301
-1.0842022e-19 3.1426401 3.6893488e+19
2.2781792 0 2.2705424
3.6893488e+19 3.1470065 -3.6893488e+19
1.9730344 -0 2.261498
2 3.0902972 2
2.2321901 0 2.1805937
-1.0842022e-19 3.2375071 -3.6893488e+19
2.0238767 -2 2.2937324
-3.6893488e+19 3.1403704 -2
2.276571 0 2.1999903
-0 3.2329838 -1.0842022e-19
2.0213356 2 2.2639189
2 3.1606188 -0
2.3923426 -2 2.1553402
-1.0842022e-19 3.088454 1.0842022e-19
2.1059735 3.6893488e+19 2.0634804
-1.0842022e-19 3.2170818 1.0842022e-19
2.4462926 -3.6893488e+19 2.1584399
0 3.2140238 -0
2.4433706 3.6893488e+19 2.1035023
2 3.0868869 -1.0842022e-19
2.1043251 0 1.9865203
-3.6893488e+19 3.1144865 2
2.3482637 -3.6893488e+19 1.9866474
3.6893488e+19 3.0837407 -1.0842022e-19
2.101016 -0 1.9469421
-3.6893488e+19 3.1144869 1.0842022e-19
2.3482642 -0 1.9456532
-0 3.0839429 -1.0842022e-19
2.1012287 2 1.909696
3.6893488e+19 3.1114299 3.6893488e+19
2.3453431 -2 1.9033724
2 3.2470784 2
2.2614043 -0 1.9321028
-2 3.0924699 2
2.3272271 1.0842022e-19 1.8386813
-0 3.2453682 3.6893488e+19
2.260505 -3.6893488e+19 1.8760893
-1.0842022e-19 3.0959208 0
2.3305244 -3.6893488e+19 1.7630922
0 3.2397361 1.0842022e-19
2.2575431 0 1.7648001
1.0842022e-19 3.0725152 2
1.931186 2 1.598722
-2 3.0938098 1.0842022e-19
2.2371676 1.0842022e-19 1.4204823
-3.6893488e+19 3.1344812 1.0842022e-19
1.9659979 0 -1.4032273
2 3.0902576 0
2.2321341 -0 -1.5954118
-1.0842022e-19 3.0778797 2
1.9341997 -3.6893488e+19 -1.679031
-3.6893488e+19 3.0946572 1.0842022e-19
2.2383683 -0 -1.7580142
-2 3.0772588 -1.0842022e-19
1.9338509 2 -1.7874123
3.6893488e+19 3.1853423 -3.6893488e+19
2.3084328 1.0842022e-19 -1.8827604
2 3.0764351 1.0842022e-19
1.9333881 1.0842022e-19 -1.8598872
1.0842022e-19 3.184963 -0
2.3081641 -3.6893488e+19 -1.9313787
1.0842022e-19 3.0765634 3.6893488e+19
1.9334601 0 -1.9039645
-0 3.0887709 1.0842022e-19
2.2300274 2 -1.9292297
1.0842022e-19 3.0282688 -2
1.9063287 -3.6893488e+19 -1.9122884
-0 3.0375819 3.6893488e+19
2.1574943 -3.6893488e+19 -1.9343954
0 2.8726926 -3.6893488e+19
2.0140464 1.0842022e-19 -1.8903872
-2 2.8336396 -2
2.0687897 -2 -1.8854707
-3.6893488e+19 2.8078876 2
1.9119124 2 -1.8830265
1.0842022e-19 2.7797358 1.0842022e-19
2.0172851 2 -1.8793392
0 2.754354 -1.0842022e-19
1.88376 3.6893488e+19 -1.8733209
-1.0842022e-19 2.7111359 1.0842022e-19
1.9703057 -3.6893488e+19 -1.8642101
3.6893488e+19 2.6686308 0
1.8451502 -1.0842022e-19 -1.8528423
0 2.6409693 -0
1.9367838 -1.0842022e-19 -1.8498697
-0 2.6117041 -3.6893488e+19
1.8152134 -3.6893488e+19 -1.84218
-2 2.5884237 -1.0842022e-19
1.9116805 3.6893488e+19 -1.838764
1.0842022e-19 2.5730934 -2
1.7949088 -0 -1.8371634
-2 2.5532327 1.0842022e-19
1.8948681 1.0842022e-19 -1.8336794
1.0842022e-19 2.5352561 0
1.7750109 0 -1.8283778
-0 2.5196753 -0
1.8788362 1.0842022e-19 -1.8258535
3.6893488e+19 2.505398 -1.0842022e-19
1.7593091 -3.6893488e+19 -1.8214846
-0 2.4779768 1.0842022e-19
1.8533514 1.0842022e-19 -1.8165457
-0 2.4575863 -2
1.7406361 -3.6893488e+19 -1.8139316
-2 3.1312721 -0
1.964195 3.6893488e+19 2.6048832
0 3.148562 2
2.2823746 2 2.6163239
3.6893488e+19 3.134166 1.0842022e-19
1.9658208 1.0842022e-19 2.5962975
-0 3.1473038 -3.6893488e+19
2.2814832 1.0842022e-19 2.6034827
3.6893488e+19 3.1644201 0
1.9828173 3.6893488e+19 2.6114376
-3.6893488e+19 3.1634197 0
1.9822553 3.6893488e+19 2.5985017
2 3.1450176 0
2.2798636 -0 2.5783148
1.0842022e-19 3.1522036 3.6893488e+19
1.9759541 -1.0842022e-19 2.5773425
-3.6893488e+19 3.1452115 -0
2.2800009 -0 2.5669563
3.6893488e+19 3.1567786 1.0842022e-19
1.9785243 -3.6893488e+19 2.5692647
-3.6893488e+19 3.0879498 -2
2.228864 -3.6893488e+19 2.5112076
-2 3.1577237 3.6893488e+19
1.9790553 -0 2.5582078
-3.6893488e+19 3.0875685 0
2.2283239 1.0842022e-19 2.5011272
0 3.1555467 0
1.9778322 2 2.5448594
3.6893488e+19 3.0905094 -0
2.2324908 3.6893488e+19 2.4869347
-2 3.1361318 2
2.3689456 1.0842022e-19 2.5213764
-0 3.1499217 2
2.1706228 0 2.5239329
-3.6893488e+19 3.1348782 3.6893488e+19
2.3677478 -2 2.5093701
-2 3.1510653 -2
2.1718256 3.6893488e+19 2.5131938
-3.6893488e+19 3.1272595 -2
2.3604681 1.0842022e-19 2.4867175
-3.6893488e+19 3.090915 -1.0842022e-19
2.1085618 0 2.427902
-0 3.1227946 -3.6893488e+19
2.3562019 -2 2.4595034
1.0842022e-19 3.0901687 -3.6893488e+19
2.1077766 -1.0842022e-19 2.4075062
-3.6893488e+19 3.0984352 -2
2.3329268 2 2.4094734
3.6893488e+19 3.0923362 -2
2.1100564 -2 2.3905609
0 3.0979207 -3.6893488e+19
2.3324349 1.0842022e-19 2.3889298
-1.0842022e-19 3.0932236 -2
2.1109898 2 2.3720236
-2 3.1000943 -3.6893488e+19
2.334512 0 2.3713393
-1.0842022e-19 3.0930748 3.6893488e+19
2.1108334 -0 2.3523538
-3.6893488e+19 3.0983441 -2
2.3328397 -2 2.3495948
-1.0842022e-19 3.0886364 -2
2.1061652 1.0842022e-19 2.3285775
-2 3.1442621 -2
1.9714926 -2 2.3708062
1.0842022e-19 3.0978162 -3.6893488e+19
2.2428441 3.6893488e+19 2.3183317
-1.0842022e-19 3.1445134 -3.6893488e+19
1.9716338 3.6893488e+19 2.3487394
3.6893488e+19 3.0851152 -0
2.2248473 3.6893488e+19 2.2877183
-1.0842022e-19 3.0915618 1.0842022e-19
1.9418862 0 2.2826517
0 3.1071317 2
2.253022 3.6893488e+19 2.2864103
-2 3.1443985 -0
1.9715693 2 2.3041494
3.6893488e+19 3.1089213 3.6893488e+19
2.2542899 -2 2.267566
1.0842022e-19 3.0679753 0
1.9286355 -2 2.2046301
-0 3.1082454 0
2.2538111 -2 2.2436862
-1.0842022e-19 3.0676363 -2
1.928445 0 2.168438
2 3.0902972 2
2.2321901 0 2.1805937
-3.6893488e+19 3.0703332 -3.6893488e+19
1.9299601 0 2.1360142
2 3.1048512 -2
2.2514062 -0 2.1590462
1.0842022e-19 3.0715842 -0
1.9306629 -3.6893488e+19 2.101449
-2 3.0962911 -3.6893488e+19
2.330878 -1.0842022e-19 2.0918396
-1.0842022e-19 3.088454 1.0842022e-19
2.1059735 3.6893488e+19 2.0634804
2 3.0854933 2
2.3205609 1.0842022e-19 2.0433724
-1.0842022e-19 3.0877507 1.0842022e-19
2.3227179 -3.6893488e+19 2.0073049
2 3.0868869 -1.0842022e-19
2.1043251 0 1.9865203
-3.6893488e+19 3.1144865 2
2.3482637 -3.6893488e+19 1.9866474
3.6893488e+19 3.0837407 -1.0842022e-19
2.101016 -0 1.9469421
0 3.0880337 -2
2.322988 -1.0842022e-19 1.9314532
-0 3.0839429 -1.0842022e-19
2.1012287 2 1.909696
-3.6893488e+19 3.0896547 -3.6893488e+19
2.324537 -3.6893488e+19 1.8941321
1.0842022e-19 3.0922344 3.6893488e+19
2.1099494 -1.0842022e-19 1.8753762
-2 3.0924699 2
2.3272271 1.0842022e-19 1.8386813
-1.0842022e-19 3.0928729 -0
2.110621 -2 1.7995474
-1.0842022e-19 3.0959208 0
2.3305244 -3.6893488e+19 1.7630922
2 3.0932455 0
2.1110129 1.0842022e-19 1.6959658
1.0842022e-19 3.0725152 2
1.931186 2 1.598722
-2 3.0938098 1.0842022e-19
2.2371676 1.0842022e-19 1.4204823
-2 3.0783908 3.6893488e+19
1.9344869 -1.0842022e-19 -1.3808736
2 3.0902576 0
2.2321341 -0 -1.5954118
-1.0842022e-19 3.0778797 2
1.9341997 -3.6893488e+19 -1.679031
-3.6893488e+19 3.0946572 1.0842022e-19
2.2383683 -0 -1.7580142
-2 3.0772588 -1.0842022e-19
1.9338509 2 -1.7874123
1.0842022e-19 3.0863104 -0
2.2265408 1.0842022e-19 -1.83012
2 3.0764351 1.0842022e-19
1.9333881 1.0842022e-19 -1.8598872
-1.0842022e-19 3.0862887 2
2.2265103 1.0842022e-19 -1.8902318
1.0842022e-19 3.0365117 2
1.9109595 -2 -1.8850813
2 3.0427573 2
2.1648276 -2 -1.9048858
1.0842022e-19 3.0282688 -2
1.9063287 -3.6893488e+19 -1.9122884
-0 3.0375819 3.6893488e+19
2.1574943 -3.6893488e+19 -1.9343954
0 2.8726926 -3.6893488e+19
2.0140464 1.0842022e-19 -1.8903872
-2 2.8336396 -2
2.0687897 -2 -1.8854707
-3.6893488e+19 2.8078876 2
1.9119124 2 -1.8830265
1.0842022e-19 2.7797358 1.0842022e-19
2.0172851 2 -1.8793392
0 2.754354 -1.0842022e-19
1.88376 3.6893488e+19 -1.8733209
-1.0842022e-19 2.7111359 1.0842022e-19
1.9703057 -3.6893488e+19 -1.8642101
3.6893488e+19 2.6686308 0
1.8451502 -1.0842022e-19 -1.8528423
0 2.6409693 -0
1.9367838 -1.0842022e-19 -1.8498697
-0 2.6117041 -3.6893488e+19
1.8152134 -3.6893488e+19 -1.84218
-2 2.5884237 -1.0842022e-19
1.9116805 3.6893488e+19 -1.838764
1.0842022e-19 2.5730934 -2
1.7949088 -0 -1.8371634
-2 2.5532327 1.0842022e-19
1.8948681 1.0842022e-19 -1.8336794
1.0842022e-19 2.5352561 0
1.7750109 0 -1.8283778
-0 2.5196753 -0
1.8788362 1.0842022e-19 -1.8258535
3.6893488e+19 2.505398 -1.0842022e-19
1.7593091 -3.6893488e+19 -1.8214846
-0 2.4779768 1.0842022e-19
1.8533514 1.0842022e-19 -1.8165457
-0 2.4575863 -2
1.7406361 -3.6893488e+19 -1.8139316
2 3.1631575 0
1.9647728 0 2.6345277
-2 3.1481066 1.0842022e-19
2.2736464 -2 2.6158218
-3.6893488e+19 3.1674125 -0
1.9669847 2 2.6262336
2 3.1476986 -2
2.2733657 1.0842022e-19 2.6037531
2 3.1502821 1.0842022e-19
2.2751417 0 2.5943153
3.6893488e+19 3.1642816 1.0842022e-19
1.9653572 -2 2.5991971
-0 3.1454432 3.6893488e+19
2.2718155 2 2.5785935
-1.0842022e-19 3.1457293 3.6893488e+19
2.2720122 0 2.5672991
0 3.1566308 -3.6893488e+19
1.9613799 -0 2.5691204
0 3.0879354 2
2.2145729 -1.0842022e-19 2.5111368
-1.0842022e-19 3.158926 3.6893488e+19
1.9625732 -3.6893488e+19 2.5590892
2 3.0876153 2
2.2141328 -1.0842022e-19 2.5011044
-0 3.1553059 0
1.9606913 -3.6893488e+19 2.5446582
2 3.1314173 0
2.2621746 0 2.5226545
-1.0842022e-19 3.1336522 0
2.3584249 0 2.5195503
-0 3.1495588 -1.0842022e-19
2.1534262 -1.0842022e-19 2.523638
-2 3.1341095 -3.6893488e+19
2.3588519 2 2.5087721
-0 3.1498404 0
2.1537106 -2 2.5123456
-1.0842022e-19 3.1309009 -3.6893488e+19
2.3558543 -0 2.4912632
-0 3.1510572 3.6893488e+19
2.1549392 -3.6893488e+19 2.5016522
1.0842022e-19 3.1256101 -0
2.3509114 2 2.4628305
1.0842022e-19 3.0914907 -3.6893488e+19
2.0947959 -3.6893488e+19 2.4090209
-0 3.1244965 0
2.3498712 2 2.4399638
3.6893488e+19 3.0918381 2
2.0951469 -1.0842022e-19 2.3899269
3.6893488e+19 3.1236999 -1.0842022e-19
2.3491268 3.6893488e+19 2.4176185
0 3.1338623 -3.6893488e+19
2.1375775 -2 2.4160018
-0 3.1233752 2
2.3488235 -0 2.3959103
-0 3.1324513 1.0842022e-19
2.1361532 3.6893488e+19 2.392729
0 3.1216145 3.6893488e+19
2.3471785 -0 2.3728333
-2 3.1303375 -0
2.1340189 -0 2.3689775
0 3.1437078 -3.6893488e+19
1.9546621 -3.6893488e+19 2.3702519
2 3.1313674 2
2.2621403 -2 2.348959
-1.0842022e-19 3.1453555 -1.0842022e-19
1.9555187 -3.6893488e+19 2.3494527
-3.6893488e+19 3.0936434 1.0842022e-19
2.2224202 -3.6893488e+19 2.2949729
-1.0842022e-19 3.1440036 -2
1.954816 3.6893488e+19 2.3260198
0 3.1085455 -0
2.2429063 -0 2.2874784
-3.6893488e+19 3.079767 0
1.9214238 3.6893488e+19 2.2542849
3.6893488e+19 3.1421444 -3.6893488e+19
2.2695479 -3.6893488e+19 2.2922661
2 3.1466177 2
1.9561749 -3.6893488e+19 2.28351
-2 3.1401861 1.0842022e-19
2.2682021 1.0842022e-19 2.26879
-1.0842022e-19 3.1475396 1.0842022e-19
1.9566542 3.6893488e+19 2.261826
-0 3.1422102 -1.0842022e-19
2.2695932 0 2.2461684
-1.0842022e-19 3.2391698 2
2.0042865 2 2.2947083
3.6893488e+19 3.1399007 0
2.2680058 -3.6893488e+19 2.1993458
1.0842022e-19 3.2407546 2
2.0051103 3.6893488e+19 2.2681413
-1.0842022e-19 3.0932634 -0
2.2218976 -1.0842022e-19 2.1069875
-1.0842022e-19 3.1627905 -0
2.3856471 1.0842022e-19 2.1573582
0 3.0894454 -1.0842022e-19
2.0927308 3.6893488e+19 2.0643454
-1.0842022e-19 3.0866199 -0
2.3144851 2 2.0442665
-2 3.0904458 0
2.0937412 -2 2.027108
-1.0842022e-19 3.1879065 -1.0842022e-19
2.4091115 2 2.0835025
-3.6893488e+19 3.0861335 1.0842022e-19
2.0893872 -2 1.9859515
-1.0842022e-19 3.1137619 -2
2.3398423 -0 1.9861039
-3.6893488e+19 3.0839839 -3.6893488e+19
2.0872166 1.0842022e-19 1.9470525
-0 3.1152823 2
2.3412628 -2 1.9460194
3.6893488e+19 3.0849345 -3.6893488e+19
2.0881763 2 1.9101431
0 3.1107662 3.6893488e+19
2.3370435 3.6893488e+19 1.9030434
2 3.2326949 -0
2.2373669 -1.0842022e-19 1.9268036
3.6893488e+19 3.0905278 -0
2.318136 1.0842022e-19 1.8374038
-3.6893488e+19 3.2317932 -0
2.2364566 -1.0842022e-19 1.8702267
-2 3.0932345 3.6893488e+19
2.3206649 -2 1.7619774
-0 3.2235703 2
2.2281542 2 1.7601626
0 3.0743866 -3.6893488e+19
1.9186267 3.6893488e+19 1.6000001
-3.6893488e+19 3.092176 -0
2.2204027 -2 1.4196333
2 3.0946009 1.0842022e-19
2.2237363 -2 -1.5981742
1.0842022e-19 3.0782523 2
1.9206363 2 -1.6792186
-3.6893488e+19 3.1837142 1.0842022e-19
2.2981219 -0 -1.7923459
-0 3.0743835 -3.6893488e+19
1.9186251 1.0842022e-19 -1.785971
-3.6893488e+19 3.186002 2
2.2996945 2 -1.8829312
1.0842022e-19 3.0746529 3.6893488e+19
1.9187652 1.0842022e-19 -1.8585842
-2 3.183506 0
2.2979789 2 -1.93073
3.6893488e+19 3.0736575 0
1.9182478 -0 -1.902581
-3.6893488e+19 3.088537 -3.6893488e+19
2.2154 -0 -1.9290651
-0 3.0264206 3.6893488e+19
1.8936925 -0 -1.9111964
-3.6893488e+19 3.0381453 -2
2.1461246 -1.0842022e-19 -1.9347146
2 2.86917 -0
2.003756 -3.6893488e+19 -1.8890284
1.0842022e-19 2.834115 -3.6893488e+19
2.0621448 -0 -1.8856218
-0 2.8070676 -2
1.9050199 2 -1.8826498
-2 2.7793264 2
2.0109591 -3.6893488e+19 -1.87911
2 2.7517819 0
1.8771095 -1.0842022e-19 -1.8707684
0 2.705951 2
1.9629847 3.6893488e+19 -1.8614473
0 2.6691995 -0
1.8366284 3.6893488e+19 -1.8531133
-3.6893488e+19 2.6409662 0
1.932629 1.0842022e-19 -1.8497986
1.0842022e-19 2.6120141 0
1.807759 -2 -1.8423294
-2 2.5882809 -0
1.9080185 0 -1.8386077
2 2.5730236 2
1.7880751 -1.0842022e-19 -1.8370818
1.0842022e-19 2.5534503 2
1.8917483 0 -1.8337646
2 2.534683 -2
1.7687192 -3.6893488e+19 -1.8279349
3.6893488e+19 2.5200059 -0
1.8761257 2 -1.8260375
0 2.508049 1.0842022e-19
1.7552733 -1.0842022e-19 -1.8234905
-0 2.4778776 3.6893488e+19
1.8482271 -3.6893488e+19 -1.8164467
2 2.4576635 3.6893488e+19
1.7310467 -3.6893488e+19 -1.8139316
-0 2.4061728 1.0842022e-19
1.5861419 1.0842022e-19 -1.8096286
-2 2.3482356 -0
1.5560243 -3.6893488e+19 -1.8030069
-2 2.3079994 3.6893488e+19
1.5351082 1.0842022e-19 -1.799938
3.6893488e+19 2.2740319 -3.6893488e+19
1.5174507 -0 -1.7962754
0 2.2356448 -2
1.7268553 -0 -1.7917174
2 2.1948869 0
1.7078165 0 -1.7906098
