# .PCD v0.7 - Point Cloud Data file format
VERSION 0.7
FIELDS x y z
SIZE 4 4 4
TYPE F F F
COUNT 1 1 1
WIDTH 1730
HEIGHT 1
VIEWPOINT 0 0 0 1 0 0 0
POINTS 1730
DATA ascii
-3.6893488e+19 2.3625526 -0
2.1437757 1.0842022e-19 -1.8136021
2 2.318141 -2
2.0955391 -3.6893488e+19 -1.8109862
-3.6893488e+19 2.2827413 -1.0842022e-19
2.057091 3.6893488e+19 -1.8085647
-0 2.246587 -0
2.0196764 -0 -1.8023107
3.6893488e+19 2.168067 3.6893488e+19
2.0246668 -0 -1.7962813
2 2.1304615 0
1.9999603 -1.0842022e-19 -1.7939723
-3.6893488e+19 2.099937 -2
1.979906 -3.6893488e+19 -1.7925252
3.6893488e+19 2.085444 -0
1.9703841 1.0842022e-19 -1.7972599
0 3.272831 0
3.0463271 -1.0842022e-19 2.7696989
2 3.202914 -2
3.0281401 3.6893488e+19 2.6884816
-2 3.2057478 3.6893488e+19
3.0298805 3.6893488e+19 2.6757011
3.6893488e+19 3.2098444 1.0842022e-19
3.0521142 -1.0842022e-19 2.6008425
1.0842022e-19 3.224062 -2
3.0265157 -1.0842022e-19 2.5921113
-3.6893488e+19 3.2293735 2
3.0649447 -1.0842022e-19 2.5993586
-2 3.2259004 -3.6893488e+19
3.0275881 2 2.5777178
-1.0842022e-19 3.221705 -1.0842022e-19
3.025141 -2 2.559279
-2 3.2314312 -2
3.0662966 -3.6893488e+19 2.5680559
2 3.1922228 -0
3.0079443 3.6893488e+19 2.5254025
-2 3.202523 0
3.0139525 -3.6893488e+19 2.5021265
-3.6893488e+19 3.2272561 3.6893488e+19
3.0091786 0 2.5036955
3.6893488e+19 3.2012272 -3.6893488e+19
3.0271041 2 2.4797487
2 3.1379592 0
2.9213703 1.0842022e-19 2.3875167
2 3.1992157 -1.0842022e-19
3.0258689 2 2.4478598
2 3.1371539 0
2.9204955 -1.0842022e-19 2.3618631
0 3.2082293 -0
3.0314043 -3.6893488e+19 2.4265378
2 3.136492 0
2.9197767 0 2.3364785
2 3.1896811 -1.0842022e-19
3.0200136 -3.6893488e+19 2.3802369
-2 3.1376703 1.0842022e-19
2.9210565 -0 2.3126907
-0 3.1300399 2
2.9667747 -0 2.3035896
0 3.138092 -2
2.9215143 3.6893488e+19 2.2882259
-3.6893488e+19 3.1331763 1.0842022e-19
2.9706271 2 2.2808535
-2 3.1400285 -3.6893488e+19
2.9236176 -1.0842022e-19 2.2647588
-3.6893488e+19 3.131835 0
2.9689796 2 2.2547395
-3.6893488e+19 3.1382489 3.6893488e+19
2.921685 -1.0842022e-19 2.2275798
-0 3.1319618 0
2.9691353 -2 2.2094195
-2 3.1944385 -0
3.0419927 1.0842022e-19 2.2576365
-3.6893488e+19 3.1997373 0
3.0123277 2 2.2253618
-2 3.1962583 2
3.0431883 0 2.207639
3.6893488e+19 3.1996088 2
3.0122526 2 2.1669977
-0 3.1952662 3.6893488e+19
3.0425365 -2 2.147043
3.6893488e+19 3.1277487 -0
2.9406745 -0 2.0514717
-3.6893488e+19 3.1949563 -0
3.0423329 -1.0842022e-19 2.0872684
-1.0842022e-19 3.1307664 1.0842022e-19
2.944195 -0 2.0046315
0 3.1972351 -0
3.0438299 3.6893488e+19 2.0292373
-1.0842022e-19 3.1343336 -1.0842022e-19
2.9483564 -1.0842022e-19 1.9573419
-1.0842022e-19 3.1398859 0
3.0061522 0 1.9413487
-3.6893488e+19 3.2006283 -2
3.0128472 2 1.9348754
-1.0842022e-19 3.1410167 1.0842022e-19
3.0068951 3.6893488e+19 1.8896995
0 3.1290274 -0
2.9421661 -2 1.8380917
-1.0842022e-19 3.1461768 3.6893488e+19
3.0102851 -3.6893488e+19 1.8023067
-1.0842022e-19 3.1309206 0
2.944375 2 1.7315202
-1.0842022e-19 3.1238337 0
2.9060283 -3.6893488e+19 1.6284474
3.6893488e+19 3.12164 3.6893488e+19
2.9564576 -2 1.3874693
1.0842022e-19 3.1259515 -0
2.9083283 0 -1.4968501
-0 3.1236579 1.0842022e-19
2.9589362 3.6893488e+19 -1.6610621
3.6893488e+19 3.1279685 2
2.9105191 3.6893488e+19 -1.7519619
3.6893488e+19 3.1297848 -3.6893488e+19
2.9664612 2 -1.8062907
0 3.130594 1.0842022e-19
2.9674551 -2 -1.890663
0 3.1478152 -2
2.9320748 1.0842022e-19 -1.9178264
-0 3.1515622 3.6893488e+19
2.9932089 0 -1.9510071
-0 3.0734632 3.6893488e+19
2.8513198 0 -1.9275479
0 3.0557992 0
2.8755903 -3.6893488e+19 -1.9431305
1.0842022e-19 3.0604069 0
2.8371391 1.0842022e-19 -1.9598278
2 2.7692914 3.6893488e+19
2.5807505 2 -1.8656867
1.0842022e-19 2.7178349 0
2.557364 -1.0842022e-19 -1.8538188
1.0842022e-19 2.7007697 2
2.5129297 -0 -1.852908
3.6893488e+19 2.6446507 -2
2.5092824 3.6893488e+19 -1.8444345
2 2.6322608 -3.6893488e+19
2.4459381 -2 -1.8430356
1.0842022e-19 2.5858929 -0
2.4413581 1.0842022e-19 -1.8342646
1.0842022e-19 2.5770419 -2
2.3815207 -2 -1.8327416
0 2.5436356 -0
2.3858325 -1.0842022e-19 -1.8276218
-1.0842022e-19 2.5402706 -0
2.3386242 -2 -1.8282239
-1.0842022e-19 2.5085921 0
2.3397863 -3.6893488e+19 -1.820796
-3.6893488e+19 2.5085814 -2
2.3016562 0 -1.8228354
-3.6893488e+19 2.4706728 -2
2.3092284 3.6893488e+19 -1.8189969
2 2.4648018 -3.6893488e+19
2.2711143 0 -1.8179224
-3.6893488e+19 2.4277306 -2
2.2810156 3.6893488e+19 -1.8156843
-3.6893488e+19 2.4266694 -0
2.2477446 0 -1.8159866
-2 2.3948021 2
2.259382 3.6893488e+19 -1.8143013
-3.6893488e+19 2.3967295 -3.6893488e+19
2.2128172 -1.0842022e-19 -1.8155216
2 2.3942885 2
2.1782446 -3.6893488e+19 -1.8174453
-3.6893488e+19 2.3625526 -0
2.1437757 1.0842022e-19 -1.8136021
2 2.318141 -2
2.0955391 -3.6893488e+19 -1.8109862
-3.6893488e+19 2.2827413 -1.0842022e-19
2.057091 3.6893488e+19 -1.8085647
-0 2.246587 -0
2.0196764 -0 -1.8023107
3.6893488e+19 2.168067 3.6893488e+19
2.0246668 -0 -1.7962813
2 2.1304615 0
1.9999603 -1.0842022e-19 -1.7939723
-3.6893488e+19 2.099937 -2
1.979906 -3.6893488e+19 -1.7925252
3.6893488e+19 2.085444 -0
1.9703841 1.0842022e-19 -1.7972599
-3.6893488e+19 3.2732584 3.6893488e+19
3.0449395 -0 2.7697387
-1.0842022e-19 3.2146723 -3.6893488e+19
3.0336866 -1.0842022e-19 2.6675792
-1.0842022e-19 3.213892 -2
3.0332103 -3.6893488e+19 2.6511874
-3.6893488e+19 3.2604935 2
3.0520599 3.6893488e+19 2.6598809
2 3.2595956 -1.0842022e-19
3.0510185 -3.6893488e+19 2.6412671
-1.0842022e-19 3.2114096 -3.6893488e+19
3.0514143 -2 2.6014328
3.6893488e+19 3.2238233 3.6893488e+19
3.0247149 3.6893488e+19 2.5914185
2 3.2255032 -0
3.0256889 3.6893488e+19 2.5769455
3.6893488e+19 3.2218356 -1.0842022e-19
3.0235624 -2 2.5588934
-2 3.2310922 -3.6893488e+19
3.0642719 -3.6893488e+19 2.5672867
1.0842022e-19 3.1914773 -0
3.0059612 -2 2.5245194
1.0842022e-19 3.1984241 -1.0842022e-19
3.0099888 0 2.5141363
-3.6893488e+19 3.1992407 -3.6893488e+19
3.0104623 -0 2.4998333
0 3.2145221 -0
3.000689 -2 2.4931524
-1.0842022e-19 3.2012627 3.6893488e+19
3.0255001 1.0842022e-19 2.4790173
-0 3.2162831 -3.6893488e+19
3.0016394 1.0842022e-19 2.465091
2 3.1982131 1.0842022e-19
3.0236382 -1.0842022e-19 2.4461436
-3.6893488e+19 3.1380043 0
2.9187896 -1.0842022e-19 2.362144
-2 3.2069478 1.0842022e-19
3.028971 -3.6893488e+19 2.4246631
-0 3.2176628 -3.6893488e+19
3.0023839 -2 2.4065681
1.0842022e-19 3.2031624 -1.0842022e-19
3.0266597 3.6893488e+19 2.3912673
-2 3.2407546 3.6893488e+19
3.0148461 2 2.3952763
0 3.2042663 2
3.0273337 -2 2.3623023
2 3.2282181 1.0842022e-19
3.0080805 3.6893488e+19 2.3546567
-0 3.2010145 -3.6893488e+19
3.0253484 3.6893488e+19 2.3300462
-0 3.1395676 -3.6893488e+19
2.9204767 -1.0842022e-19 2.264071
-0 3.1327941 1.0842022e-19
2.9673989 3.6893488e+19 2.2549698
1.0842022e-19 3.2268498 -3.6893488e+19
3.0073419 0 2.2928674
-3.6893488e+19 3.2132266 -3.6893488e+19
3.032804 3.6893488e+19 2.2781353
0 3.1956985 -0
3.041151 -0 2.2579236
1.0842022e-19 3.1999645 -1.0842022e-19
3.0108819 1.0842022e-19 2.2248776
-2 3.1962414 -0
3.0415058 -2 2.2068365
0 3.1999166 1.0842022e-19
3.0108542 0 2.1666477
0 3.1956656 3.6893488e+19
3.0411296 -1.0842022e-19 2.1467173
-0 3.1998465 -3.6893488e+19
3.0108135 3.6893488e+19 2.1084645
2 3.2103605 3.6893488e+19
3.050729 -2 2.0983458
3.6893488e+19 3.2017269 -0
3.0119038 1.0842022e-19 2.0516253
2 3.1978467 -0
3.0425544 1.0842022e-19 2.0291395
-0 3.2013161 -1.0842022e-19
3.0116656 -2 1.9931071
-3.6893488e+19 3.1994805 -0
3.0436218 1.0842022e-19 1.9702182
2 3.1878557 -1.0842022e-19
3.0038614 0 1.9293617
2 3.1870728 -3.6893488e+19
3.0355163 -2 1.9058861
-3.6893488e+19 3.1837497 0
3.0014811 1.0842022e-19 1.8684858
3.6893488e+19 3.1180809 -3.6893488e+19
2.9808953 2 1.7894499
-2 3.1446941 0
2.9576745 2 1.7395263
3.6893488e+19 3.1246395 -3.6893488e+19
2.9043641 -0 1.6285418
2 3.1558971 -2
2.9956079 1.0842022e-19 1.3999003
-0 3.1267602 -2
2.9066532 -1.0842022e-19 -1.4970304
1.0842022e-19 3.1567976 3.6893488e+19
2.9967074 -0 -1.6750655
-2 3.1275151 2
2.9074681 -2 -1.7516298
2 3.1283412 -3.6893488e+19
2.9619615 2 -1.805312
1.0842022e-19 3.130259 -2
2.9104295 -2 -1.8489661
2 3.1294985 -1.0842022e-19
2.9633746 0 -1.8900334
-0 3.150167 2
2.9319172 3.6893488e+19 -1.9185792
-3.6893488e+19 3.149754 -1.0842022e-19
2.9881072 3.6893488e+19 -1.9497812
-3.6893488e+19 3.1500101 3.6893488e+19
2.9317479 -1.0842022e-19 -1.9692529
1.0842022e-19 3.0561037 1.0842022e-19
2.8737583 -3.6893488e+19 -1.9430128
1.0842022e-19 3.0615072 1.0842022e-19
2.8362229 0 -1.960273
-2 2.7665267 2
2.5754342 -2 -1.8628337
3.6893488e+19 2.7234464 -1.0842022e-19
2.5592773 -3.6893488e+19 -1.8561661
3.6893488e+19 2.7037246 -1.0842022e-19
2.513062 0 -1.8540528
-2 2.6470003 1.0842022e-19
2.5093393 -2 -1.8453623
0 2.6330597 -1.0842022e-19
2.4441833 1.0842022e-19 -1.8431586
-3.6893488e+19 2.58553 -0
2.4383681 -1.0842022e-19 -1.83368
2 2.5773249 0
2.3795552 -2 -1.8326048
1.0842022e-19 2.5442445 -3.6893488e+19
2.3844285 -3.6893488e+19 -1.8276937
3.6893488e+19 2.5410368 -0
2.3374767 -2 -1.8284501
-2 2.5096624 2
2.3392475 -2 -1.8212692
3.6893488e+19 2.5102692 -1.0842022e-19
2.3017995 -0 -1.8238233
2 2.4712732 1.0842022e-19
2.3078578 -0 -1.8189111
2 2.4657261 -1.0842022e-19
2.2700202 0 -1.8180116
-1.0842022e-19 2.4288824 1.0842022e-19
2.2801661 3.6893488e+19 -1.8158698
1.0842022e-19 2.4275355 1.0842022e-19
2.2457561 0 -1.8160828
-2 2.3969383 2
2.2592988 -3.6893488e+19 -1.814999
-2 2.3958287 3.6893488e+19
2.2089901 -0 -1.8147995
-3.6893488e+19 3.2732584 3.6893488e+19
3.0449395 -0 2.7697387
-1.0842022e-19 3.2146723 -3.6893488e+19
3.0336866 -1.0842022e-19 2.6675792
-1.0842022e-19 3.213892 -2
3.0332103 -3.6893488e+19 2.6511874
-3.6893488e+19 3.2604935 2
3.0520599 3.6893488e+19 2.6598809
2 3.2595956 -1.0842022e-19
3.0510185 -3.6893488e+19 2.6412671
-3.6893488e+19 3.2105052 3.6893488e+19
3.0508237 0 2.6007442
3.6893488e+19 3.2238233 3.6893488e+19
3.0247149 3.6893488e+19 2.5914185
2 3.2255032 -0
3.0256889 3.6893488e+19 2.5769455
3.6893488e+19 3.2218356 -1.0842022e-19
3.0235624 -2 2.5588934
-2 3.2310922 -3.6893488e+19
3.0642719 -3.6893488e+19 2.5672867
1.0842022e-19 3.1914773 -0
3.0059612 -2 2.5245194
1.0842022e-19 3.1984241 -1.0842022e-19
3.0099888 0 2.5141363
-3.6893488e+19 3.1992407 -3.6893488e+19
3.0104623 -0 2.4998333
0 3.2145221 -0
3.000689 -2 2.4931524
-1.0842022e-19 3.2012627 3.6893488e+19
3.0255001 1.0842022e-19 2.4790173
-3.6893488e+19 3.1371157 3.6893488e+19
2.9178305 3.6893488e+19 2.386126
2 3.1982131 1.0842022e-19
3.0236382 -1.0842022e-19 2.4461436
-3.6893488e+19 3.1380043 0
2.9187896 -1.0842022e-19 2.362144
-2 3.2069478 1.0842022e-19
3.028971 -3.6893488e+19 2.4246631
-0 3.2176628 -3.6893488e+19
3.0023839 -2 2.4065681
-0 3.1883686 -3.6893488e+19
3.017628 -3.6893488e+19 2.378494
3.6893488e+19 3.1379468 3.6893488e+19
2.9187274 0 2.3124702
-1.0842022e-19 3.1417325 2
2.9783127 -2 2.3124282
3.6893488e+19 3.1376836 -2
2.9184432 2 2.2875144
-0 3.1337652 2
2.9685845 -2 2.280834
-0 3.1395676 -3.6893488e+19
2.9204767 -1.0842022e-19 2.264071
-0 3.1327941 1.0842022e-19
2.9673989 3.6893488e+19 2.2549698
-3.6893488e+19 3.1397057 2
2.9206259 -1.0842022e-19 2.2286921
3.6893488e+19 3.1335335 2
2.9683015 1.0842022e-19 2.2105703
0 3.1956985 -0
3.041151 -0 2.2579236
-2 3.1265492 1.0842022e-19
2.9366343 -3.6893488e+19 2.1473975
-2 3.1962414 -0
3.0415058 -2 2.2068365
0 3.1302812 0
2.9409616 1.0842022e-19 2.1021614
0 3.1956656 3.6893488e+19
3.0411296 -1.0842022e-19 2.1467173
0 3.1286221 -0
2.9390376 -0 2.0517085
2 3.2103605 3.6893488e+19
3.050729 -2 2.0983458
-1.0842022e-19 3.1318874 -2
2.9428241 -2 2.0049922
2 3.1978467 -0
3.0425544 1.0842022e-19 2.0291395
-2 3.1364331 1.0842022e-19
2.9480953 -2 1.9581571
3.6893488e+19 3.1232944 0
2.9877069 -1.0842022e-19 1.9328915
1.0842022e-19 3.1308534 1.0842022e-19
2.9416251 0 1.9060115
-0 3.1224887 -0
2.9866543 -1.0842022e-19 1.8828516
-3.6893488e+19 3.1355252 -1.0842022e-19
2.9470425 -0 1.8414149
3.6893488e+19 3.1180809 -3.6893488e+19
2.9808953 2 1.7894499
-2 3.1446941 0
2.9576745 2 1.7395263
3.6893488e+19 3.1246395 -3.6893488e+19
2.9043641 -0 1.6285418
-1.0842022e-19 3.1210365 -1.0842022e-19
2.9530425 -0 1.3870261
-0 3.1267602 -2
2.9066532 -1.0842022e-19 -1.4970304
2 3.1232712 -3.6893488e+19
2.955771 -3.6893488e+19 -1.6606374
-2 3.1275151 2
2.9074681 -2 -1.7516298
2 3.1283412 -3.6893488e+19
2.9619615 2 -1.805312
1.0842022e-19 3.130259 -2
2.9104295 -2 -1.8489661
2 3.1294985 -1.0842022e-19
2.9633746 0 -1.8900334
-0 3.1319664 2
2.9122725 3.6893488e+19 -1.9109118
-3.6893488e+19 3.149754 -1.0842022e-19
2.9881072 3.6893488e+19 -1.9497812
-0 3.0742798 1.0842022e-19
2.850009 1.0842022e-19 -1.9277438
1.0842022e-19 3.0561037 1.0842022e-19
2.8737583 -3.6893488e+19 -1.9430128
1.0842022e-19 3.0615072 1.0842022e-19
2.8362229 0 -1.960273
-2 2.7665267 2
2.5754342 -2 -1.8628337
3.6893488e+19 2.7234464 -1.0842022e-19
2.5592773 -3.6893488e+19 -1.8561661
3.6893488e+19 2.7037246 -1.0842022e-19
2.513062 0 -1.8540528
-2 2.6470003 1.0842022e-19
2.5093393 -2 -1.8453623
0 2.6330597 -1.0842022e-19
2.4441833 1.0842022e-19 -1.8431586
-3.6893488e+19 2.58553 -0
2.4383681 -1.0842022e-19 -1.83368
2 2.5773249 0
2.3795552 -2 -1.8326048
1.0842022e-19 2.5442445 -3.6893488e+19
2.3844285 -3.6893488e+19 -1.8276937
3.6893488e+19 2.5410368 -0
2.3374767 -2 -1.8284501
-2 2.5096624 2
2.3392475 -2 -1.8212692
3.6893488e+19 2.5102692 -1.0842022e-19
2.3017995 -0 -1.8238233
2 2.4712732 1.0842022e-19
2.3078578 -0 -1.8189111
2 2.4657261 -1.0842022e-19
2.2700202 0 -1.8180116
-1.0842022e-19 2.4288824 1.0842022e-19
2.2801661 3.6893488e+19 -1.8158698
1.0842022e-19 2.4275355 1.0842022e-19
2.2457561 0 -1.8160828
-2 2.3969383 2
2.2592988 -3.6893488e+19 -1.814999
-2 2.3958287 3.6893488e+19
2.2089901 -0 -1.8147995
-0 3.2736576 2
3.0435207 2 2.769752
1.0842022e-19 3.2135253 -0
3.0313215 -3.6893488e+19 2.6658843
-3.6893488e+19 3.2147901 -2
3.0320892 -3.6893488e+19 2.6513236
-1.0842022e-19 3.2600477 -1.0842022e-19
3.0497243 -3.6893488e+19 2.6585598
0 3.2596953 2
3.0493181 3.6893488e+19 2.6408248
-2 3.2173998 2
3.0535829 -1.0842022e-19 2.6053882
2 3.2502995 -2
3.0384886 -2 2.6101658
-3.6893488e+19 3.2239475 2
3.0231299 2 2.5753827
-2 3.2229798 0
3.0225723 -3.6893488e+19 2.5591738
-3.6893488e+19 3.2338612 3.6893488e+19
3.0642748 -1.0842022e-19 2.5685687
-0 3.2211542 2
3.0215201 3.6893488e+19 2.5425298
-0 3.205991 -0
3.0461726 -2 2.5347848
2 3.1999633 1.0842022e-19
3.0093081 2 2.5146418
2 3.2049658 3.6893488e+19
3.0455067 -3.6893488e+19 2.5187697
-1.0842022e-19 3.2002175 -1.0842022e-19
3.0094545 -1.0842022e-19 2.5000808
-0 3.2123599 -0
2.9959197 -3.6893488e+19 2.4901655
2 3.2027531 -3.6893488e+19
3.0247836 2 2.4798331
-1.0842022e-19 3.229342 2
3.0070672 -1.0842022e-19 2.4774427
-2 3.1983707 -0
3.0221241 2 2.4455893
-1.0842022e-19 3.2316968 2
3.0083301 0 2.4489586
-0 3.2079964 3.6893488e+19
3.027966 2 2.4249592
-2 3.2282467 -1.0842022e-19
3.0064797 -1.0842022e-19 2.4151835
-2 3.2033005 -2
3.025116 3.6893488e+19 2.3907628
2 3.2420781 2
3.0138974 -2 2.3957837
1.0842022e-19 3.2038469 2
3.0254476 0 2.3613911
-1.0842022e-19 3.2282889 -0
3.0065024 -1.0842022e-19 2.3542094
3.6893488e+19 3.200829 1.0842022e-19
3.0236161 2 2.3293846
-1.0842022e-19 3.2364588 -1.0842022e-19
3.0108838 0 2.3292849
1.0842022e-19 3.1426787 -1.0842022e-19
2.9766471 3.6893488e+19 2.2611368
3.6893488e+19 3.2282369 3.6893488e+19
3.0064745 -1.0842022e-19 2.2933054
3.6893488e+19 3.1349189 2
2.9672282 1.0842022e-19 2.2114973
3.6893488e+19 3.1979249 0
3.0409336 1.0842022e-19 2.25877
-2 3.1276608 3.6893488e+19
2.9352822 -0 2.1479673
-0 3.1976843 -2
3.0407772 2 2.2075319
-0 3.2128756 -3.6893488e+19
3.0167491 -1.0842022e-19 2.1779995
-3.6893488e+19 3.1970551 0
3.0403688 -0 2.1472757
-0 3.2106454 2
3.0154641 -2 2.116514
3.6893488e+19 3.2101519 -2
3.0488751 -3.6893488e+19 2.097594
3.6893488e+19 3.2032776 2
3.0112181 3.6893488e+19 2.0522025
1.0842022e-19 3.1969879 2
3.0403249 -3.6893488e+19 2.0281289
0 3.1911747 -3.6893488e+19
3.0042431 3.6893488e+19 1.9872845
-3.6893488e+19 3.1974714 0
3.0406392 1.0842022e-19 1.9688599
-2 3.1894939 -0
3.0032747 3.6893488e+19 1.9297602
3.6893488e+19 3.1880291 3.6893488e+19
3.0345061 -2 1.9059607
2 3.1851113 0
3.0007491 -1.0842022e-19 1.8688803
3.6893488e+19 3.1180546 -0
2.9781134 1.0842022e-19 1.7891577
-0 3.1430182 0
2.9529829 0 1.7381482
1.0842022e-19 3.1460705 0
2.9248188 -2 1.6357034
-3.6893488e+19 3.1595371 -0
2.9971106 -2 1.4010035
-0 3.1198561 -2
2.8967016 -2 -1.4921619
-3.6893488e+19 3.1589429 -1.0842022e-19
2.9963894 -0 -1.6757083
-0 3.1191804 0
2.895977 0 -1.7473195
1.0842022e-19 3.1272891 -2
2.9579666 -0 -1.8045239
1.0842022e-19 3.1297767 -1.0842022e-19
2.9073422 1.0842022e-19 -1.848367
-1.0842022e-19 3.1293297 -1.0842022e-19
2.9604437 1.0842022e-19 -1.889748
-2 3.1313488 -3.6893488e+19
2.9090285 -2 -1.9104253
3.6893488e+19 3.1497781 2
2.9852648 3.6893488e+19 -1.9494747
1.0842022e-19 3.076334 -0
2.8500204 -2 -1.9286176
-1.0842022e-19 3.0550704 2
2.8703053 -3.6893488e+19 -1.9420547
-3.6893488e+19 3.0612035 1.0842022e-19
2.833792 2 -1.9597721
-2 2.7668989 -1.0842022e-19
2.5739713 -3.6893488e+19 -1.8627862
-1.0842022e-19 2.7237318 0
2.5576956 -0 -1.855911
0 2.7048452 1.0842022e-19
2.5121214 1.0842022e-19 -1.8542708
-2 2.6457949 -1.0842022e-19
2.5070744 -0 -1.8443185
-0 2.6360185 -1.0842022e-19
2.4449151 3.6893488e+19 -1.8445109
-1.0842022e-19 2.5847435 -0
2.4348414 -3.6893488e+19 -1.8328357
1.0842022e-19 2.5781453 -0
2.3782117 -2 -1.83281
3.6893488e+19 2.54527 -3.6893488e+19
2.383564 -1.0842022e-19 -1.8280532
-2 2.5418019 -1.0842022e-19
2.3363235 -3.6893488e+19 -1.8286762
-1.0842022e-19 2.5114646 0
2.3396502 0 -1.8222944
3.6893488e+19 2.5099082 0
2.2995636 1.0842022e-19 -1.8232471
-0 2.4718695 -0
2.3064859 -2 -1.8188252
1.0842022e-19 2.4690211 0
2.2702909 -0 -1.8190829
-3.6893488e+19 2.4302413 -3.6893488e+19
2.2794478 -0 -1.816148
-0 2.427968 -3.6893488e+19
2.2432649 0 -1.8159866
3.6893488e+19 2.3965735 -2
2.25758 -3.6893488e+19 -1.8145006
3.6893488e+19 2.395998 -2
2.2064171 -3.6893488e+19 -1.8145932
-1.0842022e-19 2.3620474 -1.0842022e-19
2.1383262 -0 -1.8128072
-3.6893488e+19 2.3201346 1.0842022e-19
2.0933714 -3.6893488e+19 -1.8116231
2 2.2833242 0
2.053889 -2 -1.8084234
1.0842022e-19 2.2466879 3.6893488e+19
2.0163696 0 -1.8018458
1.0842022e-19 2.172394 2
2.0243509 -0 -1.7974626
2 2.1313541 -2
1.9976948 0 -1.7937899
1.0842022e-19 2.1019597 -2
1.9786028 1.0842022e-19 -1.7929176
-2 2.0808547 2
1.9648949 1.0842022e-19 -1.7943225
-0 3.2736576 2
3.0435207 2 2.769752
1.0842022e-19 3.2135253 -0
3.0313215 -3.6893488e+19 2.6658843
-3.6893488e+19 3.2147901 -2
3.0320892 -3.6893488e+19 2.6513236
-1.0842022e-19 3.2600477 -1.0842022e-19
3.0497243 -3.6893488e+19 2.6585598
0 3.2596953 2
3.0493181 3.6893488e+19 2.6408248
-2 3.2173998 2
3.0535829 -1.0842022e-19 2.6053882
-3.6893488e+19 3.2241135 3.6893488e+19
3.0232255 -1.0842022e-19 2.5911105
-3.6893488e+19 3.2239475 2
3.0231299 2 2.5753827
2 3.1996834 -1.0842022e-19
3.0091467 -2 2.5439456
-3.6893488e+19 3.2338612 3.6893488e+19
3.0642748 -1.0842022e-19 2.5685687
-1.0842022e-19 3.1921196 1.0842022e-19
3.0047879 -2 2.5245028
-0 3.205991 -0
3.0461726 -2 2.5347848
2 3.1999633 1.0842022e-19
3.0093081 2 2.5146418
2 3.2049658 3.6893488e+19
3.0455067 -3.6893488e+19 2.5187697
-1.0842022e-19 3.2002175 -1.0842022e-19
3.0094545 -1.0842022e-19 2.5000808
-0 3.2123599 -0
2.9959197 -3.6893488e+19 2.4901655
2 3.2027531 -3.6893488e+19
3.0247836 2 2.4798331
-1.0842022e-19 3.229342 2
3.0070672 -1.0842022e-19 2.4774427
-2 3.1983707 -0
3.0221241 2 2.4455893
-1.0842022e-19 3.2316968 2
3.0083301 0 2.4489586
-0 3.2079964 3.6893488e+19
3.027966 2 2.4249592
-2 3.2282467 -1.0842022e-19
3.0064797 -1.0842022e-19 2.4151835
-2 3.2033005 -2
3.025116 3.6893488e+19 2.3907628
-2 3.1387684 -2
2.9169867 -0 2.3126907
-1.0842022e-19 3.1447802 -3.6893488e+19
2.979198 -2 2.314357
3.6893488e+19 3.1394932 -3.6893488e+19
2.9177639 2 2.2884495
2 3.1411695 1.0842022e-19
2.9748154 1.0842022e-19 2.2857962
-0 3.1394856 -2
2.9177558 3.6893488e+19 2.2636435
1.0842022e-19 3.1426787 -1.0842022e-19
2.9766471 3.6893488e+19 2.2611368
1.0842022e-19 3.138607 -3.6893488e+19
2.9168134 -2 2.2266698
3.6893488e+19 3.1349189 2
2.9672282 1.0842022e-19 2.2114973
3.6893488e+19 3.1979249 0
3.0409336 1.0842022e-19 2.25877
-2 3.1276608 3.6893488e+19
2.9352822 -0 2.1479673
-0 3.1976843 -2
3.0407772 2 2.2075319
-2 3.1290998 2
2.9369409 2 2.1005361
-3.6893488e+19 3.1970551 0
3.0403688 -0 2.1472757
-1.0842022e-19 3.1295476 -1.0842022e-19
2.9374568 1.0842022e-19 2.0519884
-2 3.1259356 -0
2.9883511 -0 2.033978
0 3.1323042 1.0842022e-19
2.940634 -2 2.004884
1.0842022e-19 3.1249826 3.6893488e+19
2.987113 2 1.9833252
0 3.1911747 -3.6893488e+19
3.0042431 3.6893488e+19 1.9872845
0 3.1224389 -3.6893488e+19
2.9838085 -1.0842022e-19 1.9321611
3.6893488e+19 3.1314037 2
2.9395962 1.0842022e-19 1.9060004
0 3.1217628 -2
2.9829302 0 1.8823665
-1.0842022e-19 3.1499438 1.0842022e-19
2.9609652 0 1.849169
3.6893488e+19 3.1180546 -0
2.9781134 1.0842022e-19 1.7891577
-0 3.1430182 0
2.9529829 0 1.7381482
0 3.124397 -2
2.901572 1.0842022e-19 1.6282777
1.0842022e-19 3.1226709 -2
2.9523609 0 1.3874103
-0 3.1198561 -2
2.8967016 -2 -1.4921619
2 3.1246953 -0
2.9548182 -2 -1.6609932
-0 3.1191804 0
2.895977 0 -1.7473195
1.0842022e-19 3.1272891 -2
2.9579666 -0 -1.8045239
1.0842022e-19 3.1297767 -1.0842022e-19
2.9073422 1.0842022e-19 -1.848367
-1.0842022e-19 3.1293297 -1.0842022e-19
2.9604437 1.0842022e-19 -1.889748
-2 3.1313488 -3.6893488e+19
2.9090285 -2 -1.9104253
3.6893488e+19 3.1497781 2
2.9852648 3.6893488e+19 -1.9494747
1.0842022e-19 3.076334 -0
2.8500204 -2 -1.9286176
-1.0842022e-19 3.0550704 2
2.8703053 -3.6893488e+19 -1.9420547
-3.6893488e+19 3.0612035 1.0842022e-19
2.833792 2 -1.9597721
-2 2.7668989 -1.0842022e-19
2.5739713 -3.6893488e+19 -1.8627862
-1.0842022e-19 2.7237318 0
2.5576956 -0 -1.855911
0 2.7048452 1.0842022e-19
2.5121214 1.0842022e-19 -1.8542708
-2 2.6457949 -1.0842022e-19
2.5070744 -0 -1.8443185
-0 2.6360185 -1.0842022e-19
2.4449151 3.6893488e+19 -1.8445109
-1.0842022e-19 2.5847435 -0
2.4348414 -3.6893488e+19 -1.8328357
1.0842022e-19 2.5781453 -0
2.3782117 -2 -1.83281
3.6893488e+19 2.54527 -3.6893488e+19
2.383564 -1.0842022e-19 -1.8280532
-2 2.5418019 -1.0842022e-19
2.3363235 -3.6893488e+19 -1.8286762
-1.0842022e-19 2.5114646 0
2.3396502 0 -1.8222944
3.6893488e+19 2.5099082 0
2.2995636 1.0842022e-19 -1.8232471
-0 2.4718695 -0
2.3064859 -2 -1.8188252
1.0842022e-19 2.4690211 0
2.2702909 -0 -1.8190829
-3.6893488e+19 2.4302413 -3.6893488e+19
2.2794478 -0 -1.816148
-0 2.427968 -3.6893488e+19
2.2432649 0 -1.8159866
3.6893488e+19 2.3965735 -2
2.25758 -3.6893488e+19 -1.8145006
3.6893488e+19 2.395998 -2
2.2064171 -3.6893488e+19 -1.8145932
-1.0842022e-19 2.3620474 -1.0842022e-19
2.1383262 -0 -1.8128072
-3.6893488e+19 2.3201346 1.0842022e-19
2.0933714 -3.6893488e+19 -1.8116231
2 2.2833242 0
2.053889 -2 -1.8084234
1.0842022e-19 2.2466879 3.6893488e+19
2.0163696 0 -1.8018458
1.0842022e-19 2.172394 2
2.0243509 -0 -1.7974626
2 2.1313541 -2
1.9976948 0 -1.7937899
1.0842022e-19 2.1019597 -2
1.9786028 1.0842022e-19 -1.7929176
-2 2.0808547 2
1.9648949 1.0842022e-19 -1.7943225
0 3.271791 -2
3.0396867 -3.6893488e+19 2.7585583
3.6893488e+19 3.2133675 2
3.0295668 -3.6893488e+19 2.6650839
2 3.2100368 0
2.9903276 -2 2.6272726
0 3.2277899 0
3.0585539 2 2.6452718
-3.6893488e+19 3.2599316 -2
3.0477784 -3.6893488e+19 2.657763
3.6893488e+19 3.2204735 2
3.0194879 3.6893488e+19 2.6034837
-0 3.2215178 2
3.0200861 2 2.5577545
0 3.2044134 2
3.0434575 3.6893488e+19 2.5486732
3.6893488e+19 3.220628 -0
3.0195763 -3.6893488e+19 2.5417633
3.6893488e+19 3.2064533 -3.6893488e+19
3.0447748 -3.6893488e+19 2.53459
-0 3.2184217 -3.6893488e+19
3.0183125 -1.0842022e-19 2.5250833
-3.6893488e+19 3.2057385 1.0842022e-19
3.0443134 -3.6893488e+19 2.5187697
-3.6893488e+19 3.2239375 2
3.0025718 0 2.5008681
2 3.2032058 3.6893488e+19
3.0234358 2 2.4795518
-3.6893488e+19 3.23207 3.6893488e+19
3.0069058 1.0842022e-19 2.4794879
-1.0842022e-19 3.2117209 -3.6893488e+19
3.0285733 0 2.4581296
-1.0842022e-19 3.2317138 0
3.006716 -1.0842022e-19 2.4483457
-0 3.2091494 1.0842022e-19
3.0270219 -2 2.4253538
3.6893488e+19 3.2216697 -3.6893488e+19
3.001363 -0 2.4089005
0 3.205379 -1.0842022e-19
3.0247469 -3.6893488e+19 2.3919322
-3.6893488e+19 3.2426579 -3.6893488e+19
3.0125482 3.6893488e+19 2.3956954
0 3.2046473 0
3.0243056 -2 2.3614545
0 3.2304714 -1.0842022e-19
3.0060537 0 2.3553276
3.6893488e+19 3.202585 3.6893488e+19
3.0230613 -0 2.3301435
-2 3.2386808 1.0842022e-19
3.0104289 -0 2.3303258
-3.6893488e+19 3.2041547 0
3.0240085 -1.0842022e-19 2.3015406
-2 3.2360063 -2
3.0090034 -0 2.2976532
-2 3.1381199 2
2.9683344 -1.0842022e-19 2.2145977
1.0842022e-19 3.1412735 -3.6893488e+19
3.002682 -0 2.2013173
2 3.2168112 3.6893488e+19
3.01739 1.0842022e-19 2.2411711
-3.6893488e+19 3.1991 -1.0842022e-19
3.0400262 -2 2.2082005
3.6893488e+19 3.2140877 3.6893488e+19
3.01583 3.6893488e+19 2.1784747
-2 3.1989422 0
3.0399244 1.0842022e-19 2.1482761
-2 3.2092264 1.0842022e-19
3.0130455 3.6893488e+19 2.1148353
1.0842022e-19 3.2097533 1.0842022e-19
3.046906 3.6893488e+19 2.096704
0 3.21228 1.0842022e-19
3.0147946 2 2.0577407
-1.0842022e-19 3.1987441 2
3.0397964 -0 2.0287483
2 3.1358404 -2
2.9420197 -1.0842022e-19 1.9572109
3.6893488e+19 3.1989927 -1.0842022e-19
3.0399568 -0 1.9692315
1.0842022e-19 3.1859272 -2
2.9993992 -2 1.928033
-1.0842022e-19 3.1985896 -2
3.0396965 -0 1.9094499
3.6893488e+19 3.1851704 0
2.9985325 2 1.8685465
1.0842022e-19 3.1193361 1.0842022e-19
2.9770303 2 1.7894499
1.0842022e-19 3.1484914 -2
2.9565127 1.0842022e-19 1.7411013
-2 3.1537683 -3.6893488e+19
2.9303541 1.0842022e-19 1.6381474
3.6893488e+19 3.1255367 1.0842022e-19
2.9531505 -0 1.3882475
1.0842022e-19 3.1219192 3.6893488e+19
2.8964078 2 -1.4931717
1.0842022e-19 3.1255844 0
2.953208 -3.6893488e+19 -1.6611195
2 3.1549416 3.6893488e+19
2.9316046 3.6893488e+19 -1.7604482
2 3.1320884 2
2.9610562 -1.0842022e-19 -1.8065195
-2 3.130116 -2
2.9051445 1.0842022e-19 -1.8482536
1.0842022e-19 3.1308682 3.6893488e+19
2.9595838 2 -1.8900924
3.6893488e+19 3.1311116 2
2.9062057 2 -1.9101011
-1.0842022e-19 3.1367178 -2
2.9666424 2 -1.9426523
-1.0842022e-19 3.1331909 -2
2.9084218 -2 -1.9594444
-0 3.1092527 3.6893488e+19
2.933501 1.0842022e-19 -1.9758065
3.6893488e+19 3.0618052 0
2.8323359 -3.6893488e+19 -1.9598833
2 2.771492 2
2.5776024 0 -1.866495
-2 2.7240121 -3.6893488e+19
2.5561142 0 -1.8556559
2 2.704989 -0
2.5106182 -2 -1.8539982
-2 2.6481445 -0
2.5071194 -2 -1.8452463
-2 2.6359506 -1.0842022e-19
2.4421461 3.6893488e+19 -1.8441421
1.0842022e-19 2.5864649 2
2.4345741 0 -1.8335502
-3.6893488e+19 2.5787477 0
2.3766146 -1.0842022e-19 -1.8328785
-0 2.5476568 0
2.3844502 -2 -1.8293475
-0 2.5436478 -3.6893488e+19
2.3364036 1.0842022e-19 -1.8296562
3.6893488e+19 2.5114901 -1.0842022e-19
2.3377376 1.0842022e-19 -1.8219789
-3.6893488e+19 2.5099754 -1.0842022e-19
2.2978287 2 -1.8230001
0 2.4728804 -2
2.3053832 -0 -1.8189111
0 2.469944 -3.6893488e+19
2.2691844 -0 -1.8191721
-2 2.4286721 2
2.276834 -0 -1.8151278
1.0842022e-19 2.4299085 2
2.2425044 -0 -1.8165638
0 2.3972473 -2
2.2565398 -3.6893488e+19 -1.8145006
2 2.3972421 -3.6893488e+19
2.2050815 -2 -1.8149027
0 3.271791 -2
3.0396867 -3.6893488e+19 2.7585583
3.6893488e+19 3.2133675 2
3.0295668 -3.6893488e+19 2.6650839
2 3.2100368 0
2.9903276 -2 2.6272726
0 3.2277899 0
3.0585539 2 2.6452718
2 3.2178156 -1.0842022e-19
3.0179653 2 2.6169386
3.6893488e+19 3.2204735 2
3.0194879 3.6893488e+19 2.6034837
1.0842022e-19 3.2000389 -3.6893488e+19
3.0077827 -3.6893488e+19 2.5437353
0 3.2044134 2
3.0434575 3.6893488e+19 2.5486732
2 3.1957421 -3.6893488e+19
3.0053215 -1.0842022e-19 2.5263355
3.6893488e+19 3.2064533 -3.6893488e+19
3.0447748 -3.6893488e+19 2.53459
1.0842022e-19 3.2023361 -3.6893488e+19
3.0090985 3.6893488e+19 2.5156369
-3.6893488e+19 3.2057385 1.0842022e-19
3.0443134 -3.6893488e+19 2.5187697
-3.6893488e+19 3.2239375 2
3.0025718 0 2.5008681
2 3.2032058 3.6893488e+19
3.0234358 2 2.4795518
-3.6893488e+19 3.23207 3.6893488e+19
3.0069058 1.0842022e-19 2.4794879
2 3.1969805 -1.0842022e-19
3.0196798 -0 2.4435036
-1.0842022e-19 3.2317138 0
3.006716 -1.0842022e-19 2.4483457
-0 3.2091494 1.0842022e-19
3.0270219 -2 2.4253538
3.6893488e+19 3.2216697 -3.6893488e+19
3.001363 -0 2.4089005
0 3.205379 -1.0842022e-19
3.0247469 -3.6893488e+19 2.3919322
-3.6893488e+19 3.1373355 -2
2.9128394 3.6893488e+19 2.3111022
1.0842022e-19 3.1488194 -0
2.981245 2 2.3170702
-3.6893488e+19 3.1406164 -3.6893488e+19
2.9163363 -1.0842022e-19 2.2888763
2 3.1474724 0
2.9796197 -1.0842022e-19 2.2899408
-1.0842022e-19 3.1378314 3.6893488e+19
2.913368 -0 2.2621562
1.0842022e-19 3.1394587 1.0842022e-19
2.9699497 2 2.258585
-3.6893488e+19 3.138849 -1.0842022e-19
2.9144526 -3.6893488e+19 2.226299
-2 3.1381199 2
2.9683344 -1.0842022e-19 2.2145977
1.0842022e-19 3.1412735 -3.6893488e+19
3.002682 -0 2.2013173
-1.0842022e-19 3.1303957 1.0842022e-19
2.9357824 -0 2.1502461
2 3.1465147 -0
3.0060668 -2 2.1545494
-3.6893488e+19 3.1297252 0
2.9350145 0 2.1005862
-3.6893488e+19 3.1466005 3.6893488e+19
3.0061224 -1.0842022e-19 2.1018414
-2 3.2092264 1.0842022e-19
3.0130455 3.6893488e+19 2.1148353
-0 3.1244233 2
2.9836009 1.0842022e-19 2.032356
2 3.1332867 2
2.9390943 -2 2.0051546
-2 3.1244912 -1.0842022e-19
2.9836886 2 1.9826244
2 3.1358404 -2
2.9420197 -1.0842022e-19 1.9572109
-1.0842022e-19 3.1208146 -3.6893488e+19
2.9789398 -1.0842022e-19 1.9310591
-0 3.1241436 -3.6893488e+19
2.9286199 -3.6893488e+19 1.9028006
-2 3.1227353 1.0842022e-19
2.9814208 3.6893488e+19 1.8824878
1.0842022e-19 3.1472659 2
2.9551089 -2 1.8473328
1.0842022e-19 3.1193361 1.0842022e-19
2.9770303 2 1.7894499
1.0842022e-19 3.1321406 2
2.9377813 -0 1.7312084
-1.0842022e-19 3.1249218 1.0842022e-19
2.8996084 1.0842022e-19 1.6282777
3.6893488e+19 3.1255367 1.0842022e-19
2.9531505 -0 1.3882475
1.0842022e-19 3.1219192 3.6893488e+19
2.8964078 2 -1.4931717
1.0842022e-19 3.1255844 0
2.953208 -3.6893488e+19 -1.6611195
-3.6893488e+19 3.1260958 -1.0842022e-19
2.9008596 -2 -1.7507997
2 3.1320884 2
2.9610562 -1.0842022e-19 -1.8065195
-2 3.130116 -2
2.9051445 1.0842022e-19 -1.8482536
1.0842022e-19 3.1308682 3.6893488e+19
2.9595838 2 -1.8900924
3.6893488e+19 3.1311116 2
2.9062057 2 -1.9101011
-0 3.1095154 1.0842022e-19
2.9338181 0 -1.9291009
0 3.0788314 -1.0842022e-19
2.8504829 -1.0842022e-19 -1.9297326
-1.0842022e-19 3.059967 0
2.8740294 0 -1.9448283
3.6893488e+19 3.0618052 0
2.8323359 -3.6893488e+19 -1.9598833
2 2.771492 2
2.5776024 0 -1.866495
-2 2.7240121 -3.6893488e+19
2.5561142 0 -1.8556559
2 2.704989 -0
2.5106182 -2 -1.8539982
-2 2.6481445 -0
2.5071194 -2 -1.8452463
-2 2.6359506 -1.0842022e-19
2.4421461 3.6893488e+19 -1.8441421
1.0842022e-19 2.5864649 2
2.4345741 0 -1.8335502
-3.6893488e+19 2.5787477 0
2.3766146 -1.0842022e-19 -1.8328785
-0 2.5476568 0
2.3844502 -2 -1.8293475
-0 2.5436478 -3.6893488e+19
2.3364036 1.0842022e-19 -1.8296562
3.6893488e+19 2.5114901 -1.0842022e-19
2.3377376 1.0842022e-19 -1.8219789
-3.6893488e+19 2.5099754 -1.0842022e-19
2.2978287 2 -1.8230001
0 2.4728804 -2
2.3053832 -0 -1.8189111
0 2.469944 -3.6893488e+19
2.2691844 -0 -1.8191721
-2 2.4286721 2
2.276834 -0 -1.8151278
1.0842022e-19 2.4299085 2
2.2425044 -0 -1.8165638
0 2.3972473 -2
2.2565398 -3.6893488e+19 -1.8145006
2 2.3972421 -3.6893488e+19
2.2050815 -2 -1.8149027
3.6893488e+19 3.2571197 -0
3.0223215 -2 2.7216046
3.6893488e+19 3.2132828 0
3.0278623 1.0842022e-19 2.6799948
-0 3.2138352 -2
3.0281935 -0 2.6648486
0 3.2024591 -2
2.9792099 2 2.6353033
-0 3.2287004 -2
3.0573671 2 2.6453574
-3.6893488e+19 3.2582192 0
3.0440221 3.6893488e+19 2.6544712
2 3.2222772 2
3.0188797 3.6893488e+19 2.6043081
3.6893488e+19 3.2048619 0
3.0420609 3.6893488e+19 2.5638406
3.6893488e+19 3.2228425 1.0842022e-19
3.0192015 -2 2.5581574
-3.6893488e+19 3.2055454 1.0842022e-19
3.0424998 1.0842022e-19 2.5489125
-1.0842022e-19 3.2201755 -3.6893488e+19
3.017683 1.0842022e-19 2.5410471
-3.6893488e+19 3.2071981 1.0842022e-19
3.043561 -3.6893488e+19 2.5345738
-1.0842022e-19 3.2202816 1.0842022e-19
3.0177436 -0 2.5257626
3.6893488e+19 3.2063258 3.6893488e+19
3.0430007 -2 2.5186622
0 3.2182343 0
3.016578 -1.0842022e-19 2.5093088
2 3.2163689 3.6893488e+19
2.9939423 2 2.4930365
-2 3.2042136 -1.0842022e-19
3.0224228 1.0842022e-19 2.4798613
2 3.2420754 1.0842022e-19
3.0105844 3.6893488e+19 2.4887586
2 3.2108772 2
3.0264194 -3.6893488e+19 2.4565718
-1.0842022e-19 3.2318904 0
3.0051908 0 2.4478862
-2 3.2121139 -1.0842022e-19
3.0271611 2 2.4274259
-0 3.2318387 0
3.0051634 0 2.4171352
-3.6893488e+19 3.2066309 -2
3.0238726 3.6893488e+19 2.392391
-2 3.1494565 -3.6893488e+19
2.9230738 0 2.3203912
2 3.1491015 -0
2.9787366 -1.0842022e-19 2.3167946
-3.6893488e+19 3.1395366 1.0842022e-19
2.9125676 2 2.287677
-0 3.2050624 -2
3.0229318 2 2.3314278
1.0842022e-19 3.238811 2
3.0088556 0 2.3299541
0 3.2063417 -2
3.023699 -1.0842022e-19 2.3025153
1.0842022e-19 3.2373173 -0
3.0080645 1.0842022e-19 2.2980409
0 3.2038555 3.6893488e+19
3.022208 0 2.2712152
2 3.1987875 -2
3.0381603 -0 2.2583921
0 3.2151515 -1.0842022e-19
3.0148227 -2 2.2386928
-2 3.2016704 2
3.0400116 0 2.2100461
1.0842022e-19 3.2147286 -2
3.0145819 -1.0842022e-19 2.1784246
2 3.2012241 0
3.0397251 -1.0842022e-19 2.1496253
1.0842022e-19 3.2097244 1.0842022e-19
3.0117331 -0 2.1146846
-2 3.2099516 -0
3.0453289 1.0842022e-19 2.0962689
-3.6893488e+19 3.2118866 -2
3.012964 -2 2.057019
-0 3.2013681 -3.6893488e+19
3.0398173 1.0842022e-19 2.0299056
0 3.1252072 2
2.9272304 0 1.9511992
2 3.1981213 -3.6893488e+19
3.0377326 0 1.9684371
1.0842022e-19 3.1871231 -0
2.997731 2 1.9282545
-0 3.1986899 3.6893488e+19
3.0380979 -3.6893488e+19 1.9092166
-0 3.1844373 0
2.994673 3.6893488e+19 1.8677726
1.0842022e-19 3.1220109 -2
2.9777265 -3.6893488e+19 1.7903615
-2 3.1259136 -1.0842022e-19
2.898139 -2 1.628438
0 3.1261024 0
2.9511485 -3.6893488e+19 1.3882376
1.0842022e-19 3.1224926 -1.0842022e-19
2.8945155 -2 -1.4932077
-0 3.1245153 2
2.9492447 1.0842022e-19 -1.6604079
-2 3.1410351 -0
2.9141545 2 -1.7556148
0 3.1329861 -3.6893488e+19
2.9594054 3.6893488e+19 -1.8066593
2 3.1275806 -0
2.8999045 0 -1.8464559
-1.0842022e-19 3.1354613 2
2.9623749 2 -1.8915585
0 3.1316979 2
2.9042652 -1.0842022e-19 -1.9101242
2 3.1353188 -0
2.9622037 -2 -1.9416529
-1.0842022e-19 3.1333659 -0
2.9060318 -1.0842022e-19 -1.9592485
3.6893488e+19 3.0590098 -0
2.8706684 0 -1.9439206
-1.0842022e-19 3.0619912 0
2.8304374 3.6893488e+19 -1.9597164
-1.0842022e-19 2.7698858 3.6893488e+19
2.5737379 2 -1.8646882
-1.0842022e-19 2.723027 -2
2.5537243 0 -1.8547884
0 2.7089245 0
2.5112777 -3.6893488e+19 -1.8556335
-3.6893488e+19 2.6506021 -3.6893488e+19
2.5072212 -1.0842022e-19 -1.8462322
-3.6893488e+19 2.6349022 3.6893488e+19
2.4382699 -2 -1.84322
0 2.5906019 -3.6893488e+19
2.4373918 1.0842022e-19 -1.8357584
2 2.5796738 -1.0842022e-19
2.3753836 -1.0842022e-19 -1.8331522
-3.6893488e+19 2.5472152 0
2.3816762 2 -1.8287004
3.6893488e+19 2.5454957 -1.0842022e-19
2.3364668 -0 -1.8306361
1.0842022e-19 2.511827 3.6893488e+19
2.3362312 -2 -1.8219
1.0842022e-19 2.5105815 -3.6893488e+19
2.2967114 -0 -1.8231647
-3.6893488e+19 2.472631 3.6893488e+19
2.3034701 -2 -1.818482
3.6893488e+19 2.4682674 3.6893488e+19
2.2665968 -1.0842022e-19 -1.8181901
2 2.4300246 -0
2.276113 -0 -1.8154061
-2 2.4290385 -1.0842022e-19
2.2385256 -3.6893488e+19 -1.8158903
-1.0842022e-19 2.3995926 1.0842022e-19
2.2565732 -0 -1.8152981
2 2.3987014 -0
2.2039821 0 -1.8153154
0 2.3632798 -3.6893488e+19
2.134758 1.0842022e-19 -1.8129208
2 2.3199346 3.6893488e+19
2.0888503 -3.6893488e+19 -1.8109862
-1.0842022e-19 2.2836792 0
2.0504515 -3.6893488e+19 -1.808141
-1.0842022e-19 2.246331 -0
2.0128379 3.6893488e+19 -1.8012258
-3.6893488e+19 2.1734114 -2
2.0218668 -3.6893488e+19 -1.7972938
-2 2.1334743 0
1.9962239 3.6893488e+19 -1.7941548
-1.0842022e-19 2.1043906 -1.0842022e-19
1.9775496 -1.0842022e-19 -1.793506
0 2.0869131 1.0842022e-19
1.9663274 0 -1.7968403
3.6893488e+19 3.2571197 -0
3.0223215 -2 2.7216046
3.6893488e+19 3.2132828 0
3.0278623 1.0842022e-19 2.6799948
-0 3.2138352 -2
3.0281935 -0 2.6648486
0 3.2024591 -2
2.9792099 2 2.6353033
-0 3.2287004 -2
3.0573671 2 2.6453574
-0 3.2195604 -3.6893488e+19
3.0173328 2 2.6177564
2 3.2222772 2
3.0188797 3.6893488e+19 2.6043081
3.6893488e+19 3.2048619 0
3.0420609 3.6893488e+19 2.5638406
-0 3.2007666 -1.0842022e-19
3.006633 -2 2.5437703
-3.6893488e+19 3.2055454 1.0842022e-19
3.0424998 1.0842022e-19 2.5489125
-2 3.199424 -3.6893488e+19
3.0058687 2 2.5282016
-3.6893488e+19 3.2071981 1.0842022e-19
3.043561 -3.6893488e+19 2.5345738
3.6893488e+19 3.2035792 -3.6893488e+19
3.0082343 -2 2.5159686
3.6893488e+19 3.2063258 3.6893488e+19
3.0430007 -2 2.5186622
0 3.2182343 0
3.016578 -1.0842022e-19 2.5093088
-2 3.147464 -2
2.9209635 -3.6893488e+19 2.4201915
-2 3.2042136 -1.0842022e-19
3.0224228 1.0842022e-19 2.4798613
0 3.1476684 -2
2.9211798 3.6893488e+19 2.3949878
1.0842022e-19 3.190064 2
3.0139363 0 2.4359531
-0 3.1490617 -2
2.9226556 -1.0842022e-19 2.3709021
-2 3.2121139 -1.0842022e-19
3.0271611 2 2.4274259
3.6893488e+19 3.1485128 -0
2.9220743 -0 2.3449986
-3.6893488e+19 3.2066309 -2
3.0238726 3.6893488e+19 2.392391
-2 3.1494565 -3.6893488e+19
2.9230738 0 2.3203912
2 3.1491015 -0
2.9787366 -1.0842022e-19 2.3167946
-3.6893488e+19 3.1395366 1.0842022e-19
2.9125676 2 2.287677
3.6893488e+19 3.148901 -3.6893488e+19
2.9784961 1.0842022e-19 2.2905247
-1.0842022e-19 3.1373804 0
2.9102838 -0 2.261487
1.0842022e-19 3.1501243 3.6893488e+19
2.9799635 2 2.2652481
1.0842022e-19 3.139143 -1.0842022e-19
2.9121504 -1.0842022e-19 2.2259958
-0 3.1395614 -1.0842022e-19
2.967293 -2 2.2155886
1.0842022e-19 3.1430893 -1.0842022e-19
3.0023973 3.6893488e+19 2.2026472
-0 3.1337581 -0
2.9369669 -0 2.1531801
-2 3.139333 0
2.9999714 -1.0842022e-19 2.1465526
-0 3.1327894 2
2.935864 -0 2.1028864
-2 3.1409662 2
3.0010343 -0 2.0962582
-2 3.1315842 -0
2.9344916 1.0842022e-19 2.0526986
3.6893488e+19 3.1238208 2
2.9800508 -0 2.0314262
2 3.1270759 2
2.9293582 -1.0842022e-19 2.0006447
2 3.12607 0
2.9829392 2 1.9832112
0 3.1252072 2
2.9272304 0 1.9511992
-0 3.1202054 1.0842022e-19
2.9754081 -0 1.9304569
-1.0842022e-19 3.1225591 0
2.9242153 -1.0842022e-19 1.9019259
-3.6893488e+19 3.123023 1.0842022e-19
2.9790266 0 1.8823665
2 3.1257575 -1.0842022e-19
2.9278569 1.0842022e-19 1.8349811
1.0842022e-19 3.1220109 -2
2.9777265 -3.6893488e+19 1.7903615
-2 3.1259136 -1.0842022e-19
2.898139 -2 1.628438
0 3.1261024 0
2.9511485 -3.6893488e+19 1.3882376
1.0842022e-19 3.1224926 -1.0842022e-19
2.8945155 -2 -1.4932077
-0 3.1245153 2
2.9492447 1.0842022e-19 -1.6604079
2 3.1234717 -1.0842022e-19
2.8955526 1.0842022e-19 -1.7494963
0 3.1329861 -3.6893488e+19
2.9594054 3.6893488e+19 -1.8066593
2 3.1275806 -0
2.8999045 0 -1.8464559
-0 3.1130078 -0
2.935441 2 -1.8833126
0 3.1316979 2
2.9042652 -1.0842022e-19 -1.9101242
-2 3.1097343 1.0842022e-19
2.9315145 -3.6893488e+19 -1.9289275
-2 3.0772467 1.0842022e-19
2.8465948 -2 -1.9286176
3.6893488e+19 3.0590098 -0
2.8706684 0 -1.9439206
-1.0842022e-19 3.0619912 0
2.8304374 3.6893488e+19 -1.9597164
-1.0842022e-19 2.7698858 3.6893488e+19
2.5737379 2 -1.8646882
-1.0842022e-19 2.723027 -2
2.5537243 0 -1.8547884
0 2.7089245 0
2.5112777 -3.6893488e+19 -1.8556335
-3.6893488e+19 2.6506021 -3.6893488e+19
2.5072212 -1.0842022e-19 -1.8462322
-3.6893488e+19 2.6349022 3.6893488e+19
2.4382699 -2 -1.84322
0 2.5906019 -3.6893488e+19
2.4373918 1.0842022e-19 -1.8357584
2 2.5796738 -1.0842022e-19
2.3753836 -1.0842022e-19 -1.8331522
-3.6893488e+19 2.5472152 0
2.3816762 2 -1.8287004
3.6893488e+19 2.5454957 -1.0842022e-19
2.3364668 -0 -1.8306361
1.0842022e-19 2.511827 3.6893488e+19
2.3362312 -2 -1.8219
1.0842022e-19 2.5105815 -3.6893488e+19
2.2967114 -0 -1.8231647
-3.6893488e+19 2.472631 3.6893488e+19
2.3034701 -2 -1.818482
3.6893488e+19 2.4682674 3.6893488e+19
2.2665968 -1.0842022e-19 -1.8181901
2 2.4300246 -0
2.276113 -0 -1.8154061
-2 2.4290385 -1.0842022e-19
2.2385256 -3.6893488e+19 -1.8158903
-1.0842022e-19 2.3995926 1.0842022e-19
2.2565732 -0 -1.8152981
2 2.3987014 -0
2.2039821 0 -1.8153154
0 2.3632798 -3.6893488e+19
2.134758 1.0842022e-19 -1.8129208
2 2.3199346 3.6893488e+19
2.0888503 -3.6893488e+19 -1.8109862
-1.0842022e-19 2.2836792 0
2.0504515 -3.6893488e+19 -1.808141
-1.0842022e-19 2.246331 -0
2.0128379 3.6893488e+19 -1.8012258
-3.6893488e+19 2.1734114 -2
2.0218668 -3.6893488e+19 -1.7972938
-2 2.1334743 0
1.9962239 3.6893488e+19 -1.7941548
-1.0842022e-19 2.1043906 -1.0842022e-19
1.9775496 -1.0842022e-19 -1.793506
0 2.0869131 1.0842022e-19
1.9663274 0 -1.7968403
0 3.27614 3.6893488e+19
3.0406156 1.0842022e-19 2.7893436
3.6893488e+19 3.2752976 -0
3.0397291 2 2.779336
3.6893488e+19 3.2768822 0
3.0413969 2 2.7535753
3.6893488e+19 3.2714717 3.6893488e+19
3.0357027 1.0842022e-19 2.7294571
-3.6893488e+19 3.2288294 -1.0842022e-19
3.0556808 -2 2.6448009
0 3.221895 2
3.0170269 -3.6893488e+19 2.6190352
-3.6893488e+19 3.2538173 -0
3.0372508 -2 2.6302679
3.6893488e+19 3.2219205 0
3.0170414 -3.6893488e+19 2.5880115
-2 3.2042701 -0
3.0400023 2 2.562907
0 3.2015455 -3.6893488e+19
3.0055118 -3.6893488e+19 2.5438404
2 3.2073021 -0
3.0419378 3.6893488e+19 2.549562
1.0842022e-19 3.2209024 -1.0842022e-19
3.0164652 0 2.5410638
1.0842022e-19 3.2079661 3.6893488e+19
3.0423617 -3.6893488e+19 2.5345738
2 3.2207389 -0
3.0163727 1.0842022e-19 2.5256205
-3.6893488e+19 3.2057588 -1.0842022e-19
3.0409527 2 2.5178788
-3.6893488e+19 3.2193902 -2
3.0156095 2 2.5095627
3.6893488e+19 3.229183 1.0842022e-19
3.0021513 -1.0842022e-19 2.5029414
3.6893488e+19 3.2039659 -3.6893488e+19
3.020659 1.0842022e-19 2.4788485
1.0842022e-19 3.2391829 -3.6893488e+19
3.0074131 -2 2.4852138
-1.0842022e-19 3.2117867 -0
3.025322 0 2.4567568
-1.0842022e-19 3.2353911 2
3.0054181 -3.6893488e+19 2.450516
3.6893488e+19 3.2149489 -2
3.0272071 -2 2.4293745
-0 3.2328086 2
3.0040591 0 2.417397
3.6893488e+19 3.2079353 1.0842022e-19
3.0230258 -0 2.3928955
-1.0842022e-19 3.2400055 -0
3.0078461 1.0842022e-19 2.3924742
2 3.23754 -2
3.0065486 2 2.3595557
3.6893488e+19 3.205348 0
3.0214832 2 2.3311164
-1.0842022e-19 3.2402322 0
3.0079656 2 2.330456
-0 3.2087173 -2
3.0234919 0 2.3036141
-3.6893488e+19 3.2380745 -3.6893488e+19
3.00683 2 2.2980914
0 3.2054513 0
3.0215447 0 2.2717426
1.0842022e-19 3.1980424 -1.0842022e-19
3.0360265 -0 2.2575307
0 3.2166314 -2
3.0140483 -2 2.2395189
-3.6893488e+19 3.2009296 0
3.0378699 0 2.2085216
-1.0842022e-19 3.2162352 -1.0842022e-19
3.0138242 0 2.1791749
-3.6893488e+19 3.2028236 3.6893488e+19
3.039079 0 2.1503699
1.0842022e-19 3.2080176 -3.6893488e+19
3.0091741 3.6893488e+19 2.1127906
-0 3.2100661 -1.0842022e-19
3.0437024 0 2.0957744
3.6893488e+19 3.1264684 -0
2.9260576 2 1.9998691
-1.0842022e-19 3.2013099 1.0842022e-19
3.0381126 0 2.0294003
-1.0842022e-19 3.1236994 0
2.922924 -1.0842022e-19 1.9500928
-1.0842022e-19 3.1987684 -3.6893488e+19
3.03649 1.0842022e-19 1.9683858
0 3.1870124 -1.0842022e-19
2.9945765 -2 1.9279444
3.6893488e+19 3.1213057 -2
2.974077 -2 1.8815361
0 3.184649 -2
2.9919016 -2 1.8675297
-0 3.1227672 -2
2.9759431 1.0842022e-19 1.7904201
2 3.1202826 -3.6893488e+19
2.9190569 -3.6893488e+19 1.7233664
-3.6893488e+19 3.1289506 3.6893488e+19
2.8988159 -1.0842022e-19 1.6292967
-3.6893488e+19 3.129591 -0
2.9526322 -3.6893488e+19 1.3893014
-2 3.1274328 -1.0842022e-19
2.8972185 1.0842022e-19 -1.4960928
3.6893488e+19 3.154762 -1.0842022e-19
2.9826465 3.6893488e+19 -1.6730913
3.6893488e+19 3.1230209 1.0842022e-19
2.8925753 -2 -1.7488506
3.6893488e+19 3.1333988 0
2.9571726 0 -1.8065704
-0 3.1270525 -2
2.8968182 3.6893488e+19 -1.8458405
0 3.135905 2
2.960161 0 -1.8914995
3.6893488e+19 3.1489253 -2
2.9198375 -0 -1.9171199
3.6893488e+19 3.1371305 -2
2.9616222 -2 -1.9422525
0 3.1341455 -2
2.9042828 1.0842022e-19 -1.9593842
-1.0842022e-19 3.0594139 3.6893488e+19
2.8689516 -3.6893488e+19 -1.9438701
2 3.0634458 1.0842022e-19
2.8298771 2 -1.9604028
-1.0842022e-19 2.7699337 1.0842022e-19
2.5718746 2 -1.8643553
-2 2.7056968 1.0842022e-19
2.5078611 1.0842022e-19 -1.8536712
-1.0842022e-19 2.6348662 -2
2.4913909 3.6893488e+19 -1.8371857
-2 2.6359096 0
2.4367425 2 -1.8434659
1.0842022e-19 2.5909636 -3.6893488e+19
2.4353366 -1.0842022e-19 -1.8356285
0 2.5822268 2
2.3759882 -1.0842022e-19 -1.8344523
3.6893488e+19 2.547189 -1.0842022e-19
2.379446 2 -1.8283409
2 2.5438745 -2
2.3325841 1.0842022e-19 -1.829204
-2 2.5123715 0
2.3349919 1.0842022e-19 -1.8219789
-2 2.5089092 -1.0842022e-19
2.2930133 -1.0842022e-19 -1.8216004
-0 2.472585 2
2.3016944 -2 -1.8181388
1.0842022e-19 2.4687479 0
2.2652462 -2 -1.8181008
1.0842022e-19 2.4307468 -2
2.2749851 -0 -1.8154061
1.0842022e-19 2.4301105 -0
2.2367654 0 -1.8160828
-0 2.4004734 -1.0842022e-19
2.2556589 -2 -1.8153977
-0 2.3992949 -2
2.2018907 0 -1.8153154
0 3.27614 3.6893488e+19
3.0406156 1.0842022e-19 2.7893436
3.6893488e+19 3.2752976 -0
3.0397291 2 2.779336
3.6893488e+19 3.2768822 0
3.0413969 2 2.7535753
3.6893488e+19 3.2714717 3.6893488e+19
3.0357027 1.0842022e-19 2.7294571
-3.6893488e+19 3.2288294 -1.0842022e-19
3.0556808 -2 2.6448009
0 3.221895 2
3.0170269 -3.6893488e+19 2.6190352
-3.6893488e+19 3.22298 0
3.0176411 3.6893488e+19 2.6043081
3.6893488e+19 3.2219205 0
3.0170414 -3.6893488e+19 2.5880115
-2 3.2042701 -0
3.0400023 2 2.562907
0 3.2015455 -3.6893488e+19
3.0055118 -3.6893488e+19 2.5438404
2 3.2073021 -0
3.0419378 3.6893488e+19 2.549562
3.6893488e+19 3.2002819 0
3.004797 3.6893488e+19 2.5283182
1.0842022e-19 3.2079661 3.6893488e+19
3.0423617 -3.6893488e+19 2.5345738
-1.0842022e-19 3.2042813 -0
3.0070601 0 2.5159845
-3.6893488e+19 3.2057588 -1.0842022e-19
3.0409527 2 2.5178788
-3.6893488e+19 3.2193902 -2
3.0156095 2 2.5095627
-0 3.1499646 -0
2.9209313 -1.0842022e-19 2.4222505
3.6893488e+19 3.2039659 -3.6893488e+19
3.020659 1.0842022e-19 2.4788485
-1.0842022e-19 3.150363 2
2.9213507 -3.6893488e+19 2.3971145
0 3.1990552 3.6893488e+19
3.0177312 -2 2.4441636
1.0842022e-19 3.1502194 1.0842022e-19
2.9211996 -1.0842022e-19 2.3714638
-0 3.190028 3.6893488e+19
3.0123491 -0 2.4063604
-0 3.1498904 1.0842022e-19
2.9208534 2 2.3457127
3.6893488e+19 3.2079353 1.0842022e-19
3.0230258 -0 2.3928955
-2 3.1510563 -2
2.9220803 -1.0842022e-19 2.3212295
-2 3.1509359 2
2.9219537 -3.6893488e+19 2.295686
3.6893488e+19 3.205348 0
3.0214832 2 2.3311164
2 3.1373928 0
2.9077005 0 2.2611339
0 3.1374185 -2
2.9619656 2 2.256423
-2 3.1396816 -2
2.9101093 -1.0842022e-19 2.2259958
2 3.1401725 -2
2.9652495 -2 2.2155886
-1.0842022e-19 3.1406994 -0
2.9988387 -2 2.199141
0 3.2166314 -2
3.0140483 -2 2.2395189
0 3.1392505 -2
2.9969885 -1.0842022e-19 2.1458037
3.6893488e+19 3.133332 -0
2.9338253 -1.0842022e-19 2.1028614
-1.0842022e-19 3.1411228 2
2.9993794 -1.0842022e-19 2.0958161
2 3.1319621 -0
2.9322748 2 2.0525479
3.6893488e+19 3.1243169 -1.0842022e-19
2.9779217 -2 2.0313272
3.6893488e+19 3.1264684 -0
2.9260576 2 1.9998691
-3.6893488e+19 3.1211729 2
2.9739077 1.0842022e-19 1.9797885
-1.0842022e-19 3.1236994 0
2.922924 -1.0842022e-19 1.9500928
2 3.1185889 -2
2.9706082 -3.6893488e+19 1.9293677
3.6893488e+19 3.1211832 3.6893488e+19
2.9200761 -0 1.9011399
3.6893488e+19 3.1213057 -2
2.974077 -2 1.8815361
3.6893488e+19 3.1236517 2
2.9228699 -1.0842022e-19 1.8334939
-0 3.1227672 -2
2.9759431 1.0842022e-19 1.7904201
2 3.1202826 -3.6893488e+19
2.9190569 -3.6893488e+19 1.7233664
-3.6893488e+19 3.1289506 3.6893488e+19
2.8988159 -1.0842022e-19 1.6292967
-3.6893488e+19 3.129591 -0
2.9526322 -3.6893488e+19 1.3893014
-2 3.1274328 -1.0842022e-19
2.8972185 1.0842022e-19 -1.4960928
2 3.1259885 2
2.9483364 -0 -1.6607866
3.6893488e+19 3.1230209 1.0842022e-19
2.8925753 -2 -1.7488506
3.6893488e+19 3.1333988 0
2.9571726 0 -1.8065704
-0 3.1270525 -2
2.8968182 3.6893488e+19 -1.8458405
1.0842022e-19 3.1145165 3.6893488e+19
2.9346569 3.6893488e+19 -1.883657
-2 3.1319497 -2
2.9019721 0 -1.9100084
1.0842022e-19 3.1128209 -3.6893488e+19
2.9326348 0 -1.9301802
1.0842022e-19 3.0748527 0
2.841882 -1.0842022e-19 -1.9270657
-1.0842022e-19 3.0594139 3.6893488e+19
2.8689516 -3.6893488e+19 -1.9438701
2 3.0634458 1.0842022e-19
2.8298771 2 -1.9604028
-1.0842022e-19 2.7699337 1.0842022e-19
2.5718746 2 -1.8643553
-2 2.7056968 1.0842022e-19
2.5078611 1.0842022e-19 -1.8536712
-1.0842022e-19 2.6348662 -2
2.4913909 3.6893488e+19 -1.8371857
-2 2.6359096 0
2.4367425 2 -1.8434659
