# .PCD v0.7 - Point Cloud Data file format
VERSION 0.7
FIELDS x y z
SIZE 4 4 4
TYPE F F F
COUNT 1 1 1
WIDTH 1697
HEIGHT 1
VIEWPOINT 0 0 0 1 0 0 0
POINTS 1697
DATA ascii
-3.6893488e+19 2.3093739 -0
-1.7486016 2 -1.8001813
-2 2.2760437 0
-1.7218187 -3.6893488e+19 -1.7971193
-2 2.2531092 -2
-1.3823075 -0 -1.7965393
2 2.2072792 1.0842022e-19
-1.3640331 0 -1.7931061
1.0842022e-19 2.168303 -2
-1.343659 1.0842022e-19 -1.790869
-0 2.1304321 3.6893488e+19
-1.3238629 -2 -1.7869098
-2 3.3229616 -3.6893488e+19
-2.2348192 -0 2.7879558
-0 3.3097355 0
-2.4977844 -3.6893488e+19 2.7726948
-2 3.2832654 -2
-2.1752286 2 2.7385497
-1.0842022e-19 3.2836838 0
-2.1758568 -2 2.7227216
-3.6893488e+19 3.2760141 -3.6893488e+19
-2.4435897 -1.0842022e-19 2.7036843
-3.6893488e+19 3.2823744 0
-2.1738913 3.6893488e+19 2.7041175
2 3.3076544 0
-2.4944396 0 2.7377539
-1.0842022e-19 3.2825024 -1.0842022e-19
-2.1740832 2 2.6879363
-0 3.2761936 3.6893488e+19
-2.4438782 -1.0842022e-19 2.671814
1.0842022e-19 3.2849789 -1.0842022e-19
-2.1778007 1.0842022e-19 2.6752923
1.0842022e-19 3.2771797 0
-2.4454629 -3.6893488e+19 2.6572461
3.6893488e+19 3.3275912 0
-2.2417691 0 2.7199833
-3.6893488e+19 3.3092628 0
-2.3447852 0 2.6764555
-2 3.2997975 -0
-1.9067129 -1.0842022e-19 2.6195402
0 3.2995095 -3.6893488e+19
-1.9065622 -1.0842022e-19 2.6021028
2 3.2995305 1.0842022e-19
-1.9065733 -2 2.5850756
-3.6893488e+19 3.3005738 -2
-1.9071187 1.0842022e-19 2.5691686
0 3.2888937 -3.6893488e+19
-2.3220761 3.6893488e+19 2.5492523
-1.0842022e-19 3.2996976 3.6893488e+19
-1.9066607 3.6893488e+19 2.5512414
2 3.3097868 -1.0842022e-19
-2.3453691 1.0842022e-19 2.5533047
-0 3.2961905 -3.6893488e+19
-2.4760156 3.6893488e+19 2.5323272
0 3.2891021 -1.0842022e-19
-2.1839902 2 2.5163095
-1.0842022e-19 3.2784276 3.6893488e+19
-2.4474685 -2 2.4991639
-3.6893488e+19 3.2902577 1.0842022e-19
-2.1857255 3.6893488e+19 2.5009692
2 3.280632 2
-2.4510112 2 2.4712875
-1.0842022e-19 3.2958267 -3.6893488e+19
-2.1940851 -3.6893488e+19 2.4781728
0 3.2915368 -0
-2.1876452 -0 2.4383798
0 3.2547066 -1.0842022e-19
-2.4093456 1.0842022e-19 2.3701017
-1.0842022e-19 3.3048906 -3.6893488e+19
-2.2076917 0 2.4241345
-1.0842022e-19 3.258765 0
-2.4158683 -0 2.3467755
1.0842022e-19 3.269237 -1.0842022e-19
-2.1541696 -0 2.3442674
0 3.2566304 -0
-2.4124374 -2 2.3149605
1.0842022e-19 3.2694271 0
-2.1544549 0 2.3142478
-0 3.255861 1.0842022e-19
-2.4112012 -1.0842022e-19 2.2851853
1.0842022e-19 3.2718155 -2
-2.1580403 -3.6893488e+19 2.2865336
-0 3.2726066 -3.6893488e+19
-1.8924993 -3.6893488e+19 2.2718244
2 3.2651789 3.6893488e+19
-2.2956376 -3.6893488e+19 2.2501462
-2 3.2727339 -0
-1.892566 2 2.2328501
-1.0842022e-19 3.2547894 -0
-2.2840548 -0 2.1735365
-2 3.275142 -1.0842022e-19
-1.8938247 1.0842022e-19 2.1755567
-0 3.2569618 0
-2.2864769 1.0842022e-19 2.1195583
-3.6893488e+19 3.2731831 2
-1.8928008 3.6893488e+19 2.1114497
-0 3.3406014 2
-2.3797233 -3.6893488e+19 2.1635454
3.6893488e+19 3.2716939 -2
-1.8920223 3.6893488e+19 2.0487819
-3.6893488e+19 3.2558978 -2
-2.2852905 -0 2.0034165
0 3.2711747 3.6893488e+19
-1.8917508 -3.6893488e+19 1.9876466
-1.0842022e-19 3.2649691 -1.0842022e-19
-2.2954037 2 1.9530982
-1.0842022e-19 3.2725005 -3.6893488e+19
-1.8924439 2 1.9279835
-0 3.3670728 2
-2.4092352 3.6893488e+19 1.9492506
-2 3.2695177 2
-1.8908848 -1.0842022e-19 1.8567625
-1.0842022e-19 3.2598569 -3.6893488e+19
-2.2897043 1.0842022e-19 1.7908566
-1.0842022e-19 3.2525363 0
-2.405858 3.6893488e+19 1.7099741
1.0842022e-19 3.2606184 -3.6893488e+19
-2.1412315 -3.6893488e+19 1.573813
3.6893488e+19 3.2508004 -3.6893488e+19
-2.4030678 -1.0842022e-19 -1.2562757
0 3.2600713 -1.0842022e-19
-2.1404102 -3.6893488e+19 -1.6330971
0 3.2501094 0
-2.4019575 3.6893488e+19 -1.7406423
3.6893488e+19 3.2617276 -2
-2.1428967 0 -1.808889
3.6893488e+19 3.2466052 -1.0842022e-19
-2.3990536 -1.0842022e-19 -1.8558142
2 3.2666013 -0
-2.150213 0 -1.903201
-1.0842022e-19 3.2482839 -2
-2.4004025 2 -1.921667
0 3.2651105 2
-2.147975 3.6893488e+19 -1.9615819
-2 3.218173 -1.0842022e-19
-2.3762066 3.6893488e+19 -1.9638128
3.6893488e+19 3.2308514 -0
-2.110919 1.0842022e-19 -1.9956115
1.0842022e-19 3.2051423 3.6893488e+19
-2.3657355 -1.0842022e-19 -2.0089395
1.0842022e-19 2.9246495 -2
-1.9093673 1.0842022e-19 -1.8821925
3.6893488e+19 2.921967 1.0842022e-19
-1.9083607 1.0842022e-19 -1.904956
-2 2.8456581 3.6893488e+19
-1.6806855 -2 -1.8864754
3.6893488e+19 2.8136134 3.6893488e+19
-1.9248177 -2 -1.8828951
1.0842022e-19 2.7855091 -0
-1.6492438 2 -1.8786945
-3.6893488e+19 2.7599037 -1.0842022e-19
-1.8948783 -0 -1.8744254
-0 2.7262321 0
-1.6239403 1.0842022e-19 -1.8663241
0 2.6888297 3.6893488e+19
-1.869617 2 -1.8601972
-0 2.6631739 1.0842022e-19
-1.590978 -2 -1.8575162
-3.6893488e+19 2.6295438 -1.0842022e-19
-1.8365693 1.0842022e-19 -1.8497473
-1.0842022e-19 2.6070108 -3.6893488e+19
-1.5616199 2 -1.8459334
2 2.5881987 -0
-1.8135222 3.6893488e+19 -1.8442826
-3.6893488e+19 2.563843 -1.0842022e-19
-1.5390549 1.0842022e-19 -1.8368372
0 2.5447717 -2
-1.7893146 -2 -1.832723
-0 2.5284274 -1.0842022e-19
-1.520542 -3.6893488e+19 -1.8285834
-0 2.5111902 0
-1.7705954 -3.6893488e+19 -1.8237807
-2 2.5000083 -0
-1.5056866 1.0842022e-19 -1.8218753
-3.6893488e+19 2.4753776 -3.6893488e+19
-1.7574949 -0 -1.8193126
-2 2.4524512 0
-1.8067867 -3.6893488e+19 -1.8168298
-2 2.4103327 2
-1.7898642 -0 -1.8106097
2 2.3504229 3.6893488e+19
-1.7657934 -1.0842022e-19 -1.8034322
-3.6893488e+19 2.3093739 -0
-1.7486016 2 -1.8001813
-2 2.2760437 0
-1.7218187 -3.6893488e+19 -1.7971193
-2 2.2531092 -2
-1.3823075 -0 -1.7965393
2 2.2072792 1.0842022e-19
-1.3640331 0 -1.7931061
1.0842022e-19 2.168303 -2
-1.343659 1.0842022e-19 -1.790869
-0 2.1304321 3.6893488e+19
-1.3238629 -2 -1.7869098
1.0842022e-19 3.3015172 0
-2.4973571 2 2.7744024
-1.0842022e-19 3.3231797 2
-2.2561634 1.0842022e-19 2.7881868
-1.0842022e-19 3.3096225 2
-2.5053635 -2 2.7726681
-1.0842022e-19 3.2806056 -2
-2.1948352 -2 2.7340233
-0 3.2835257 0
-2.1994646 3.6893488e+19 2.722518
-3.6893488e+19 3.2824917 2
-2.1978254 -1.0842022e-19 2.7043636
-2 3.3072824 3.6893488e+19
-2.5034335 -3.6893488e+19 2.7372942
3.6893488e+19 3.321368 -3.6893488e+19
-2.2547271 0 2.7482488
2 3.3309836 1.0842022e-19
-2.5229812 -0 2.7528131
-3.6893488e+19 3.3217783 3.6893488e+19
-2.2550526 3.6893488e+19 2.7302713
-2 3.2779007 1.0842022e-19
-2.4584014 -1.0842022e-19 2.6584146
-0 3.3077462 -0
-2.3560703 3.6893488e+19 2.674443
-2 3.2997177 -0
-1.9318273 -1.0842022e-19 2.5853007
3.6893488e+19 3.3085387 2
-2.3569872 -3.6893488e+19 2.5872185
-1.0842022e-19 3.300591 -2
-1.9323571 1.0842022e-19 2.5692015
0 3.3093035 -0
-2.357872 1.0842022e-19 2.5704536
-0 3.2996993 -3.6893488e+19
-1.9318161 -2 2.5512569
3.6893488e+19 3.3098528 -2
-2.3585076 3.6893488e+19 2.5534258
1.0842022e-19 3.2952781 -2
-2.4870653 2 2.5315325
3.6893488e+19 3.3054838 3.6893488e+19
-2.2342739 -2 2.5314353
-0 3.2946498 -3.6893488e+19
-2.4860291 2 2.514194
-1.0842022e-19 3.3017802 2
-2.2284029 -3.6893488e+19 2.5109649
1.0842022e-19 3.299633 -2
-2.4942489 1.0842022e-19 2.5016658
-0 3.2946403 0
-2.2170842 1.0842022e-19 2.4763155
-3.6893488e+19 3.2989888 3.6893488e+19
-2.2239778 3.6893488e+19 2.4496424
-3.6893488e+19 3.3002257 -2
-2.4952269 -1.0842022e-19 2.4363599
0 3.2976849 0
-2.2219105 3.6893488e+19 2.4141626
-1.0842022e-19 3.2597337 -0
-2.4284346 0 2.3481667
1.0842022e-19 3.2968934 2
-2.2206557 1.0842022e-19 2.379679
-3.6893488e+19 3.2889826 -0
-2.4766812 3.6893488e+19 2.3547611
1.0842022e-19 3.2963977 3.6893488e+19
-2.2198699 0 2.3457489
-0 3.289269 0
-2.4771535 0 2.3225083
-2 3.2947967 2
-2.2173321 -1.0842022e-19 2.3107986
2 3.3001294 -0
-1.9320771 -0 2.2992821
-2 3.3394628 -2
-2.3927672 2 2.3202789
-1.0842022e-19 3.300736 -0
-1.932445 -3.6893488e+19 2.2662246
2 3.2553802 1.0842022e-19
-2.2954814 3.6893488e+19 2.1745975
3.6893488e+19 3.2999709 -2
-1.9319808 -2 2.2139802
-2 3.2553415 3.6893488e+19
-2.2954369 2 2.1172965
-0 3.2947576 2
-1.9288182 2 2.140013
-1.0842022e-19 3.3397126 2
-2.3930564 -3.6893488e+19 2.1625431
2 3.3445003 0
-1.9589952 -1.0842022e-19 2.1288645
-0 3.3361335 -2
-2.3889151 -3.6893488e+19 2.082936
0 3.343622 -3.6893488e+19
-1.9584622 -3.6893488e+19 2.0511503
2 3.3633223 2
-2.4203732 -1.0842022e-19 2.0285373
-0 3.3651502 -1.0842022e-19
-2.4224882 -1.0842022e-19 1.9482439
-1.0842022e-19 3.3429542 0
-1.9580573 -3.6893488e+19 1.8974626
-3.6893488e+19 3.3594964 2
-2.4159467 2 1.8544953
0 3.2541165 -3.6893488e+19
-2.4191687 2 1.7113442
-3.6893488e+19 3.3504591 1.0842022e-19
-2.277786 -1.0842022e-19 1.633691
-1.0842022e-19 3.2499437 1.0842022e-19
-2.4123323 -2 -1.2558769
-2 3.3495684 -2
-2.2770798 1.0842022e-19 -1.6789219
3.6893488e+19 3.3191898 0
-2.5132542 0 -1.778595
2 3.2658923 1.0842022e-19
-2.1715107 -3.6893488e+19 -1.8118386
3.6893488e+19 3.2499228 3.6893488e+19
-2.4123149 0 -1.8574183
-1.0842022e-19 3.2662399 0
-2.1720619 2 -1.9030126
-3.6893488e+19 3.2506914 2
-2.4135194 -1.0842022e-19 -1.9227808
2 3.2661846 -1.0842022e-19
-2.1719739 0 -1.9624661
0 3.2539418 -1.0842022e-19
-2.4188805 -1.0842022e-19 -1.9820102
-1.0842022e-19 3.2291372 -0
-2.1297805 -3.6893488e+19 -1.9947668
3.6893488e+19 3.2042441 1.0842022e-19
-2.3746412 -3.6893488e+19 -2.0084975
0 2.9260929 -1.0842022e-19
-1.9188678 0 -1.8826586
-0 2.9241586 2
-1.9181013 3.6893488e+19 -1.9057804
2 2.8435202 0
-1.7084006 1.0842022e-19 -1.8856376
2 2.8133061 0
-1.9312516 -1.0842022e-19 -1.8827896
0 2.784061 0
-1.6723289 1.0842022e-19 -1.8780477
-2 2.7610998 -3.6893488e+19
-1.9010496 -1.0842022e-19 -1.8753099
-1.0842022e-19 2.7274573 0
-1.6448276 2 -1.8669561
-1.0842022e-19 2.689121 -0
-1.8770186 3.6893488e+19 -1.8603972
1.0842022e-19 2.6635289 3.6893488e+19
-1.6254361 3.6893488e+19 -1.8577267
-3.6893488e+19 2.6293488 3.6893488e+19
-1.8444582 -0 -1.8496736
-3.6893488e+19 2.6071188 1.0842022e-19
-1.5916505 1.0842022e-19 -1.8460106
0 2.5868931 -0
-1.8198969 1.0842022e-19 -1.8434768
3.6893488e+19 2.566942 -0
-1.5672766 1.0842022e-19 -1.8389387
0 2.5414877 -2
-1.7936293 -3.6893488e+19 -1.8304471
3.6893488e+19 2.5284145 2
-1.5439035 -3.6893488e+19 -1.8285834
-3.6893488e+19 2.5113897 -3.6893488e+19
-1.7762173 0 -1.8239697
3.6893488e+19 2.4999938 -0
-1.5266635 1.0842022e-19 -1.8218753
-1.0842022e-19 2.4757853 -2
-1.7626239 0 -1.8195155
-0 2.4525778 0
-1.8116335 -1.0842022e-19 -1.8169347
1.0842022e-19 3.3015172 0
-2.4973571 2 2.7744024
-1.0842022e-19 3.3231797 2
-2.2561634 1.0842022e-19 2.7881868
-1.0842022e-19 3.3096225 2
-2.5053635 -2 2.7726681
-1.0842022e-19 3.2806056 -2
-2.1948352 -2 2.7340233
-0 3.2835257 0
-2.1994646 3.6893488e+19 2.722518
-3.6893488e+19 3.2824917 2
-2.1978254 -1.0842022e-19 2.7043636
-2 3.2876112 2
-2.4744191 -1.0842022e-19 2.7060993
-3.6893488e+19 3.2834625 -0
-2.1993644 -0 2.6894803
0 3.276288 -2
-2.4557409 0 2.6720707
3.6893488e+19 3.2848661 2
-2.2015893 0 2.6751778
-2 3.2779007 1.0842022e-19
-2.4584014 -1.0842022e-19 2.6584146
-0 3.3077462 -0
-2.3560703 3.6893488e+19 2.674443
-2 3.2997177 -0
-1.9318273 -1.0842022e-19 2.5853007
3.6893488e+19 3.3085387 2
-2.3569872 -3.6893488e+19 2.5872185
-1.0842022e-19 3.300591 -2
-1.9323571 1.0842022e-19 2.5692015
0 3.3093035 -0
-2.357872 1.0842022e-19 2.5704536
-0 3.2996993 -3.6893488e+19
-1.9318161 -2 2.5512569
3.6893488e+19 3.3098528 -2
-2.3585076 3.6893488e+19 2.5534258
1.0842022e-19 3.2952781 -2
-2.4870653 2 2.5315325
-3.6893488e+19 3.2886312 -0
-2.2075582 -3.6893488e+19 2.5159094
-0 3.2753103 0
-2.4541285 3.6893488e+19 2.4937069
0 3.2910435 -3.6893488e+19
-2.2113819 0 2.5016804
-0 3.2799542 2
-2.4617887 -1.0842022e-19 2.4702747
-0 3.2946403 0
-2.2170842 1.0842022e-19 2.4763155
3.6893488e+19 3.291966 -3.6893488e+19
-2.2128444 -1.0842022e-19 2.4390807
0 3.2546387 1.0842022e-19
-2.4200301 1.0842022e-19 2.3701017
0 3.2976849 0
-2.2219105 3.6893488e+19 2.4141626
-1.0842022e-19 3.2597337 -0
-2.4284346 0 2.3481667
1.0842022e-19 3.266994 3.6893488e+19
-2.1732571 -2 2.3414423
0 3.2587626 -3.6893488e+19
-2.4268324 0 2.3176622
-3.6893488e+19 3.2690971 2
-2.1765914 2 2.3139029
1.0842022e-19 3.2571418 -2
-2.424159 -2 2.2866893
-0 3.270473 3.6893488e+19
-2.1787724 -1.0842022e-19 2.2851546
-1.0842022e-19 3.2722042 -3.6893488e+19
-1.9151359 3.6893488e+19 2.2714357
-1.0842022e-19 3.2569151 -1.0842022e-19
-2.2972574 0 2.2347925
0 3.2723939 -3.6893488e+19
-1.9152509 -2 2.23227
2 3.2553802 1.0842022e-19
-2.2954814 3.6893488e+19 2.1745975
1.0842022e-19 3.2741776 -3.6893488e+19
-1.916333 1.0842022e-19 2.1740844
-2 3.2553415 3.6893488e+19
-2.2954369 2 2.1172965
-0 3.2738261 0
-1.9161199 -1.0842022e-19 2.1123171
0 3.2593553 0
-2.3000808 0 2.0649581
0 3.294492 1.0842022e-19
-1.9286571 -0 2.0738678
-3.6893488e+19 3.2563953 -0
-2.2966561 -0 2.0039566
3.6893488e+19 3.2951643 1.0842022e-19
-1.929065 3.6893488e+19 2.0086823
3.6893488e+19 3.2657611 3.6893488e+19
-2.3074925 -2 1.9537431
-0 3.3651502 -1.0842022e-19
-2.4224882 -1.0842022e-19 1.9482439
-3.6893488e+19 3.2693646 -0
-1.9134133 -1.0842022e-19 1.8566417
-1.0842022e-19 3.2587333 0
-2.2993612 -3.6893488e+19 1.7901701
0 3.2541165 -3.6893488e+19
-2.4191687 2 1.7113442
1.0842022e-19 3.2599769 -3.6893488e+19
-2.162133 -2 1.5733486
-1.0842022e-19 3.2499437 1.0842022e-19
-2.4123323 -2 -1.2558769
-0 3.261833 -2
-2.1650755 3.6893488e+19 -1.6340157
-1.0842022e-19 3.250571 -3.6893488e+19
-2.4133205 -1.0842022e-19 -1.7411509
2 3.2658923 1.0842022e-19
-2.1715107 -3.6893488e+19 -1.8118386
3.6893488e+19 3.2499228 3.6893488e+19
-2.4123149 0 -1.8574183
-1.0842022e-19 3.2662399 0
-2.1720619 2 -1.9030126
-3.6893488e+19 3.2506914 2
-2.4135194 -1.0842022e-19 -1.9227808
2 3.2661846 -1.0842022e-19
-2.1719739 0 -1.9624661
-1.0842022e-19 3.217551 -0
-2.3856161 1.0842022e-19 -1.9635857
-1.0842022e-19 3.2291372 -0
-2.1297805 -3.6893488e+19 -1.9947668
3.6893488e+19 3.2042441 1.0842022e-19
-2.3746412 -3.6893488e+19 -2.0084975
0 2.9260929 -1.0842022e-19
-1.9188678 0 -1.8826586
-0 2.9241586 2
-1.9181013 3.6893488e+19 -1.9057804
2 2.8435202 0
-1.7084006 1.0842022e-19 -1.8856376
2 2.8133061 0
-1.9312516 -1.0842022e-19 -1.8827896
0 2.784061 0
-1.6723289 1.0842022e-19 -1.8780477
-2 2.7610998 -3.6893488e+19
-1.9010496 -1.0842022e-19 -1.8753099
-1.0842022e-19 2.7274573 0
-1.6448276 2 -1.8669561
-1.0842022e-19 2.689121 -0
-1.8770186 3.6893488e+19 -1.8603972
1.0842022e-19 2.6635289 3.6893488e+19
-1.6254361 3.6893488e+19 -1.8577267
-3.6893488e+19 2.6293488 3.6893488e+19
-1.8444582 -0 -1.8496736
-3.6893488e+19 2.6071188 1.0842022e-19
-1.5916505 1.0842022e-19 -1.8460106
0 2.5868931 -0
-1.8198969 1.0842022e-19 -1.8434768
3.6893488e+19 2.566942 -0
-1.5672766 1.0842022e-19 -1.8389387
0 2.5414877 -2
-1.7936293 -3.6893488e+19 -1.8304471
3.6893488e+19 2.5284145 2
-1.5439035 -3.6893488e+19 -1.8285834
-3.6893488e+19 2.5113897 -3.6893488e+19
-1.7762173 0 -1.8239697
3.6893488e+19 2.4999938 -0
-1.5266635 1.0842022e-19 -1.8218753
-1.0842022e-19 2.4757853 -2
-1.7626239 0 -1.8195155
-0 2.4525778 0
-1.8116335 -1.0842022e-19 -1.8169347
-0 3.3216388 1.0842022e-19
-2.2684708 -1.0842022e-19 2.7962909
-1.0842022e-19 3.3017983 -2
-2.5053101 1.0842022e-19 2.7747335
-2 3.3240352 -3.6893488e+19
-2.2704709 -0 2.7889881
2 3.3097048 3.6893488e+19
-2.5119987 -1.0842022e-19 2.7728152
-2 3.2803392 -0
-2.2179964 0 2.7336287
-2 3.2828615 0
-2.2222071 -0 2.7214739
0 3.28403 3.6893488e+19
-2.2241573 0 2.7068985
3.6893488e+19 3.3047135 2
-2.5077763 2 2.7333527
-0 3.3201761 2
-2.2672498 -1.0842022e-19 2.7464671
1.0842022e-19 3.3318701 -1.0842022e-19
-2.5307496 3.6893488e+19 2.7535596
3.6893488e+19 3.322978 3.6893488e+19
-2.2695885 -2 2.732126
-0 3.3043392 0
-2.3649657 -0 2.6698251
-3.6893488e+19 3.3051314 -0
-2.3659158 0 2.6358619
-2 3.3403883 1.0842022e-19
-1.9850733 3.6893488e+19 2.6696155
2 3.3042269 -3.6893488e+19
-2.3648307 -0 2.6172981
-1.0842022e-19 3.3409774 -3.6893488e+19
-1.9854801 0 2.6508925
-2 3.3036594 3.6893488e+19
-2.3641505 -3.6893488e+19 2.5992625
3.6893488e+19 3.3384409 0
-1.9837284 0 2.6286414
0 3.3092048 -3.6893488e+19
-2.3708003 0 2.588012
-0 3.3005905 3.6893488e+19
-1.9575888 0 2.5692179
2 3.3077757 0
-2.3690867 -1.0842022e-19 2.5689323
-2 3.2999003 0
-1.9571122 -1.0842022e-19 2.551475
0 3.3099787 -0
-2.3717284 -3.6893488e+19 2.5536075
-2 3.2952125 -2
-2.4994776 -3.6893488e+19 2.5315471
3.6893488e+19 3.3062181 -2
-2.255599 1.0842022e-19 2.5321496
2 3.294214 2
-2.4977882 1.0842022e-19 2.5138755
2 3.3008182 -2
-2.5044808 -1.0842022e-19 2.5027304
2 3.3005626 -2
-2.2508783 -3.6893488e+19 2.485954
2 3.3013546 1.0842022e-19
-2.5049348 2 2.4722216
1.0842022e-19 3.2883539 -3.6893488e+19
-2.2313757 1.0842022e-19 2.4337065
2 3.299958 -0
-2.5037532 3.6893488e+19 2.43609
2 3.2629325 0
-2.1889377 0 2.3658614
1.0842022e-19 3.299861 1.0842022e-19
-2.5036712 0 2.4020662
-1.0842022e-19 3.2966981 -3.6893488e+19
-2.2453055 -2 2.3794799
-2 3.2938769 -0
-2.4972179 1.0842022e-19 2.3608682
0 3.2708044 -3.6893488e+19
-2.2020786 2 2.3159363
-2 3.2886162 2
-2.4883173 3.6893488e+19 2.3218687
2 3.2947264 3.6893488e+19
-2.2420139 -3.6893488e+19 2.3107657
0 3.3002539 2
-1.9573562 -0 2.299422
1.0842022e-19 3.2561812 1.0842022e-19
-2.3072143 -0 2.2335007
-2 3.3009539 -1.0842022e-19
-1.9578397 -1.0842022e-19 2.2664318
-3.6893488e+19 3.2995491 -2
-1.9568696 -3.6893488e+19 2.2133527
2 3.255199 3.6893488e+19
-2.3060362 -1.0842022e-19 2.117162
-3.6893488e+19 3.2942424 -2
-1.9532048 2 2.1393521
2 3.3393202 -0
-2.4069149 1.0842022e-19 2.1621461
-1.0842022e-19 3.3461368 2
-1.9890432 -0 2.1306846
0 3.2555673 0
-2.306478 -2 2.003185
-3.6893488e+19 3.3455086 1.0842022e-19
-1.9886094 2 2.0528202
-3.6893488e+19 3.3619902 -3.6893488e+19
-2.4341011 -1.0842022e-19 2.0275698
1.0842022e-19 3.345535 3.6893488e+19
-1.9886276 -3.6893488e+19 1.9757082
-3.6893488e+19 3.3733833 1.0842022e-19
-2.4477639 -3.6893488e+19 1.9527528
-0 3.3437638 -3.6893488e+19
-1.9874043 0 1.8978187
0 3.3611722 3.6893488e+19
-2.43312 0 1.8556095
-0 3.2546062 1.0842022e-19
-2.4307749 -3.6893488e+19 1.7118095
2 3.351614 0
-2.2934909 -3.6893488e+19 1.6341493
1.0842022e-19 3.359247 0
-2.5539095 3.6893488e+19 -1.3131412
3.6893488e+19 3.3528142 0
-2.2944927 1.0842022e-19 -1.6806073
-2 3.3186362 3.6893488e+19
-2.5195544 0 -1.7783706
1.0842022e-19 3.3488171 2
-2.2911563 1.0842022e-19 -1.8701415
-0 3.2504833 -1.0842022e-19
-2.423799 2 -1.8579674
-1.0842022e-19 3.2662044 -2
-2.1943996 2 -1.9030126
-2 3.2493815 -0
-2.4224582 1.0842022e-19 -1.9221382
1.0842022e-19 3.2657747 -0
-2.1936822 -3.6893488e+19 -1.9621671
3.6893488e+19 3.2149379 -0
-2.3933201 3.6893488e+19 -1.9624501
0 3.2288239 -3.6893488e+19
-2.1496723 3.6893488e+19 -1.9946394
-2 3.2028153 -3.6893488e+19
-2.3830647 -1.0842022e-19 -2.007755
-2 2.9244766 3.6893488e+19
-1.9271545 2 -1.8821731
1.0842022e-19 2.9243515 -0
-1.9271022 -3.6893488e+19 -1.905872
-0 2.8469968 0
-1.7396371 -2 -1.8870176
3.6893488e+19 2.8116274 3.6893488e+19
-1.9368528 1.0842022e-19 -1.8821037
-0 2.7867284 1.0842022e-19
-1.6980156 -1.0842022e-19 -1.879257
-2 2.7608006 3.6893488e+19
-1.906377 -1.0842022e-19 -1.8751905
-2 2.7301757 2
-1.6658055 1.0842022e-19 -1.8683467
2 2.6911507 1.0842022e-19
-1.8822577 1.0842022e-19 -1.8615309
-3.6893488e+19 2.6635067 0
-1.6427846 3.6893488e+19 -1.8577267
2 2.6294 -0
-1.8524895 1.0842022e-19 -1.8497473
-3.6893488e+19 2.6072245 -0
-1.6217004 -3.6893488e+19 -1.8460876
2 2.586828 2
-1.8269632 1.0842022e-19 -1.8434768
3.6893488e+19 2.5660534 -2
-1.5932674 0 -1.8383503
0 2.5421765 0
-1.80019 -2 -1.8309723
3.6893488e+19 2.5286486 2
-1.5674356 -2 -1.8287654
-1.0842022e-19 2.5114634 1.0842022e-19
-1.7817744 -0 -1.8240641
3.6893488e+19 2.5003567 -0
-1.5478971 0 -1.8221692
3.6893488e+19 2.4707332 -2
-1.7661265 2 -1.8174871
-2 2.4524539 -0
-1.8163795 -1.0842022e-19 -1.8169347
0 2.4083817 -3.6893488e+19
-1.7977377 -3.6893488e+19 -1.809827
-2 2.34974 -3.6893488e+19
-1.7729335 -0 -1.8031809
-3.6893488e+19 2.3072371 1.0842022e-19
-1.7549556 2 -1.7990655
2 2.2783513 2
-1.7354748 -3.6893488e+19 -1.7986519
-0 2.2516055 3.6893488e+19
-1.4237596 -1.0842022e-19 -1.7955371
1.0842022e-19 2.209692 -1.0842022e-19
-1.4087323 -0 -1.7940098
2 2.1672807 1.0842022e-19
-1.3940877 -2 -1.79048
3.6893488e+19 2.133328 -2
-1.3823637 2 -1.7881585
-0 3.3216388 1.0842022e-19
-2.2684708 -1.0842022e-19 2.7962909
-1.0842022e-19 3.3017983 -2
-2.5053101 1.0842022e-19 2.7747335
-2 3.3240352 -3.6893488e+19
-2.2704709 -0 2.7889881
2 3.3097048 3.6893488e+19
-2.5119987 -1.0842022e-19 2.7728152
-2 3.2803392 -0
-2.2179964 0 2.7336287
-2 3.2828615 0
-2.2222071 -0 2.7214739
0 3.28403 3.6893488e+19
-2.2241573 0 2.7068985
3.6893488e+19 3.3047135 2
-2.5077763 2 2.7333527
-0 3.3201761 2
-2.2672498 -1.0842022e-19 2.7464671
1.0842022e-19 3.3318701 -1.0842022e-19
-2.5307496 3.6893488e+19 2.7535596
-3.6893488e+19 3.285641 0
-2.2268472 2 2.6763914
-3.6893488e+19 3.2850981 -3.6893488e+19
-2.3418915 2 2.6432829
-3.6893488e+19 3.3051314 -0
-2.3659158 0 2.6358619
-2 3.3403883 1.0842022e-19
-1.9850733 3.6893488e+19 2.6696155
2 3.3042269 -3.6893488e+19
-2.3648307 -0 2.6172981
-1.0842022e-19 3.3409774 -3.6893488e+19
-1.9854801 0 2.6508925
3.6893488e+19 3.2814496 -3.6893488e+19
-2.3375161 -1.0842022e-19 2.5737171
0 3.2991295 -0
-1.9565797 -0 2.5846603
0 3.3092048 -3.6893488e+19
-2.3708003 0 2.588012
-0 3.3005905 3.6893488e+19
-1.9575888 0 2.5692179
2 3.3077757 0
-2.3690867 -1.0842022e-19 2.5689323
-2 3.2999003 0
-1.9571122 -1.0842022e-19 2.551475
0 3.3099787 -0
-2.3717284 -3.6893488e+19 2.5536075
-2 3.2952125 -2
-2.4994776 -3.6893488e+19 2.5315471
3.6893488e+19 3.3062181 -2
-2.255599 1.0842022e-19 2.5321496
3.6893488e+19 3.2746944 -2
-2.4647624 -3.6893488e+19 2.4927373
-3.6893488e+19 3.2798929 2
-2.4735582 -0 2.4703007
-2 3.288748 3.6893488e+19
-2.232034 1.0842022e-19 2.4668524
2 3.3013546 1.0842022e-19
-2.5049348 2 2.4722216
-3.6893488e+19 3.262192 -3.6893488e+19
-2.1877015 3.6893488e+19 2.3943572
3.6893488e+19 3.2544451 0
-2.4305022 2 2.3699217
2 3.2629325 0
-2.1889377 0 2.3658614
1.0842022e-19 3.2555902 1.0842022e-19
-2.4324396 -3.6893488e+19 2.342706
-0 3.2645941 2
-2.1917114 -1.0842022e-19 2.3384185
-0 3.264703 -0
-2.4478579 2 2.3250439
-2 3.2632408 3.6893488e+19
-2.1894524 0 2.3071125
-2 3.2886162 2
-2.4883173 3.6893488e+19 2.3218687
-1.0842022e-19 3.2715268 2
-2.203285 -2 2.2863038
-1.0842022e-19 3.2717063 -2
-1.9376413 -2 2.2709537
1.0842022e-19 3.2561812 1.0842022e-19
-2.3072143 -0 2.2335007
-3.6893488e+19 3.2717397 3.6893488e+19
-1.9376644 -0 2.2311378
-3.6893488e+19 3.275177 2
-1.9400382 1.0842022e-19 2.1756532
2 3.255199 3.6893488e+19
-2.3060362 -1.0842022e-19 2.117162
-3.6893488e+19 3.2942424 -2
-1.9532048 2 2.1393521
3.6893488e+19 3.2595699 -1.0842022e-19
-2.3112779 -0 2.0652795
-1.0842022e-19 3.3461368 2
-1.9890432 -0 2.1306846
0 3.2555673 0
-2.306478 -2 2.003185
-3.6893488e+19 3.3455086 1.0842022e-19
-1.9886094 2 2.0528202
1.0842022e-19 3.2574542 -0
-2.3087406 3.6893488e+19 1.9474127
1.0842022e-19 3.345535 3.6893488e+19
-1.9886276 -3.6893488e+19 1.9757082
1.0842022e-19 3.2565093 1.0842022e-19
-2.3076077 3.6893488e+19 1.8892884
0 3.2695379 -2
-1.9361436 -2 1.8568028
-1.0842022e-19 3.2596805 3.6893488e+19
-2.3114107 -3.6893488e+19 1.7908068
-0 3.2546062 1.0842022e-19
-2.4307749 -3.6893488e+19 1.7118095
-2 3.2614088 -2
-2.186394 2 1.5744679
1.0842022e-19 3.2500744 3.6893488e+19
-2.4231071 -1.0842022e-19 -1.2559664
3.6893488e+19 3.3528142 0
-2.2944927 1.0842022e-19 -1.6806073
-0 3.2502849 -3.6893488e+19
-2.4234633 0 -1.7409415
-3.6893488e+19 3.265451 -3.6893488e+19
-2.1931419 1.0842022e-19 -1.8115536
-0 3.2504833 -1.0842022e-19
-2.423799 2 -1.8579674
-1.0842022e-19 3.2662044 -2
-2.1943996 2 -1.9030126
-2 3.2493815 -0
-2.4224582 1.0842022e-19 -1.9221382
1.0842022e-19 3.2657747 -0
-2.1936822 -3.6893488e+19 -1.9621671
3.6893488e+19 3.2149379 -0
-2.3933201 3.6893488e+19 -1.9624501
0 3.2288239 -3.6893488e+19
-2.1496723 3.6893488e+19 -1.9946394
-2 3.2028153 -3.6893488e+19
-2.3830647 -1.0842022e-19 -2.007755
-2 2.9244766 3.6893488e+19
-1.9271545 2 -1.8821731
1.0842022e-19 2.9243515 -0
-1.9271022 -3.6893488e+19 -1.905872
-0 2.8469968 0
-1.7396371 -2 -1.8870176
3.6893488e+19 2.8116274 3.6893488e+19
-1.9368528 1.0842022e-19 -1.8821037
-0 2.7867284 1.0842022e-19
-1.6980156 -1.0842022e-19 -1.879257
-2 2.7608006 3.6893488e+19
-1.906377 -1.0842022e-19 -1.8751905
-2 2.7301757 2
-1.6658055 1.0842022e-19 -1.8683467
2 2.6911507 1.0842022e-19
-1.8822577 1.0842022e-19 -1.8615309
-3.6893488e+19 2.6635067 0
-1.6427846 3.6893488e+19 -1.8577267
2 2.6294 -0
-1.8524895 1.0842022e-19 -1.8497473
-3.6893488e+19 2.6072245 -0
-1.6217004 -3.6893488e+19 -1.8460876
2 2.586828 2
-1.8269632 1.0842022e-19 -1.8434768
3.6893488e+19 2.5660534 -2
-1.5932674 0 -1.8383503
0 2.5421765 0
-1.80019 -2 -1.8309723
3.6893488e+19 2.5286486 2
-1.5674356 -2 -1.8287654
-1.0842022e-19 2.5114634 1.0842022e-19
-1.7817744 -0 -1.8240641
3.6893488e+19 2.5003567 -0
-1.5478971 0 -1.8221692
3.6893488e+19 2.4707332 -2
-1.7661265 2 -1.8174871
-2 2.4524539 -0
-1.8163795 -1.0842022e-19 -1.8169347
0 2.4083817 -3.6893488e+19
-1.7977377 -3.6893488e+19 -1.809827
-2 2.34974 -3.6893488e+19
-1.7729335 -0 -1.8031809
-3.6893488e+19 2.3072371 1.0842022e-19
-1.7549556 2 -1.7990655
2 2.2783513 2
-1.7354748 -3.6893488e+19 -1.7986519
-0 2.2516055 3.6893488e+19
-1.4237596 -1.0842022e-19 -1.7955371
1.0842022e-19 2.209692 -1.0842022e-19
-1.4087323 -0 -1.7940098
2 2.1672807 1.0842022e-19
-1.3940877 -2 -1.79048
3.6893488e+19 2.133328 -2
-1.3823637 2 -1.7881585
2 3.3214421 1.0842022e-19
-2.2817111 0 2.7961509
2 3.3019872 0
-2.5118206 -1.0842022e-19 2.7749817
0 3.3239751 -2
-2.2839308 3.6893488e+19 2.7889745
-2 3.3083439 2
-2.5173318 -3.6893488e+19 2.771692
0 3.3151054 0
-2.2761576 -3.6893488e+19 2.7718403
-0 3.2830327 0
-2.4907744 0 2.7321677
0 3.2826238 -2
-2.2453814 1.0842022e-19 2.721143
-2 3.3017218 -0
-2.5115905 1.0842022e-19 2.7463465
-2 3.2836232 -2
-2.2471335 0 2.7063079
-3.6893488e+19 3.3036532 1.0842022e-19
-2.5132651 0 2.7318051
1.0842022e-19 3.3196416 -0
-2.280133 3.6893488e+19 2.745707
1.0842022e-19 3.3234854 -2
-2.2835016 3.6893488e+19 2.7329504
-1.0842022e-19 3.3459973 -2
-2.0177367 -1.0842022e-19 2.7360363
-3.6893488e+19 3.3249412 -0
-2.4032621 -3.6893488e+19 2.6796405
1.0842022e-19 3.3049788 -0
-2.3784881 1.0842022e-19 2.635745
-2 3.3485041 -1.0842022e-19
-2.0196764 3.6893488e+19 2.6796458
3.6893488e+19 3.3041666 -1.0842022e-19
-2.37748 -0 2.6172981
1.0842022e-19 3.3415136 1.0842022e-19
-2.0142672 -3.6893488e+19 2.6515465
1.0842022e-19 3.3037074 1.0842022e-19
-2.3769102 -2 2.5993867
1.0842022e-19 3.2958939 2
-1.9789661 2 2.5810602
-1.0842022e-19 3.3092823 -3.6893488e+19
-2.3838289 0 2.5881639
-3.6893488e+19 3.3079772 -1.0842022e-19
-2.3822093 2 2.5692046
0 3.2999601 -2
-1.9821125 2 2.551553
-2 3.2955778 1.0842022e-19
-2.5062637 0 2.5319741
-2 3.30585 -3.6893488e+19
-2.2680461 1.0842022e-19 2.5318496
-3.6893488e+19 3.2944562 -3.6893488e+19
-2.5052912 0 2.5141664
1.0842022e-19 3.2911038 1.0842022e-19
-2.2551227 3.6893488e+19 2.501801
-3.6893488e+19 3.2955432 -0
-2.5062337 -0 2.4967358
-1.0842022e-19 3.3030355 -3.6893488e+19
-2.2655795 -0 2.4900205
-3.6893488e+19 3.2950554 -1.0842022e-19
-2.5058107 3.6893488e+19 2.4624796
2 3.2618606 3.6893488e+19
-2.208988 2 2.3939133
2 3.3000138 -3.6893488e+19
-2.5101094 -0 2.4362924
0 3.2966402 -3.6893488e+19
-2.2599745 3.6893488e+19 2.4128215
-1.0842022e-19 3.3003657 -3.6893488e+19
-2.5104146 2 2.4028552
-0 3.2973101 0
-2.2605619 2 2.3803155
0 3.2937489 -2
-2.5046778 -2 2.360811
-1.0842022e-19 3.2990243 -0
-2.2620642 -1.0842022e-19 2.3489079
0 3.2882881 2
-2.499887 1.0842022e-19 2.3215921
-2 3.2951834 -2
-2.258698 3.6893488e+19 2.3112912
0 3.3035879 -0
-1.9849198 2 2.3027649
-1.0842022e-19 3.2547152 -2
-2.3161094 -1.0842022e-19 2.2308292
-1.0842022e-19 3.3001406 3.6893488e+19
-1.9822524 0 2.2657278
-2 3.2546422 2
-2.3160191 -0 2.1735365
-2 3.2990165 -0
-1.9813825 1.0842022e-19 2.2125564
1.0842022e-19 3.3377857 -3.6893488e+19
-2.4192023 3.6893488e+19 2.2360783
-3.6893488e+19 3.3387547 3.6893488e+19
-2.4204051 -3.6893488e+19 2.1615407
1.0842022e-19 3.3451953 2
-2.0171161 -0 2.1296716
-2 3.2558746 1.0842022e-19
-2.3175485 2 2.00354
1.0842022e-19 3.3444889 -0
-2.0165694 2 2.0519443
-3.6893488e+19 3.2565153 0
-2.3183436 3.6893488e+19 1.9467319
1.0842022e-19 3.3456395 -3.6893488e+19
-2.0174596 -1.0842022e-19 1.9757899
-0 3.257097 -0
-2.3190653 0 1.8896353
3.6893488e+19 3.268163 -0
-1.9575076 1.0842022e-19 1.8556342
-1.0842022e-19 3.2574949 -3.6893488e+19
-2.3195591 -3.6893488e+19 1.7894439
0 3.2541938 1.0842022e-19
-2.440768 2 1.7115252
-3.6893488e+19 3.2623866 2
-2.2099102 3.6893488e+19 1.5752418
2 3.3608868 3.6893488e+19
-2.562886 -2 -1.3140526
-0 3.2620113 -2
-2.2092521 -0 -1.6341435
3.6893488e+19 3.2504172 -0
-2.4342196 0 -1.741136
-1.0842022e-19 3.2653205 -1.0842022e-19
-2.2150526 2 -1.8114878
-1.0842022e-19 3.2481246 1.0842022e-19
-2.4318702 1.0842022e-19 -1.8567102
-2 3.2666197 0
-2.21733 -2 -1.9032726
0 3.2495534 -0
-2.4331088 -0 -1.9222453
-2 3.2666891 -3.6893488e+19
-2.2174513 0 -1.9629269
1.0842022e-19 3.2118273 1.0842022e-19
-2.4004006 3.6893488e+19 -1.9610875
1.0842022e-19 3.2292252 1.0842022e-19
-2.1699917 -2 -1.9948784
1.0842022e-19 3.202379 1.0842022e-19
-2.3922091 1.0842022e-19 -2.0075784
-1.0842022e-19 2.8663611 2
-1.910539 -3.6893488e+19 -1.8531859
2 2.8668141 0
-1.9107375 -2 -1.8847562
1.0842022e-19 2.8431695 2
-1.7577742 -0 -1.8855144
1.0842022e-19 2.8126857 -3.6893488e+19
-1.9440262 -3.6893488e+19 -1.8825785
-2 2.7844031 1.0842022e-19
-1.7200745 -1.0842022e-19 -1.8782164
-2 2.7603135 -0
-1.9115286 0 -1.874963
-1.0842022e-19 2.7308955 -0
-1.6860613 3.6893488e+19 -1.8687259
2 2.6923068 1.0842022e-19
-1.8872291 0 -1.8621978
-0 2.6652274 -3.6893488e+19
-1.6606538 2 -1.858709
0 2.6326807 -0
-1.8624592 0 -1.8517356
0 2.6059575 1.0842022e-19
-1.637722 1.0842022e-19 -1.8453165
2 2.5865128 1.0842022e-19
-1.8338114 0 -1.8433156
3.6893488e+19 2.5636687 -2
-1.6177205 -3.6893488e+19 -1.836753
3.6893488e+19 2.5423667 -1.0842022e-19
-1.8064181 2 -1.8311474
-3.6893488e+19 2.5286319 -0
-1.5906087 -2 -1.8287654
-1.0842022e-19 2.5115356 0
-1.787287 0 -1.8241587
0 2.5013368 0
-1.5694873 3.6893488e+19 -1.8229527
0 2.470144 1.0842022e-19
-1.7708658 -3.6893488e+19 -1.8172842
-2 2.450845 3.6893488e+19
-1.8204396 -2 -1.8163054
2 3.3214421 1.0842022e-19
-2.2817111 0 2.7961509
2 3.3019872 0
-2.5118206 -1.0842022e-19 2.7749817
-1.0842022e-19 3.3138936 -3.6893488e+19
-2.2750955 2 2.7799823
-2 3.3083439 2
-2.5173318 -3.6893488e+19 2.771692
0 3.3151054 0
-2.2761576 -3.6893488e+19 2.7718403
-0 3.2830327 0
-2.4907744 0 2.7321677
0 3.2826238 -2
-2.2453814 1.0842022e-19 2.721143
0 3.2849047 -0
-2.4940202 -3.6893488e+19 2.7186811
-2 3.2836232 -2
-2.2471335 0 2.7063079
-3.6893488e+19 3.3036532 1.0842022e-19
-2.5132651 0 2.7318051
2 3.2801535 -0
-2.2410517 -2 2.684468
0 3.2852488 0
-2.2499826 3.6893488e+19 2.6758647
-1.0842022e-19 3.3459973 -2
-2.0177367 -1.0842022e-19 2.7360363
-3.6893488e+19 3.3249412 -0
-2.4032621 -3.6893488e+19 2.6796405
1.0842022e-19 3.3049788 -0
-2.3784881 1.0842022e-19 2.635745
-3.6893488e+19 3.340368 -0
-2.0133808 3.6893488e+19 2.6696155
3.6893488e+19 3.3041666 -1.0842022e-19
-2.37748 -0 2.6172981
1.0842022e-19 3.3415136 1.0842022e-19
-2.0142672 -3.6893488e+19 2.6515465
-3.6893488e+19 3.2819488 1.0842022e-19
-2.3499074 2 2.5743558
1.0842022e-19 3.2958939 2
-1.9789661 2 2.5810602
-1.0842022e-19 3.3092823 -3.6893488e+19
-2.3838289 0 2.5881639
-3.6893488e+19 3.3079772 -1.0842022e-19
-2.3822093 2 2.5692046
0 3.2999601 -2
-1.9821125 2 2.551553
-1.0842022e-19 3.2760484 0
-2.4786639 -3.6893488e+19 2.5133433
-2 3.30585 -3.6893488e+19
-2.2680461 1.0842022e-19 2.5318496
-3.6893488e+19 3.2765632 0
-2.4795566 2 2.4962277
1.0842022e-19 3.2911038 1.0842022e-19
-2.2551227 3.6893488e+19 2.501801
3.6893488e+19 3.2798924 -0
-2.4853292 1.0842022e-19 2.4704306
2 3.2853396 -1.0842022e-19
-2.2500708 0 2.4614055
-2 3.2765951 1.0842022e-19
-2.4796119 0 2.4335444
2 3.2618606 3.6893488e+19
-2.208988 2 2.3939133
-3.6893488e+19 3.2540338 0
-2.440491 0 2.3694267
-0 3.2631757 -0
-2.2112932 0 2.3662508
-1.0842022e-19 3.2553797 1.0842022e-19
-2.4428246 1.0842022e-19 2.3425193
-0 3.2625511 0
-2.2101984 -0 2.3358521
-2 3.2569468 -2
-2.4455419 -3.6893488e+19 2.3156073
3.6893488e+19 3.2630954 -0
-2.2111523 0 2.3069854
0 3.2882881 2
-2.499887 1.0842022e-19 2.3215921
0 3.2720964 0
-2.2269292 2 2.2869442
3.6893488e+19 3.2719865 -3.6893488e+19
-1.9604663 -3.6893488e+19 2.2712491
-1.0842022e-19 3.2547152 -2
-2.3161094 -1.0842022e-19 2.2308292
1.0842022e-19 3.2733302 -2
-1.961506 3.6893488e+19 2.2339823
-2 3.2546422 2
-2.3160191 -0 2.1735365
2 3.2750204 1.0842022e-19
-1.962814 0 2.175436
-2 3.2545569 -3.6893488e+19
-2.315913 2 2.1163111
3.6893488e+19 3.2588646 3.6893488e+19
-2.321259 0 2.0644853
-2 3.2719941 -3.6893488e+19
-1.9604722 -2 2.0491595
-2 3.2558746 1.0842022e-19
-2.3175485 2 2.00354
-1.0842022e-19 3.2694607 -1.0842022e-19
-1.9585118 -0 1.9861822
-3.6893488e+19 3.2565153 0
-2.3183436 3.6893488e+19 1.9467319
1.0842022e-19 3.3456395 -3.6893488e+19
-2.0174596 -1.0842022e-19 1.9757899
-0 3.257097 -0
-2.3190653 0 1.8896353
3.6893488e+19 3.268163 -0
-1.9575076 1.0842022e-19 1.8556342
-1.0842022e-19 3.2574949 -3.6893488e+19
-2.3195591 -3.6893488e+19 1.7894439
0 3.2541938 1.0842022e-19
-2.440768 2 1.7115252
-3.6893488e+19 3.2623866 2
-2.2099102 3.6893488e+19 1.5752418
-1.0842022e-19 3.2513251 -3.6893488e+19
-2.4357939 0 -1.2566582
-0 3.2620113 -2
-2.2092521 -0 -1.6341435
3.6893488e+19 3.2504172 -0
-2.4342196 0 -1.741136
-1.0842022e-19 3.2653205 -1.0842022e-19
-2.2150526 2 -1.8114878
-1.0842022e-19 3.2481246 1.0842022e-19
-2.4318702 1.0842022e-19 -1.8567102
-2 3.2666197 0
-2.21733 -2 -1.9032726
0 3.2495534 -0
-2.4331088 -0 -1.9222453
-2 3.2666891 -3.6893488e+19
-2.2174513 0 -1.9629269
1.0842022e-19 3.2118273 1.0842022e-19
-2.4004006 3.6893488e+19 -1.9610875
1.0842022e-19 3.2292252 1.0842022e-19
-2.1699917 -2 -1.9948784
1.0842022e-19 3.202379 1.0842022e-19
-2.3922091 1.0842022e-19 -2.0075784
-1.0842022e-19 2.8663611 2
-1.910539 -3.6893488e+19 -1.8531859
2 2.8668141 0
-1.9107375 -2 -1.8847562
1.0842022e-19 2.8431695 2
-1.7577742 -0 -1.8855144
1.0842022e-19 2.8126857 -3.6893488e+19
-1.9440262 -3.6893488e+19 -1.8825785
-2 2.7844031 1.0842022e-19
-1.7200745 -1.0842022e-19 -1.8782164
-2 2.7603135 -0
-1.9115286 0 -1.874963
-1.0842022e-19 2.7308955 -0
-1.6860613 3.6893488e+19 -1.8687259
2 2.6923068 1.0842022e-19
-1.8872291 0 -1.8621978
-0 2.6652274 -3.6893488e+19
-1.6606538 2 -1.858709
0 2.6326807 -0
-1.8624592 0 -1.8517356
0 2.6059575 1.0842022e-19
-1.637722 1.0842022e-19 -1.8453165
2 2.5865128 1.0842022e-19
-1.8338114 0 -1.8433156
3.6893488e+19 2.5636687 -2
-1.6177205 -3.6893488e+19 -1.836753
3.6893488e+19 2.5423667 -1.0842022e-19
-1.8064181 2 -1.8311474
-3.6893488e+19 2.5286319 -0
-1.5906087 -2 -1.8287654
-1.0842022e-19 2.5115356 0
-1.787287 0 -1.8241587
0 2.5013368 0
-1.5694873 3.6893488e+19 -1.8229527
0 2.470144 1.0842022e-19
-1.7708658 -3.6893488e+19 -1.8172842
-2 2.450845 3.6893488e+19
-1.8204396 -2 -1.8163054
-2 3.3202698 -1.0842022e-19
-2.2941554 1.0842022e-19 2.7951143
-3.6893488e+19 3.302294 1.0842022e-19
-2.5185008 0 2.7753406
3.6893488e+19 3.313817 1.0842022e-19
-2.2882288 2 2.7799551
0 3.3083313 -1.0842022e-19
-2.5238628 2 2.771759
2 3.2845466 0
-2.5027373 -2 2.7348859
-3.6893488e+19 3.2793291 -0
-2.2565529 -2 2.7157192
-3.6893488e+19 3.3016503 -3.6893488e+19
-2.5179288 1.0842022e-19 2.7463715
1.0842022e-19 3.2811346 3.6893488e+19
-2.2582111 -2 2.7023702
-2 3.3021033 3.6893488e+19
-2.5183313 -3.6893488e+19 2.7294834
-3.6893488e+19 3.3186142 0
-2.292635 -2 2.7441866
1.0842022e-19 3.2603722 -0
-2.4625304 -1.0842022e-19 2.6480908
0 3.3235452 -2
-2.2971635 -2 2.7331107
-3.6893488e+19 3.3344295 1.0842022e-19
-2.3071606 3.6893488e+19 2.730056
2 3.3459897 -3.6893488e+19
-2.0467653 3.6893488e+19 2.736058
2 3.3430161 2
-2.044215 -0 2.7121763
-0 3.3248894 0
-2.4169059 1.0842022e-19 2.679661
0 3.3387072 3.6893488e+19
-2.040519 -2 2.6869631
-3.6893488e+19 3.3049772 1.0842022e-19
-2.3913541 -2 2.6358228
2 3.3404844 1.0842022e-19
-2.0420434 -3.6893488e+19 2.6697867
0 3.3041654 -1.0842022e-19
-2.390312 -1.0842022e-19 2.6173725
-3.6893488e+19 3.341877 -0
-2.0432379 2 2.6520009
0 3.2850821 2
-2.365824 3.6893488e+19 2.578028
-0 3.2947912 -1.0842022e-19
-2.002851 3.6893488e+19 2.5798485
2 3.2942972 2
-2.0024273 -0 2.5625739
1.0842022e-19 3.3021562 -0
-2.0091681 -1.0842022e-19 2.553781
-0 3.2950919 -1.0842022e-19
-2.5121036 1.0842022e-19 2.5315914
3.6893488e+19 3.2979481 2
-2.2736537 -2 2.5246079
-0 3.2955601 1.0842022e-19
-2.5125196 2 2.5152328
-1.0842022e-19 3.2907352 3.6893488e+19
-2.267029 -1.0842022e-19 2.5015192
-0 3.2943771 -3.6893488e+19
-2.5114686 2 2.4949181
3.6893488e+19 3.3030841 -2
-2.2783709 2 2.4901712
-1.0842022e-19 3.2950015 2
-2.5120234 -0 2.462528
-0 3.2542083 3.6893488e+19
-2.451581 0 2.3697867
2 3.2972026 1.0842022e-19
-2.272969 -1.0842022e-19 2.4136651
-2 3.3005733 -2
-2.5169723 -2 2.4032495
-0 3.2636321 0
-2.2342718 3.6893488e+19 2.3372846
2 3.2935405 -3.6893488e+19
-2.5107255 3.6893488e+19 2.3606589
-3.6893488e+19 3.2980936 0
-2.2737875 -3.6893488e+19 2.347873
-1.0842022e-19 3.2933331 -0
-2.5105414 1.0842022e-19 2.3273141
-2 3.2972414 2
-2.2730048 3.6893488e+19 2.3135076
-3.6893488e+19 3.3026788 2
-2.0096166 0 2.3018787
2 3.3406904 -3.6893488e+19
-2.4371817 1.0842022e-19 2.3216293
0 3.3001051 2
-2.0074089 0 2.2657139
1.0842022e-19 3.2538743 -2
-2.3257773 1.0842022e-19 2.1723464
2 3.275002 2
-1.9858773 0 2.175436
-1.0842022e-19 3.2599783 -0
-2.3336103 0 2.0659037
-0 3.3456404 -1.0842022e-19
-2.0464659 0 2.1301868
1.0842022e-19 3.2586863 1.0842022e-19
-2.3319523 3.6893488e+19 2.0063789
2 3.3462458 1.0842022e-19
-2.0469851 3.6893488e+19 2.0535045
-0 3.2576768 3.6893488e+19
-2.330657 -2 1.9476635
-1.0842022e-19 3.3454444 -0
-2.0462978 1.0842022e-19 1.9756777
-2 3.2561717 -2
-2.3287256 0 1.8891616
2 3.3576517 -3.6893488e+19
-2.0567682 -3.6893488e+19 1.9038098
0 3.2573795 -1.0842022e-19
-2.3302753 1.0842022e-19 1.7894042
2 3.253515 1.0842022e-19
-2.4503493 3.6893488e+19 1.7110211
0 3.2604139 2
-2.2283599 -0 1.5737654
-2 3.2520759 -0
-2.447793 0 -1.2570895
-2 3.2607248 0
-2.2289314 1.0842022e-19 -1.6335045
-2 3.2511992 -2
-2.4462357 1.0842022e-19 -1.7419586
0 3.2569366 -2
-2.2219722 -2 -1.8056213
-1.0842022e-19 3.3234627 3.6893488e+19
-2.537303 2 -1.9005069
-3.6893488e+19 3.2750652 -1.0842022e-19
-2.2526367 1.0842022e-19 -1.908151
2 3.317538 -3.6893488e+19
-2.5320404 0 -1.9690363
3.6893488e+19 3.2751334 -3.6893488e+19
-2.2526991 2 -1.9697011
1.0842022e-19 3.2641182 -3.6893488e+19
-2.2351644 1.0842022e-19 -2.0199623
1.0842022e-19 3.2010074 -1.0842022e-19
-2.4005892 1.0842022e-19 -2.0068712
-1.0842022e-19 2.8660579 1.0842022e-19
-1.918105 -1.0842022e-19 -1.8530306
2 2.8659499 -1.0842022e-19
-1.9180553 2 -1.8844585
-1.0842022e-19 2.8464537 3.6893488e+19
-1.7735817 -3.6893488e+19 -1.8868204
2 2.8124967 -3.6893488e+19
-1.9505014 2 -1.8825258
1.0842022e-19 2.7843843 -2
-1.7439246 -1.0842022e-19 -1.8782164
1.0842022e-19 2.7594514 -3.6893488e+19
-1.916467 -0 -1.8741865
0 2.7245035 1.0842022e-19
-1.7034978 2 -1.8655024
2 2.6907234 3.6893488e+19
-1.8913866 2 -1.8613975
0 2.6633301 -3.6893488e+19
-1.6772625 -3.6893488e+19 -1.8576565
0 2.6330986 3.6893488e+19
-1.8708005 -3.6893488e+19 -1.85203
2 2.6059337 1.0842022e-19
-1.6526474 1.0842022e-19 -1.8453165
-0 2.5864432 -3.6893488e+19
-1.8408659 0 -1.8433156
1.0842022e-19 2.5640213 2
-1.6346726 3.6893488e+19 -1.8370053
2 2.5437958 -1.0842022e-19
-1.8135028 -3.6893488e+19 -1.8321978
-1.0842022e-19 2.5288622 0
-1.6141884 -2 -1.8289474
-3.6893488e+19 2.5114815 -1.0842022e-19
-1.7927697 0 -1.8241587
0 2.5005739 -2
-1.5899245 3.6893488e+19 -1.822365
1.0842022e-19 2.4702947 0
-1.7758733 -0 -1.8173857
-1.0842022e-19 2.4504683 -3.6893488e+19
-1.8250552 -3.6893488e+19 -1.8162005
3.6893488e+19 2.4093852 -2
-1.80681 -1.0842022e-19 -1.8103861
-0 2.3512678 -3.6893488e+19
-1.7809998 1.0842022e-19 -1.8040606
1.0842022e-19 2.3070636 0
-1.7613685 2 -1.7990655
-3.6893488e+19 2.2784393 2
-1.7473128 -1.0842022e-19 -1.7988052
-3.6893488e+19 2.2513273 0
-1.4655709 -0 -1.7953701
1.0842022e-19 2.2116003 -3.6893488e+19
-1.447964 -3.6893488e+19 -1.7947328
-3.6893488e+19 2.169189 -0
-1.4297754 -0 -1.7912579
3.6893488e+19 2.1342573 -1.0842022e-19
-1.4147943 -2 -1.7885747
-2 3.3202698 -1.0842022e-19
-2.2941554 1.0842022e-19 2.7951143
-3.6893488e+19 3.302294 1.0842022e-19
-2.5185008 0 2.7753406
3.6893488e+19 3.313817 1.0842022e-19
-2.2882288 2 2.7799551
0 3.3083313 -1.0842022e-19
-2.5238628 2 2.771759
2 3.2845466 0
-2.5027373 -2 2.7348859
-3.6893488e+19 3.2793291 -0
-2.2565529 -2 2.7157192
-3.6893488e+19 3.2850356 2
-2.5031717 0 2.7190318
1.0842022e-19 3.2811346 3.6893488e+19
-2.2582111 -2 2.7023702
-2 3.3021033 3.6893488e+19
-2.5183313 -3.6893488e+19 2.7294834
-3.6893488e+19 3.2792852 3.6893488e+19
-2.2565126 -0 2.6831853
1.0842022e-19 3.2603722 -0
-2.4625304 -1.0842022e-19 2.6480908
0 3.3235452 -2
-2.2971635 -2 2.7331107
1.0842022e-19 3.2907143 1.0842022e-19
-2.2670097 0 2.667305
2 3.3459897 -3.6893488e+19
-2.0467653 3.6893488e+19 2.736058
2 3.3430161 2
-2.044215 -0 2.7121763
-0 3.3248894 0
-2.4169059 1.0842022e-19 2.679661
0 3.3387072 3.6893488e+19
-2.040519 -2 2.6869631
-3.6893488e+19 3.3049772 1.0842022e-19
-2.3913541 -2 2.6358228
2 3.3404844 1.0842022e-19
-2.0420434 -3.6893488e+19 2.6697867
0 3.3041654 -1.0842022e-19
-2.390312 -1.0842022e-19 2.6173725
-3.6893488e+19 3.341877 -0
-2.0432379 2 2.6520009
0 3.2850821 2
-2.365824 3.6893488e+19 2.578028
-0 3.2947912 -1.0842022e-19
-2.002851 3.6893488e+19 2.5798485
2 3.2942972 2
-2.0024273 -0 2.5625739
1.0842022e-19 3.3021562 -0
-2.0091681 -1.0842022e-19 2.553781
-2 3.2771873 1.0842022e-19
-2.4924016 1.0842022e-19 2.5145061
3.6893488e+19 3.2979481 2
-2.2736537 -2 2.5246079
0 3.2771475 -3.6893488e+19
-2.4923303 1.0842022e-19 2.4974189
-1.0842022e-19 3.2907352 3.6893488e+19
-2.267029 -1.0842022e-19 2.5015192
2 3.2810631 -1.0842022e-19
-2.4992862 3.6893488e+19 2.4725339
-3.6893488e+19 3.2836368 2
-2.2605095 1.0842022e-19 2.4587197
1.0842022e-19 3.2755265 2
-2.4894509 -1.0842022e-19 2.4319932
-0 3.2542083 3.6893488e+19
-2.451581 0 2.3697867
-0 3.262733 -3.6893488e+19
-2.23262 1.0842022e-19 2.3656883
-0 3.2553372 -2
-2.4535863 2 2.3425608
-0 3.2636321 0
-2.2342718 3.6893488e+19 2.3372846
-0 3.256424 -2
-2.4555168 -3.6893488e+19 2.3150556
2 3.2630568 0
-2.2332149 0 2.3069854
-0 3.2566161 3.6893488e+19
-2.4558582 -1.0842022e-19 2.2863436
3.6893488e+19 3.2648494 0
-2.2365079 2 2.2793429
-3.6893488e+19 3.3026788 2
-2.0096166 0 2.3018787
-0 3.2565439 -0
-2.3292031 2 2.2343814
3.6893488e+19 3.273421 2
-1.9845213 2 2.2341757
1.0842022e-19 3.2538743 -2
-2.3257773 1.0842022e-19 2.1723464
2 3.275002 2
-1.9858773 0 2.175436
-1.0842022e-19 3.2599783 -0
-2.3336103 0 2.0659037
2 3.2682765 -3.6893488e+19
-1.9801085 -1.0842022e-19 2.0450902
1.0842022e-19 3.2586863 1.0842022e-19
-2.3319523 3.6893488e+19 2.0063789
0 3.2689588 2
-1.9806938 -1.0842022e-19 1.9857579
-0 3.2576768 3.6893488e+19
-2.330657 -2 1.9476635
-1.0842022e-19 3.3454444 -0
-2.0462978 1.0842022e-19 1.9756777
-2 3.2561717 -2
-2.3287256 0 1.8891616
2 3.2732365 3.6893488e+19
-1.984363 -1.0842022e-19 1.8600134
0 3.2573795 -1.0842022e-19
-2.3302753 1.0842022e-19 1.7894042
2 3.253515 1.0842022e-19
-2.4503493 3.6893488e+19 1.7110211
0 3.2604139 2
-2.2283599 -0 1.5737654
-2 3.2520759 -0
-2.447793 0 -1.2570895
-2 3.2607248 0
-2.2289314 1.0842022e-19 -1.6335045
-2 3.2511992 -2
-2.4462357 1.0842022e-19 -1.7419586
0 3.2569366 -2
-2.2219722 -2 -1.8056213
2 3.2491927 -1.0842022e-19
-2.443388 -2 -1.8572737
3.6893488e+19 3.2662063 0
-2.2390003 2 -1.9030575
-3.6893488e+19 3.2498443 -2
-2.4439669 2 -1.9223952
0 3.2656832 0
-2.2380393 -0 -1.9621547
2 3.2286246 0
-2.1895981 0 -1.9946076
1.0842022e-19 3.2010074 -1.0842022e-19
-2.4005892 1.0842022e-19 -2.0068712
-1.0842022e-19 2.8660579 1.0842022e-19
-1.918105 -1.0842022e-19 -1.8530306
2 2.8659499 -1.0842022e-19
-1.9180553 2 -1.8844585
-1.0842022e-19 2.8464537 3.6893488e+19
-1.7735817 -3.6893488e+19 -1.8868204
2 2.8124967 -3.6893488e+19
-1.9505014 2 -1.8825258
1.0842022e-19 2.7843843 -2
-1.7439246 -1.0842022e-19 -1.8782164
1.0842022e-19 2.7594514 -3.6893488e+19
-1.916467 -0 -1.8741865
0 2.7245035 1.0842022e-19
-1.7034978 2 -1.8655024
2 2.6907234 3.6893488e+19
-1.8913866 2 -1.8613975
0 2.6633301 -3.6893488e+19
-1.6772625 -3.6893488e+19 -1.8576565
0 2.6330986 3.6893488e+19
-1.8708005 -3.6893488e+19 -1.85203
2 2.6059337 1.0842022e-19
-1.6526474 1.0842022e-19 -1.8453165
-0 2.5864432 -3.6893488e+19
-1.8408659 0 -1.8433156
1.0842022e-19 2.5640213 2
-1.6346726 3.6893488e+19 -1.8370053
2 2.5437958 -1.0842022e-19
-1.8135028 -3.6893488e+19 -1.8321978
-1.0842022e-19 2.5288622 0
-1.6141884 -2 -1.8289474
-3.6893488e+19 2.5114815 -1.0842022e-19
-1.7927697 0 -1.8241587
0 2.5005739 -2
-1.5899245 3.6893488e+19 -1.822365
1.0842022e-19 2.4702947 0
-1.7758733 -0 -1.8173857
-1.0842022e-19 2.4504683 -3.6893488e+19
-1.8250552 -3.6893488e+19 -1.8162005
3.6893488e+19 2.4093852 -2
-1.80681 -1.0842022e-19 -1.8103861
-0 2.3512678 -3.6893488e+19
-1.7809998 1.0842022e-19 -1.8040606
1.0842022e-19 2.3070636 0
-1.7613685 2 -1.7990655
-3.6893488e+19 2.2784393 2
-1.7473128 -1.0842022e-19 -1.7988052
-3.6893488e+19 2.2513273 0
-1.4655709 -0 -1.7953701
1.0842022e-19 2.2116003 -3.6893488e+19
-1.447964 -3.6893488e+19 -1.7947328
-3.6893488e+19 2.169189 -0
-1.4297754 -0 -1.7912579
3.6893488e+19 2.1342573 -1.0842022e-19
-1.4147943 -2 -1.7885747
-3.6893488e+19 3.3202205 -1.0842022e-19
-2.3075907 1.0842022e-19 2.7951143
3.6893488e+19 3.3022051 -3.6893488e+19
-2.5248408 0 2.7753406
0 3.3137536 -0
-2.3013787 3.6893488e+19 2.7799416
3.6893488e+19 3.3085437 3.6893488e+19
-2.5306056 -3.6893488e+19 2.7720263
1.0842022e-19 3.2851257 -1.0842022e-19
-2.27388 0 2.7421024
-1.0842022e-19 3.3126523 2
-2.5343423 3.6893488e+19 2.7664685
-3.6893488e+19 3.279393 -1.0842022e-19
-2.2683735 3.6893488e+19 2.7158976
-3.6893488e+19 3.3013637 -2
-2.5240757 1.0842022e-19 2.7460461
-0 3.3019078 -2
-2.5245705 0 2.7293143
3.6893488e+19 3.3185806 3.6893488e+19
-2.3060155 2 2.7442105
-0 3.2603259 0
-2.4735079 3.6893488e+19 2.6481376
2 3.3235106 -2
-2.310751 -2 2.7331336
-1.0842022e-19 3.3115051 -3.6893488e+19
-2.5332987 1.0842022e-19 2.7083206
3.6893488e+19 3.3337333 -2
-2.3205705 -1.0842022e-19 2.7291303
0 3.3461335 0
-2.0759547 -0 2.7362957
-3.6893488e+19 3.34373 -0
-2.0736914 -2 2.7131724
-1.0842022e-19 3.3240671 -3.6893488e+19
-2.4295366 2 2.6786652
0 3.3397307 -1.0842022e-19
-2.0699251 -1.0842022e-19 2.6883159
-3.6893488e+19 3.3024509 -1.0842022e-19
-2.4008853 0 2.6327088
1.0842022e-19 3.2978437 -3.6893488e+19
-2.0304799 -1.0842022e-19 2.6002493
-3.6893488e+19 3.2856684 -0
-2.3786409 3.6893488e+19 2.578773
-2 3.2933464 1.0842022e-19
-2.0262451 3.6893488e+19 2.5782561
0 3.3116314 3.6893488e+19
-2.0434639 -3.6893488e+19 2.5810089
3.6893488e+19 3.3035595 -0
-2.0358627 -3.6893488e+19 2.5552144
-2 3.2963924 -1.0842022e-19
-2.5195546 2 2.5329158
-3.6893488e+19 3.2919056 -1.0842022e-19
-2.2803926 3.6893488e+19 2.5190804
3.6893488e+19 3.2973709 -2
-2.5204444 -0 2.5169363
-3.6893488e+19 3.2933886 3.6893488e+19
-2.2818172 -1.0842022e-19 2.5038538
0 3.2948155 -3.6893488e+19
-2.5181203 3.6893488e+19 2.495801
-3.6893488e+19 3.3078635 -2
-2.2957211 -0 2.4979775
0 3.2954402 -1.0842022e-19
-2.5186884 -0 2.463352
-1.0842022e-19 3.2820311 0
-2.2709076 -0 2.4243832
-2 3.3035345 2
-2.5260501 0 2.4416697
-1.0842022e-19 3.2970014 3.6893488e+19
-2.2852874 3.6893488e+19 2.4134488
-3.6893488e+19 3.3012738 -3.6893488e+19
-2.523994 1.0842022e-19 2.4043086
0 3.2869594 1.0842022e-19
-2.2756414 -1.0842022e-19 2.3671854
1.0842022e-19 3.2939804 1.0842022e-19
-2.5173609 -0 2.3613057
-2 3.2613828 -3.6893488e+19
-2.2510736 0 2.305079
2 3.2936959 3.6893488e+19
-2.5171022 -3.6893488e+19 2.3278153
3.6893488e+19 3.2631278 -3.6893488e+19
-2.2527497 3.6893488e+19 2.2775698
-1.0842022e-19 3.306273 2
-2.0384181 3.6893488e+19 2.3054857
1.0842022e-19 3.299849 -1.0842022e-19
-2.0323684 2 2.2655067
-0 3.3360837 -3.6893488e+19
-2.4454639 1.0842022e-19 2.2796149
1.0842022e-19 3.2963226 -2
-2.0290475 -2 2.2084532
-0 3.2544188 -0
-2.3372209 -0 2.1162663
3.6893488e+19 3.2886164 1.0842022e-19
-2.3825483 -3.6893488e+19 2.1007769
2 3.2673202 -0
-2.0017359 -0 2.04406
-1.0842022e-19 3.3378062 -0
