# .PCD v0.7 - Point Cloud Data file format
VERSION 0.7
FIELDS x y z
SIZE 4 4 4
TYPE F F F
COUNT 1 1 1
WIDTH 1745
HEIGHT 1
VIEWPOINT 0 0 0 1 0 0 0
POINTS 1745
DATA ascii
-1.0842022e-19 2.6184025 2
2.0094995 2 -1.8627663
2 2.6014419 1.0842022e-19
1.9210443 -0 -1.8599663
-2 2.5766118 1.0842022e-19
1.9800626 -0 -1.8544152
-3.6893488e+19 2.5563684 1.0842022e-19
1.8991075 -1.0842022e-19 -1.8471735
-2 2.5376744 -2
1.9526354 2 -1.8434889
-3.6893488e+19 2.5228224 -2
1.8827808 -2 -1.8383062
3.6893488e+19 2.5019584 0
1.9274774 -1.0842022e-19 -1.8307658
0 2.4971297 3.6893488e+19
1.8669496 -2 -1.8334472
-0 2.4819753 -1.0842022e-19
1.8000207 -3.6893488e+19 -1.8332608
-0 2.4500108 -0
1.8802927 0 -1.8270861
-1.0842022e-19 3.1765151 -3.6893488e+19
2.4939597 0 2.6426592
-0 3.2490482 -2
2.3624408 0 2.6992223
3.6893488e+19 3.1769102 -1.0842022e-19
2.4944172 1.0842022e-19 2.6303916
-3.6893488e+19 3.2056222 -3.6893488e+19
2.3309021 -3.6893488e+19 2.6467535
-0 3.2059286 -0
2.5140121 3.6893488e+19 2.642797
0 3.1989312 2
2.5099602 -3.6893488e+19 2.6235631
-2 3.1959848 -1.0842022e-19
2.5082541 2 2.6080332
-1.0842022e-19 3.1219661 -2
2.2701457 -2 2.5413375
0 3.1992953 -0
2.5101709 2 2.597549
-3.6893488e+19 3.1193428 -3.6893488e+19
2.2682405 2 2.5285618
-2 3.291568 3.6893488e+19
2.5876737 1.0842022e-19 2.6840732
1.0842022e-19 3.2052047 -0
2.3305988 -3.6893488e+19 2.580143
1.0842022e-19 3.2062063 -3.6893488e+19
2.5141728 -1.0842022e-19 2.5763152
-1.0842022e-19 3.2155111 3.6893488e+19
2.4531221 -0 2.5684979
-2 3.1930254 -0
2.4312348 -0 2.5403237
3.6893488e+19 3.1222489 -1.0842022e-19
2.3623419 0 2.466445
3.6893488e+19 3.1253743 -2
2.3653841 0 2.4487839
2 3.1265521 1.0842022e-19
2.3665307 2 2.4285915
-0 3.275497 -0
2.6381154 2 2.5581133
3.6893488e+19 3.125653 -2
2.3656554 2 2.4060659
3.6893488e+19 3.1880765 2
2.5585773 -3.6893488e+19 2.4646897
1.0842022e-19 3.1253798 -3.6893488e+19
2.3653893 -1.0842022e-19 2.3843198
1.0842022e-19 3.1237626 -0
2.3638153 3.6893488e+19 2.3613479
3.6893488e+19 3.1974018 -2
2.5090744 -0 2.4082949
0 3.1280258 0
2.2745466 -2 2.3321137
-0 3.195713 3.6893488e+19
2.5080967 -1.0842022e-19 2.3813398
-3.6893488e+19 3.1308124 2
2.2765706 1.0842022e-19 2.3129964
-3.6893488e+19 3.1131773 -2
2.4206064 -0 2.2900431
-2 3.1911793 1.0842022e-19
2.3204129 3.6893488e+19 2.3376689
0 3.1165602 -0
2.4245241 0 2.2719035
3.6893488e+19 3.1285906 -3.6893488e+19
2.2749567 -1.0842022e-19 2.2683837
-1.0842022e-19 3.1590052 -0
2.473681 -1.0842022e-19 2.2801585
0 3.125092 3.6893488e+19
2.2724159 0 2.2395008
-1.0842022e-19 3.222754 -2
2.5237551 -3.6893488e+19 2.2702227
-1.0842022e-19 3.1861868 0
2.316787 1.0842022e-19 2.2209883
0 3.1043305 2
2.4103606 -3.6893488e+19 2.1149478
-2 3.1145945 -2
2.5068171 3.6893488e+19 2.1066408
-1.0842022e-19 3.1256835 -0
2.3656852 1.0842022e-19 2.0934124
-0 3.1143391 2
2.5066373 -1.0842022e-19 2.0649993
-1.0842022e-19 3.1173646 0
2.3575878 3.6893488e+19 2.0444098
-3.6893488e+19 3.1082859 -2
2.5023735 -3.6893488e+19 2.0190842
1.0842022e-19 3.1171732 0
2.3574014 -0 2.0029163
-3.6893488e+19 3.1076238 -1.0842022e-19
2.5019071 1.0842022e-19 1.9780068
-0 3.0959136 -0
2.3367076 1.0842022e-19 1.9493418
0 3.1032221 1.0842022e-19
2.4976132 -3.6893488e+19 1.9351492
1.0842022e-19 3.0972319 -3.6893488e+19
2.3379905 -2 1.9110494
-3.6893488e+19 3.1036005 0
2.4981465 0 1.8952639
-0 3.0986576 1.0842022e-19
2.3393786 -1.0842022e-19 1.870013
0 3.1055007 3.6893488e+19
2.5004115 -0 1.8365346
0 3.0996017 2
2.3402975 1.0842022e-19 1.7920949
3.6893488e+19 3.1052911 -0
2.5002639 -1.0842022e-19 1.755908
1.0842022e-19 3.0996604 -3.6893488e+19
2.3403544 1.0842022e-19 1.6770583
-1.0842022e-19 3.0910628 -1.0842022e-19
2.2454035 0 1.5665091
-0 3.1045847 3.6893488e+19
2.410655 1.0842022e-19 1.2868325
-2 3.0989387 3.6893488e+19
2.2534218 3.6893488e+19 -1.483478
-0 3.090692 2
2.3945656 -3.6893488e+19 -1.6341343
-3.6893488e+19 3.0885918 -3.6893488e+19
2.2418144 2 -1.7083141
-0 3.0914733 3.6893488e+19
2.3954704 -2 -1.769204
0 3.0884056 3.6893488e+19
2.2415438 2 -1.8049206
-2 3.0882337 1.0842022e-19
2.2412944 3.6893488e+19 -1.8778071
0 3.0714033 2
2.2168474 -2 -1.9074732
0 3.0906255 -0
2.3944883 -1.0842022e-19 -1.9371527
-3.6893488e+19 3.0684035 -2
2.2124903 1.0842022e-19 -1.9417084
2 3.0814514 1.0842022e-19
2.3838637 -0 -1.9695231
1.0842022e-19 3.0286403 3.6893488e+19
2.1547329 3.6893488e+19 -1.9490232
-3.6893488e+19 3.0281832 1.0842022e-19
2.3221724 -0 -1.9656535
-1.0842022e-19 2.9259613 1.0842022e-19
2.1646249 3.6893488e+19 -1.9386051
0 2.841897 -0
2.2316585 -1.0842022e-19 -1.9122978
-3.6893488e+19 2.8032405 2
2.0451703 -1.0842022e-19 -1.9013634
3.6893488e+19 2.7639897 2
2.1219041 -3.6893488e+19 -1.8903232
2 2.7335279 -3.6893488e+19
1.9853296 1.0842022e-19 -1.8843163
2 2.6711493 -1.0842022e-19
2.0466537 -0 -1.8728205
1.0842022e-19 2.6503856 -1.0842022e-19
1.9448649 -0 -1.8700554
-1.0842022e-19 2.6184025 2
2.0094995 2 -1.8627663
2 2.6014419 1.0842022e-19
1.9210443 -0 -1.8599663
-2 2.5766118 1.0842022e-19
1.9800626 -0 -1.8544152
-3.6893488e+19 2.5563684 1.0842022e-19
1.8991075 -1.0842022e-19 -1.8471735
-2 2.5376744 -2
1.9526354 2 -1.8434889
-3.6893488e+19 2.5228224 -2
1.8827808 -2 -1.8383062
3.6893488e+19 2.5019584 0
1.9274774 -1.0842022e-19 -1.8307658
0 2.4971297 3.6893488e+19
1.8669496 -2 -1.8334472
-0 2.4819753 -1.0842022e-19
1.8000207 -3.6893488e+19 -1.8332608
-0 2.4500108 -0
1.8802927 0 -1.8270861
3.6893488e+19 3.1767056 -1.0842022e-19
2.4850547 3.6893488e+19 2.6426868
2 3.1798201 -2
2.488595 -2 2.6328404
-0 3.2056074 1.0842022e-19
2.3212678 -1.0842022e-19 2.6466477
-3.6893488e+19 3.2025292 -1.0842022e-19
2.5072048 -1.0842022e-19 2.6397219
2 3.2004938 0
2.506048 2 2.6247227
-1.0842022e-19 3.1961524 -2
2.5035803 2 2.6080332
-1.0842022e-19 3.1201284 2
2.260993 -1.0842022e-19 2.5398302
-2 3.2020469 -2
2.5069306 3.6893488e+19 2.5995462
1.0842022e-19 3.2518852 -0
2.3552294 0 2.6298592
2 3.2945836 -2
2.5848658 0 2.6883976
-0 3.2102127 -1.0842022e-19
2.3245151 3.6893488e+19 2.5836971
2 3.2069261 1.0842022e-19
2.5097039 2 2.5767074
0 3.2181361 -3.6893488e+19
2.4457252 -1.0842022e-19 2.5701928
3.6893488e+19 3.1907148 2
2.4196169 -2 2.5387185
-3.6893488e+19 3.1724994 1.0842022e-19
2.4022737 1.0842022e-19 2.5146222
3.6893488e+19 3.2098734 2
2.4378583 2 2.5248172
-1.0842022e-19 3.2093239 -3.6893488e+19
2.437335 -0 2.5113187
-3.6893488e+19 3.275501 3.6893488e+19
2.6321719 2 2.557977
3.6893488e+19 3.2069354 2
2.435061 -0 2.4937732
-1.0842022e-19 3.188796 2
2.5543463 1.0842022e-19 2.4652402
-0 3.2034421 -2
2.4317348 0 2.4640951
-1.0842022e-19 3.2037401 0
2.4320188 -1.0842022e-19 2.4385307
0 3.2001398 -2
2.3174121 -3.6893488e+19 2.4209015
-0 3.1963093 -2
2.5036695 -0 2.407145
3.6893488e+19 3.1977091 1.0842022e-19
2.3156984 -1.0842022e-19 2.3932419
-1.0842022e-19 3.1962805 0
2.5036533 -0 2.3816819
-3.6893488e+19 3.1949427 -2
2.3137476 -2 2.3656204
-3.6893488e+19 3.2117164 2
2.5124266 3.6893488e+19 2.3686006
1.0842022e-19 3.1916237 -3.6893488e+19
2.3114071 3.6893488e+19 2.3379297
-0 3.2049062 0
2.5085559 -2 2.3373091
2 3.1855805 -2
2.3071458 1.0842022e-19 2.3087118
3.6893488e+19 3.163105 1.0842022e-19
2.4695945 -0 2.2828605
3.6893488e+19 3.1794152 -1.0842022e-19
2.3027985 0 2.2801311
-2 3.1499825 2
2.4546776 2 2.2511983
-1.0842022e-19 3.1787786 0
2.3023498 0 2.2555633
0 3.1507452 -3.6893488e+19
2.4555442 -0 2.2079539
0 3.1881838 0
2.3089817 -2 2.2230334
0 3.2313666 3.6893488e+19
2.5235951 0 2.2456045
1.0842022e-19 3.2694066 -3.6893488e+19
2.6237173 -1.0842022e-19 2.2634087
1.0842022e-19 3.122704 -3.6893488e+19
2.3548617 -1.0842022e-19 2.0905812
2 3.2671301 3.6893488e+19
2.6205597 3.6893488e+19 2.2116981
-1.0842022e-19 3.2163782 -0
2.4440517 3.6893488e+19 2.1236424
-3.6893488e+19 3.1126945 0
2.5015628 3.6893488e+19 2.0222707
-2 3.2162495 3.6893488e+19
2.4439292 -3.6893488e+19 2.0710609
2 3.2666101 -2
2.6198382 -0 2.0898044
1.0842022e-19 3.2160671 3.6893488e+19
2.4437554 -2 2.0184984
-0 3.2673535 -0
2.6208696 -1.0842022e-19 2.0301504
2 3.2159858 -3.6893488e+19
2.4436779 2 1.9660605
-2 3.2626977 -2
2.6144111 3.6893488e+19 1.9657408
1.0842022e-19 3.2143617 -3.6893488e+19
2.4421315 2 1.9131095
2 3.2389948 -0
2.5891638 3.6893488e+19 1.8954175
0 3.2100151 -0
2.437993 2 1.8447986
2 3.2515271 1.0842022e-19
2.5989153 1.0842022e-19 1.810267
-3.6893488e+19 3.0996463 3.6893488e+19
2.3329082 0 1.6769955
-2 3.0896485 3.6893488e+19
2.2290008 -0 1.5656703
2 3.2277942 0
2.5215647 -2 1.3429832
-0 3.0927324 0
2.23335 1.0842022e-19 -1.4792715
-0 3.2313125 -1.0842022e-19
2.5235643 -0 -1.689427
3.6893488e+19 3.2224278 -2
2.3331285 -3.6893488e+19 -1.7702932
-2 3.2261448 3.6893488e+19
2.5206273 -3.6893488e+19 -1.8260002
2 3.0884538 -1.0842022e-19
2.2273157 3.6893488e+19 -1.804904
-0 3.0901492 -0
2.2297068 1.0842022e-19 -1.8785008
-2 3.0912588 -1.0842022e-19
2.3879237 -0 -1.8989527
3.6893488e+19 3.0922632 3.6893488e+19
2.2326882 -3.6893488e+19 -1.9176544
2 3.0909081 0
2.3875251 0 -1.9372377
-2 3.1000834 1.0842022e-19
2.243717 -0 -1.9607332
-2 3.0829978 -1.0842022e-19
2.3785331 -3.6893488e+19 -1.9704645
-1.0842022e-19 3.0685427 1.0842022e-19
2.1992357 2 -1.977471
-3.6893488e+19 3.0277624 -3.6893488e+19
2.3157446 -0 -1.9652464
1.0842022e-19 2.9287603 3.6893488e+19
2.1582346 3.6893488e+19 -1.9397845
3.6893488e+19 2.8461723 -2
2.230206 -3.6893488e+19 -1.9142522
1.0842022e-19 2.8071148 -0
2.0424125 1.0842022e-19 -1.9032489
-2 2.7646635 2
2.1171381 -2 -1.890617
-2 2.7330611 -3.6893488e+19
1.979968 -3.6893488e+19 -1.8841443
-0 2.6715877 -1.0842022e-19
2.0424106 -1.0842022e-19 -1.872965
-0 2.650388 -0
1.9406103 2 -1.8699797
-0 2.6201673 1.0842022e-19
2.0067458 -0 -1.8637959
-0 2.6011815 -1.0842022e-19
1.9171848 -3.6893488e+19 -1.8597182
3.6893488e+19 2.5759025 -2
1.9760439 -2 -1.8538121
1.0842022e-19 2.5577013 -2
1.8964854 -2 -1.8480697
2 2.5378063 0
1.9496207 2 -1.8434889
1.0842022e-19 2.5238969 2
1.8803924 -2 -1.8390787
2 2.5024414 1.0842022e-19
1.9250919 0 -1.831066
-0 2.4972863 2
1.8617401 -2 -1.8334472
-3.6893488e+19 2.4768884 -1.0842022e-19
1.793137 -3.6893488e+19 -1.8310145
-2 2.4501798 -2
1.8779347 0 -1.8270861
0 2.4371805 -2
1.779137 1.0842022e-19 -1.8262509
3.6893488e+19 2.3682687 0
1.7548409 0 -1.8154515
2 2.3244295 0
1.7287688 1.0842022e-19 -1.8112787
3.6893488e+19 2.2848814 -1.0842022e-19
1.7008817 -2 -1.8048799
-2 2.2541876 -0
1.801303 -1.0842022e-19 -1.8020415
-0 2.2144876 -0
1.7860829 1.0842022e-19 -1.8003231
1.0842022e-19 2.1745949 -1.0842022e-19
1.7722481 -1.0842022e-19 -1.7977302
-3.6893488e+19 2.1367619 -1.0842022e-19
1.7591279 -1.0842022e-19 -1.7937572
3.6893488e+19 3.1767056 -1.0842022e-19
2.4850547 3.6893488e+19 2.6426868
2 3.1798201 -2
2.488595 -2 2.6328404
-2 3.1729336 -3.6893488e+19
2.298228 -0 2.6182022
-3.6893488e+19 3.2025292 -1.0842022e-19
2.5072048 -1.0842022e-19 2.6397219
2 3.2004938 0
2.506048 2 2.6247227
-1.0842022e-19 3.1961524 -2
2.5035803 2 2.6080332
-1.0842022e-19 3.1201284 2
2.260993 -1.0842022e-19 2.5398302
-2 3.2020469 -2
2.5069306 3.6893488e+19 2.5995462
-0 3.1218464 3.6893488e+19
2.2622044 1.0842022e-19 2.5303843
-3.6893488e+19 3.2034605 -1.0842022e-19
2.5077341 0 2.5874188
-0 3.2102127 -1.0842022e-19
2.3245151 3.6893488e+19 2.5836971
2 3.2069261 1.0842022e-19
2.5097039 2 2.5767074
0 3.2181361 -3.6893488e+19
2.4457252 -1.0842022e-19 2.5701928
-3.6893488e+19 3.1778507 -1.0842022e-19
2.4073687 -1.0842022e-19 2.5302911
-2 3.1232247 -3.6893488e+19
2.3553576 -3.6893488e+19 2.4675202
-2 3.1262293 -1.0842022e-19
2.3582184 0 2.4496644
-3.6893488e+19 3.1252573 -3.6893488e+19
2.3572929 -2 2.4269831
-3.6893488e+19 3.275501 3.6893488e+19
2.6321719 2 2.557977
1.0842022e-19 3.12571 2
2.357724 -0 2.4059994
-1.0842022e-19 3.188796 2
2.5543463 1.0842022e-19 2.4652402
1.0842022e-19 3.1256828 -1.0842022e-19
2.357698 3.6893488e+19 2.3845088
0 3.1261296 -3.6893488e+19
2.3581233 -1.0842022e-19 2.3635216
0 3.2001398 -2
2.3174121 -3.6893488e+19 2.4209015
-0 3.1963093 -2
2.5036695 -0 2.407145
1.0842022e-19 3.1259482 3.6893488e+19
2.2650967 -1.0842022e-19 2.3302112
-1.0842022e-19 3.1962805 0
2.5036533 -0 2.3816819
0 3.1292915 -0
2.2674541 1.0842022e-19 2.3116732
0 3.1167932 -3.6893488e+19
2.4169495 2 2.2928207
0 3.1499126 0
2.2819951 -0 2.3060124
-3.6893488e+19 3.1171291 -0
2.4173317 3.6893488e+19 2.2722232
2 3.1295166 3.6893488e+19
2.2676129 3.6893488e+19 2.2689772
3.6893488e+19 3.163105 1.0842022e-19
2.4695945 -0 2.2828605
2 3.1352947 -0
2.2716873 3.6893488e+19 2.2513487
-2 3.1499825 2
2.4546776 2 2.2511983
-1.0842022e-19 3.1787786 0
2.3023498 0 2.2555633
0 3.1507452 -3.6893488e+19
2.4555442 -0 2.2079539
-1.0842022e-19 3.1225865 3.6893488e+19
2.2627263 3.6893488e+19 2.1522193
0 3.2313666 3.6893488e+19
2.5235951 0 2.2456045
-1.0842022e-19 3.1141467 -0
2.5025699 -0 2.1060398
1.0842022e-19 3.122704 -3.6893488e+19
2.3548617 -1.0842022e-19 2.0905812
0 3.11549 -3.6893488e+19
2.5035014 0 2.0658498
2 3.1177595 -2
2.3501539 -2 2.0446332
-3.6893488e+19 3.1126945 0
2.5015628 3.6893488e+19 2.0222707
-1.0842022e-19 3.1197691 -1.0842022e-19
2.3520675 0 2.0046244
-2 3.1064031 -3.6893488e+19
2.4943981 -2 1.9771245
2 3.096612 0
2.330019 -0 1.9496812
0 3.1032608 -2
2.4900389 -3.6893488e+19 1.9350847
-1.0842022e-19 3.0971551 2
2.3305361 -3.6893488e+19 1.9109631
-2 3.2626977 -2
2.6144111 3.6893488e+19 1.9657408
3.6893488e+19 3.0994811 0
2.3327508 -0 1.8705143
-1.0842022e-19 3.1041548 3.6893488e+19
2.4912794 3.6893488e+19 1.8356375
1.0842022e-19 3.0996499 -2
2.3329113 -0 1.7920653
-0 3.1053922 -3.6893488e+19
2.4929957 -0 1.7558854
-3.6893488e+19 3.0996463 3.6893488e+19
2.3329082 0 1.6769955
-2 3.0896485 3.6893488e+19
2.2290008 -0 1.5656703
2 3.1060793 2
2.4047709 2 1.2874535
-0 3.0927324 0
2.23335 1.0842022e-19 -1.4792715
0 3.0952444 -1.0842022e-19
2.3924541 1.0842022e-19 -1.6358756
-3.6893488e+19 3.0889513 -2
2.2280176 -3.6893488e+19 -1.7084863
-0 3.0915089 -2
2.3882079 1.0842022e-19 -1.7691649
2 3.0884538 -1.0842022e-19
2.2273157 3.6893488e+19 -1.804904
-0 3.0901492 -0
2.2297068 1.0842022e-19 -1.8785008
-2 3.0912588 -1.0842022e-19
2.3879237 -0 -1.8989527
3.6893488e+19 3.0922632 3.6893488e+19
2.2326882 -3.6893488e+19 -1.9176544
2 3.0909081 0
2.3875251 0 -1.9372377
0 3.0678251 3.6893488e+19
2.1982234 -0 -1.9413152
-2 3.0829978 -1.0842022e-19
2.3785331 -3.6893488e+19 -1.9704645
-1.0842022e-19 3.0281146 2
2.1422205 -3.6893488e+19 -1.9486012
-3.6893488e+19 3.0277624 -3.6893488e+19
2.3157446 -0 -1.9652464
1.0842022e-19 2.9287603 3.6893488e+19
2.1582346 3.6893488e+19 -1.9397845
3.6893488e+19 2.8461723 -2
2.230206 -3.6893488e+19 -1.9142522
1.0842022e-19 2.8071148 -0
2.0424125 1.0842022e-19 -1.9032489
-2 2.7646635 2
2.1171381 -2 -1.890617
-2 2.7330611 -3.6893488e+19
1.979968 -3.6893488e+19 -1.8841443
-0 2.6715877 -1.0842022e-19
2.0424106 -1.0842022e-19 -1.872965
-0 2.650388 -0
1.9406103 2 -1.8699797
-0 2.6201673 1.0842022e-19
2.0067458 -0 -1.8637959
-0 2.6011815 -1.0842022e-19
1.9171848 -3.6893488e+19 -1.8597182
3.6893488e+19 2.5759025 -2
1.9760439 -2 -1.8538121
1.0842022e-19 2.5577013 -2
1.8964854 -2 -1.8480697
2 2.5378063 0
1.9496207 2 -1.8434889
1.0842022e-19 2.5238969 2
1.8803924 -2 -1.8390787
2 2.5024414 1.0842022e-19
1.9250919 0 -1.831066
-0 2.4972863 2
1.8617401 -2 -1.8334472
-3.6893488e+19 2.4768884 -1.0842022e-19
1.793137 -3.6893488e+19 -1.8310145
-2 2.4501798 -2
1.8779347 0 -1.8270861
0 2.4371805 -2
1.779137 1.0842022e-19 -1.8262509
3.6893488e+19 2.3682687 0
1.7548409 0 -1.8154515
2 2.3244295 0
1.7287688 1.0842022e-19 -1.8112787
3.6893488e+19 2.2848814 -1.0842022e-19
1.7008817 -2 -1.8048799
-2 2.2541876 -0
1.801303 -1.0842022e-19 -1.8020415
-0 2.2144876 -0
1.7860829 1.0842022e-19 -1.8003231
1.0842022e-19 2.1745949 -1.0842022e-19
1.7722481 -1.0842022e-19 -1.7977302
-3.6893488e+19 2.1367619 -1.0842022e-19
1.7591279 -1.0842022e-19 -1.7937572
0 3.1808465 -0
2.4805546 -0 2.6463513
0 3.1795857 2
2.4791484 2 2.6324906
-1.0842022e-19 3.205498 -1.0842022e-19
2.3115737 0 2.6464624
-2 3.2026961 2
2.5024626 -1.0842022e-19 2.6397219
-1.0842022e-19 3.2108989 -3.6893488e+19
2.315268 -0 2.6376796
0 3.1953852 -3.6893488e+19
2.4967706 1.0842022e-19 2.6203368
-0 3.1220198 -0
2.2544723 -3.6893488e+19 2.5520661
0 3.1967118 -3.6893488e+19
2.4982502 1.0842022e-19 2.6083498
0 3.2080443 -1.0842022e-19
2.3133154 -2 2.6085913
0 3.202457 -0
2.5023291 -3.6893488e+19 2.5997341
-3.6893488e+19 3.1253889 -1.0842022e-19
2.2567768 0 2.5329912
1.0842022e-19 3.2939312 -2
2.577843 0 2.6872656
2 3.2105319 -3.6893488e+19
2.315017 -0 2.5838525
-1.0842022e-19 3.2959776 -1.0842022e-19
2.5801256 -1.0842022e-19 2.6730988
-0 3.1939526 -3.6893488e+19
2.5531335 1.0842022e-19 2.5623491
-0 3.1952319 2
2.4144588 -0 2.5415878
2 3.1940091 -0
2.5531721 2 2.5365744
-3.6893488e+19 3.1916277 1.0842022e-19
2.5515463 0 2.5222416
3.6893488e+19 3.2094011 -1.0842022e-19
2.4276485 -0 2.5244503
-2 3.2100801 1.0842022e-19
2.4282808 0 2.5116684
-1.0842022e-19 3.1271486 -2
2.3510811 -1.0842022e-19 2.4074285
3.6893488e+19 3.1900325 0
2.550457 -0 2.4663408
-2 3.2039514 -2
2.4225755 -2 2.464473
0 3.2045274 1.0842022e-19
2.4231117 -1.0842022e-19 2.4391561
-3.6893488e+19 3.1999946 2
2.3078094 -3.6893488e+19 2.4206703
2 3.1231227 -0
2.4161711 -2 2.340255
-2 3.1983061 0
2.3066545 -1.0842022e-19 2.3936768
-3.6893488e+19 3.196445 -2
2.4979529 -0 2.3816819
0 3.1936812 -1.0842022e-19
2.3034906 -0 2.3645008
1.0842022e-19 3.2120717 3.6893488e+19
2.5076911 0 2.3687482
3.6893488e+19 3.1915071 2
2.3020036 1.0842022e-19 2.3377638
-2 3.1176035 3.6893488e+19
2.4100153 -0 2.2724745
-0 3.1858966 -2
2.2981658 3.6893488e+19 2.3088655
3.6893488e+19 3.1708748 -0
2.4694326 2 2.2880745
2 3.1799164 1.0842022e-19
2.2940753 -1.0842022e-19 2.2803941
3.6893488e+19 3.2415302 2
2.5241199 3.6893488e+19 2.3085785
0 3.176827 2
2.2919619 -3.6893488e+19 2.2543418
1.0842022e-19 3.1519117 -2
2.4482815 0 2.2091179
-2 3.1805477 -2
2.294507 1.0842022e-19 2.2146847
-3.6893488e+19 3.2343547 3.6893488e+19
2.5201182 -0 2.2484972
-1.0842022e-19 3.2694356 -3.6893488e+19
2.6179447 -0 2.2633185
-2 3.1962979 -1.0842022e-19
2.415451 0 2.1577067
2 3.2678504 3.6893488e+19
2.6157799 -2 2.2127342
0 3.2158401 -1.0842022e-19
2.4336424 2 2.1230962
-3.6893488e+19 3.2680047 -2
2.6159906 3.6893488e+19 2.152195
0 3.2165174 2
2.434273 0 2.0711465
3.6893488e+19 3.1091802 0
2.4905012 0 1.9787911
3.6893488e+19 3.2163658 -0
2.4341319 -0 2.0185878
-3.6893488e+19 3.2687671 0
2.6170321 -0 2.0315049
-2 3.2163465 -0
2.434114 -2 1.9661611
-2 3.2628777 -0
2.6089892 -0 1.9657913
0 3.2157462 -3.6893488e+19
2.4335549 -2 1.9135454
0 3.2388766 2
2.5838079 -1.0842022e-19 1.8953167
-3.6893488e+19 3.202894 -0
2.4215913 2 1.8413295
-1.0842022e-19 3.2366784 2
2.5823071 -1.0842022e-19 1.8041552
1.0842022e-19 3.2165253 0
2.4342804 0 1.7360883
-2 3.0914071 0
2.2170649 -0 1.5666139
1.0842022e-19 3.2281561 -1.0842022e-19
2.5166612 1.0842022e-19 1.343068
1.0842022e-19 3.0936823 3.6893488e+19
2.2201772 2 -1.4798546
0 3.2304378 -1.0842022e-19
2.5179336 -1.0842022e-19 -1.689013
3.6893488e+19 3.2230334 1.0842022e-19
2.3235686 -2 -1.7704464
0 3.2241542 -2
2.5144293 2 -1.8250861
1.0842022e-19 3.0883751 3.6893488e+19
2.2129166 -0 -1.8048213
-3.6893488e+19 3.1031685 1.0842022e-19
2.3939149 0 -1.8535914
-0 3.0925922 2
2.2186861 3.6893488e+19 -1.8793943
-2 3.0993979 3.6893488e+19
2.3897092 0 -1.9024491
1.0842022e-19 3.0927145 -1.0842022e-19
2.2188532 1.0842022e-19 -1.9178374
2 3.0923948 0
2.3818982 3.6893488e+19 -1.9379849
3.6893488e+19 3.066186 -0
2.1825607 1.0842022e-19 -1.9402853
-3.6893488e+19 3.0793169 1.0842022e-19
2.3673115 -1.0842022e-19 -1.9679471
2 3.0684597 3.6893488e+19
2.1856713 0 -1.97736
-2 3.0264428 -0
2.308337 3.6893488e+19 -1.9641448
-1.0842022e-19 2.9283345 0
2.1487293 -1.0842022e-19 -1.9395376
1.0842022e-19 2.8535244 -1.0842022e-19
2.2327774 -0 -1.917665
2 2.7639837 -3.6893488e+19
2.1104994 2 -1.8901926
-0 2.7302372 2
1.9735223 -2 -1.883319
0 2.6721466 3.6893488e+19
2.0382442 0 -1.8731818
-3.6893488e+19 2.6524923 -2
1.9373366 3.6893488e+19 -1.8711914
3.6893488e+19 2.6203341 2
2.0028665 -0 -1.8637959
-1.0842022e-19 2.6006711 -0
1.9132168 1.0842022e-19 -1.8593049
-3.6893488e+19 2.5746989 -3.6893488e+19
1.9717065 -0 -1.8528645
0 2.5574253 -3.6893488e+19
1.8930883 2 -1.8478009
-3.6893488e+19 2.5378132 -3.6893488e+19
1.9465207 -0 -1.8433958
-2 2.5241048 1.0842022e-19
1.8775798 0 -1.8391753
2 2.502923 3.6893488e+19
1.9226974 -0 -1.8313661
-0 2.4974396 3.6893488e+19
1.856529 -2 -1.8334472
-3.6893488e+19 2.4779875 -3.6893488e+19
1.7884786 -3.6893488e+19 -1.8314424
0 2.450346 -2
1.8755759 0 -1.8270861
0 3.1808465 -0
2.4805546 -0 2.6463513
0 3.1795857 2
2.4791484 2 2.6324906
-1.0842022e-19 3.205498 -1.0842022e-19
2.3115737 0 2.6464624
-2 3.2026961 2
2.5024626 -1.0842022e-19 2.6397219
-1.0842022e-19 3.2108989 -3.6893488e+19
2.315268 -0 2.6376796
0 3.1953852 -3.6893488e+19
2.4967706 1.0842022e-19 2.6203368
-0 3.1220198 -0
2.2544723 -3.6893488e+19 2.5520661
0 3.1967118 -3.6893488e+19
2.4982502 1.0842022e-19 2.6083498
-0 3.1205182 3.6893488e+19
2.2534451 1.0842022e-19 2.5400696
0 3.202457 -0
2.5023291 -3.6893488e+19 2.5997341
-3.6893488e+19 3.1253889 -1.0842022e-19
2.2567768 0 2.5329912
1.0842022e-19 3.2939312 -2
2.577843 0 2.6872656
2 3.2105319 -3.6893488e+19
2.315017 -0 2.5838525
-3.6893488e+19 3.2076125 3.6893488e+19
2.5052044 -0 2.5770776
-0 3.1939526 -3.6893488e+19
2.5531335 1.0842022e-19 2.5623491
-0 3.1952319 2
2.4144588 -0 2.5415878
2 3.1940091 -0
2.5531721 2 2.5365744
-3.6893488e+19 3.1916277 1.0842022e-19
2.5515463 0 2.5222416
3.6893488e+19 3.2094011 -1.0842022e-19
2.4276485 -0 2.5244503
-3.6893488e+19 3.1230063 -2
2.3472252 -1.0842022e-19 2.4242911
-1.0842022e-19 3.1271486 -2
2.3510811 -1.0842022e-19 2.4074285
3.6893488e+19 3.1900325 0
2.550457 -0 2.4663408
-0 3.1273074 -1.0842022e-19
2.351229 -2 2.3860526
0 3.1265538 -1.0842022e-19
2.3505273 -1.0842022e-19 2.3638194
-3.6893488e+19 3.1999946 2
2.3078094 -3.6893488e+19 2.4206703
2 3.1231227 -0
2.4161711 -2 2.340255
-2 3.1983061 0
2.3066545 -1.0842022e-19 2.3936768
-3.6893488e+19 3.1254077 0
2.41872 -1.0842022e-19 2.3209496
3.6893488e+19 3.1321654 -0
2.2614121 0 2.3139634
1.0842022e-19 3.1257682 -1.0842022e-19
2.4191217 -3.6893488e+19 2.299875
3.6893488e+19 3.1915071 2
2.3020036 1.0842022e-19 2.3377638
-2 3.1176035 3.6893488e+19
2.4100153 -0 2.2724745
-3.6893488e+19 3.1277728 2
2.2584076 -3.6893488e+19 2.2676804
3.6893488e+19 3.1708748 -0
2.4694326 2 2.2880745
-0 3.1319685 -1.0842022e-19
2.2612774 -3.6893488e+19 2.2482445
-0 3.1515803 -2
2.447912 1.0842022e-19 2.2521088
1.0842022e-19 3.1358707 -2
2.2639465 2 2.2098732
1.0842022e-19 3.1519117 -2
2.4482815 0 2.2091179
-3.6893488e+19 3.1225469 0
2.254833 -3.6893488e+19 2.1520851
-2 3.11871 -2
2.4112494 -1.0842022e-19 2.1294758
-1.0842022e-19 3.1158483 -1.0842022e-19
2.4996071 -1.0842022e-19 2.1075423
-1.0842022e-19 3.1216722 3.6893488e+19
2.3459833 1.0842022e-19 2.0895338
-3.6893488e+19 3.1138396 -3.6893488e+19
2.4968641 -1.0842022e-19 2.0642819
0 3.1180279 2
2.3425908 -0 2.0447574
0 3.1130121 -1.0842022e-19
2.4957337 -1.0842022e-19 2.0223861
-1.0842022e-19 3.1177742 2
2.3423548 0 2.0031726
3.6893488e+19 3.1091802 0
2.4905012 0 1.9787911
2 3.0972462 0
2.3232455 1.0842022e-19 1.9499849
3.6893488e+19 3.112133 0
2.4945335 2 1.9396478
1.0842022e-19 3.0989377 -0
2.32482 -1.0842022e-19 1.9117397
-2 3.2628777 -0
2.6089892 -0 1.9657913
-0 3.0998061 1.0842022e-19
2.3256285 2 1.8706669
3.6893488e+19 3.1046841 2
2.4843612 -0 1.8358572
-0 3.1017129 3.6893488e+19
2.3274035 2 1.7929993
-0 3.1044436 -0
2.4840326 2 1.7554772
1.0842022e-19 3.0982955 -2
2.3242221 0 1.6762573
-2 3.0914071 0
2.2170649 -0 1.5666139
-0 3.1032393 0
2.3939939 0 1.2860985
1.0842022e-19 3.0936823 3.6893488e+19
2.2201772 2 -1.4798546
2 3.096981 3.6893488e+19
2.3870134 -0 -1.6365087
2 3.0885615 -0
2.2131717 -1.0842022e-19 -1.7081991
-2 3.0982885 -0
2.3884718 -2 -1.7719727
1.0842022e-19 3.0883751 3.6893488e+19
2.2129166 -0 -1.8048213
-3.6893488e+19 3.1031685 1.0842022e-19
2.3939149 0 -1.8535914
-0 3.0925922 2
2.2186861 3.6893488e+19 -1.8793943
-2 3.0993979 3.6893488e+19
2.3897092 0 -1.9024491
1.0842022e-19 3.0927145 -1.0842022e-19
2.2188532 1.0842022e-19 -1.9178374
2 3.0923948 0
2.3818982 3.6893488e+19 -1.9379849
3.6893488e+19 3.066186 -0
2.1825607 1.0842022e-19 -1.9402853
-3.6893488e+19 3.0793169 1.0842022e-19
2.3673115 -1.0842022e-19 -1.9679471
3.6893488e+19 3.0268714 -2
2.1287761 -0 -1.9476686
-2 3.0264428 -0
2.308337 3.6893488e+19 -1.9641448
-1.0842022e-19 2.9283345 0
2.1487293 -1.0842022e-19 -1.9395376
1.0842022e-19 2.8535244 -1.0842022e-19
2.2327774 -0 -1.917665
2 2.7639837 -3.6893488e+19
2.1104994 2 -1.8901926
-0 2.7302372 2
1.9735223 -2 -1.883319
0 2.6721466 3.6893488e+19
2.0382442 0 -1.8731818
-3.6893488e+19 2.6524923 -2
1.9373366 3.6893488e+19 -1.8711914
3.6893488e+19 2.6203341 2
2.0028665 -0 -1.8637959
-1.0842022e-19 2.6006711 -0
1.9132168 1.0842022e-19 -1.8593049
-3.6893488e+19 2.5746989 -3.6893488e+19
1.9717065 -0 -1.8528645
0 2.5574253 -3.6893488e+19
1.8930883 2 -1.8478009
-3.6893488e+19 2.5378132 -3.6893488e+19
1.9465207 -0 -1.8433958
-2 2.5241048 1.0842022e-19
1.8775798 0 -1.8391753
2 2.502923 3.6893488e+19
1.9226974 -0 -1.8313661
-0 2.4974396 3.6893488e+19
1.856529 -2 -1.8334472
-3.6893488e+19 2.4779875 -3.6893488e+19
1.7884786 -3.6893488e+19 -1.8314424
0 2.450346 -2
1.8755759 0 -1.8270861
1.0842022e-19 3.1814249 1.0842022e-19
2.4719918 -1.0842022e-19 2.64674
-0 3.1800735 -1.0842022e-19
2.4705133 0 2.6327868
3.6893488e+19 3.2057202 2
2.3021135 2 2.6465683
-3.6893488e+19 3.201376 -0
2.493819 -3.6893488e+19 2.6384449
0 3.2135611 0
2.3073115 -2 2.6398327
-3.6893488e+19 3.1950002 0
2.4868438 1.0842022e-19 2.6198831
-3.6893488e+19 3.1224375 3.6893488e+19
2.2438049 1.0842022e-19 2.5523388
2 3.2082675 0
2.3038023 1.0842022e-19 2.6086872
-0 3.2022555 0
2.4947813 2 2.5994523
-1.0842022e-19 3.1226251 -1.0842022e-19
2.2440536 3.6893488e+19 2.5308456
-2 3.1964533 0
2.4884336 -3.6893488e+19 2.5819621
-2 3.2019243 -2
2.4944189 2 2.5728953
-1.0842022e-19 3.1923275 -0
2.5472591 1.0842022e-19 2.5610678
2 3.1980324 -3.6893488e+19
2.4075577 3.6893488e+19 2.5433335
-1.0842022e-19 3.191345 0
2.5465989 -3.6893488e+19 2.5347285
-1.0842022e-19 3.1913667 1.0842022e-19
2.5466135 -3.6893488e+19 2.5219598
-1.0842022e-19 3.1278777 2
2.3437409 -0 2.4080932
1.0842022e-19 3.2029793 2
2.4120579 3.6893488e+19 2.4633389
0 3.204541 -0
2.4134784 -3.6893488e+19 2.4390368
-0 3.2006197 1.0842022e-19
2.2987323 2 2.4211619
0 3.1239038 2
2.4090619 1.0842022e-19 2.3408442
1.0842022e-19 3.1290886 -1.0842022e-19
2.2513115 -3.6893488e+19 2.3328204
-0 3.1987002 -3.6893488e+19
2.4908915 -0 2.3834713
1.0842022e-19 3.1315682 1.0842022e-19
2.2529554 0 2.3134036
-0 3.211376 0
2.5023797 3.6893488e+19 2.3680599
2 3.1912634 3.6893488e+19
2.2925296 1.0842022e-19 2.337503
0 3.1235023 0
2.4086227 -2 2.2767465
1.0842022e-19 3.1861789 -0
2.2891588 3.6893488e+19 2.3089974
3.6893488e+19 3.1726313 3.6893488e+19
2.4623713 2 2.2891722
-1.0842022e-19 3.1795144 -2
2.2847407 2 2.2800703
-0 3.1716359 -3.6893488e+19
2.4612823 0 2.2646039
-3.6893488e+19 3.1765792 -0
2.282795 2 2.2541385
-3.6893488e+19 3.2362795 -1.0842022e-19
2.5160022 0 2.2776468
3.6893488e+19 3.1796484 1.0842022e-19
2.2848296 -3.6893488e+19 2.2136116
-0 3.2344372 -1.0842022e-19
2.5149944 -0 2.2484019
-3.6893488e+19 3.2697704 -3.6893488e+19
2.6125898 -3.6893488e+19 2.2635288
3.6893488e+19 3.2001834 0
2.4095147 0 2.1611323
-1.0842022e-19 3.2694309 -0
2.6121335 1.0842022e-19 2.2152586
1.0842022e-19 3.217531 -1.0842022e-19
2.4252949 -0 2.1243377
-3.6893488e+19 3.2692318 -0
2.611866 2 2.1538575
2 3.2177126 -3.6893488e+19
2.4254601 -0 2.0718722
-3.6893488e+19 3.1107559 2
2.4848807 -2 1.9796929
-0 3.2156374 3.6893488e+19
2.4235725 3.6893488e+19 2.0180876
-2 3.2678545 -0
2.6100147 3.6893488e+19 2.0304246
1.0842022e-19 3.217201 -1.0842022e-19
2.4249947 -0 1.9664919
-2 3.2700186 -2
2.6129234 -2 1.9715549
1.0842022e-19 3.1027985 -0
2.3209271 1.0842022e-19 1.8726938
2 3.2381997 0
2.5780869 -0 1.8950512
-1.0842022e-19 3.2019749 3.6893488e+19
2.4111443 -3.6893488e+19 1.8408253
1.0842022e-19 3.1190844 2
2.4960744 -1.0842022e-19 1.7608064
2 3.0965064 -1.0842022e-19
2.3152034 2 1.675299
3.6893488e+19 3.0910776 -3.6893488e+19
2.2022254 -3.6893488e+19 1.5663867
-0 3.2287314 -0
2.5118732 -0 1.3432515
-0 3.09354 -1.0842022e-19
2.2054904 -0 -1.4797088
-1.0842022e-19 3.2306423 -2
2.5129185 -3.6893488e+19 -1.6890252
-0 3.2230754 -0
2.3136189 1.0842022e-19 -1.7704273
1.0842022e-19 3.2286909 2
2.5118511 1.0842022e-19 -1.8269275
-3.6893488e+19 3.0881381 -2
2.1983283 -1.0842022e-19 -1.8046558
-0 3.2511427 0
2.5247579 -3.6893488e+19 -1.9124955
-2 3.0967152 -3.6893488e+19
2.2097003 3.6893488e+19 -1.8809227
1.0842022e-19 3.101629 -0
2.3846927 -0 -1.903367
0 3.0973661 -0
2.2105632 -0 -1.9200778
-0 3.0980575 2
2.3807855 3.6893488e+19 -1.9410249
2 3.067625 3.6893488e+19
2.1711304 -0 -1.9411092
-2 3.0826533 2
2.3639328 -3.6893488e+19 -1.9700756
0 3.0673478 0
2.1707628 0 -1.9765161
-1.0842022e-19 3.0250583 1.0842022e-19
2.3009222 3.6893488e+19 -1.9629953
-1.0842022e-19 2.854481 -0
2.2264466 -0 -1.9180442
-2 2.7649617 0
2.1061268 -0 -1.8906497
-3.6893488e+19 2.7383118 2
1.9720993 2 -1.8855199
0 2.6728256 -2
2.034153 2 -1.8734708
-3.6893488e+19 2.6544712 1.0842022e-19
1.933966 1.0842022e-19 -1.8723273
2 2.6204984 1.0842022e-19
1.9989876 -0 -1.8637959
1.0842022e-19 2.6002817 1.0842022e-19
1.9093189 0 -1.8589742
-2 2.5748429 2
1.9683056 -0 -1.8528645
2 2.557023 1.0842022e-19
1.8896435 1.0842022e-19 -1.8474424
2 2.5378182 1.0842022e-19
1.9434236 3.6893488e+19 -1.8433027
1.0842022e-19 2.5241876 2
1.8744179 0 -1.8391753
-0 2.5035257 1.0842022e-19
1.920378 -3.6893488e+19 -1.8317661
0 2.4975896 0
1.8513191 -2 -1.8334472
-3.6893488e+19 2.4780929 2
1.7834727 -3.6893488e+19 -1.8314424
-3.6893488e+19 2.4505086 -0
1.871435 0 -1.8270861
1.0842022e-19 2.4368813 -0
1.7698122 2 -1.8260231
1.0842022e-19 2.3671982 -0
1.7434291 3.6893488e+19 -1.8148128
-2 2.3240814 -2
1.7148454 2 -1.8109956
-3.6893488e+19 2.2837782 1.0842022e-19
1.688127 2 -1.8041033
-3.6893488e+19 2.2539289 -0
1.7956489 -2 -1.8017033
1.0842022e-19 2.2149031 3.6893488e+19
1.7812153 1.0842022e-19 -1.8003231
-3.6893488e+19 2.175458 2
1.7679611 0 -1.7979268
-2 2.1404824 1.0842022e-19
1.7562088 2 -1.7952284
1.0842022e-19 3.1814249 1.0842022e-19
2.4719918 -1.0842022e-19 2.64674
-0 3.1800735 -1.0842022e-19
2.4705133 0 2.6327868
3.6893488e+19 3.2057202 2
2.3021135 2 2.6465683
-3.6893488e+19 3.201376 -0
2.493819 -3.6893488e+19 2.6384449
0 3.2135611 0
2.3073115 -2 2.6398327
-3.6893488e+19 3.1950002 0
2.4868438 1.0842022e-19 2.6198831
-3.6893488e+19 3.1224375 3.6893488e+19
2.2438049 1.0842022e-19 2.5523388
-3.6893488e+19 3.1217308 -1.0842022e-19
2.2428679 0 2.5409548
-0 3.2022555 0
2.4947813 2 2.5994523
-1.0842022e-19 3.1226251 -1.0842022e-19
2.2440536 3.6893488e+19 2.5308456
-2 3.1964533 0
2.4884336 -3.6893488e+19 2.5819621
-2 3.2019243 -2
2.4944189 2 2.5728953
-1.0842022e-19 3.1923275 -0
2.5472591 1.0842022e-19 2.5610678
2 3.1980324 -3.6893488e+19
2.4075577 3.6893488e+19 2.5433335
-1.0842022e-19 3.191345 0
2.5465989 -3.6893488e+19 2.5347285
-1.0842022e-19 3.1913667 1.0842022e-19
2.5466135 -3.6893488e+19 2.5219598
-1.0842022e-19 3.1278777 2
2.3437409 -0 2.4080932
-0 3.1298237 -2
2.345511 3.6893488e+19 2.3885102
0 3.204541 -0
2.4134784 -3.6893488e+19 2.4390368
-0 3.1325333 1.0842022e-19
2.2535954 -3.6893488e+19 2.3575263
0 3.1239038 2
2.4090619 1.0842022e-19 2.3408442
1.0842022e-19 3.1290886 -1.0842022e-19
2.2513115 -3.6893488e+19 2.3328204
-0 3.1987002 -3.6893488e+19
2.4908915 -0 2.3834713
1.0842022e-19 3.1315682 1.0842022e-19
2.2529554 0 2.3134036
-1.0842022e-19 3.1958776 -2
2.4878035 2 2.3556962
2 3.1246073 3.6893488e+19
2.2466817 -2 2.2865205
0 3.1235023 0
2.4086227 -2 2.2767465
3.6893488e+19 3.122148 1.0842022e-19
2.2434211 0 2.2636368
1.0842022e-19 3.1504493 -2
2.4381034 -2 2.2739947
-1.0842022e-19 3.1795144 -2
2.2847407 2 2.2800703
-0 3.1528368 -2
2.4407156 1.0842022e-19 2.2528062
3.6893488e+19 3.1270111 0
2.2498689 -0 2.1992154
-3.6893488e+19 3.2362795 -1.0842022e-19
2.5160022 0 2.2776468
-0 3.1305528 0
2.2522824 2 2.1606352
-0 3.1174839 -3.6893488e+19
2.4020383 -3.6893488e+19 2.128077
-3.6893488e+19 3.2697704 -3.6893488e+19
2.6125898 -3.6893488e+19 2.2635288
-0 3.1222491 -3.6893488e+19
2.3386207 2 2.0899584
-1.0842022e-19 3.2694309 -0
2.6121335 1.0842022e-19 2.2152586
3.6893488e+19 3.1204646 -3.6893488e+19
2.3369973 2 2.0466197
-3.6893488e+19 3.2692318 -0
2.611866 2 2.1538575
2 3.2177126 -3.6893488e+19
2.4254601 -0 2.0718722
-3.6893488e+19 3.1107559 2
2.4848807 -2 1.9796929
1.0842022e-19 3.1077459 -3.6893488e+19
2.3254275 1.0842022e-19 1.9559698
-1.0842022e-19 3.1104763 3.6893488e+19
2.4845047 2 1.9386965
1.0842022e-19 3.217201 -1.0842022e-19
2.4249947 -0 1.9664919
-2 3.2700186 -2
2.6129234 -2 1.9715549
1.0842022e-19 3.1027985 -0
2.3209271 1.0842022e-19 1.8726938
2 3.2381997 0
2.5780869 -0 1.8950512
-0 3.1024709 -3.6893488e+19
2.3206291 -3.6893488e+19 1.7933105
1.0842022e-19 3.1190844 2
2.4960744 -1.0842022e-19 1.7608064
2 3.0965064 -1.0842022e-19
2.3152034 2 1.675299
3.6893488e+19 3.0910776 -3.6893488e+19
2.2022254 -3.6893488e+19 1.5663867
2 3.1038315 1.0842022e-19
2.3871024 1.0842022e-19 1.2863102
-0 3.09354 -1.0842022e-19
2.2054904 -0 -1.4797088
-0 3.0984378 2
2.3812015 -2 -1.6370323
3.6893488e+19 3.089695 1.0842022e-19
2.2003925 -0 -1.7088501
-2 3.0986621 0
2.3814471 1.0842022e-19 -1.7720772
-3.6893488e+19 3.0881381 -2
2.1983283 -1.0842022e-19 -1.8046558
-0 3.2511427 0
2.5247579 -3.6893488e+19 -1.9124955
-2 3.0967152 -3.6893488e+19
2.2097003 3.6893488e+19 -1.8809227
1.0842022e-19 3.101629 -0
2.3846927 -0 -1.903367
0 3.0973661 -0
2.2105632 -0 -1.9200778
-0 3.0980575 2
2.3807855 3.6893488e+19 -1.9410249
2 3.067625 3.6893488e+19
2.1711304 -0 -1.9411092
-2 3.0826533 2
2.3639328 -3.6893488e+19 -1.9700756
-1.0842022e-19 3.0252523 -0
2.1149497 -3.6893488e+19 -1.9464693
-1.0842022e-19 3.0250583 1.0842022e-19
2.3009222 3.6893488e+19 -1.9629953
-1.0842022e-19 2.854481 -0
2.2264466 -0 -1.9180442
-2 2.7649617 0
2.1061268 -0 -1.8906497
-3.6893488e+19 2.7383118 2
1.9720993 2 -1.8855199
0 2.6728256 -2
2.034153 2 -1.8734708
-3.6893488e+19 2.6544712 1.0842022e-19
1.933966 1.0842022e-19 -1.8723273
2 2.6204984 1.0842022e-19
1.9989876 -0 -1.8637959
1.0842022e-19 2.6002817 1.0842022e-19
1.9093189 0 -1.8589742
-2 2.5748429 2
1.9683056 -0 -1.8528645
2 2.557023 1.0842022e-19
1.8896435 1.0842022e-19 -1.8474424
2 2.5378182 1.0842022e-19
1.9434236 3.6893488e+19 -1.8433027
1.0842022e-19 2.5241876 2
1.8744179 0 -1.8391753
-0 2.5035257 1.0842022e-19
1.920378 -3.6893488e+19 -1.8317661
0 2.4975896 0
1.8513191 -2 -1.8334472
-3.6893488e+19 2.4780929 2
1.7834727 -3.6893488e+19 -1.8314424
-3.6893488e+19 2.4505086 -0
1.871435 0 -1.8270861
1.0842022e-19 2.4368813 -0
1.7698122 2 -1.8260231
1.0842022e-19 2.3671982 -0
1.7434291 3.6893488e+19 -1.8148128
-2 2.3240814 -2
1.7148454 2 -1.8109956
-3.6893488e+19 2.2837782 1.0842022e-19
1.688127 2 -1.8041033
-3.6893488e+19 2.2539289 -0
1.7956489 -2 -1.8017033
1.0842022e-19 2.2149031 3.6893488e+19
1.7812153 1.0842022e-19 -1.8003231
-3.6893488e+19 2.175458 2
1.7679611 0 -1.7979268
-2 2.1404824 1.0842022e-19
1.7562088 2 -1.7952284
0 3.2192569 1.0842022e-19
2.5019808 2 2.6813865
3.6893488e+19 3.2151728 1.0842022e-19
2.2991498 1.0842022e-19 2.6683593
-3.6893488e+19 3.180217 2
2.4620347 0 2.6327868
0 3.1991642 -1.0842022e-19
2.4823828 3.6893488e+19 2.6364124
-1.0842022e-19 3.2130139 1.0842022e-19
2.2977614 -3.6893488e+19 2.6392944
-3.6893488e+19 3.1944814 0
2.477354 1.0842022e-19 2.6193285
2 3.1225431 2
2.2291603 1.0842022e-19 2.5523636
3.6893488e+19 3.1920707 -1.0842022e-19
2.4747648 -3.6893488e+19 2.6043801
1.0842022e-19 3.2094297 1.0842022e-19
2.2954564 3.6893488e+19 2.6095245
1.0842022e-19 3.2019503 0
2.4853752 -3.6893488e+19 2.5990996
-1.0842022e-19 3.1224551 2
2.2290473 2 2.5306611
1.0842022e-19 3.1966026 1.0842022e-19
2.4796319 -3.6893488e+19 2.5819621
-0 3.1928434 -1.0842022e-19
2.5431199 3.6893488e+19 2.5613027
1.0842022e-19 3.1924253 3.6893488e+19
2.5428431 -2 2.5481422
0 3.1977887 -2
2.3983979 -0 2.5430927
-2 3.1906433 -2
2.5416636 -1.0842022e-19 2.5341592
-1.0842022e-19 3.2012622 3.6893488e+19
2.4014885 3.6893488e+19 2.5323865
2 3.1915481 3.6893488e+19
2.5422626 -3.6893488e+19 2.5219598
0 3.2160523 -0
2.4146471 -0 2.5015893
-0 3.1425645 -3.6893488e+19
2.50984 -0 2.4156797
-1.0842022e-19 3.1997464 -1.0842022e-19
2.4001398 2 2.4599047
1.0842022e-19 3.1315274 -1.0842022e-19
2.2407157 -1.0842022e-19 2.3565145
0 3.2360556 1.0842022e-19
2.5110013 2 2.4429319
-1.0842022e-19 3.2262087 -2
2.3062468 1.0842022e-19 2.4180031
-0 3.2350402 3.6893488e+19
2.5104561 1.0842022e-19 2.4143901
-2 3.2257545 -2
2.3059547 -1.0842022e-19 2.3906856
3.6893488e+19 3.212054 -0
2.4962261 0 2.3684778
-3.6893488e+19 3.191011 0
2.2836115 1.0842022e-19 2.3372421
-0 3.1771696 -0
2.4587617 -2 2.3164058
2 3.1858633 -1.0842022e-19
2.2803009 1.0842022e-19 2.3087118
0 3.1727417 -0
2.4540062 -2 2.289151
-1.0842022e-19 3.1798491 -2
2.2764332 3.6893488e+19 2.2802322
-1.0842022e-19 3.1718075 3.6893488e+19
2.4530032 2 2.2646232
-2 3.1218059 0
2.2282124 0 2.1929245
-3.6893488e+19 3.119875 2
2.3972299 0 2.1722276
3.6893488e+19 3.1800456 -0
2.2765596 2 2.2139471
-0 3.1064792 -0
2.3828433 -2 2.1166327
1.0842022e-19 3.2026029 -2
2.4026811 1.0842022e-19 2.1632273
2 3.2361441 -3.6893488e+19
2.5717807 1.0842022e-19 2.1144669
0 3.284965 -1.0842022e-19
2.627239 0 2.1127248
0 3.1083727 1.0842022e-19
2.3188446 -3.6893488e+19 1.9562734
2 3.1113024 -2
2.4782951 -3.6893488e+19 1.9390512
1.0842022e-19 3.1078634 -2
2.3183913 -3.6893488e+19 1.915781
-2 3.1823249 3.6893488e+19
2.38464 1.0842022e-19 1.901722
-3.6893488e+19 3.2380919 0
2.5730703 -0 1.8949597
-1.0842022e-19 3.203156 2
2.4031734 2 1.8413295
1.0842022e-19 3.1140568 -1.0842022e-19
2.4819415 -3.6893488e+19 1.7589015
-0 3.0975029 1.0842022e-19
2.3091738 3.6893488e+19 1.6757545
-3.6893488e+19 3.0893083 -0
2.1864142 -3.6893488e+19 1.5653557
-2 3.1032991 3.6893488e+19
2.3794281 -0 1.2860137
3.6893488e+19 3.2476118 -3.6893488e+19
2.3200109 2 -1.5413312
-2 3.0984921 2
2.3742657 -0 -1.637008
-0 3.2449119 -0
2.3182747 0 -1.7771095
-3.6893488e+19 3.2290673 2
2.5072489 -3.6893488e+19 -1.8270189
-2 3.0889225 1.0842022e-19
2.1859181 -2 -1.8050363
0 3.2515829 3.6893488e+19
2.520189 1.0842022e-19 -1.9127259
-2 3.0962555 -0
2.1953497 -2 -1.8807228
-2 3.0975666 1.0842022e-19
2.3732717 -3.6893488e+19 -1.9015446
0 3.1691711 1.0842022e-19
2.2695663 -3.6893488e+19 -1.9551938
2 3.2114666 0
2.4955952 -0 -2.0031826
2 3.1670485 -2
2.2682011 1.0842022e-19 -2.00088
-1.0842022e-19 3.0768228 2
2.3509936 3.6893488e+19 -1.9661461
3.6893488e+19 3.068594 2
2.1597717 0 -1.97736
-3.6893488e+19 3.0768452 -0
2.3510177 -1.0842022e-19 -2.0030127
3.6893488e+19 2.7786715 -1.0842022e-19
1.9979343 1.0842022e-19 -1.8714813
2 2.8538265 3.6893488e+19
2.2183986 -0 -1.917665
0 2.7780001 1.0842022e-19
1.997337 1.0842022e-19 -1.8885978
-2 2.7637169 -0
2.0991108 3.6893488e+19 -1.8899314
2 2.7315066 1.0842022e-19
1.9641985 -0 -1.8835942
-1.0842022e-19 2.6731222 -3.6893488e+19
2.0300663 2 -1.873543
-0 2.6529729 2
1.9292628 -3.6893488e+19 -1.8713428
3.6893488e+19 2.6197901 -0
1.9947656 -2 -1.8632414
0 2.5998836 3.6893488e+19
1.9056458 -3.6893488e+19 -1.8586434
2 2.5759594 -1.0842022e-19
1.9657539 -2 -1.8535537
-0 2.5603251 -1.0842022e-19
1.8880483 1.0842022e-19 -1.8497726
2 2.5360947 2
1.9393673 -2 -1.8419063
-2 2.5242634 -3.6893488e+19
1.8690125 0 -1.8391753
-2 2.5049796 -3.6893488e+19
1.9187721 2 -1.8328665
-0 2.4964917 -3.6893488e+19
1.8458645 -1.0842022e-19 -1.8329297
2 2.4769504 2
1.7783619 -0 -1.8309076
0 2.4506593 3.6893488e+19
1.8669943 0 -1.8270861
0 3.2192569 1.0842022e-19
2.5019808 2 2.6813865
3.6893488e+19 3.2151728 1.0842022e-19
2.2991498 1.0842022e-19 2.6683593
-3.6893488e+19 3.180217 2
2.4620347 0 2.6327868
0 3.1991642 -1.0842022e-19
2.4823828 3.6893488e+19 2.6364124
-1.0842022e-19 3.2130139 1.0842022e-19
2.2977614 -3.6893488e+19 2.6392944
-3.6893488e+19 3.1944814 0
2.477354 1.0842022e-19 2.6193285
2 3.1225431 2
2.2291603 1.0842022e-19 2.5523636
3.6893488e+19 3.1920707 -1.0842022e-19
2.4747648 -3.6893488e+19 2.6043801
2 3.1215 1.0842022e-19
2.2278187 -1.0842022e-19 2.5407155
1.0842022e-19 3.2019503 0
2.4853752 -3.6893488e+19 2.5990996
-1.0842022e-19 3.1224551 2
2.2290473 2 2.5306611
1.0842022e-19 3.1966026 1.0842022e-19
2.4796319 -3.6893488e+19 2.5819621
-0 3.1928434 -1.0842022e-19
2.5431199 3.6893488e+19 2.5613027
1.0842022e-19 3.1924253 3.6893488e+19
2.5428431 -2 2.5481422
0 3.1977887 -2
2.3983979 -0 2.5430927
-2 3.1906433 -2
2.5416636 -1.0842022e-19 2.5341592
-1.0842022e-19 3.2012622 3.6893488e+19
2.4014885 3.6893488e+19 2.5323865
2 3.1915481 3.6893488e+19
2.5422626 -3.6893488e+19 2.5219598
0 3.2160523 -0
2.4146471 -0 2.5015893
-0 3.1425645 -3.6893488e+19
2.50984 -0 2.4156797
-1.0842022e-19 3.1997464 -1.0842022e-19
2.4001398 2 2.4599047
1.0842022e-19 3.1315274 -1.0842022e-19
2.2407157 -1.0842022e-19 2.3565145
-1.0842022e-19 3.1211662 -1.0842022e-19
2.3986166 1.0842022e-19 2.3382359
2 3.132571 3.6893488e+19
2.242058 0 2.3358104
1.0842022e-19 3.1244986 -2
2.4021952 -1.0842022e-19 2.3199496
-2 3.2257545 -2
2.3059547 -1.0842022e-19 2.3906856
-1.0842022e-19 3.1239336 0
2.4015887 3.6893488e+19 2.2982037
-3.6893488e+19 3.191011 0
2.2836115 1.0842022e-19 2.3372421
3.6893488e+19 3.1260326 -3.6893488e+19
2.4038427 -1.0842022e-19 2.2785285
-3.6893488e+19 3.1249223 0
2.2322206 -0 2.2655487
0 3.1727417 -0
2.4540062 -2 2.289151
2 3.1219151 -0
2.2283525 -1.0842022e-19 2.2349262
-1.0842022e-19 3.1718075 3.6893488e+19
2.4530032 2 2.2646232
-2 3.1218059 0
2.2282124 0 2.1929245
-3.6893488e+19 3.119875 2
2.3972299 0 2.1722276
3.6893488e+19 3.1800456 -0
2.2765596 2 2.2139471
-0 3.1064792 -0
2.3828433 -2 2.1166327
-3.6893488e+19 3.1232824 1.0842022e-19
2.3321099 -1.0842022e-19 2.0908077
-3.6893488e+19 3.111351 -1.0842022e-19
2.4783597 -0 2.0209084
2 3.1127219 -1.0842022e-19
2.4801743 -1.0842022e-19 1.9808497
0 3.1083727 1.0842022e-19
2.3188446 -3.6893488e+19 1.9562734
2 3.1113024 -2
2.4782951 -3.6893488e+19 1.9390512
1.0842022e-19 3.1078634 -2
2.3183913 -3.6893488e+19 1.915781
2 3.1066844 2
2.3173425 3.6893488e+19 1.8751763
3.6893488e+19 3.1047406 0
2.4696088 -2 1.8357106
-1.0842022e-19 3.0959227 2
2.3077679 2 1.790138
1.0842022e-19 3.1140568 -1.0842022e-19
2.4819415 -3.6893488e+19 1.7589015
-0 3.0975029 1.0842022e-19
2.3091738 3.6893488e+19 1.6757545
-3.6893488e+19 3.0893083 -0
2.1864142 -3.6893488e+19 1.5653557
-2 3.1032991 3.6893488e+19
2.3794281 -0 1.2860137
3.6893488e+19 3.0953846 -0
2.1942294 -0 -1.4808958
-2 3.0984921 2
2.3742657 -0 -1.637008
1.0842022e-19 3.0955257 -1.0842022e-19
2.1944108 -2 -1.7123922
-3.6893488e+19 3.0991812 1.0842022e-19
2.3750057 3.6893488e+19 -1.772247
-2 3.0889225 1.0842022e-19
2.1859181 -2 -1.8050363
0 3.0931337 2
2.3685107 -2 -1.8469417
-2 3.0962555 -0
2.1953497 -2 -1.8807228
-2 3.0975666 1.0842022e-19
2.3732717 -3.6893488e+19 -1.9015446
-1.0842022e-19 3.1057489 -1.0842022e-19
2.2075598 -0 -1.9241472
2 3.2114666 0
2.4955952 -0 -2.0031826
3.6893488e+19 3.0678134 2
2.1587677 -2 -1.941184
-1.0842022e-19 3.0768228 2
2.3509936 3.6893488e+19 -1.9661461
1.0842022e-19 3.02509 -1.0842022e-19
2.1038172 -3.6893488e+19 -1.9463139
-3.6893488e+19 3.0768452 -0
2.3510177 -1.0842022e-19 -2.0030127
3.6893488e+19 2.7786715 -1.0842022e-19
1.9979343 1.0842022e-19 -1.8714813
2 2.8538265 3.6893488e+19
2.2183986 -0 -1.917665
0 2.7780001 1.0842022e-19
1.997337 1.0842022e-19 -1.8885978
-2 2.7637169 -0
2.0991108 3.6893488e+19 -1.8899314
2 2.7315066 1.0842022e-19
1.9641985 -0 -1.8835942
-1.0842022e-19 2.6731222 -3.6893488e+19
2.0300663 2 -1.873543
-0 2.6529729 2
1.9292628 -3.6893488e+19 -1.8713428
3.6893488e+19 2.6197901 -0
1.9947656 -2 -1.8632414
0 2.5998836 3.6893488e+19
1.9056458 -3.6893488e+19 -1.8586434
2 2.5759594 -1.0842022e-19
1.9657539 -2 -1.8535537
-0 2.5603251 -1.0842022e-19
1.8880483 1.0842022e-19 -1.8497726
2 2.5360947 2
1.9393673 -2 -1.8419063
-2 2.5242634 -3.6893488e+19
1.8690125 0 -1.8391753
-2 2.5049796 -3.6893488e+19
1.9187721 2 -1.8328665
-0 2.4964917 -3.6893488e+19
1.8458645 -1.0842022e-19 -1.8329297
2 2.4769504 2
1.7783619 -0 -1.8309076
0 2.4506593 3.6893488e+19
1.8669943 0 -1.8270861
3.6893488e+19 3.2203567 3.6893488e+19
2.4951124 -3.6893488e+19 2.6822469
-2 3.1811233 -2
2.453814 -2 2.6334593
-1.0842022e-19 3.1945326 0
2.4679294 -1.0842022e-19 2.6322949
0 3.1961234 -0
2.4696035 -1.0842022e-19 2.6205635
-1.0842022e-19 3.1933794 2
2.4667153 3.6893488e+19 2.6053057
1.0842022e-19 3.2096167 -0
2.2858851 -0 2.6095963
-0 3.1990037 -2
2.4726355 3.6893488e+19 2.5967031
3.6893488e+19 3.1233897 1.0842022e-19
2.2145028 -0 2.531307
-0 3.1941071 -3.6893488e+19
2.4674811 1.0842022e-19 2.5799925
-2 3.1250651 2
2.2165871 2 2.5217245
1.0842022e-19 3.1940064 3.6893488e+19
2.5391123 -0 2.561986
-1.0842022e-19 3.1939237 -3.6893488e+19
2.5390584 1.0842022e-19 2.5490236
-1.0842022e-19 3.1896448 -2
2.5362723 -1.0842022e-19 2.5333934
1.0842022e-19 3.2167416 0
2.4053619 -1.0842022e-19 2.5419888
1.0842022e-19 3.191555 3.6893488e+19
2.5375161 3.6893488e+19 2.5218472
3.6893488e+19 3.2190492 3.6893488e+19
2.407366 -0 2.5299716
2 3.1375997 1.0842022e-19
2.5023835 2 2.4325385
0 3.1396139 -3.6893488e+19
2.5036948 3.6893488e+19 2.4123778
0 3.1987665 -0
2.3897505 -3.6893488e+19 2.4587703
-2 3.2550678 -3.6893488e+19
2.4430494 -3.6893488e+19 2.4924574
3.6893488e+19 3.2284393 0
2.2975931 -3.6893488e+19 2.4469802
3.6893488e+19 3.2019277 0
2.4757135 1.0842022e-19 2.4116886
1.0842022e-19 3.2266481 -2
2.2964787 1.0842022e-19 2.4183021
-2 3.205076 -0
2.4790275 0 2.3886552
0 3.2265041 -3.6893488e+19
2.2963891 0 2.3912201
2 3.2144349 0
2.488879 -3.6893488e+19 2.3702474
2 3.1908543 -2
2.2742147 3.6893488e+19 2.3370523
-2 3.1257932 -0
2.3955719 -3.6893488e+19 2.2782543
3.6893488e+19 3.1885605 3.6893488e+19
2.272788 1.0842022e-19 2.3105578
0 3.1724257 1.0842022e-19
2.4446588 -1.0842022e-19 2.2888343
0 3.1719854 -3.6893488e+19
2.444195 -0 2.2646425
-0 3.12499 1.0842022e-19
2.2164936 3.6893488e+19 2.196625
-2 3.1166351 -2
2.3859317 3.6893488e+19 2.1683834
0 3.187429 0
2.4604516 2 2.1997316
-1.0842022e-19 3.2409184 -3.6893488e+19
2.5696588 3.6893488e+19 2.2291572
-1.0842022e-19 3.2040048 -2
2.3943 -2 2.1643879
1.0842022e-19 3.2441618 -2
2.5717707 0 2.1763055
0 3.2450387 -2
2.4299376 -0 2.1461384
3.6893488e+19 3.2348125 -3.6893488e+19
2.5656829 -3.6893488e+19 2.1133122
-0 3.1658311 -0
2.3611465 2 2.0360067
-0 3.2360048 3.6893488e+19
2.5664594 -2 2.0591786
0 3.2932603 -1.0842022e-19
2.5046945 2 2.0874946
-3.6893488e+19 3.1114576 -1.0842022e-19
2.4707224 -3.6893488e+19 1.9390512
0 3.292876 -0
2.5043607 3.6893488e+19 2.0212729
-0 3.1119311 -0
2.471339 -0 1.8983605
-0 3.1845615 2
2.3774137 2 1.902463
2 3.242311 0
2.5705657 2 1.8961499
-3.6893488e+19 3.0947175 -1.0842022e-19
2.2993848 -3.6893488e+19 1.7895153
-3.6893488e+19 3.23314 -0
2.564594 -2 1.8026245
-3.6893488e+19 3.1186349 2
2.3201571 3.6893488e+19 1.6863887
0 3.0968561 1.0842022e-19
2.1814945 -3.6893488e+19 1.5695497
-0 3.1049094 1.0842022e-19
2.373589 1.0842022e-19 1.2866913
3.6893488e+19 3.099226 1.0842022e-19
2.1844428 2 -1.4834155
2 3.1001008 2
2.3685272 2 -1.6375924
1.0842022e-19 3.2451391 -2
2.3079803 1.0842022e-19 -1.7771478
-3.6893488e+19 3.2264149 1.0842022e-19
2.5007448 -1.0842022e-19 -1.8258305
-3.6893488e+19 3.0916717 1.0842022e-19
2.1750453 1.0842022e-19 -1.8064592
1.0842022e-19 3.0911467 -1.0842022e-19
2.3591018 -2 -1.8455797
0 3.2674935 3.6893488e+19
2.3327661 -2 -1.9519331
0 3.0899758 0
2.3578694 -2 -1.8981832
-0 3.1702855 0
2.261421 0 -1.9556968
-2 3.2086854 3.6893488e+19
2.4828269 -0 -2.0015693
-0 3.1671348 1.0842022e-19
2.2594612 1.0842022e-19 -2.00088
2 3.0762556 3.6893488e+19
2.3434269 2 -1.9656959
2 3.0680375 2
2.1456437 1.0842022e-19 -1.9769158
-2 3.0762472 0
2.3434184 3.6893488e+19 -2.0024619
0 2.7788138 0
1.9921479 -0 -1.8715361
2 2.8518848 -1.0842022e-19
2.2082558 1.0842022e-19 -1.9166733
-3.6893488e+19 2.778266 -3.6893488e+19
1.9916722 -3.6893488e+19 -1.8886905
2 2.7640767 3.6893488e+19
2.0939043 -3.6893488e+19 -1.890062
-0 2.732389 -0
1.9594758 2 -1.8838005
-3.6893488e+19 2.6704738 0
2.0237894 3.6893488e+19 -1.8718812
1.0842022e-19 2.6520977 1.0842022e-19
1.9246095 -2 -1.870737
0 2.6201952 -2
